-14.1566 -12.7914 -0.946324 145 125 83
-30.5147 -10.7628 -1.51003 132 124 135
-30.6172 -10.6915 -1.51396 133 125 137
-30.6682 -10.5481 -1.51407 132 126 135
-30.7589 -10.4719 -1.51736 149 137 147
-30.8532 -10.3965 -1.52086 122 107 108
-30.9956 -10.2827 -1.52618 104 90 89
-31.0895 -10.2061 -1.52969 135 127 134
-40.342 -6.21263 -1.76405 135 132 137
-41.364 -6.23809 -1.81322 133 129 131
-42.4259 -6.19493 -1.86385 136 131 130
-7.01158 -12.9921 -0.682689 96 83 36
-7.07842 -13.022 -0.686225 113 98 64
-7.13435 -13.0304 -0.6883 115 105 47
-7.20712 -13.0206 -0.689891 129 118 66
-7.26516 -13.0321 -0.692209 130 106 75
-7.31955 -13.0362 -0.69404 129 104 71
-7.37212 -13.0367 -0.695627 126 95 64
-7.44235 -13.0204 -0.696853 110 92 56
-7.49795 -13.0256 -0.698806 131 111 70
-8.06046 -13.2513 -0.72807 158 118 78
-8.35757 -13.5143 -0.751221 155 113 66
-8.46054 -13.3545 -0.746244 146 104 67
-8.41878 -13.1946 -0.736627 168 130 92
-8.70512 -13.563 -0.765008 153 118 76
-8.68185 -13.2036 -0.745781 129 100 61
-9.02246 -13.3224 -0.763339 96 70 37
-9.16829 -13.4069 -0.772603 142 117 56
-9.23954 -13.4235 -0.775895 176 149 86
-10.3771 -13.6935 -0.829918 136 92 59
-10.6871 -13.7954 -0.846378 185 140 105
-11.2241 -14.1804 -0.88513 213 186 165
-11.1168 -13.643 -0.855423 163 146 134
-14.5451 -13.0655 -0.975206 84 66 43
-14.61 -13.0016 -0.975575 103 82 61
-14.825 -13.1132 -0.989955 114 98 73
-14.8162 -13.0233 -0.985935 112 94 66
-14.7241 -12.8196 -0.973508 124 106 73
-14.7784 -12.7869 -0.974728 117 100 67
-14.7561 -12.6872 -0.969732 116 100 66
-14.8824 -12.717 -0.9768 121 104 77
-15.088 -12.7733 -0.988624 121 95 70
-15.0847 -12.6902 -0.985212 141 116 83
-15.1647 -12.678 -0.988503 122 102 61
-15.9067 -12.6057 -1.02105 126 107 65
-15.8924 -12.5139 -1.01691 124 107 66
-15.976 -12.5002 -1.02044 116 102 58
-31.5352 -9.70058 -1.54435 127 123 137
-31.6391 -9.62431 -1.54849 126 124 135
-31.7332 -9.5446 -1.5521 125 123 133
-31.833 -9.4661 -1.55603 129 126 135
-31.9338 -9.33307 -1.55922 132 126 138
-32.0388 -9.25503 -1.56347 105 101 114
-32.1762 -9.18573 -1.56953 148 145 144
-28.5593 -7.48126 -1.35959 155 145 143
-43.0108 -6.14296 -1.89157 131 127 125
-43.0468 -6.01028 -1.89243 123 121 119
-43.0844 -5.87769 -1.89338 117 116 119
-43.2155 -5.68844 -1.89849 112 112 118
-7.01354 -13.3486 -0.702032 121 88 59
-6.99316 -13.2064 -0.693757 138 103 76
-6.98834 -13.0965 -0.687674 138 114 79
-9.27538 -14.23 -0.818122 175 136 92
-9.57665 -14.357 -0.834704 133 127 61
-11.172 -14.529 -0.899973 148 108 73
-11.2337 -14.4234 -0.897179 170 127 93
-16.4638 -12.8041 -1.05542 116 106 53
-16.8123 -12.9525 -1.07784 105 104 43
-16.8646 -12.9098 -1.07882 110 108 51
-16.8031 -12.7794 -1.07102 113 109 51
-16.8876 -12.7201 -1.07297 118 117 45
-16.9139 -12.6578 -1.07199 121 118 44
-16.9447 -12.5991 -1.07138 116 116 51
-16.8799 -12.4281 -1.062 106 97 59
-17.5203 -12.821 -1.10782 111 113 60
-17.5018 -12.7239 -1.10344 109 116 57
-17.2174 -12.4331 -1.07894 103 112 46
-17.4573 -12.4843 -1.09271 114 117 49
-17.4875 -12.424 -1.0921 129 120 63
-17.9538 -12.675 -1.12427 115 104 56
-17.8675 -12.4885 -1.11343 113 103 64
-13.3364 -7.70881 -0.783337 112 111 46
-13.3164 -7.6423 -0.780093 106 103 43
-13.367 -7.58875 -0.781258 110 100 53
-32.3009 -9.05743 -1.5741 133 123 127
-32.6156 -8.76133 -1.58621 120 112 112
-32.6672 -8.66564 -1.58758 155 147 146
-32.8294 -8.32464 -1.59149 133 127 128
-32.9243 -8.23904 -1.59532 125 120 125
-5.9605 -13.0792 -0.659322 178 112 94
-6.22719 -13.1862 -0.672007 175 115 91
-6.27859 -13.191 -0.673595 162 118 89
-6.35917 -13.2041 -0.676403 141 98 61
-9.16903 -14.7634 -0.8422 178 129 88
-9.66917 -14.9533 -0.868296 146 113 75
-10.0979 -15.0566 -0.887934 131 104 67
-10.3625 -14.8481 -0.886504 143 118 65
-10.3846 -14.7816 -0.88395 121 107 22
-8.35289 -6.80844 -0.559839 134 111 70
-8.36577 -6.77632 -0.559115 134 108 75
-8.3724 -6.7391 -0.557812 127 102 69
-8.43566 -6.72683 -0.560849 119 97 66
-8.46058 -6.70457 -0.561282 120 101 69
-18.1113 -12.5769 -1.12878 102 95 52
-18.4098 -12.7015 -1.14816 99 99 51
-18.4127 -12.5768 -1.14402 110 99 60
-18.5335 -12.5756 -1.15011 122 107 66
-18.4188 -12.4134 -1.13877 116 104 59
-18.4502 -12.3514 -1.13829 113 105 55
-18.5205 -12.2738 -1.13926 111 105 48
-18.7008 -12.3108 -1.14974 110 102 50
-18.8449 -12.3226 -1.15754 121 114 53
-18.9719 -12.28 -1.16266 120 111 56
-19.1432 -12.3075 -1.17241 104 96 54
-19.206 -12.2639 -1.17423 117 101 76
-19.3298 -12.2166 -1.17911 134 109 97
-19.6163 -12.314 -1.19714 152 117 94
-18.3993 -7.537 -0.99831 132 120 127
-18.3876 -7.43172 -0.995259 131 120 128
-18.4432 -7.38755 -0.997447 132 121 129
-33.6309 -8.30387 -1.63277 133 127 137
-34.2796 -8.29314 -1.66629 128 127 135
-34.1747 -8.15455 -1.65915 134 126 137
-34.1565 -8.03726 -1.6568 77 66 73
-34.1698 -7.87105 -1.65551 114 112 117
-33.4503 -7.5953 -1.61485 132 132 137
-33.4576 -7.48682 -1.61399 135 132 138
-5.85402 -13.3406 -0.671349 201 120 99
-5.8735 -13.2715 -0.667946 198 118 102
-5.93549 -13.3033 -0.671238 189 112 94
-6.25689 -13.6455 -0.698283 167 104 87
-6.32719 -13.6904 -0.70255 167 105 86
-6.34776 -13.5652 -0.696107 180 118 95
-6.75945 -13.9586 -0.728517 172 127 87
-6.7154 -13.7521 -0.715982 165 122 85
-6.87076 -13.8035 -0.722936 146 106 79
-6.98432 -13.9299 -0.732925 161 117 81
-8.81419 -15.116 -0.849578 137 119 70
-11.3656 -12.2893 -0.868072 171 120 77
-11.4198 -12.2334 -0.867818 182 133 87
-19.6793 -12.2686 -1.19897 163 126 97
-19.8154 -12.2258 -1.2047 146 119 66
-19.9444 -12.2204 -1.21128 131 112 46
-20.048 -12.1987 -1.21603 129 119 41
-20.2894 -12.2604 -1.23065 124 126 50
-20.4484 -12.2269 -1.23796 110 115 49
-20.667 -12.2714 -1.25088 113 111 44
-20.7302 -12.2221 -1.2527 120 118 44
-20.8622 -12.1692 -1.25807 123 120 45
-34.1581 -7.53105 -1.65101 135 133 134
-34.167 -7.36473 -1.64962 140 137 144
-34.1638 -7.2521 -1.64823 135 132 142
-34.168 -7.14118 -1.64726 136 132 141
-34.2023 -6.98066 -1.64736 140 135 146
-34.2174 -6.87212 -1.64703 141 137 144
-34.3378 -6.78436 -1.65244 142 137 142
-5.53816 -13.3954 -0.667048 109 87 71
-5.78876 -13.3594 -0.670853 194 129 106
-7.10918 -14.4168 -0.762987 160 114 80
-7.41276 -14.6433 -0.783584 109 75 45
-7.44566 -14.5957 -0.781886 146 111 85
-7.50576 -14.6034 -0.783962 140 104 77
-7.59006 -14.659 -0.789325 84 55 30
-9.35492 -15.6707 -0.895509 181 137 90
-9.24731 -12.7778 -0.805113 133 90 57
-9.34235 -12.8271 -0.811334 144 97 63
-9.40416 -12.7871 -0.8116 164 114 79
-9.49516 -12.829 -0.817303 190 136 98
-9.46967 -12.7113 -0.810182 189 138 99
-9.54641 -12.6915 -0.812131 172 124 89
-9.60329 -12.686 -0.814078 178 132 97
-9.79914 -12.8653 -0.831051 148 109 77
-9.8154 -12.7627 -0.826394 163 114 83
-10.0529 -12.9091 -0.84337 149 115 83
-10.3347 -12.9817 -0.85841 226 193 162
-10.3944 -12.9748 -0.860486 236 206 176
-10.5878 -12.9285 -0.866069 197 181 158
-10.6975 -12.8587 -0.867115 144 107 80
-10.6632 -12.7364 -0.859604 171 131 96
-10.7023 -12.7035 -0.859607 151 113 62
-10.8061 -12.7072 -0.864147 145 106 57
-10.9109 -12.7514 -0.870757 177 137 83
-11.0871 -12.8785 -0.884492 175 133 83
-10.8269 -12.4549 -0.852627 169 119 70
-11.1432 -12.7427 -0.880225 188 130 82
-11.2858 -12.827 -0.890463 193 133 89
-11.3676 -12.7999 -0.892671 182 120 83
-11.2761 -12.6168 -0.879847 184 121 86
-11.2883 -12.5521 -0.877259 170 116 82
-11.3558 -12.51 -0.878171 144 97 65
-11.4022 -12.4836 -0.878951 163 106 75
-11.4728 -12.4837 -0.882062 195 138 100
-12.0417 -12.8259 -0.923532 179 132 89
-12.1574 -12.8701 -0.93079 167 121 82
-12.2445 -12.8424 -0.933387 158 118 69
-12.2496 -12.7683 -0.93015 169 132 79
-12.3288 -12.7721 -0.933909 163 127 82
-12.4254 -12.7533 -0.937413 136 103 67
-12.3742 -12.6218 -0.928993 126 89 59
-12.5552 -12.7288 -0.942211 149 114 86
-12.6727 -12.7694 -0.949468 152 122 97
-12.7783 -12.757 -0.953749 130 103 81
-12.9499 -12.7702 -0.962304 107 89 73
-13.0375 -12.7378 -0.964901 120 103 88
-12.9896 -12.6122 -0.956998 136 123 122
-13.1308 -12.4758 -0.957524 252 244 209
-13.6147 -12.3868 -0.976715 110 92 64
-21.5756 -12.186 -1.29657 112 99 55
-21.7308 -12.1851 -1.30485 95 90 46
-21.8236 -12.1483 -1.30875 108 93 54
-22.0486 -12.1395 -1.32057 121 98 78
-22.2585 -12.1657 -1.33263 104 83 61
-22.4006 -12.1533 -1.33994 111 84 61
-34.5135 -6.65051 -1.66031 137 132 138
-34.6118 -6.55696 -1.66455 133 128 135
-34.7235 -6.46541 -1.66955 131 126 132
-34.8195 -6.31392 -1.67315 134 133 138
-34.9012 -6.21574 -1.67655 135 133 138
-5.60185 -13.8738 -0.695638 131 112 56
-5.71558 -13.9749 -0.703924 99 84 61
-6.45014 -14.3273 -0.741124 181 117 95
-9.51552 -16.2372 -0.930322 140 119 67
-9.51804 -16.125 -0.924483 167 136 84
-7.55428 -12.7567 -0.743722 172 134 88
-9.97792 -16.3899 -0.952765 163 118 76
-7.95724 -12.8943 -0.764859 146 99 54
-10.6566 -17.1062 -1.01173 183 130 86
-8.82899 -13.158 -0.809857 127 100 72
-8.92901 -13.2206 -0.816855 128 102 64
-8.97035 -13.1495 -0.814531 139 109 69
-9.06545 -13.2029 -0.820882 125 94 54
-9.09483 -13.1585 -0.819591 131 98 70
-9.16377 -13.1279 -0.820505 154 118 64
-9.09412 -12.9406 -0.807944 179 152 79
-9.08604 -12.8439 -0.802508 144 107 61
-9.428 -13.1171 -0.829849 174 130 94
-10.0833 -13.032 -0.85088 164 122 93
-10.2634 -13.0989 -0.861509 147 126 107
-10.3892 -13.1346 -0.868381 221 189 172
-10.6342 -13.0683 -0.875005 133 116 108
-11.2106 -13.5681 -0.923854 111 86 59
-12.9148 -12.8146 -0.962691 131 103 83
-13.2687 -12.8054 -0.978768 168 158 159
-13.4128 -12.8251 -0.986418 201 180 165
-13.532 -12.78 -0.990049 253 255 208
-13.7233 -12.8413 -1.00185 229 214 167
-13.872 -12.9008 -1.01157 95 84 51
-13.9862 -12.9269 -1.01817 119 106 79
-13.7915 -12.6668 -0.997444 108 99 60
-13.9213 -12.5888 -1.0003 141 117 78
-13.9688 -12.5535 -1.00108 174 156 108
-14.0047 -12.4682 -0.999139 111 94 66
-14.7017 -13.0108 -1.05641 113 96 68
-14.6684 -12.9003 -1.05007 111 94 62
-14.7552 -12.8554 -1.0524 112 96 60
-14.7586 -12.778 -1.04929 124 105 73
-14.7571 -12.6968 -1.0458 125 107 70
-14.7991 -12.6534 -1.04606 121 106 63
-14.8911 -12.6126 -1.04891 130 104 75
-15.1218 -12.7286 -1.06524 128 99 75
-15.1746 -12.693 -1.06641 124 98 70
-15.5999 -12.4045 -1.07613 130 103 73
-22.5828 -12.1163 -1.34872 139 110 96
-22.7796 -12.1313 -1.3598 151 124 113
-22.9784 -12.1461 -1.37101 160 138 128
-23.1808 -12.1151 -1.38113 172 151 138
-23.359 -12.1163 -1.39087 176 153 139
-23.5641 -12.1302 -1.40245 175 152 137
-23.7831 -12.103 -1.41366 161 141 130
-23.9958 -12.1179 -1.42572 161 142 128
-35.468 -6.20177 -1.70623 137 135 140
-36.2592 -6.22265 -1.74804 135 133 136
-37.0902 -6.18535 -1.79145 128 126 125
-5.92952 -14.2629 -0.725117 114 87 69
-6.11557 -14.6004 -0.748495 167 130 108
-6.14693 -14.4822 -0.74254 129 80 65
-6.20299 -14.4913 -0.744372 173 122 103
-7.13404 -12.9369 -0.740437 135 108 64
-7.35111 -13.0494 -0.753659 133 93 64
-7.38742 -12.9722 -0.75043 136 109 80
-7.47602 -13.0365 -0.756909 118 87 58
-7.53666 -13.0502 -0.759634 133 97 71
-7.51618 -12.8735 -0.749023 131 108 64
-7.90869 -13.1332 -0.776498 170 119 75
-8.28442 -13.25 -0.795691 174 120 76
-8.48347 -13.4338 -0.812665 174 130 90
-8.30631 -13.0576 -0.78586 152 113 79
-8.57362 -13.2562 -0.806076 148 112 75
-8.6337 -13.2601 -0.808412 168 126 84
-8.69282 -13.2621 -0.810618 171 127 87
-8.71518 -13.2069 -0.80842 156 119 79
-8.90098 -13.3569 -0.823193 98 65 31
-11.1043 -13.74 -0.928115 119 106 79
-15.8984 -12.5221 -1.09609 115 94 66
-15.9446 -12.4786 -1.09674 120 106 63
-15.8933 -12.3589 -1.08935 113 109 52
-16.623 -12.8043 -1.14456 114 109 48
-16.6322 -12.7294 -1.1421 120 111 57
-16.5666 -12.5976 -1.13355 120 106 57
-16.8128 -12.6619 -1.14884 112 104 39
-16.5947 -12.4166 -1.12798 119 110 48
-16.692 -12.4089 -1.13277 112 104 50
-16.7703 -12.3462 -1.13446 128 118 76
-17.1139 -12.5181 -1.15908 114 111 63
-17.1249 -12.4446 -1.15688 112 117 57
-17.1808 -12.404 -1.1583 110 119 52
-17.2107 -12.3038 -1.1561 120 122 49
-17.3183 -12.2998 -1.16167 121 111 49
-24.2107 -12.1325 -1.4379 155 134 121
-24.417 -12.1413 -1.44948 155 134 121
-24.6354 -12.1069 -1.46057 143 124 118
-24.8226 -12.1034 -1.4708 141 124 119
-24.9438 -12.0666 -1.47652 136 119 112
-24.994 -11.9467 -1.47615 131 116 109
-25.1114 -11.907 -1.48163 124 109 102
-25.1243 -11.8172 -1.48004 125 107 103
-25.2022 -11.7099 -1.48163 133 118 112
-25.2814 -11.651 -1.48455 143 125 125
-25.3658 -11.5943 -1.48783 146 127 130
-37.9257 -6.2021 -1.83561 127 123 120
-38.6848 -6.20138 -1.87561 124 118 120
-38.8093 -6.03407 -1.88081 121 116 118
-38.8529 -5.91606 -1.88218 119 116 120
-38.8231 -5.78698 -1.87962 114 113 118
-6.97193 -13.1182 -0.745849 130 95 72
-6.99026 -13.0051 -0.739901 149 127 78
-6.97813 -12.885 -0.732655 138 120 78
-7.10758 -13.0327 -0.745091 140 118 74
-7.23173 -13.0221 -0.748341 150 114 83
-7.2861 -13.0263 -0.750288 133 98 60
-8.35979 -13.7041 -0.823388 135 90 52
-8.95319 -13.9979 -0.859945 154 115 84
-17.457 -12.3171 -1.16971 136 118 72
-17.6415 -12.3246 -1.17982 117 98 66
-17.7072 -12.2889 -1.18202 103 89 53
-17.9238 -12.3572 -1.19615 100 96 48
-18.2165 -12.4343 -1.21468 126 117 62
-18.253 -12.3762 -1.21455 120 108 56
-18.2512 -12.2924 -1.21144 105 94 49
-18.3917 -12.3042 -1.21947 117 111 57
-18.4569 -12.2235 -1.22012 113 112 48
-18.5594 -12.2086 -1.22518 107 101 43
-18.6553 -12.1889 -1.22971 127 117 58
-25.4338 -11.5296 -1.49002 142 122 130
-25.5413 -11.4345 -1.49367 144 124 131
-25.6035 -11.3666 -1.49549 145 125 134
-25.6673 -11.2992 -1.49744 144 125 127
-25.7612 -11.1968 -1.50024 99 79 77
-25.8301 -11.131 -1.50255 115 99 95
-25.9207 -11.0744 -1.50632 119 99 90
-26.001 -10.9649 -1.50826 144 128 134
-26.1133 -10.9165 -1.5135 143 127 137
-26.187 -10.8515 -1.51617 141 128 139
-23.3803 -7.56217 -1.28617 132 124 139
-23.3936 -7.48573 -1.28555 130 122 135
-39.015 -5.62787 -1.88854 138 139 146
-6.31067 -13.1573 -0.728946 145 104 76
-6.34859 -13.1328 -0.728562 145 100 62
-6.77864 -13.2935 -0.750223 166 126 96
-6.93895 -13.5118 -0.767578 125 83 58
-6.97617 -13.3273 -0.758011 138 109 89
-6.98618 -13.2458 -0.753613 115 79 59
-8.33569 -14.2075 -0.850684 141 119 71
-8.49976 -14.0365 -0.846564 188 138 95
-8.89364 -14.3432 -0.876887 189 137 94
-7.57291 -7.02326 -0.579595 105 95 63
-7.65172 -7.03172 -0.584547 95 83 56
-7.69632 -7.0298 -0.587022 125 100 69
-7.72924 -7.01688 -0.58826 136 120 61
-7.76282 -6.98245 -0.588416 105 92 50
-7.7942 -6.96788 -0.589498 123 102 76
-7.79594 -6.9265 -0.587486 108 89 59
-7.79638 -6.86256 -0.584237 117 97 66
-7.86329 -6.87948 -0.589033 113 97 65
-7.77479 -6.75907 -0.577736 117 100 70
-19.1186 -12.365 -1.2612 125 111 50
-19.1431 -12.2966 -1.26017 120 104 53
-19.1724 -12.2314 -1.25952 114 95 67
-19.401 -12.2502 -1.27274 135 116 100
-19.5991 -12.2904 -1.28505 144 116 94
-19.7367 -12.2914 -1.29269 169 137 104
-19.8253 -12.2612 -1.29658 145 111 71
-19.8888 -12.1723 -1.2971 135 110 63
-20.0659 -12.1951 -1.30772 136 118 62
-20.2468 -12.219 -1.31861 125 114 53
-18.3821 -7.52901 -1.07442 138 124 137
-18.3869 -7.43063 -1.07234 141 128 138
-18.4334 -7.38263 -1.07402 139 125 138
-26.6545 -10.4646 -1.53406 137 123 137
-26.703 -10.3875 -1.53515 139 126 140
-26.7681 -10.3166 -1.53734 137 125 136
-26.8526 -10.2048 -1.53977 135 123 133
-26.9004 -10.1269 -1.54086 135 125 136
-26.9666 -10.0558 -1.54317 136 125 139
-27.065 -9.94813 -1.54657 131 123 136
-23.4711 -7.42985 -1.28907 137 127 136
-6.00503 -13.242 -0.72567 180 112 91
-6.00302 -13.1272 -0.718814 173 106 89
-6.03445 -13.0891 -0.717395 181 116 96
-6.31298 -13.4332 -0.745244 184 119 94
-6.27859 -13.2492 -0.733468 145 103 70
-6.86751 -13.739 -0.778693 165 120 95
-6.88085 -13.659 -0.774426 155 113 76
-8.72931 -14.6286 -0.887217 180 137 96
-8.30436 -6.76619 -0.609764 115 110 48
-8.33862 -6.75187 -0.611155 128 116 62
-8.36172 -6.70689 -0.610382 120 98 64
-8.385 -6.68353 -0.61069 120 100 71
-8.42535 -6.67378 -0.612701 113 101 63
-20.3341 -12.1424 -1.32094 103 89 49
-20.4572 -12.1297 -1.32742 107 90 48
-20.6095 -12.1336 -1.3361 118 98 50
-20.7794 -12.1031 -1.34465 110 83 44
-21.6621 -12.1253 -1.39532 162 144 130
-27.1289 -9.8755 -1.54876 132 123 137
-27.185 -9.79986 -1.55046 133 126 139
-27.2654 -9.7327 -1.55374 130 124 136
-27.3851 -9.63086 -1.55861 127 121 133
-27.4707 -9.56464 -1.56226 130 123 136
-27.5524 -9.49667 -1.56566 130 123 134
-27.5921 -9.36559 -1.56541 91 78 87
-27.6525 -9.28981 -1.56747 124 109 104
-27.7033 -9.21057 -1.56893 99 89 86
-5.85784 -13.4103 -0.731857 200 125 94
-5.88584 -13.3615 -0.729662 192 116 88
-6.11999 -13.6184 -0.751037 187 114 95
-6.35037 -13.6266 -0.757667 175 109 91
-7.0202 -14.2767 -0.814416 141 108 59
-21.8092 -12.1186 -1.40348 148 134 122
-22.0435 -12.1142 -1.4167 142 129 122
-22.212 -12.1169 -1.42641 143 128 122
-22.3878 -12.1224 -1.43665 143 128 121
-22.5846 -12.0926 -1.44702 139 124 119
-22.708 -12.0678 -1.45336 139 123 118
-22.8173 -12.0349 -1.45867 128 113 108
-22.9225 -11.9535 -1.4623 139 124 116
-23.0017 -11.9037 -1.46541 142 127 119
-23.0861 -11.8563 -1.4689 144 124 116
-27.7833 -9.09251 -1.57136 135 130 133
-28.0688 -8.75048 -1.5818 152 142 140
-28.1352 -8.67471 -1.58435 149 139 142
-28.2166 -8.60328 -1.58788 148 138 141
-28.3722 -8.50539 -1.5953 136 126 134
-28.3998 -8.41683 -1.59542 131 124 132
-26.5075 -7.35839 -1.46643 155 145 153
-26.564 -7.23981 -1.46789 92 82 91
-5.49631 -13.3526 -0.719388 119 98 72
-7.1958 -14.5283 -0.834101 138 99 65
-23.1704 -11.8084 -1.4724 147 126 123
-23.2392 -11.7067 -1.47344 152 131 127
-23.2768 -11.6348 -1.47356 150 131 126
-23.3321 -11.5716 -1.47498 150 131 127
-23.3963 -11.4672 -1.47576 149 129 128
-23.4601 -11.4079 -1.47783 151 129 134
-23.5364 -11.3543 -1.4808 151 129 133
-23.632 -11.2643 -1.48391 152 129 133
-23.717 -11.2141 -1.48754 151 129 136
-23.7964 -11.1609 -1.49077 147 127 135
-23.8606 -11.0549 -1.49168 147 127 137
-23.9361 -10.9993 -1.49465 145 128 137
-24.0115 -10.9433 -1.49763 146 129 139
-24.0904 -10.8886 -1.50086 144 128 139
-28.471 -8.34114 -1.59833 133 128 136
-28.8036 -8.29226 -1.61709 120 111 119
-29.1521 -8.29434 -1.63768 179 167 162
-29.1618 -8.19843 -1.63669 135 129 134
-29.161 -7.85399 -1.63118 126 118 121
-28.471 -7.57146 -1.58596 139 133 137
-28.44 -7.42007 -1.5818 140 133 141
-5.53184 -13.7521 -0.744355 153 132 76
-5.85694 -14.1357 -0.775315 97 76 52
-5.8863 -14.0829 -0.772861 126 98 77
-6.14474 -14.4012 -0.798379 140 93 77
-6.21361 -14.4415 -0.802528 139 81 65
-6.40957 -14.4685 -0.809153 202 130 101
-13.3172 -7.69166 -0.895146 153 137 123
-13.313 -7.63415 -0.892829 145 134 123
-13.343 -7.59665 -0.893405 139 125 116
-13.3936 -7.57093 -0.895716 136 125 116
-24.1971 -10.8005 -1.50488 143 126 138
-24.2721 -10.7432 -1.50785 143 128 141
-24.3122 -10.6704 -1.50837 142 125 136
-24.3816 -10.5647 -1.50979 100 87 87
-24.4468 -10.5025 -1.51212 122 106 97
-24.523 -10.4446 -1.51522 117 99 95
-24.6079 -10.3447 -1.51781 138 126 138
-24.7002 -10.2928 -1.52208 138 124 136
-24.7648 -10.2291 -1.52441 137 125 137
-29.185 -7.51799 -1.62749 139 136 143
-29.2269 -7.43121 -1.6287 136 134 138
-29.3398 -7.31327 -1.63369 140 135 141
-29.4333 -7.23877 -1.63819 140 134 138
-29.5111 -7.15995 -1.64171 138 134 140
-6.1169 -14.4603 -0.80122 134 95 78
-25.0484 -9.9362 -1.53449 137 125 135
-25.148 -9.83941 -1.53825 138 126 136
-25.1855 -9.76342 -1.53876 136 126 135
-25.2413 -9.69444 -1.54057 137 125 135
-25.3419 -9.59683 -1.54445 135 124 138
-25.3823 -9.52155 -1.54522 138 127 135
-25.4225 -9.44609 -1.54599 138 127 136
-25.5112 -9.38838 -1.55013 138 126 136
-23.4626 -7.56855 -1.38624 142 133 134
-23.417 -7.47314 -1.38157 140 129 136
-23.4643 -7.40745 -1.38324 134 124 133
-29.5591 -7.02451 -1.64267 138 134 135
-29.6363 -6.94485 -1.6462 140 134 138
-29.7424 -6.87154 -1.65155 138 132 136
-29.8134 -6.78961 -1.6547 138 133 138
-29.9238 -6.66686 -1.65969 140 134 136
-30.0157 -6.58869 -1.66419 139 132 138
-30.0742 -6.5028 -1.66661 137 134 138
-11.3177 -12.3064 -0.990687 157 121 100
-11.3932 -12.2362 -0.990692 150 124 107
-25.6106 -9.28868 -1.55401 139 130 137
-25.6614 -9.21642 -1.55556 140 133 139
-25.7458 -9.15595 -1.55944 139 129 136
-25.8368 -9.05189 -1.56281 141 128 135
-25.9077 -8.98585 -1.56578 154 139 141
-25.9463 -8.90843 -1.56655 156 141 138
-25.9796 -8.78375 -1.56603 103 87 91
-26.0441 -8.71486 -1.56861 115 101 99
-26.1331 -8.65381 -1.57288 116 107 102
-30.2049 -6.38249 -1.67294 136 134 139
-30.296 -6.30262 -1.67744 137 132 138
-30.4415 -6.23349 -1.68534 137 132 137
-30.9498 -6.18645 -1.71531 141 135 138
-9.55875 -12.7338 -0.93289 168 120 79
-10.5361 -12.9376 -0.988164 132 117 108
-10.5672 -12.8942 -0.987155 171 157 146
-10.6543 -12.9206 -0.992652 95 76 54
-10.7143 -12.8712 -0.992658 173 124 82
-10.6945 -12.7657 -0.985867 169 118 74
-10.7211 -12.7173 -0.984425 194 142 94
-10.7195 -12.6351 -0.979801 164 114 68
-10.7205 -12.5167 -0.973302 169 126 81
-10.9028 -12.6542 -0.989497 167 124 76
-10.9211 -12.5963 -0.987187 162 116 69
-11.139 -12.7318 -1.00498 183 141 89
-11.355 -12.9027 -1.02464 169 133 62
-11.319 -12.7802 -1.01626 173 136 65
-11.2693 -12.6033 -1.00426 151 112 75
-11.2909 -12.549 -1.00239 133 93 63
-11.2832 -12.4619 -0.99733 167 124 101
-11.3652 -12.4761 -1.0021 154 114 100
-12.0372 -12.821 -1.05359 159 144 139
-11.9546 -12.6522 -1.04058 156 142 136
-12.0683 -12.6953 -1.04854 153 137 121
-12.0301 -12.5362 -1.03828 139 105 84
-12.2194 -12.6581 -1.05418 131 93 66
-12.2707 -12.6332 -1.05549 137 102 70
-12.4177 -12.668 -1.06475 142 103 74
-12.5134 -12.6882 -1.07068 145 113 74
-12.583 -12.6809 -1.07386 145 121 73
-12.6513 -12.6717 -1.0769 148 125 70
-12.8797 -12.7842 -1.0944 152 119 80
-12.94 -12.7654 -1.09657 168 139 84
-12.9271 -12.6732 -1.09122 144 114 82
-12.7944 -12.424 -1.07171 138 123 123
-12.8667 -12.4178 -1.07518 167 158 159
-12.9576 -12.4294 -1.08053 189 173 171
-13.1527 -12.502 -1.09442 248 234 200
-13.1049 -12.3783 -1.08574 253 255 208
-13.3822 -12.5661 -1.10975 252 245 203
-13.2444 -12.3572 -1.09211 205 169 141
-13.4323 -12.4183 -1.10513 111 97 66
-13.4165 -12.3263 -1.09978 126 113 87
-13.5201 -12.3456 -1.10629 116 105 73
-13.633 -12.3339 -1.11179 120 106 75
-13.7356 -12.3506 -1.11815 107 101 55
-13.8016 -12.3334 -1.1209 101 94 49
-13.9209 -12.325 -1.12698 106 91 58
-14.291 -12.3823 -1.14997 114 97 67
-26.1917 -8.53694 -1.57417 140 131 132
-26.4705 -8.21718 -1.58528 136 130 138
-26.5297 -8.14462 -1.58761 150 143 151
-26.5505 -8.0602 -1.58734 154 144 152
-26.6639 -7.95794 -1.59252 146 138 137
-31.5795 -6.21008 -1.75344 130 122 123
-32.1764 -6.22331 -1.7895 131 122 123
-32.807 -6.23921 -1.82763 131 125 125
-8.63474 -12.8419 -0.900584 113 79 46
-9.00138 -13.003 -0.925175 106 73 49
-9.08608 -13.0413 -0.930961 155 116 82
-9.10953 -12.9452 -0.926199 163 123 80
-9.08832 -12.8286 -0.918397 161 117 74
-9.16185 -12.8498 -0.922738 158 110 71
-9.26984 -12.9197 -0.931415 151 106 68
-9.26437 -12.7841 -0.923183 185 133 95
-9.3902 -12.8775 -0.934028 180 125 79
-9.35337 -12.7416 -0.924491 186 134 86
-9.4405 -12.7373 -0.927968 191 134 89
-9.56633 -12.8276 -0.938668 165 116 69
-9.73031 -12.8419 -0.946629 182 130 88
-9.76386 -12.804 -0.94591 174 121 79
-9.87368 -12.8681 -0.954443 172 126 87
-9.96705 -12.867 -0.958497 191 144 106
-10.0525 -12.8966 -0.963994 184 138 103
-10.1067 -12.8846 -0.965732 197 163 139
-10.1694 -12.8835 -0.968482 209 173 157
-10.3332 -12.9701 -0.980777 219 183 150
-10.4345 -13.0167 -0.988009 244 211 167
-10.5017 -13.019 -0.991193 140 122 71
-7.07462 -6.93878 -0.61055 129 109 103
-7.10503 -6.9049 -0.610383 166 157 157
-7.13292 -6.8902 -0.611224 187 171 168
-7.22501 -6.79008 -0.611056 214 177 152
-7.24979 -6.7721 -0.61156 121 102 75
-7.27794 -6.73603 -0.611225 120 105 84
-7.36323 -6.77542 -0.618789 116 105 74
-14.3926 -12.6694 -1.1692 112 98 64
-14.3034 -12.5109 -1.15677 108 96 58
-14.419 -12.4166 -1.15865 127 107 80
-14.5053 -12.4135 -1.16328 108 92 63
-14.6173 -12.4322 -1.17037 114 98 72
-14.6809 -12.3692 -1.17095 129 112 96
-14.7507 -12.3506 -1.17399 127 110 96
-14.9988 -12.482 -1.19394 123 106 81
-15.4584 -12.3092 -1.21203 127 122 61
-15.6019 -12.3458 -1.22186 121 114 60
-15.8821 -12.4501 -1.24255 103 102 46
-15.9704 -12.4401 -1.24717 107 104 52
-16.0744 -12.442 -1.25325 111 110 53
-26.7282 -7.88607 -1.59523 106 96 98
-26.7807 -7.81053 -1.59716 123 115 114
-26.8491 -7.69372 -1.59936 112 107 104
-26.8588 -7.60564 -1.59844 118 104 104
-26.4857 -7.41086 -1.57174 111 102 102
-26.5196 -7.3309 -1.57251 103 92 91
-26.5839 -7.21432 -1.57457 109 103 110
-26.8813 -7.2045 -1.59309 144 140 147
-33.3283 -6.17636 -1.85832 133 129 129
-33.3995 -6.08122 -1.8616 116 115 116
-33.3686 -5.96736 -1.85854 91 90 94
-33.4523 -5.81987 -1.86206 83 82 89
-33.55 -5.72847 -1.86704 86 84 87
-8.00288 -12.7644 -0.87105 164 115 75
-8.31821 -12.9643 -0.895492 144 116 88
-8.42471 -13.0453 -0.904602 123 91 67
-8.46507 -12.9746 -0.901864 168 130 87
-8.70196 -13.258 -0.928462 158 116 76
-8.55562 -12.9394 -0.903318 161 116 76
-8.66786 -13.0253 -0.913006 157 119 77
-8.88868 -13.1419 -0.928917 136 111 71
-8.90494 -13.0781 -0.925741 105 79 48
-8.97013 -13.0437 -0.926327 140 103 81
-7.24277 -6.95671 -0.621813 212 186 166
-7.32011 -6.96809 -0.627193 253 255 206
-7.52702 -6.88812 -0.635429 106 93 59
-7.51802 -6.77338 -0.62837 100 95 50
-7.56186 -6.77193 -0.631059 100 91 52
-7.63107 -6.77204 -0.635431 112 99 64
-7.66624 -6.76201 -0.637111 110 98 60
-7.68664 -6.73848 -0.63711 109 100 59
-16.2138 -12.4304 -1.26077 120 115 57
-16.3072 -12.4225 -1.26583 108 98 45
-16.3896 -12.4056 -1.26988 130 116 64
-16.4723 -12.3482 -1.2722 135 112 73
-16.5389 -12.3184 -1.2748 120 101 65
-16.5718 -12.2633 -1.27437 123 106 75
-16.6526 -12.2438 -1.27827 117 102 68
-16.7429 -12.1907 -1.28131 124 111 62
-16.8607 -12.1973 -1.28854 135 114 67
-17.0012 -12.2197 -1.2978 134 109 79
-17.1062 -12.1751 -1.30214 131 114 77
-17.2051 -12.1658 -1.30763 110 99 55
-17.2749 -12.1352 -1.31053 126 107 76
-17.3929 -12.0979 -1.31602 97 81 66
-17.5263 -12.111 -1.32456 81 60 51
-17.6453 -12.1131 -1.33179 103 76 68
-17.7834 -12.0869 -1.33902 96 69 51
-27.2736 -7.21782 -1.61797 123 117 124
-27.3683 -7.10534 -1.62211 133 124 133
-27.4303 -7.02976 -1.62482 136 129 137
-27.4862 -6.95241 -1.62714 131 126 131
-27.576 -6.83728 -1.63102 138 134 139
-27.581 -6.74689 -1.62997 137 130 138
-7.03269 -12.8594 -0.841761 162 127 95
-7.07788 -12.8486 -0.842633 165 129 101
-7.2821 -12.9892 -0.858686 181 143 107
-7.34494 -13.0091 -0.862159 168 134 101
-7.35056 -12.9238 -0.856962 161 134 107
-7.46276 -12.9844 -0.864774 157 129 105
-8.076 -13.3008 -0.907014 162 124 90
-8.08452 -13.2212 -0.902394 129 93 67
-8.34245 -13.5613 -0.933182 147 111 83
-8.37968 -13.2927 -0.918025 173 129 93
-8.48331 -13.3221 -0.923815 148 113 87
-8.33482 -6.81383 -0.683167 120 100 69
-8.41255 -6.7711 -0.686025 117 113 55
-8.40373 -6.7212 -0.68283 120 111 56
-8.44251 -6.71041 -0.684846 123 118 57
-17.9175 -12.0976 -1.34755 149 124 112
-18.0222 -12.0875 -1.35348 169 148 131
-18.1848 -12.1159 -1.36447 162 144 128
-18.337 -12.0948 -1.37286 154 135 122
-18.4787 -12.1068 -1.38197 161 145 133
-18.6107 -12.1115 -1.39021 153 140 125
-18.7718 -12.0927 -1.39933 155 138 122
-18.9059 -12.0968 -1.40771 181 163 144
-19.0536 -12.1088 -1.41726 102 83 73
-19.2122 -12.0846 -1.42608 161 129 110
-27.7216 -6.6892 -1.638 138 131 138
-27.7708 -6.60903 -1.63993 137 132 137
-27.8338 -6.48586 -1.64212 137 132 139
-27.9039 -6.41001 -1.64548 135 133 138
-27.999 -6.33948 -1.65053 135 133 138
-28.0998 -6.22345 -1.65531 130 127 135
-6.9047 -13.0552 -0.849973 162 132 98
-6.94763 -13.0396 -0.850412 159 128 100
-6.96222 -12.9689 -0.846371 148 118 94
-6.98935 -12.8735 -0.841178 152 121 93
-7.19719 -12.9765 -0.854921 176 136 102
-8.24942 -13.9414 -0.953385 115 79 51
-8.30794 -13.7937 -0.946318 193 150 107
-8.4043 -6.80713 -0.687371 118 112 59
-19.3654 -12.098 -1.43606 154 120 93
-19.5088 -12.1041 -1.44517 175 147 123
-19.6559 -12.1115 -1.45457 167 142 121
-19.7831 -12.0632 -1.46064 164 138 120
-19.8625 -12.0274 -1.46425 150 123 112
-19.9164 -11.9756 -1.4657 141 120 113
-19.9802 -11.8874 -1.46642 149 128 124
-20.0235 -11.829 -1.467 131 114 106
-20.0665 -11.7705 -1.46758 138 121 111
-13.2693 -7.6752 -0.969676 152 137 131
-13.2459 -7.60694 -0.965495 152 138 133
-13.2723 -7.5676 -0.965802 150 136 134
-20.3862 -11.4523 -1.47639 151 138 136
-20.4646 -11.413 -1.48 153 137 136
-20.5343 -11.3684 -1.48289 147 130 129
-18.3645 -7.54494 -1.22159 140 129 137
-18.402 -7.49353 -1.22274 139 128 136
-18.3865 -7.3869 -1.21883 140 130 138
-28.4091 -6.19831 -1.67461 136 134 140
-28.9155 -6.21345 -1.707 141 135 139
-29.4477 -6.18253 -1.74042 135 124 130
-34.8023 -2.26591 -1.8626 83 100 126
-34.8422 -2.16293 -1.86475 152 166 190
-6.27811 -12.9451 -0.822601 160 123 97
-6.33233 -12.9568 -0.825063 199 162 126
-6.97789 -13.3537 -0.871639 159 126 98
-8.27275 -14.3418 -0.979377 124 95 68
-8.27598 -14.2436 -0.973313 123 102 70
-8.27923 -14.0947 -0.964074 134 101 71
-8.36508 -14.0422 -0.96394 158 114 77
-8.88445 -14.3186 -1.00054 155 116 74
-7.07125 -6.92757 -0.636797 139 121 105
-7.07511 -6.88908 -0.634712 159 149 143
-7.09156 -6.86319 -0.63419 169 153 157
-7.13287 -6.84025 -0.635408 227 202 180
-7.11483 -6.78097 -0.630717 254 253 209
-7.20442 -6.784 -0.636624 236 212 182
-7.23825 -6.75353 -0.636973 126 115 70
-7.27737 -6.74903 -0.639231 115 106 69
-20.6076 -11.2836 -1.48463 152 136 137
-20.6631 -11.2306 -1.48636 151 132 134
-20.7166 -11.1765 -1.48795 151 133 134
-20.7875 -11.0896 -1.48954 146 129 134
-20.86 -11.0452 -1.49272 143 126 136
-20.9043 -10.9856 -1.49358 142 125 135
-21.0026 -10.9124 -1.49749 139 123 133
-21.0571 -10.8577 -1.49922 143 128 135
-21.1274 -10.811 -1.50225 143 127 137
-21.2012 -10.7658 -1.50558 142 126 140
-21.297 -10.6897 -1.50934 141 125 139
-21.3474 -10.6319 -1.51078 141 127 140
-21.4102 -10.5802 -1.51323 140 126 138
-21.4625 -10.4814 -1.51352 139 125 136
-21.5105 -10.4221 -1.51482 139 125 138
-29.9901 -6.19782 -1.77514 135 126 124
-30.5173 -6.20657 -1.80882 140 132 128
-30.9291 -6.13858 -1.83421 131 126 123
-30.971 -6.04597 -1.83575 130 129 126
-6.12071 -13.1364 -0.830374 173 111 89
-6.12705 -12.9868 -0.820703 178 118 92
-6.1967 -13.0337 -0.82591 163 122 92
-6.73531 -13.4373 -0.869151 164 125 94
-6.77759 -13.4186 -0.869301 178 134 99
-6.8408 -13.4429 -0.872919 184 140 103
-7.05863 -13.7262 -0.898359 157 122 92
-7.0903 -13.6834 -0.896631 165 129 101
-7.4459 -6.86538 -0.656954 109 96 67
-7.43635 -6.79313 -0.65209 122 102 78
-7.54759 -6.81184 -0.66043 120 94 66
-21.5692 -10.3678 -1.51698 140 126 139
-21.6583 -10.2863 -1.52031 139 125 138
-21.7148 -10.2305 -1.52233 145 133 143
-21.7712 -10.1744 -1.52435 137 125 137
-21.8292 -10.1189 -1.52652 138 126 138
-21.9029 -10.0289 -1.52868 138 125 139
-21.9624 -9.97354 -1.53099 136 123 139
-22.0236 -9.91876 -1.53345 137 124 141
-22.1019 -9.82995 -1.53605 135 124 138
-22.1501 -9.76883 -1.53749 137 126 134
-22.198 -9.7075 -1.53893 141 128 135
-31.0361 -5.95766 -1.83885 94 94 97
-31.0577 -5.86088 -1.8391 98 97 102
-31.1078 -5.71879 -1.84064 90 89 96
-5.86348 -13.2716 -0.83178 189 126 101
-5.88652 -13.2117 -0.828463 183 121 93
-5.96013 -13.1013 -0.823278 174 112 91
-6.62552 -13.8651 -0.893677 154 116 89
-6.79229 -13.8303 -0.896588 163 126 97
-6.96464 -14.0261 -0.914804 161 121 92
-10.464 -12.4973 -1.04276 180 135 109
-10.64 -12.6305 -1.05947 159 112 86
-10.5522 -12.4463 -1.04415 179 141 115
-10.6021 -12.3882 -1.04323 158 134 117
-10.8054 -12.5498 -1.06304 173 144 134
-10.9294 -12.6164 -1.07325 190 166 157
-10.9918 -12.5702 -1.07372 184 170 170
-11.2145 -12.6686 -1.0909 196 172 172
-10.8327 -12.1175 -1.03923 188 173 170
-11.0697 -12.309 -1.0626 183 171 173
-11.2071 -12.3862 -1.07421 185 168 178
-11.2945 -12.4063 -1.07993 180 164 176
-11.2608 -12.2535 -1.06942 176 161 175
-11.2056 -12.1172 -1.05875 213 196 208
-11.34 -12.1881 -1.06989 186 165 164
-11.7409 -12.5063 -1.10919 227 212 218
-11.8814 -12.5791 -1.1208 187 170 171
-11.763 -12.3754 -1.10301 171 149 149
-11.8684 -12.3712 -1.10843 150 135 122
-11.9421 -12.3719 -1.11245 158 135 114
-11.9594 -12.3134 -1.11014 143 112 82
-12.0568 -12.3379 -1.11679 162 131 73
-12.21 -12.3802 -1.12747 129 103 42
-12.4687 -12.5669 -1.15192 148 117 64
-12.419 -12.4389 -1.14218 142 110 60
-12.6006 -12.5052 -1.1558 154 123 66
-12.5359 -12.3635 -1.14451 156 129 62
-12.6376 -12.3877 -1.15147 149 121 77
-12.722 -12.3553 -1.15442 136 122 113
-12.7856 -12.3408 -1.1572 167 156 152
-12.9366 -12.4106 -1.16943 183 164 161
-13.0704 -12.4234 -1.17763 234 215 189
-13.0306 -12.3086 -1.16928 253 254 210
-13.2088 -12.4011 -1.18429 255 251 211
-14.1532 -12.1812 -1.22765 121 104 77
-8.37147 -6.7845 -0.71395 99 91 55
-8.39341 -6.7599 -0.714123 114 102 72
-8.41527 -6.73523 -0.714296 129 116 74
-22.2682 -9.61431 -1.54095 109 94 89
-22.3084 -9.54929 -1.54181 114 100 92
-22.3594 -9.48882 -1.54354 141 130 136
-22.4232 -9.39226 -1.54513 135 125 138
-22.4958 -9.34047 -1.5486 135 128 137
-22.8162 -9.10061 -1.56376 146 136 141
-22.8715 -9.04018 -1.56593 149 139 138
-5.28306 -13.0653 -0.801957 162 125 96
-5.30184 -12.9937 -0.79763 175 138 109
-5.77038 -13.3391 -0.833643 185 134 90
-5.8245 -13.353 -0.836105 192 134 86
-6.24903 -13.9473 -0.887847 188 126 95
-6.27158 -13.7044 -0.872405 170 109 90
-6.38051 -13.8369 -0.884402 178 116 95
-8.96201 -12.5816 -0.976597 186 125 84
-9.19164 -12.6993 -0.994397 135 88 51
-9.3443 -12.8298 -1.00956 155 111 67
-9.30335 -12.6895 -0.99889 159 112 66
-9.43956 -12.7528 -1.00911 178 131 86
-9.54468 -12.8138 -1.01777 157 112 65
-9.57815 -12.7764 -1.017 177 127 77
-9.56002 -12.6282 -1.00696 198 146 99
-9.61673 -12.6227 -1.00928 178 122 75
-9.81153 -12.7999 -1.02939 189 139 92
-9.91594 -12.8553 -1.03775 155 107 66
-9.97797 -12.8126 -1.03807 146 108 80
-9.97473 -12.7266 -1.03266 174 142 118
-10.0823 -12.784 -1.04132 199 165 147
-10.2818 -12.916 -1.05897 206 169 138
-10.2721 -12.8217 -1.05278 231 197 158
-10.3053 -12.7822 -1.05201 239 205 162
-10.392 -12.7687 -1.05542 143 121 102
-10.5113 -12.8358 -1.06533 173 147 127
-10.542 -12.7925 -1.06425 147 122 87
-10.6253 -12.7729 -1.06719 162 120 97
-11.2003 -12.7317 -1.09384 176 160 175
-14.0935 -12.2444 -1.22734 113 100 62
-14.254 -12.1918 -1.23415 123 101 85
-14.4519 -12.2848 -1.25056 123 98 81
-14.6183 -12.3101 -1.2617 110 89 71
-14.7079 -12.3083 -1.26696 124 106 92
-14.8252 -12.329 -1.27501 112 94 80
-8.35188 -6.87557 -0.717598 125 104 85
-8.44162 -6.88499 -0.724203 105 88 72
-15.29 -12.0879 -1.29143 118 103 61
-8.48794 -6.72982 -0.718988 109 91 61
-15.407 -12.0645 -1.29747 102 85 57
-15.5006 -12.0608 -1.30304 101 79 47
-15.6162 -12.0736 -1.31078 99 76 49
-15.7622 -12.0699 -1.3196 98 81 53
-15.8562 -12.0644 -1.32517 117 95 63
-15.9821 -12.0825 -1.33384 128 100 71
-22.9427 -8.9443 -1.56824 158 147 144
-22.9846 -8.87819 -1.56939 155 144 141
-23.0245 -8.81117 -1.5704 155 144 141
-23.0575 -8.70009 -1.56981 157 146 142
-23.1211 -8.64186 -1.5727 153 143 141
-23.1939 -8.58679 -1.57631 143 134 136
-23.2704 -8.53273 -1.58021 140 130 131
-23.3338 -8.43215 -1.58208 140 131 132
-23.3668 -8.3617 -1.58265 142 133 140
-31.3538 -4.25011 -1.8419 84 93 107
-31.3741 -4.15259 -1.8424 85 93 106
-31.3842 -4.05371 -1.84226 88 96 109
-5.22231 -13.0269 -0.797762 154 125 98
-5.47259 -13.314 -0.823782 161 131 99
-5.66317 -13.6157 -0.849217 139 113 88
-5.64624 -13.4506 -0.837666 140 109 81
-5.86369 -13.872 -0.87191 140 103 77
-8.41142 -12.8231 -0.968032 163 129 84
-8.47787 -12.8392 -0.971903 150 104 65
-8.56625 -12.8883 -0.978868 169 117 77
-8.44314 -12.5709 -0.953046 188 134 90
-8.71173 -12.8921 -0.985376 186 125 86
-8.83537 -12.9914 -0.997136 187 125 89
-8.86558 -12.906 -0.992968 192 126 92
-8.95894 -12.9579 -1.0004 194 121 90
-9.00213 -12.9353 -1.00086 186 112 84
-9.02366 -12.838 -0.995614 176 107 78
-9.06765 -12.8169 -0.996237 170 106 70
-9.19106 -12.8245 -1.00228 167 111 73
-16.1017 -12.0556 -1.34003 164 141 121
-16.2106 -12.0591 -1.347 191 166 142
-16.326 -12.0668 -1.35458 184 157 136
-16.4512 -12.081 -1.36309 182 156 135
-16.5844 -12.0604 -1.37052 163 140 118
-16.7069 -12.0708 -1.37872 170 149 128
-16.8183 -12.0723 -1.38584 161 141 126
-16.9569 -12.0526 -1.39374 163 146 132
-17.0785 -12.0596 -1.40179 151 138 126
-17.2067 -12.0706 -1.41045 148 136 127
-17.3444 -12.0471 -1.41819 135 124 119
-17.4616 -12.0486 -1.42578 142 131 127
-17.5593 -12.0359 -1.4315 140 131 126
-23.454 -8.31055 -1.58742 145 133 143
-23.7024 -8.27423 -1.60361 139 133 137
-23.9325 -8.27127 -1.61937 140 134 137
-23.9462 -8.19235 -1.6185 142 129 131
-23.9591 -8.07137 -1.61661 111 100 95
-23.9457 -7.98357 -1.61371 120 107 106
-23.9509 -7.90221 -1.61226 154 148 145
-23.7043 -7.73815 -1.59157 140 135 135
-23.3568 -7.50278 -1.56235 143 133 139
-23.3946 -7.43439 -1.5635 142 132 139
-31.4121 -3.90695 -1.8429 89 98 114
-31.4745 -3.56383 -1.84441 91 103 119
-6.20394 -14.523 -0.924938 161 117 84
-7.53627 -12.7219 -0.92558 143 102 67
-7.67656 -12.8728 -0.941205 195 146 106
-7.86304 -12.9614 -0.954518 188 135 97
-7.86104 -12.8672 -0.948182 181 131 94
-7.95908 -12.9405 -0.957002 174 129 88
-8.06564 -12.9806 -0.96397 165 123 80
-8.11179 -12.9661 -0.964903 177 130 88
-8.11088 -12.8751 -0.958876 176 134 92
-8.21482 -12.9088 -0.96538 152 116 86
-8.27884 -12.9225 -0.968942 138 99 65
-8.36854 -12.9763 -0.976216 165 126 87
-8.44587 -12.9647 -0.978699 151 118 77
-17.7246 -12.0688 -1.44357 135 124 118
-17.8383 -12.0248 -1.44899 140 127 120
-17.885 -11.9758 -1.44992 158 144 135
-17.9516 -11.9399 -1.4527 134 120 115
-18.0185 -11.8635 -1.45379 128 117 112
-18.0665 -11.8149 -1.45487 135 125 124
-18.0977 -11.7552 -1.45441 135 125 123
-18.1839 -11.6909 -1.45735 134 120 118
-18.218 -11.6331 -1.45719 128 114 112
-18.2688 -11.5858 -1.45859 114 99 90
-18.3257 -11.5023 -1.4589 154 125 102
-18.4117 -11.4767 -1.46354 151 122 97
-18.4536 -11.4234 -1.46416 153 136 127
-18.5225 -11.3867 -1.46725 147 134 131
-18.6228 -11.3289 -1.47158 147 135 136
-18.6762 -11.2821 -1.47328 148 136 137
-18.7244 -11.232 -1.47452 145 132 133
-18.7986 -11.1574 -1.47653 145 133 135
-18.8653 -11.1179 -1.47947 147 133 132
-18.9097 -11.065 -1.4804 149 133 133
-24.0739 -7.56904 -1.61353 142 132 141
-24.116 -7.45813 -1.6141 142 133 140
-24.1689 -7.39188 -1.61641 142 133 137
-24.2083 -7.32129 -1.6177 144 137 143
-24.2665 -7.2148 -1.61958 144 139 143
-6.66467 -12.4245 -0.872465 136 95 63
-7.04529 -12.8152 -0.913153 175 125 85
-7.21929 -12.8996 -0.925383 154 104 65
-7.2618 -12.8829 -0.925852 171 129 86
-7.2908 -12.8416 -0.924156 150 108 68
-7.36786 -12.8395 -0.926949 157 105 76
-7.40926 -12.8205 -0.927263 193 144 109
-7.54205 -12.9625 -0.941959 180 132 95
-7.622 -12.9625 -0.945061 179 127 94
-7.7685 -12.9387 -0.949251 199 146 102
-19.2551 -10.7898 -1.49324 144 129 136
-19.3159 -10.7451 -1.49571 145 130 137
-19.3923 -10.7088 -1.49958 148 131 139
-19.4663 -10.6313 -1.50175 147 132 139
-19.5303 -10.5875 -1.50453 145 130 137
-19.5995 -10.5463 -1.50778 146 131 138
-19.6252 -10.4421 -1.50577 145 129 139
-19.6607 -10.3826 -1.50607 144 128 139
-19.733 -10.3424 -1.50963 138 125 135
-19.7875 -10.2927 -1.51164 143 130 139
-19.8456 -10.2053 -1.51257 144 133 141
-19.9211 -10.1659 -1.51643 145 133 143
-18.3264 -7.51793 -1.31902 155 142 138
-18.3011 -7.44103 -1.315 154 142 136
-18.3611 -7.36544 -1.31716 150 141 134
-24.3283 -7.15054 -1.62261 146 139 143
-24.409 -7.09156 -1.62708 144 134 133
-24.4585 -6.98163 -1.62838 142 131 132
-24.5159 -6.91524 -1.63112 140 130 136
-24.5807 -6.8507 -1.63443 138 129 134
-24.6281 -6.78103 -1.63645 139 129 137
-24.6762 -6.66981 -1.63774 128 121 128
-6.84528 -12.9663 -0.916216 150 104 68
-6.88696 -12.9491 -0.91653 191 144 106
-6.96633 -12.8577 -0.913143 141 99 72
-7.01518 -12.8542 -0.914694 171 127 96
-7.14041 -12.8973 -0.922282 169 118 78
-19.9451 -10.0999 -1.51581 140 128 138
-20.0237 -10.0224 -1.5186 142 130 140
-20.0864 -9.97572 -1.52138 144 133 141
-20.1222 -9.91551 -1.52184 146 135 141
-20.1965 -9.83501 -1.52431 144 131 138
-20.2642 -9.79003 -1.52756 144 133 139
-20.312 -9.73524 -1.5291 142 131 138
-20.3676 -9.64497 -1.53003 143 131 143
-20.415 -9.58971 -1.53158 142 130 142
-20.4334 -9.52076 -1.53064 141 131 142
-20.4715 -9.46098 -1.53141 139 129 138
-20.5513 -9.3814 -1.53451 137 127 135
-24.7597 -6.60944 -1.64251 138 132 131
-24.8314 -6.54555 -1.6464 144 138 141
-24.9093 -6.44119 -1.65001 140 135 141
-24.9671 -6.37294 -1.6529 138 131 139
-25.0422 -6.30878 -1.65708 142 135 142
-25.1152 -6.20193 -1.6604 141 136 140
-31.6971 -2.23293 -1.85136 111 131 155
-6.21831 -12.848 -0.886308 132 97 71
-6.20259 -12.7121 -0.876263 157 120 89
-6.31519 -12.8481 -0.889566 146 102 75
-6.39637 -12.8642 -0.89344 139 99 69
-6.4872 -12.9506 -0.902569 164 117 84
-6.5445 -12.9667 -0.905667 168 118 81
-6.60196 -12.9826 -0.908765 169 120 83
-6.65154 -12.9312 -0.906918 133 90 56
-6.71991 -12.9679 -0.911872 158 110 75
-6.77596 -12.9795 -0.91466 174 128 91
-13.2934 -7.70936 -1.07316 145 133 138
-13.3105 -7.58189 -1.06912 147 134 141
-20.5998 -9.3261 -1.5362 139 129 138
-20.6627 -9.27714 -1.53914 140 130 139
-20.7418 -9.19623 -1.54223 140 127 136
-20.8081 -9.14814 -1.54548 154 139 141
-20.8689 -9.09733 -1.54826 79 64 65
-20.929 -9.00716 -1.54981 130 111 109
-20.982 -8.95258 -1.55197 144 128 125
-21.0276 -8.89464 -1.55351 157 143 140
-21.0675 -8.83418 -1.55459 158 144 138
-21.1431 -8.74967 -1.55753 158 143 135
-25.4025 -6.18907 -1.68049 146 137 140
-25.8177 -6.20536 -1.71013 144 135 136
-26.2372 -6.22003 -1.74006 133 124 124
-5.94376 -12.8781 -0.87947 164 107 81
-5.97355 -12.8383 -0.87762 177 122 91
-6.10313 -12.9654 -0.890771 179 119 91
-6.15627 -12.9759 -0.893251 139 94 66
-6.17445 -12.9103 -0.889236 125 88 62
-13.3563 -7.6633 -1.07585 147 134 141
-13.3663 -7.55927 -1.07231 148 133 140
-21.3688 -8.49369 -1.56649 136 130 132
-21.3742 -8.41872 -1.56478 138 131 138
-21.4258 -8.3233 -1.56586 142 133 140
-21.4938 -8.27263 -1.56941 140 132 140
-21.5431 -8.21452 -1.57142 139 130 137
-21.6162 -8.12657 -1.57436 148 137 141
-26.6783 -6.193 -1.77085 138 127 122
-27.1295 -6.20895 -1.80309 130 122 117
-27.4665 -6.19609 -1.8268 132 127 124
-5.72467 -12.9744 -0.879437 206 152 108
-5.78257 -12.9993 -0.882999 189 133 91
-5.82571 -12.9892 -0.883623 185 133 90
-5.8712 -12.9844 -0.884711 170 115 78
-5.90251 -12.8922 -0.879155 163 101 79
-21.6763 -8.07204 -1.57729 157 146 146
-21.7326 -8.01583 -1.57992 147 136 132
-21.7868 -7.95867 -1.58239 161 148 139
-21.8645 -7.87106 -1.58579 116 103 102
-21.9146 -7.8119 -1.58795 115 102 107
-21.9683 -7.75383 -1.59042 116 105 112
-22.0321 -7.66032 -1.59273 126 117 124
-22.0891 -7.60293 -1.59551 148 138 139
-27.5334 -6.07536 -1.82968 118 116 117
-27.5262 -5.98336 -1.82779 87 87 93
-27.5492 -5.76266 -1.82618 96 98 100
-27.6774 -5.69918 -1.83441 109 109 110
-5.3702 -12.9082 -0.864089 151 110 76
-5.43068 -12.9438 -0.868424 127 92 64
-5.47572 -12.9405 -0.869512 152 106 83
-5.56001 -12.9747 -0.874469 184 129 92
-5.63196 -13.0353 -0.880968 169 115 75
-5.66897 -13.011 -0.880355 177 123 80
-11.1053 -12.2613 -1.17056 157 131 114
-11.1761 -12.2642 -1.17476 147 124 117
-11.2851 -12.1939 -1.17662 146 115 83
-11.3748 -12.2164 -1.18318 158 126 89
-12.0045 -12.2784 -1.22371 171 142 72
-12.0215 -12.2198 -1.22119 148 123 56
-12.11 -12.1968 -1.22507 161 122 76
-22.131 -7.54011 -1.59706 90 79 84
-22.2033 -7.44869 -1.60015 104 90 89
-22.2693 -7.39351 -1.6037 82 71 75
-22.3295 -7.33612 -1.60679 144 135 140
-22.3819 -7.27596 -1.60926 152 142 148
-22.474 -7.18948 -1.61405 152 145 150
-22.5109 -7.12382 -1.61528 151 145 149
-5.18779 -12.9716 -0.863443 155 116 74
-5.22623 -12.9524 -0.86314 155 123 74
-5.27543 -12.9609 -0.865156 146 116 69
-5.31164 -12.9358 -0.864389 120 87 49
-10.2018 -12.637 -1.14511 136 101 59
-10.3812 -12.6609 -1.15621 149 119 98
-10.299 -12.4785 -1.13991 116 99 97
-10.3148 -12.4189 -1.13689 115 98 100
-10.3391 -12.3702 -1.13505 126 106 105
-10.4154 -12.3454 -1.13757 145 127 125
-10.4114 -12.2628 -1.13203 156 143 135
-10.4504 -12.2322 -1.1322 166 149 146
-10.6392 -12.3407 -1.14952 215 182 159
-10.6938 -12.3277 -1.15171 254 251 211
-10.9216 -12.5174 -1.17642 251 245 213
-10.9874 -12.4759 -1.17743 201 167 137
-10.9462 -12.3502 -1.16718 176 142 123
-11.0234 -12.3615 -1.17223 180 154 138
-11.0886 -12.3193 -1.17324 140 111 90
-11.2948 -12.3201 -1.18502 148 124 113
-11.6559 -12.4469 -1.2136 140 98 56
-11.7352 -12.4162 -1.2163 136 102 59
-11.7937 -12.4017 -1.21882 160 126 76
-11.8413 -12.3755 -1.22 140 106 60
-11.9575 -12.3827 -1.22724 171 141 78
-11.975 -12.3241 -1.22472 146 110 58
-13.8117 -12.1535 -1.3275 146 127 118
-13.8222 -12.0869 -1.32447 155 139 130
-13.913 -12.0914 -1.33053 156 143 129
-14.0115 -12.102 -1.33742 161 148 136
-14.1261 -12.0877 -1.34398 127 119 107
-14.2144 -12.0881 -1.3497 156 148 139
-14.3073 -12.0919 -1.35592 141 131 127
-14.4225 -12.0755 -1.36248 141 131 129
-14.5112 -12.0743 -1.3682 142 130 130
-15.1646 -12.0765 -1.41124 157 147 131
-15.3505 -12.0714 -1.42335 147 133 121
-13.3086 -7.73755 -1.11883 137 126 136
-13.3085 -7.60007 -1.11292 138 128 136
-22.5438 -7.0568 -1.6162 145 142 144
-22.6312 -6.96772 -1.62069 144 136 140
-22.6694 -6.90197 -1.62207 146 138 143
-22.7283 -6.84235 -1.62516 146 136 144
-22.8188 -6.75291 -1.62995 144 137 144
-22.8486 -6.68414 -1.63072 141 134 141
-22.8668 -6.61192 -1.63056 142 132 140
-27.9236 -4.61773 -1.8382 86 92 103
-27.9363 -4.48487 -1.83761 83 91 102
-7.86019 -12.1375 -0.995229 161 119 84
-8.49743 -12.4575 -1.04735 164 124 69
-8.64005 -12.4617 -1.05442 191 131 91
-8.7888 -12.5985 -1.07106 185 123 84
-8.98561 -12.5922 -1.08015 158 113 75
-9.22193 -12.7635 -1.10352 152 112 73
-9.17755 -12.5748 -1.0884 160 119 72
-9.14682 -12.4494 -1.07833 149 107 59
-9.37093 -12.6801 -1.10522 178 129 83
-9.26844 -12.4145 -1.08204 184 135 89
-9.47217 -12.6128 -1.10573 163 123 77
-9.44489 -12.4939 -1.09633 164 119 70
-9.65241 -12.6518 -1.11751 169 119 73
-9.79141 -12.7561 -1.13163 191 141 93
-9.67863 -12.5239 -1.11029 164 112 73
-9.98634 -12.8497 -1.14794 153 110 73
-9.94801 -12.6755 -1.13433 138 93 58
-10.038 -12.7112 -1.1414 153 115 83
-10.0856 -12.6913 -1.14258 155 123 84
-10.169 -12.6761 -1.14594 231 192 146
-10.3742 -12.7741 -1.16326 158 114 81
-15.3398 -12.1402 -1.42621 147 136 125
-15.4642 -12.0454 -1.42957 144 128 119
-15.5794 -12.0588 -1.43798 139 123 116
-15.665 -12.0482 -1.44319 132 119 115
-15.757 -12.0031 -1.44706 128 117 113
-15.7843 -11.9467 -1.44606 149 135 125
-15.8336 -11.9073 -1.4474 147 134 123
-15.8791 -11.8261 -1.4464 121 106 92
-15.9137 -11.7755 -1.44623 151 132 126
-15.9658 -11.7379 -1.44791 148 129 123
-16.0113 -11.6953 -1.44892 149 131 123
-16.0863 -11.6357 -1.45111 150 138 130
-16.1332 -11.5938 -1.45229 149 140 131
-16.1832 -11.5541 -1.4538 149 139 133
-16.2528 -11.4901 -1.45548 144 130 129
-16.3025 -11.4498 -1.457 144 133 131
-16.3441 -11.4036 -1.45767 147 137 135
-16.4131 -11.3386 -1.45935 135 124 128
-16.4739 -11.3057 -1.46204 136 125 129
-16.5118 -11.2566 -1.46238 144 135 140
-16.5889 -11.2344 -1.46675 142 131 139
-16.654 -11.1658 -1.4681 139 128 134
-16.7112 -11.1295 -1.47045 136 126 134
-16.7816 -11.1018 -1.47415 135 127 135
-16.8428 -11.0299 -1.47516 137 127 135
-16.9015 -10.9938 -1.47768 137 127 135
-16.9851 -10.9738 -1.48272 135 128 136
-17.0641 -10.9127 -1.48558 112 102 110
-17.1075 -10.8659 -1.48659 110 93 92
-17.1659 -10.8287 -1.48911 138 116 104
-17.2293 -10.7943 -1.49214 142 116 95
-17.3195 -10.739 -1.49617 145 127 127
-13.3527 -7.70804 -1.12092 136 125 134
-13.3643 -7.57729 -1.11622 137 124 134
-22.9288 -6.55222 -1.63395 142 136 140
-22.9951 -6.45453 -1.63689 141 136 140
-23.051 -6.3925 -1.63982 142 136 140
-23.1105 -6.33122 -1.64306 141 135 139
-23.2105 -6.24155 -1.64878 140 134 138
-23.2832 -6.18303 -1.65311 137 130 134
-27.971 -4.40053 -1.83919 85 93 109
-27.9721 -4.31082 -1.83831 80 87 104
-27.9846 -4.22293 -1.8383 81 88 104
-28.0172 -4.09306 -1.8393 99 105 119
-28.0212 -4.0039 -1.83871 92 98 114
-8.47076 -12.8026 -1.07035 164 121 70
-8.51447 -12.7834 -1.07103 165 113 66
-8.50285 -12.6788 -1.06314 180 129 84
-8.65999 -12.7896 -1.07827 181 135 88
-8.60629 -12.5376 -1.05811 159 122 67
-8.94296 -12.7411 -1.08838 182 129 87
-9.02805 -12.7377 -1.09225 170 122 78
-9.22131 -12.8472 -1.10923 135 96 60
-7.45628 -6.96946 -0.756368 84 61 30
-7.47808 -6.92537 -0.755027 120 102 88
-7.44975 -6.85592 -0.748515 157 139 125
-7.42978 -6.79488 -0.743151 168 148 138
-7.4769 -6.77535 -0.745258 169 154 148
-7.52071 -6.77385 -0.748321 170 156 146
-17.3709 -10.6966 -1.49802 138 128 137
-17.4239 -10.655 -1.50004 138 129 137
-17.4815 -10.5786 -1.50088 135 126 136
-17.558 -10.551 -1.50525 137 128 136
