-35.7864 15.8333 -0.807752 75 86 104
-35.4422 15.806 -0.798907 79 91 111
-35.1419 15.7969 -0.79134 79 91 107
-34.7991 15.8303 -0.78314 77 84 102
-34.4979 15.8165 -0.775527 76 85 102
-34.188 15.7965 -0.767653 75 87 103
-33.9002 15.7852 -0.760418 73 83 101
-33.6293 15.8433 -0.754302 78 84 101
-33.3172 15.816 -0.746333 89 94 111
-17.4962 15.8127 -0.469005 82 78 93
-17.3623 15.8319 -0.466365 77 81 91
-17.2477 15.8193 -0.463559 81 80 93
-17.1476 15.8204 -0.461344 80 80 93
-17.0171 15.8401 -0.458826 81 81 94
-16.9116 15.8343 -0.456378 81 80 93
-16.798 15.8195 -0.453577 79 81 94
-16.6625 15.8313 -0.450827 83 81 95
-16.5549 15.8209 -0.448265 84 80 92
-16.4628 15.8259 -0.446351 82 79 90
-16.3308 15.8384 -0.443724 82 80 93
-16.2362 15.8394 -0.441695 82 80 93
-16.1267 15.824 -0.43902 84 82 93
-16.0283 15.8198 -0.436816 83 80 91
-15.8958 15.8279 -0.434135 85 81 96
-15.8087 15.8343 -0.432405 83 79 94
-15.7028 15.8197 -0.429852 83 80 93
-15.579 15.8346 -0.427528 84 82 91
-15.4816 15.8278 -0.425331 83 81 92
-15.387 15.8235 -0.423251 84 82 92
-15.2704 15.8438 -0.421226 83 80 90
-15.204 15.87 -0.420382 84 81 92
-15.0466 15.7922 -0.415486 83 80 91
-14.9674 15.8528 -0.415109 83 81 86
-14.7594 15.8146 -0.410022 86 81 89
-14.6609 15.8008 -0.407715 85 80 90
-14.5469 15.8183 -0.405757 83 80 89
-14.4566 15.8127 -0.403805 86 84 89
-14.3626 15.8021 -0.401677 88 82 90
-14.2516 15.8209 -0.399839 88 81 91
-14.1644 15.817 -0.398007 88 78 87
-14.0697 15.8035 -0.395824 88 75 82
-13.9592 15.8205 -0.39399 88 78 77
-13.8724 15.8153 -0.39216 84 72 72
-13.7846 15.8082 -0.390273 92 83 84
-13.6684 15.8156 -0.388149 89 84 90
-13.5907 15.8202 -0.386732 90 85 91
-13.5046 15.8134 -0.384906 85 82 91
-13.4223 15.8109 -0.383257 90 86 94
-13.308 15.8176 -0.381196 87 83 90
-13.2285 15.8175 -0.379665 85 83 88
-13.1382 15.8027 -0.377609 85 80 87
-13.0365 15.8237 -0.376137 87 81 87
-12.9549 15.8192 -0.374491 87 79 88
-12.8723 15.8127 -0.372789 87 80 88
-12.7627 15.8209 -0.37091 87 84 85
-12.6922 15.8297 -0.369793 90 86 88
-12.6265 15.8448 -0.36891 91 86 87
-12.5358 15.8775 -0.367968 90 86 88
-12.4978 15.931 -0.368487 93 89 89
-12.4711 16.0008 -0.369588 95 88 88
-12.3902 16.0473 -0.369172 99 92 86
-12.167 15.8346 -0.360245 99 91 88
-12.0768 15.8115 -0.358083 104 95 92
-12.0003 15.8077 -0.356622 100 89 84
-11.9014 15.8239 -0.355221 100 92 90
-11.823 15.8161 -0.353644 101 93 90
-11.7447 15.808 -0.352069 99 90 85
-11.6451 15.821 -0.350612 104 91 82
-11.5726 15.8205 -0.349329 95 85 76
-11.4959 15.8129 -0.347815 92 83 77
-11.3966 15.8245 -0.34636 103 90 81
-11.3202 15.8162 -0.344847 101 89 74
-11.2503 15.8177 -0.343684 96 84 70
-11.1536 15.8313 -0.342349 91 83 77
-11.0808 15.8271 -0.341012 90 81 76
-11.0123 15.8293 -0.339909 95 85 79
-10.9428 15.8296 -0.338748 103 93 87
-10.86 15.8636 -0.338171 107 98 92
-10.8114 15.8974 -0.338173 104 95 83
-10.7555 15.9191 -0.337768 91 79 70
-10.6683 15.9453 -0.33696 93 85 74
-10.6083 15.9597 -0.336324 95 85 74
-10.5431 15.9652 -0.335399 91 79 65
-10.6455 16.3167 -0.345555 100 86 76
-10.3919 15.9969 -0.333726 98 84 76
-11.5611 20.8724 -0.386535 116 101 84
-9.2755 20.2468 -0.345446 128 106 83
-39.8457 11.1165 -0.876611 74 83 98
-39.8221 15.8077 -0.909176 73 81 97
-39.4202 15.8537 -0.899371 75 82 100
-39.0417 15.8362 -0.889632 78 87 104
-38.6177 15.797 -0.878567 79 88 105
-38.2587 15.7827 -0.86937 77 88 103
-37.8643 15.8191 -0.859745 76 87 107
-37.5099 15.8017 -0.850662 74 85 105
-37.176 15.791 -0.842169 74 85 103
-36.8123 15.8318 -0.83341 77 85 104
-36.4575 15.8069 -0.824287 80 89 106
-36.1196 15.7873 -0.815647 76 89 106
-21.0471 15.8078 -0.55249 78 81 96
-20.9234 15.8112 -0.549527 77 81 93
-20.7564 15.8295 -0.545775 77 81 94
-20.6037 15.8073 -0.541686 79 82 96
-20.4822 15.8097 -0.538787 78 80 94
-19.904 15.8348 -0.525331 78 80 95
-19.785 15.835 -0.522498 78 80 93
-19.6329 15.8059 -0.518361 77 79 91
-19.4956 15.8388 -0.515694 78 76 89
-19.3743 15.8343 -0.512747 82 74 87
-19.2517 15.828 -0.509742 84 79 89
-19.1218 15.8144 -0.506441 80 80 90
-18.9778 15.8373 -0.503485 79 77 89
-18.8499 15.8236 -0.500247 79 77 90
-18.7371 15.8226 -0.497602 78 78 90
-18.3471 15.8176 -0.488481 81 80 96
-18.2117 15.8422 -0.485829 81 79 95
-18.0912 15.8299 -0.482837 82 81 96
-17.984 15.8293 -0.480378 83 81 96
-17.839 15.8419 -0.477317 83 85 97
-17.7221 15.8304 -0.474447 108 108 108
-17.6112 15.8239 -0.471814 105 102 108
-10.5194 16.3379 -0.34405 93 81 73
-9.27639 16.5176 -0.329677 110 99 80
-9.03944 16.2969 -0.320744 110 94 79
-9.10497 16.5666 -0.328487 114 98 81
-8.80859 16.1456 -0.313671 116 101 80
-8.72386 16.0991 -0.311317 114 96 81
-8.65978 16.0957 -0.310348 110 87 70
-8.70427 16.3941 -0.318554 122 106 87
-8.64694 16.4069 -0.318103 119 101 87
-8.25816 16.1642 -0.306691 115 98 80
-8.09752 16.0053 -0.300493 121 104 86
-8.03061 15.9904 -0.299241 123 105 85
-7.86423 15.742 -0.29068 122 102 83
-7.83262 15.8073 -0.291964 123 100 82
-7.85965 16.0838 -0.299469 123 101 80
-44.6258 15.8145 -1.03218 74 83 98
-44.1574 15.7969 -1.01998 75 84 99
-43.7045 15.782 -1.00821 75 84 101
-43.2256 15.8297 -0.996275 75 84 101
-42.7794 15.8109 -0.98468 75 84 99
-42.3318 15.7887 -0.973036 76 85 102
-41.0255 15.7915 -0.93967 67 68 80
-40.587 15.8326 -0.928836 73 82 97
-40.2108 15.8239 -0.91919 74 82 99
-24.3059 15.8156 -0.634505 77 80 94
-23.4197 15.8326 -0.612097 70 81 98
-23.2702 15.831 -0.608275 87 98 117
-23.0885 15.8052 -0.603262 89 98 114
-22.9428 15.8043 -0.599563 86 95 107
-22.7499 15.8199 -0.59495 95 97 110
-22.6094 15.8207 -0.591433 75 74 90
-22.4372 15.797 -0.586726 79 82 99
-22.2836 15.8378 -0.58355 80 78 99
-22.1104 15.8108 -0.578788 78 80 98
-21.9772 15.8133 -0.575516 78 81 98
-21.7878 15.823 -0.570976 76 83 98
-21.6599 15.8275 -0.567887 77 82 96
-21.4959 15.803 -0.563429 80 82 96
-21.3653 15.8036 -0.560224 78 80 96
-21.2101 15.8349 -0.556942 76 80 97
-12.8807 23.1394 -0.452897 109 92 79
-11.5705 22.5607 -0.423755 117 98 81
-10.3011 22.5762 -0.409419 130 108 85
-10.0674 22.409 -0.403083 129 109 82
-9.91159 22.3265 -0.399524 133 118 79
-9.84349 22.3614 -0.399593 129 117 79
-9.78102 22.4111 -0.400063 128 116 78
-44.9221 11.0316 -1.01046 77 84 100
-44.867 11.2367 -1.01002 82 88 102
-50.0049 15.8031 -1.17162 76 85 102
-49.4022 15.7753 -1.15572 76 85 100
-47.6909 15.7827 -1.11126 84 87 100
-47.1872 15.773 -1.09811 75 84 99
-46.648 15.8275 -1.08452 75 84 99
-46.1511 15.8129 -1.07155 76 85 100
-45.6265 15.7852 -1.05779 75 84 101
-45.1003 15.8314 -1.04454 76 85 102
-27.3409 15.8577 -0.714678 77 79 94
-26.9963 15.815 -0.70491 78 81 95
-26.7979 15.8042 -0.699493 78 83 95
-26.5932 15.7881 -0.693839 68 70 83
-26.3893 15.8263 -0.688997 62 60 74
-26.1852 15.8078 -0.683348 80 81 96
-25.9967 15.7978 -0.678241 77 80 95
-25.7802 15.8231 -0.672928 77 80 95
-25.5906 15.8097 -0.667765 75 77 90
-25.4081 15.7996 -0.662843 76 79 94
-25.2175 15.783 -0.657625 75 80 94
-25.0157 15.8115 -0.652801 75 80 94
-24.8424 15.8038 -0.648186 74 80 94
-24.6892 15.8085 -0.644289 77 80 97
-24.4602 15.814 -0.638457 76 79 96
-17.9363 19.399 -0.550904 83 80 91
-11.5958 18.4209 -0.411868 120 110 104
-11.5481 18.7509 -0.41919 116 101 97
-11.0211 18.137 -0.395943 103 89 80
-11.1122 18.444 -0.404907 94 80 71
-11.1137 18.6582 -0.410218 101 85 80
-10.9785 18.5464 -0.405406 94 77 69
-10.9017 18.5436 -0.404182 95 79 66
-10.7794 18.5238 -0.401857 92 78 68
-10.6819 18.4794 -0.399305 104 87 79
-9.0941 17.9089 -0.362559 118 101 83
-9.24075 22.4855 -0.396194 133 116 88
-9.17824 22.6477 -0.3993 135 118 96
-9.17423 22.8651 -0.40427 136 121 106
-49.8513 11.1451 -1.14228 88 85 92
-56.7599 15.7992 -1.34882 75 84 99
-55.2131 15.7265 -1.30765 74 73 87
-54.5502 15.8063 -1.29069 76 85 97
-53.8456 15.7775 -1.272 76 83 101
-53.1934 15.7601 -1.25477 77 86 103
-52.5151 15.8187 -1.23735 80 89 106
-51.8623 15.7917 -1.22009 73 82 99
-51.2578 15.7759 -1.20417 75 84 101
-50.6196 15.7455 -1.18729 75 84 101
-29.8017 11.0149 -0.72689 77 84 102
-29.8045 11.1711 -0.72843 76 85 102
-31.0526 13.7121 -0.790046 78 89 107
-30.3554 13.8936 -0.772427 87 89 102
-30.372 14.0144 -0.774269 79 84 101
-30.1079 13.9991 -0.766692 77 83 102
-29.876 14.0537 -0.760838 86 93 114
-29.9471 15.1132 -0.775543 77 91 89
-29.7293 15.1132 -0.769548 66 68 84
-29.6623 15.25 -0.769423 81 83 94
-29.6434 15.3553 -0.770233 84 78 90
-29.8047 15.5593 -0.777242 85 57 63
-29.0254 15.8221 -0.75945 105 109 128
-28.7739 15.7937 -0.752268 107 114 127
-28.524 15.8218 -0.745898 79 79 92
-28.3079 15.8104 -0.739924 79 77 91
-28.0921 15.7979 -0.733952 80 77 94
-27.8801 15.7862 -0.728103 78 77 95
-27.7122 15.856 -0.724565 80 78 95
-27.6136 15.9101 -0.72268 79 78 94
-10.6331 18.7481 -0.405297 100 84 69
-14.982 27.484 -0.574558 106 94 72
-10.4133 24.616 -0.457017 128 111 83
-10.3435 24.6676 -0.457475 127 113 86
-56.2655 10.808 -1.31285 67 69 82
-54.8924 11.1525 -1.27724 90 94 103
-61.606 15.7512 -1.47673 80 81 101
-60.7411 15.7255 -1.45366 77 83 102
-59.8755 15.7928 -1.4311 76 85 102
-59.0468 15.7647 -1.40902 77 86 101
-58.2844 15.7495 -1.38878 76 85 100
-57.4899 15.7207 -1.36764 76 85 100
-34.7593 11.1494 -0.873085 74 83 98
-31.6279 15.1545 -0.822615 69 70 83
-31.4477 15.3625 -0.820082 77 83 97
-31.466 15.492 -0.822151 79 87 101
-31.7943 15.8433 -0.835508 61 61 67
-12.8985 10.5608 -0.392043 86 81 89
-12.8906 10.6546 -0.394079 82 78 89
-10.7056 26.2609 -0.497697 135 117 93
-10.0536 25.6057 -0.476125 138 128 116
-67.1281 10.9098 -1.60598 82 85 98
-64.8069 11.0393 -1.54367 75 80 94
-59.9006 10.3774 -1.40933 66 64 81
-66.3395 15.6813 -1.60222 87 84 90
-65.3048 15.752 -1.57501 74 82 95
-64.3497 15.7277 -1.54948 81 87 104
-38.5187 15.825 -1.0248 75 86 105
-38.145 15.8032 -1.01388 77 89 105
-37.7653 15.8444 -1.00346 73 84 102
-37.4164 15.8281 -0.993336 75 86 104
-37.077 15.8138 -0.98352 74 85 103
-36.7024 15.8483 -0.973234 80 88 107
-36.3404 15.8188 -0.96264 78 89 109
-36.0134 15.803 -0.953199 75 87 109
-35.0485 15.8148 -0.92606 83 87 101
-34.727 15.7927 -0.916755 92 93 100
-11.5564 20.9032 -0.472752 134 122 110
-11.101 27.0739 -0.520368 133 116 88
-10.2475 26.4265 -0.496972 144 125 111
-67.2061 10.7098 -1.60756 78 81 96
-39.867 11.0591 -1.02406 74 83 98
-39.7853 11.1668 -1.02235 76 85 101
-42.6044 15.8245 -1.14267 75 86 103
-40.8674 15.8045 -1.09216 80 82 95
-40.4622 15.8572 -1.08097 73 81 101
-40.0694 15.8402 -1.06949 74 83 100
-39.6733 15.8194 -1.05788 74 84 100
-39.2852 15.7994 -1.04652 76 87 103
-38.893 15.8447 -1.03572 77 88 106
-14.7688 11.2381 -0.463667 77 80 95
-14.6822 11.2383 -0.46105 76 79 96
-12.9194 22.9997 -0.545141 123 112 115
-44.8739 11.101 -1.17448 59 62 78
-47.4861 15.8059 -1.28526 74 85 97
-46.9862 15.7954 -1.27047 75 84 99
-46.4488 15.8482 -1.25513 74 83 100
-45.9481 15.8302 -1.24029 74 82 101
-45.4235 15.8004 -1.22467 73 81 100
-44.9615 15.79 -1.21106 77 86 103
-44.4528 15.8364 -1.1966 77 86 103
-43.9881 15.8183 -1.18288 75 84 101
-43.5334 15.8009 -1.16947 73 82 99
-43.0581 15.8479 -1.15607 76 84 101
-16.9121 10.829 -0.522124 77 81 95
-16.8225 10.8763 -0.520188 76 77 95
-16.8088 10.9401 -0.521048 79 81 96
-16.8061 11.0119 -0.52244 80 79 95
-14.8164 24.2889 -0.605929 96 90 91
-14.748 24.3474 -0.606284 97 88 89
-11.4041 22.6284 -0.514368 143 127 113
-11.3235 22.7367 -0.516056 130 114 100
-10.2643 22.0358 -0.484244 134 112 89
-10.264 22.2344 -0.489401 124 103 83
-10.0743 22.0699 -0.48276 125 104 85
-10.0232 22.3503 -0.489449 132 116 84
-9.87461 22.2842 -0.485915 154 134 87
-9.80736 22.3209 -0.48607 140 119 82
-49.8532 11.0803 -1.32474 84 75 74
-52.9287 15.787 -1.4461 76 88 104
-52.2522 15.843 -1.42642 75 88 105
-51.6412 15.8266 -1.40816 73 85 101
-51.0156 15.8016 -1.38943 76 85 102
-50.4001 15.7759 -1.37101 76 83 101
-49.7624 15.8233 -1.35252 73 85 101
-49.2129 15.8106 -1.33618 75 84 100
-9.80507 14.0065 -0.409707 92 87 91
-9.72459 14.0249 -0.408588 93 88 92
-9.68793 14.0653 -0.409081 94 89 95
-9.62844 14.068 -0.407937 96 94 99
-10.2414 22.6892 -0.500964 130 111 90
-9.75001 22.3835 -0.487029 127 113 75
-9.47871 22.7469 -0.493426 132 115 87
-9.40435 22.7674 -0.493122 134 117 90
-9.20954 22.4532 -0.482608 131 114 88
-9.1864 22.614 -0.486608 133 112 91
-54.909 11.002 -1.47785 82 80 92
-58.7201 15.7985 -1.61907 76 85 100
-57.9402 15.7754 -1.59555 76 85 100
-57.1763 15.7518 -1.57254 75 84 99
-54.9699 15.7684 -1.50674 80 85 99
-54.2666 15.8331 -1.48624 77 86 101
-53.5696 15.8037 -1.46528 75 82 100
-20.0973 10.471 -0.621967 85 81 94
-20.0706 10.534 -0.622128 79 59 66
-12.8599 10.5901 -0.455977 82 76 85
-12.8076 10.6434 -0.455737 80 77 94
-9.54995 14.0889 -0.406968 94 92 97
-9.47837 14.0704 -0.404933 94 92 97
-9.42315 14.0792 -0.404089 97 92 96
-9.34081 14.0921 -0.402824 96 91 98
-9.29166 14.1107 -0.402426 96 93 100
-9.22559 14.0998 -0.400766 96 93 100
-9.09919 14.1383 -0.399478 97 94 94
-9.05486 14.1648 -0.399453 98 96 97
-9.00657 14.1843 -0.399131 98 96 99
-8.94934 14.2403 -0.3998 97 94 98
-8.89798 14.2542 -0.399256 98 95 98
-8.86656 14.3047 -0.40027 105 101 101
-8.81136 14.3655 -0.401162 105 97 98
-8.77283 14.4036 -0.401657 104 94 92
-9.95536 23.4694 -0.517985 129 105 85
-9.10075 22.714 -0.488303 138 122 107
-8.91723 22.6504 -0.484605 135 122 109
-8.84227 22.7834 -0.487332 142 120 98
-59.7453 10.4732 -1.62321 101 97 113
-56.2482 10.918 -1.51826 112 116 126
-65.0636 15.8333 -1.81 80 83 100
-8.74622 14.4645 -0.403116 115 104 99
-8.70569 14.555 -0.405268 114 107 97
-8.70762 14.6726 -0.409099 108 99 95
-8.69888 14.7709 -0.412113 109 99 93
-8.70951 14.9084 -0.416758 117 109 101
-10.3993 24.8896 -0.560552 127 110 85
-67.1122 10.8391 -1.84999 75 81 96
-64.7854 11.1735 -1.77991 71 69 83
-14.748 11.224 -0.534521 75 81 95
-14.6782 11.2381 -0.532556 77 80 95
-19.3194 15.8012 -0.706303 85 80 88
-19.1955 15.7934 -0.702438 83 78 92
-19.0688 15.7823 -0.698422 79 77 92
-18.9295 15.809 -0.69494 79 76 93
-18.8033 15.7965 -0.690928 78 77 93
-18.3071 15.7954 -0.676407 78 78 96
-18.1588 15.8076 -0.672406 79 78 97
-18.0501 15.8061 -0.669233 81 80 94
-17.9329 15.7958 -0.665608 80 81 99
-17.8246 15.7932 -0.662437 72 74 87
-17.6845 15.809 -0.65882 102 102 104
-17.5651 15.7941 -0.655048 91 88 96
-17.4588 15.7911 -0.651957 82 81 97
-17.3179 15.8031 -0.648269 82 81 95
-17.2106 15.7975 -0.645104 82 81 95
-17.0979 15.7857 -0.641639 81 80 96
-16.9577 15.7953 -0.637956 82 79 96
-16.8609 15.7979 -0.635322 81 79 93
-16.753 15.7886 -0.632087 83 82 96
-16.6248 15.8073 -0.629011 81 80 94
-16.5215 15.8012 -0.626004 82 81 95
-16.4184 15.7945 -0.622999 81 80 94
-16.3113 15.7831 -0.619768 83 81 95
-16.1866 15.8019 -0.616848 84 82 96
-16.0841 15.7936 -0.613846 83 81 95
-15.9859 15.7892 -0.61107 83 81 95
-15.8631 15.8074 -0.608229 84 82 96
-15.7666 15.8035 -0.605531 85 83 96
-15.6702 15.799 -0.602834 83 81 94
-15.5385 15.8049 -0.599471 84 82 96
-15.4493 15.8068 -0.597152 83 81 95
-15.3495 15.7964 -0.594233 85 83 96
-15.2225 15.8046 -0.591099 86 82 95
-15.1839 15.862 -0.591637 84 80 94
-15.0003 15.7543 -0.583915 84 80 94
-14.9578 15.8065 -0.584228 83 80 91
-14.7148 15.7776 -0.577137 86 80 93
-14.6242 15.7728 -0.574675 84 78 90
-14.5065 15.7855 -0.572001 84 81 92
-14.4163 15.7798 -0.569542 85 82 93
-14.325 15.7721 -0.567009 86 83 94
-14.2104 15.786 -0.564489 89 83 93
-14.1195 15.7774 -0.561957 85 78 86
-14.0312 15.7714 -0.559577 87 75 82
-13.9209 15.7882 -0.557285 88 78 81
-13.8342 15.7829 -0.554981 84 72 72
-13.7489 15.7788 -0.552753 83 76 73
-13.6614 15.7711 -0.550377 86 84 89
-13.5541 15.7888 -0.548239 86 83 92
-13.4619 15.774 -0.545564 89 83 93
-13.3847 15.7777 -0.543789 85 83 94
-13.2717 15.7858 -0.54128 87 85 96
-13.1899 15.7823 -0.539207 86 84 97
-13.1105 15.7817 -0.537285 88 85 96
-13.0005 15.7913 -0.534929 88 85 95
-12.9179 15.7851 -0.532784 89 87 97
-12.8378 15.7817 -0.530789 90 90 100
-12.7318 15.7945 -0.528661 89 89 99
-12.679 15.8274 -0.528387 91 89 100
-12.6413 15.8812 -0.529084 91 89 100
-12.5649 15.8814 -0.527315 89 86 95
-12.5215 15.9803 -0.529222 90 87 96
-12.3391 15.9368 -0.523748 91 88 94
-12.1275 15.794 -0.514684 91 88 97
-12.0453 15.7823 -0.512473 92 86 96
-11.9734 15.785 -0.510934 93 87 97
-11.8712 15.796 -0.508965 93 90 97
-11.7951 15.7914 -0.507129 91 88 95
-11.7158 15.7815 -0.505071 92 88 94
-11.6217 15.8026 -0.503626 88 78 79
-11.5372 15.7836 -0.501197 90 80 78
-11.4682 15.7876 -0.499811 100 91 80
-11.3668 15.7957 -0.497848 98 86 73
-11.2937 15.7923 -0.496166 103 91 75
-11.2153 15.7802 -0.494112 92 80 75
-11.1467 15.783 -0.492729 93 83 86
-11.0513 15.7976 -0.491142 93 88 94
-9.99427 25.5179 -0.572612 138 126 113
-16.9024 10.8294 -0.599582 77 80 95
-16.8446 10.8625 -0.598274 75 78 95
-16.8006 10.9415 -0.598507 76 79 96
-22.7132 15.8077 -0.811022 95 97 110
-22.5505 15.7919 -0.805526 75 81 97
-22.4009 15.7848 -0.800641 75 83 96
-22.2268 15.8098 -0.795676 77 83 99
-22.0698 15.7949 -0.790415 76 81 100
-21.9178 15.7828 -0.785382 77 82 99
-21.7462 15.8057 -0.780501 76 82 98
-21.6058 15.8003 -0.776003 76 82 98
-21.4594 15.7893 -0.771204 78 81 98
-21.3211 15.7837 -0.766785 76 79 96
-21.1599 15.8099 -0.762366 77 80 95
-21.0096 15.7927 -0.757344 76 79 94
-20.8611 15.776 -0.7524 76 82 96
-20.7115 15.8079 -0.748517 78 81 97
-20.5668 15.792 -0.743728 77 80 95
-20.4377 15.788 -0.739698 78 81 96
-20.0057 15.7837 -0.726481 76 77 95
-19.8806 15.7794 -0.722608 79 78 94
-19.7204 15.7945 -0.718133 80 79 95
-19.5973 15.7901 -0.714339 80 79 93
-19.4759 15.7863 -0.710622 79 77 91
-9.09195 15.8464 -0.454105 112 101 99
-9.0003 15.7891 -0.450591 111 98 93
-8.93652 15.7868 -0.449375 106 97 94
-8.84888 15.7981 -0.448182 109 100 93
-8.78355 15.7917 -0.446819 115 103 94
-8.7166 15.7814 -0.445309 120 112 99
-8.62582 15.7844 -0.443822 126 113 99
-8.56684 15.7897 -0.442979 128 116 102
-8.5011 15.7804 -0.441544 127 115 103
-8.41321 15.7877 -0.440282 118 105 100
-8.35191 15.7868 -0.439218 110 95 90
-8.28821 15.7803 -0.437934 108 94 87
-25.9418 15.7772 -0.915427 80 79 95
-25.7438 15.7597 -0.908524 79 79 97
-25.5315 15.7857 -0.901993 75 78 93
-25.3559 15.78 -0.896085 78 77 93
-25.1672 15.7645 -0.88957 76 79 94
-24.9758 15.7996 -0.883961 75 77 92
-24.7977 15.7885 -0.877907 77 80 95
-24.6216 15.7775 -0.871931 75 78 95
-24.4129 15.7964 -0.865493 76 79 96
-24.2555 15.7957 -0.860359 76 80 96
-16.8012 11.0158 -0.60023 75 80 96
-23.389 15.773 -0.831894 62 69 88
-23.202 15.7967 -0.826385 86 98 115
-23.0449 15.7884 -0.821188 87 97 113
-22.8768 15.771 -0.815461 88 95 108
-16.8921 18.1998 -0.699677 84 78 90
-8.20225 15.79 -0.436821 106 88 84
-8.13795 15.7811 -0.435464 96 78 81
-8.0778 15.7811 -0.434476 102 88 87
-8.0145 15.7735 -0.433194 111 100 94
-7.92655 15.7764 -0.431862 116 105 100
-7.90672 15.8692 -0.434645 117 106 102
-7.92616 16.0557 -0.441194 117 108 106
-29.7093 10.995 -0.97281 76 85 102
-29.7809 11.1776 -0.977688 76 84 103
-29.7373 13.6125 -1.00946 83 80 88
-29.7009 13.7053 -1.00956 93 93 111
-29.5674 13.7509 -1.00552 85 85 101
-29.4068 13.8375 -1.00116 96 95 104
-29.434 13.9612 -1.00402 105 106 115
-29.4464 14.0781 -1.00626 79 83 94
-29.3578 14.2 -1.00504 87 78 71
-28.7187 13.9858 -0.979242 108 103 105
-28.7024 14.0865 -0.980264 79 74 79
-28.9566 15.7967 -1.0175 102 114 128
-28.709 15.7704 -1.00858 99 104 116
-28.5067 15.7686 -1.00164 121 120 134
-28.2576 15.7951 -0.993623 79 78 94
-28.0439 15.7836 -0.986159 76 78 93
-27.8134 15.7608 -0.977933 76 79 94
-27.6732 15.8467 -0.974734 75 81 97
-27.6619 15.9533 -0.976285 77 80 95
-27.2224 15.7998 -0.958678 77 80 95
-26.9346 15.7914 -0.948846 80 86 100
-26.7383 15.7816 -0.942084 84 91 104
-26.5508 15.7761 -0.935706 64 66 79
-26.3254 15.8005 -0.92863 71 67 81
-26.1368 15.7915 -0.92218 82 83 98
-9.99944 13.973 -0.480299 102 90 76
-9.81847 13.9298 -0.47459 96 86 91
-9.77386 13.9568 -0.474487 94 87 94
-9.6937 13.975 -0.473261 94 89 95
-9.63243 13.9744 -0.471837 92 90 95
-9.57843 13.9854 -0.470992 93 91 96
-7.91818 16.2514 -0.447617 117 106 102
-7.93665 16.4422 -0.45431 117 106 99
-7.95172 16.6278 -0.46078 118 107 102
-31.2443 13.5297 -1.06205 75 87 103
-30.9922 13.5287 -1.053 75 86 103
-30.7713 13.5405 -1.04526 77 88 106
-30.4805 13.5743 -1.03536 79 85 103
-30.2201 13.6758 -1.02757 86 85 88
-31.4366 15.7913 -1.10315 68 57 54
-29.9677 15.1381 -1.04136 64 51 39
-29.7819 15.1551 -1.03517 92 84 64
-29.6587 15.262 -1.03264 76 71 78
-20.1539 10.4384 -0.711435 71 69 79
-20.0505 10.4587 -0.707904 66 65 84
-30.158 15.7658 -1.05831 97 76 92
-29.9378 15.8218 -1.05164 67 45 44
-15.0185 19.6248 -0.694331 90 84 96
-9.48819 13.9854 -0.468943 95 94 99
-9.47376 14.0631 -0.471317 95 91 98
-9.36627 13.9822 -0.466101 96 91 97
-9.22177 13.9889 -0.463129 97 95 96
-9.18485 14.0281 -0.463689 96 94 97
-9.10062 13.9836 -0.460291 97 92 99
-9.02503 14.0052 -0.459402 103 98 104
-8.96466 14.0019 -0.457984 89 83 89
-8.90825 14.0053 -0.456896 86 78 82
-8.82795 14.0171 -0.455597 81 75 82
-8.77167 14.02 -0.45451 81 75 85
-8.71449 14.021 -0.453342 81 75 84
-8.63626 14.0352 -0.452209 80 75 79
-8.5913 14.0587 -0.452112 80 76 77
-7.95275 16.8577 -0.468525 118 108 102
-7.97341 17.0642 -0.475803 119 109 101
-34.6643 11.0138 -1.15654 77 85 100
-34.7178 11.1483 -1.15994 77 86 101
-14.9986 15.7722 -0.669929 85 79 91
-14.6149 15.7811 -0.659249 84 78 92
-14.3172 15.7815 -0.65088 85 82 93
-8.59678 14.2895 -0.460478 94 96 109
-8.5686 14.4025 -0.463953 92 92 104
-8.57502 14.529 -0.468627 89 87 100
-8.57709 14.6485 -0.47297 86 82 96
-7.98692 17.2562 -0.482488 121 111 102
-7.98281 17.4871 -0.490225 122 111 101
-8.00454 17.7075 -0.498013 124 112 100
-38.7648 15.8002 -1.3645 79 90 108
-38.3987 15.7837 -1.35101 74 85 103
-38.0276 15.7628 -1.33729 74 87 104
-37.656 15.8071 -1.32446 77 85 104
-37.2895 15.7829 -1.31091 75 86 104
-36.9673 15.7759 -1.2992 73 84 102
-36.5881 15.8079 -1.286 75 86 104
-19.988 15.797 -0.826342 78 80 95
-19.8508 15.7821 -0.821398 79 80 98
-19.7043 15.8085 -0.817219 79 78 94
-19.5752 15.7986 -0.812697 80 79 93
-19.4433 15.7853 -0.808009 82 78 92
-19.296 15.8077 -0.803751 82 79 88
-19.1706 15.7983 -0.799402 81 79 93
-19.05 15.7922 -0.795305 80 79 93
-18.9048 15.8133 -0.791136 79 78 94
-18.7757 15.7978 -0.786539 77 79 94
-18.6616 15.795 -0.782781 77 79 92
-18.2798 15.7954 -0.770522 77 81 96
-18.1593 15.7835 -0.766352 78 80 95
-18.0157 15.7986 -0.762194 78 80 93
-17.9088 15.7976 -0.758779 82 81 98
-17.7948 15.7893 -0.754946 85 86 98
-17.6547 15.8048 -0.750961 114 112 115
-17.5469 15.8006 -0.747465 72 69 79
-17.4264 15.7834 -0.743219 81 80 98
-17.2999 15.8091 -0.73999 79 81 94
-17.1913 15.8019 -0.736415 79 81 94
-17.0843 15.7955 -0.732925 79 78 94
-16.9484 15.8091 -0.729116 81 78 95
-16.8362 15.7958 -0.725294 82 79 96
-16.7368 15.7949 -0.722225 83 82 98
-16.632 15.7877 -0.718822 82 81 97
-16.504 15.8056 -0.715436 83 82 96
-16.4038 15.8016 -0.712287 81 80 94
-16.3023 15.7957 -0.709055 82 80 94
-16.1653 15.8012 -0.705089 84 82 97
-16.0738 15.8044 -0.702444 83 80 96
-15.9675 15.7911 -0.698882 84 82 98
-15.842 15.8061 -0.695587 86 83 99
-15.7403 15.796 -0.692278 82 79 97
-15.6427 15.7899 -0.68922 83 80 97
-15.5272 15.8133 -0.686513 83 80 97
-15.4273 15.8031 -0.68329 84 82 95
-15.3303 15.7955 -0.680235 84 82 93
-15.2348 15.789 -0.677264 85 83 94
-15.1727 15.8699 -0.677892 84 81 90
-14.9587 15.8275 -0.670457 84 81 90
-14.708 15.7891 -0.66213 84 78 92
-14.5037 15.8013 -0.65672 85 80 94
-14.411 15.7924 -0.653841 85 82 93
-14.2051 15.7983 -0.648272 87 83 97
-14.113 15.788 -0.645396 83 76 83
-14.0261 15.7835 -0.642853 85 75 82
-13.9381 15.777 -0.640228 90 84 86
-13.8304 15.7963 -0.637873 98 86 86
-13.7477 15.7952 -0.635583 90 82 87
-13.6577 15.7843 -0.632794 89 84 93
-13.5456 15.7955 -0.630111 86 82 97
-13.4609 15.79 -0.627657 87 83 97
-13.3751 15.7826 -0.625121 90 89 97
-13.2647 15.7937 -0.622524 87 84 95
-13.1853 15.7933 -0.620404 89 86 97
-13.1036 15.7894 -0.61812 89 86 97
-12.9937 15.7989 -0.615526 88 85 96
-12.9064 15.7861 -0.612829 90 87 98
-12.8263 15.7826 -0.61063 89 87 98
-12.7465 15.7788 -0.608431 90 88 99
-12.6712 15.833 -0.608245 90 88 99
-12.6683 15.9355 -0.611517 90 89 97
-12.5548 15.8837 -0.606917 89 87 98
-12.4721 15.9273 -0.606235 90 88 99
-12.4097 15.9463 -0.605282 90 88 99
-12.3302 15.9405 -0.603087 92 91 99
-12.1192 15.7972 -0.593053 91 88 98
-12.0382 15.787 -0.590696 91 85 97
-11.9608 15.7814 -0.588587 93 87 99
-11.8632 15.7989 -0.586753 94 88 98
-11.786 15.7925 -0.584646 93 88 95
-11.7157 15.7958 -0.583037 96 88 95
-11.6355 15.7838 -0.580683 91 82 87
-11.5339 15.7928 -0.578522 91 81 79
-11.4606 15.7901 -0.576666 92 83 77
-11.3918 15.7938 -0.575142 92 82 73
-11.2874 15.7962 -0.572735 106 94 83
-11.2209 15.8026 -0.571378 91 81 78
-8.67295 15.0157 -0.48812 91 93 106
-8.59922 14.9874 -0.485635 81 80 94
-8.568 15.0447 -0.487096 75 73 85
-8.02782 17.9358 -0.506093 127 113 104
-8.04759 18.1587 -0.51395 128 116 100
-8.04204 18.4059 -0.522266 189 169 136
-6.40707 16.7655 -0.443792 111 80 56
-39.9155 11.082 -1.35458 84 92 105
-42.9116 15.7992 -1.51604 74 85 102
-42.4757 15.7824 -1.49981 74 85 103
-40.7738 15.7754 -1.43734 77 83 93
-40.3573 15.7519 -1.42182 73 84 98
-39.9461 15.7987 -1.40743 73 85 101
-39.5822 15.7909 -1.39408 73 84 102
-39.1838 15.7665 -1.37927 75 86 104
-23.3564 15.7841 -0.941889 76 83 101
-23.171 15.8085 -0.9359 87 97 114
-23.0075 15.795 -0.929827 90 99 110
-22.8507 15.7854 -0.924092 92 95 105
-22.671 15.8097 -0.918362 83 87 98
-22.518 15.8006 -0.9128 75 83 96
-22.3701 15.7943 -0.907491 77 83 99
-22.1896 15.8141 -0.901683 78 81 100
-22.0375 15.8023 -0.896126 76 79 98
-21.8872 15.7909 -0.890655 77 83 99
-21.7482 15.7873 -0.885774 76 82 98
-21.5721 15.8052 -0.880142 77 81 99
-21.4352 15.8012 -0.875349 77 80 99
-21.2875 15.7878 -0.869968 75 78 95
-21.1263 15.8135 -0.865099 76 79 96
-20.9745 15.7947 -0.859471 76 79 96
-20.8386 15.7876 -0.854683 76 79 96
-20.6813 15.8128 -0.849988 77 80 97
-20.5428 15.8016 -0.845036 78 81 98
-20.4107 15.7947 -0.840421 76 82 98
-8.61298 15.3203 -0.497962 82 82 92
-8.06223 18.6389 -0.530487 190 157 124
-8.08452 18.8815 -0.539075 198 165 133
-46.8293 15.7452 -1.66039 75 84 101
-46.3082 15.8033 -1.64166 75 84 101
-45.7841 15.7769 -1.62192 74 86 102
-45.2982 15.7608 -1.60372 73 83 101
-44.7959 15.7356 -1.58484 78 86 105
-44.3014 15.7868 -1.56714 74 86 103
-43.8471 15.7723 -1.5502 75 84 101
-43.3802 15.7502 -1.53272 71 80 97
-26.7005 15.7994 -1.06324 79 82 99
-26.4944 15.7816 -1.05527 72 72 86
-26.3139 15.7787 -1.04857 72 71 85
-26.0838 15.7977 -1.04051 81 82 100
-25.8989 15.7893 -1.03356 75 82 98
-25.7194 15.783 -1.02687 75 82 100
-25.5053 15.8074 -1.01958 78 79 97
-25.323 15.7968 -1.01273 77 80 95
-25.1328 15.7796 -1.00545 76 79 94
-24.9297 15.8064 -0.998677 80 81 99
-24.7583 15.7992 -0.992331 77 80 95
-24.5806 15.7866 -0.98565 77 80 95
-24.3735 15.806 -0.978633 75 81 97
-24.2112 15.8014 -0.972715 76 79 96
-12.9389 10.6459 -0.568959 82 79 90
-12.8486 10.6314 -0.565144 81 80 94
-16.8273 18.1578 -0.794635 85 79 93
-8.77878 15.7899 -0.518244 93 91 97
-8.72228 15.8012 -0.517565 83 80 95
-8.62646 15.7933 -0.515437 91 85 93
-8.56837 15.8005 -0.514594 131 123 122
-8.50105 15.7875 -0.512848 142 136 132
-8.43972 15.7869 -0.511678 112 106 102
-8.35697 15.8047 -0.510785 93 82 77
-8.2925 15.7963 -0.509287 86 75 73
-8.22814 15.7877 -0.50779 85 73 77
-8.14155 15.7953 -0.506489 107 95 92
-8.08064 15.7935 -0.505321 191 177 166
-8.01823 15.7877 -0.50399 145 130 124
-7.93662 15.8052 -0.503183 114 99 98
-8.08071 19.1504 -0.548193 185 154 125
-8.10437 19.4068 -0.557291 179 153 121
-8.12785 19.6674 -0.566534 182 152 121
-44.8013 11.0874 -1.5401 82 86 97
-51.3924 15.7488 -1.83096 77 84 96
-50.8233 15.7415 -1.80953 76 85 97
-50.2585 15.7319 -1.78826 78 88 100
-49.6412 15.7857 -1.76571 78 87 100
-47.364 15.7679 -1.68053 79 86 100
-29.8094 11.073 -1.10204 73 85 101
-29.656 11.1676 -1.09715 74 82 102
-30.1036 13.5537 -1.15137 83 82 82
-29.8798 13.5585 -1.14267 86 83 89
-29.6135 13.5961 -1.13286 80 76 91
-29.5511 13.7861 -1.13363 105 75 92
-29.2633 13.8093 -1.12281 94 77 95
-29.4548 14.0148 -1.1338 73 71 84
-28.7072 13.7499 -1.10017 76 74 88
-28.6738 13.8414 -1.10048 118 108 87
-28.6218 13.9776 -1.10086 81 69 54
-28.3464 13.9443 -1.08964 66 57 53
-28.2982 14.0274 -1.08926 58 46 38
-28.2947 14.188 -1.09202 149 122 74
-29.9597 15.1807 -1.17401 104 91 84
-29.7262 15.1718 -1.1649 124 122 132
-29.6765 15.3181 -1.16569 83 81 96
-28.8896 15.8044 -1.14504 107 114 129
-28.6663 15.7911 -1.13637 102 102 114
-28.4432 15.7767 -1.1277 52 51 65
-28.1958 15.8033 -1.11894 78 77 93
-27.9822 15.7911 -1.1107 79 78 94
-27.774 15.7808 -1.10271 76 81 96
-27.6644 15.8849 -1.10073 75 81 97
-27.6751 16.005 -1.10356 74 80 96
-27.1164 15.7773 -1.07818 76 82 98
-26.8934 15.8076 -1.07053 77 85 98
-7.89078 15.8375 -0.503576 116 106 105
-7.91451 16.0354 -0.511349 116 108 103
-7.90773 16.235 -0.51866 118 107 101
-8.11972 19.9431 -0.575863 182 150 126
-8.14422 20.2176 -0.585616 189 157 129
-49.7509 11.0573 -1.7291 93 94 105
-55.439 14.2514 -1.97048 83 86 95
-55.1718 14.3626 -1.96122 79 86 92
-55.1643 14.5423 -1.96243 78 83 90
-54.8736 14.7355 -1.95303 74 77 89
-54.8034 14.8974 -1.95176 77 81 93
-54.5696 15.0132 -1.94391 77 82 94
-54.3785 15.5924 -1.94188 91 93 101
-53.7996 15.6919 -1.92097 91 91 104
-53.1521 15.6764 -1.89643 90 93 105
-52.5185 15.6611 -1.87243 89 94 106
-51.9332 15.6566 -1.85037 81 87 99
-31.4484 13.4979 -1.20352 75 86 104
-31.1348 13.5267 -1.19157 76 87 105
-30.8846 13.5255 -1.18166 76 87 107
-30.4505 13.6053 -1.16585 86 87 92
-30.3638 15.8084 -1.20105 64 66 83
-30.1015 15.7835 -1.19058 66 65 81
-14.8162 11.2219 -0.658167 76 79 96
-14.7095 11.2058 -0.653549 77 80 97
-7.92579 16.426 -0.526102 119 106 100
-7.94649 16.6266 -0.533951 117 106 100
-8.17555 20.5169 -0.596324 194 160 133
-8.16973 20.8202 -0.606674 206 170 143
-8.1957 21.1166 -0.617228 209 177 147
-56.1245 10.8877 -1.97315 92 95 105
-54.798 10.9748 -1.92254 98 98 108
-56.99 11.8814 -2.01259 98 98 110
-56.7959 12.0227 -2.00604 96 99 108
-56.7416 12.1937 -2.00508 98 102 111
-56.5838 12.4328 -2.00063 102 102 110
-56.182 12.9791 -1.98906 93 90 98
-56.1132 13.1451 -1.98763 86 86 98
-55.9606 13.2905 -1.98287 85 87 100
-55.829 13.5314 -1.97967 84 86 98
-55.776 13.7004 -1.97894 81 83 95
-34.7281 11.0874 -1.30302 72 80 93
-34.6054 11.163 -1.29886 71 79 92
-16.9431 10.8316 -0.732592 77 80 95
-16.8754 10.858 -0.730499 77 80 97
-16.8225 10.8944 -0.729289 78 79 97
-16.7914 10.9825 -0.730376 78 79 97
-7.94104 16.842 -0.541911 118 109 102
-7.95975 17.045 -0.549838 120 111 104
-7.97652 17.2466 -0.557681 121 111 103
-8.2262 21.4323 -0.628516 203 170 138
-59.3318 9.73145 -2.09106 86 97 110
-58.4888 9.77532 -2.05858 92 100 112
-58.304 10.0208 -2.05265 89 98 113
-58.1048 10.1702 -2.0457 90 93 110
-57.9307 10.323 -2.03976 91 94 111
-57.7731 10.5699 -2.035 94 98 109
-57.6959 10.7392 -2.03295 88 94 106
-56.1914 10.632 -1.97425 92 98 112
-57.3419 11.3127 -2.02262 82 82 94
-39.452 15.8084 -1.55766 76 87 105
-39.0479 15.78 -1.54105 75 86 104
-38.673 15.8306 -1.5268 76 87 107
-38.2829 15.8026 -1.51079 74 85 103
-37.9373 15.7913 -1.49684 76 87 105
-37.5345 15.8206 -1.48124 77 87 106
-37.2191 15.8175 -1.46865 77 85 104
-36.8457 15.7866 -1.45335 76 87 105
-8.00302 17.4762 -0.566751 122 112 102
-7.98951 17.6891 -0.574537 123 110 101
-8.01867 17.9344 -0.584257 123 113 102
-64.1241 9.11693 -2.27456 87 95 111
-63.4885 9.32461 -2.25068 87 95 113
-64.3331 9.65399 -2.28488 76 82 98
-63.2304 9.68478 -2.24216 75 79 94
-61.9279 9.77458 -2.19199 83 91 103
-60.6177 9.75512 -2.14105 84 92 107
-39.879 11.1384 -1.51699 86 88 98
-42.7772 15.8279 -1.69205 76 88 107
-42.3355 15.8072 -1.67387 81 89 108
-40.6274 15.791 -1.60465 88 92 108
-40.2644 15.7876 -1.58999 78 84 106
-39.8234 15.8206 -1.57274 78 86 107
-20.1395 10.4369 -0.859798 132 130 140
-20.0998 10.5315 -0.860179 73 77 92
-8.03507 18.1502 -0.592665 127 115 102
-8.03245 18.407 -0.602326 194 171 135
-61.7955 5.6904 -2.17335 98 110 132
-46.9244 15.708 -1.85973 78 86 97
-46.4237 15.6942 -1.83903 73 80 95
-45.98 15.6973 -1.82089 74 82 95
-45.5233 15.7713 -1.80313 79 86 101
-45.1086 15.7787 -1.78628 77 84 100
-44.6268 15.759 -1.76637 78 85 103
-44.1526 15.8155 -1.74778 79 88 105
-43.6925 15.7971 -1.72881 78 87 104
-43.2386 15.778 -1.71011 82 90 109
-9.49468 13.9149 -0.578427 95 92 101
-9.44805 13.9375 -0.578132 95 93 98
-8.05413 18.6459 -0.611712 195 163 131
-8.07577 18.8888 -0.621259 200 166 138
-44.8471 11.0341 -1.724 100 100 112
-44.7748 11.1613 -1.7221 97 99 111
-49.1891 13.4296 -1.92842 91 90 104
-49.1075 13.5691 -1.92639 91 91 103
-48.7466 14.0326 -1.91609 90 89 97
-48.715 14.1857 -1.91638 82 84 97
-48.5706 14.3856 -1.91252 83 85 95
-48.4977 14.5259 -1.91101 85 86 98
-48.4054 14.6598 -1.90865 82 82 94
-48.3009 14.8708 -1.90666 80 83 91
-48.1012 14.9696 -1.89952 79 83 92
-47.9867 15.0951 -1.89621 73 77 88
-47.958 15.3293 -1.89774 81 85 97
-47.4484 15.7266 -1.88147 90 93 101
-12.9161 10.6193 -0.644192 80 77 88
-12.9083 10.6802 -0.646015 81 80 96
-16.6968 15.8053 -0.874157 82 80 96
-16.5892 15.7952 -0.870019 83 79 97
-16.4653 15.8171 -0.866397 83 80 97
-16.3595 15.8072 -0.862358 82 79 96
-16.2609 15.8041 -0.858807 83 81 95
-16.1224 15.808 -0.85412 83 81 95
-16.0201 15.7994 -0.850279 83 81 95
-15.9342 15.8078 -0.847607 83 81 95
-15.8019 15.8153 -0.843313 85 83 97
-15.7069 15.8125 -0.839962 82 80 94
-15.5931 15.7886 -0.835251 82 79 96
-15.5199 15.8085 -0.833457 83 80 97
-15.3992 15.8251 -0.829946 84 82 96
-15.2928 15.807 -0.825725 84 80 95
-15.2145 15.8198 -0.823545 84 80 94
-15.0903 15.83 -0.819745 84 80 94
-14.9807 15.8058 -0.815237 84 80 94
-14.7532 15.7952 -0.807323 84 79 93
-14.6665 15.7951 -0.804468 84 78 92
-14.5837 15.7992 -0.801905 83 79 93
-14.4686 15.8146 -0.798696 85 83 94
-14.3694 15.7979 -0.794874 85 83 97
-14.2833 15.7962 -0.792022 85 83 96
-14.1973 15.794 -0.789172 84 80 94
-14.074 15.7962 -0.785289 85 75 82
-13.9946 15.8008 -0.782926 85 79 81
-13.9003 15.7865 -0.779399 92 82 83
-10.4445 14.5409 -0.629045 91 80 76
-10.1927 14.6023 -0.624697 93 88 94
-9.45211 14.3038 -0.593192 97 96 101
-8.65102 13.9779 -0.559793 101 98 113
-8.58371 13.959 -0.557386 98 95 110
-8.51513 13.9902 -0.55705 102 107 124
-8.45457 13.9832 -0.555318 110 116 135
-8.06788 19.1486 -0.630992 191 160 131
-8.09021 19.4035 -0.641025 200 164 140
-8.11901 19.6813 -0.652038 194 160 135
-59.7058 1.25388 -2.08815 134 142 161
-59.7088 1.4377 -2.08815 111 110 120
-60.0448 1.90802 -2.10118 104 109 127
-60.3265 2.10291 -2.11221 111 107 124
-50.5531 10.9308 -1.96394 94 98 110
-50.4556 11.1525 -1.96153 96 100 112
-49.7331 11.1483 -1.93095 99 102 118
-50.5774 11.5067 -1.96949 69 67 82
-50.5219 11.7388 -1.96905 96 94 105
-50.4433 11.8834 -1.96694 94 94 106
-50.0891 11.9601 -1.95266 94 96 108
-49.8279 12.0577 -1.9425 97 99 109
-49.6052 12.5684 -1.93767 78 74 87
-49.3885 12.7543 -1.9303 89 88 95
-49.3726 12.9121 -1.9311 84 86 93
-49.3349 13.0641 -1.93096 89 89 100
-49.2817 13.293 -1.93095 91 91 104
-21.384 15.8077 -1.05089 77 80 99
-21.2223 15.7831 -1.04377 77 80 99
-21.0721 15.8172 -1.03882 77 80 97
-20.9204 15.7982 -1.03229 78 81 98
-20.8001 15.8035 -1.02772 77 80 98
-20.6211 15.811 -1.02092 76 81 97
-20.5042 15.8173 -1.01654 77 82 96
-19.9297 15.7955 -0.99361 76 82 96
-19.7956 15.7831 -0.98807 73 81 95
-19.6506 15.8105 -0.983335 76 80 93
-19.5125 15.7926 -0.977506 77 76 88
-19.4048 15.8001 -0.973632 84 79 86
-19.2454 15.8118 -0.967926 84 82 95
-19.1201 15.8022 -0.962882 80 81 96
-18.9921 15.7893 -0.957645 77 79 96
-18.8558 15.8181 -0.953409 79 78 96
-18.7297 15.8052 -0.948272 80 79 97
-18.3444 15.8043 -0.933871 80 82 97
-18.2354 15.8036 -0.929812 81 80 96
-18.1207 15.7969 -0.925365 81 80 98
-17.9685 15.8037 -0.91997 83 82 100
-17.8716 15.8122 -0.916696 79 80 98
-17.7374 15.7844 -0.910888 97 99 111
-17.6147 15.8163 -0.907447 102 101 106
-17.504 15.8093 -0.903201 81 80 96
-17.3921 15.8003 -0.89886 78 79 97
-17.2804 15.7908 -0.894519 80 82 97
-17.1583 15.8199 -0.891084 82 79 96
-17.0456 15.8078 -0.886648 81 79 96
-16.9374 15.7994 -0.882507 81 80 96
-16.8074 15.8178 -0.878491 79 81 94
-13.7939 15.8071 -0.776781 83 74 77
-13.7086 15.8027 -0.773935 92 87 93
-13.6137 15.7855 -0.770315 87 84 94
-13.5052 15.8012 -0.767506 87 83 97
-13.4254 15.8019 -0.76505 88 86 99
-13.3372 15.7912 -0.761917 88 86 98
-13.2267 15.8021 -0.758918 88 86 97
-13.1437 15.7968 -0.756174 89 86 97
-13.0668 15.7991 -0.753916 88 85 96
-12.9829 15.7915 -0.751077 89 86 97
-12.8778 15.8067 -0.748469 89 85 99
-12.7895 15.7919 -0.745245 91 89 103
-12.7096 15.7879 -0.7427 91 89 102
-12.6635 15.8823 -0.744931 94 90 104
-12.6745 16.0042 -0.74993 91 87 101
-12.5259 15.9037 -0.74168 89 87 98
-12.4097 15.8998 -0.73811 91 89 102
-12.3509 15.9235 -0.737308 90 88 99
-12.2064 15.8242 -0.729257 94 93 101
-12.081 15.8036 -0.724822 89 86 97
-12.0102 15.8081 -0.722959 90 84 96
-11.9271 15.7941 -0.720035 92 86 98
-11.8508 15.7897 -0.717691 91 88 97
-11.7511 15.8033 -0.715385 92 89 96
-11.6785 15.8031 -0.713333 97 92 98
-11.6059 15.8026 -0.711281 92 81 79
-11.4989 15.8031 -0.708302 91 84 76
-11.4331 15.8119 -0.706831 93 83 81
-11.1171 15.8149 -0.698288 95 89 94
-10.728 15.5778 -0.678302 93 91 96
-10.3087 15.1635 -0.650446 94 91 98
-9.47849 15.1132 -0.627224 96 94 107
-8.11014 19.9573 -0.662415 197 163 136
-8.13585 20.2378 -0.673504 193 161 133
-53.2021 9.8199 -2.06874 86 95 110
-52.2317 9.80146 -2.02728 95 104 116
-51.5145 9.82668 -1.9969 96 104 117
-51.3045 10.0305 -1.98934 96 101 115
-51.2036 10.1735 -1.98603 98 100 115
-51.0671 10.3086 -1.98117 96 100 112
-50.9166 10.4402 -1.97572 96 98 114
-50.7354 10.6456 -1.96953 95 98 113
-50.6288 10.785 -1.96605 92 96 108
-24.5219 15.7915 -1.17835 74 80 96
-24.3281 15.7666 -1.16962 77 80 97
-23.4395 15.7833 -1.13329 70 77 93
-23.2885 15.7809 -1.12703 97 105 118
-23.1178 15.8155 -1.12098 90 100 110
-22.943 15.7937 -1.11325 90 98 109
-22.7976 15.7921 -1.10728 93 95 106
-22.6035 15.8056 -1.09977 72 76 89
-22.4666 15.8082 -1.0943 76 82 98
-22.2916 15.7814 -1.08648 79 82 99
-22.1695 15.7933 -1.08189 77 80 99
-21.9687 15.7961 -1.0739 78 80 101
-21.8169 15.7834 -1.06745 77 83 99
-21.6986 15.7955 -1.06307 78 84 99
-21.5099 15.8033 -1.05576 75 81 97
-14.7798 11.1924 -0.741514 77 80 98
-14.7361 11.2284 -0.740856 76 79 98
-16.4897 17.6482 -0.930914 85 79 93
-10.992 15.7819 -0.69358 92 88 93
-10.7582 15.7389 -0.685612 92 89 98
-10.4428 15.779 -0.678968 99 96 101
-10.4014 15.8235 -0.679721 85 78 82
-10.2275 15.8123 -0.674814 94 83 88
-10.166 15.8216 -0.673642 97 90 96
-10.0909 15.8063 -0.671122 94 92 102
-10.0038 15.8272 -0.669799 96 96 110
-9.92123 15.7972 -0.666511 95 93 108
-8.57796 15.0235 -0.602116 99 93 108
-8.5607 15.1094 -0.605377 100 94 106
-8.46764 15.101 -0.60292 101 95 108
-8.43404 15.1545 -0.604452 99 95 110
-8.16374 20.5299 -0.68508 194 164 138
-8.18791 20.8168 -0.696409 198 171 140
-55.5122 9.02802 -2.16272 94 102 119
-55.593 9.21708 -2.16721 90 100 118
-55.5685 9.65227 -2.16866 79 84 95
-55.1837 9.75841 -2.15286 82 87 102
-54.2533 9.76124 -2.11318 82 90 105
-27.0447 15.777 -1.28492 75 82 98
-26.8584 15.7742 -1.27685 74 82 97
-26.6087 15.7859 -1.26643 65 68 84
-26.4163 15.7764 -1.25797 74 71 85
-26.2208 15.7637 -1.24932 60 59 73
-26.0026 15.7899 -1.24068 79 82 99
-25.8161 15.7802 -1.23252 79 82 99
-25.6351 15.7727 -1.22466 80 83 100
-25.4295 15.8022 -1.21671 78 77 95
-25.239 15.7859 -1.20827 77 77 95
-25.0605 15.7762 -1.20051 76 79 96
-24.8791 15.8171 -1.19395 74 80 94
-16.9889 10.8689 -0.828754 74 80 94
-24.683 15.7931 -1.18511 75 81 95
-16.9752 10.9331 -0.830025 75 81 96
-16.8551 10.9226 -0.824283 75 80 96
-16.8288 11.0144 -0.825819 76 82 98
-9.70935 15.8275 -0.662562 89 91 109
-9.26495 15.8372 -0.652374 97 94 111
-9.17718 15.7896 -0.648325 98 95 112
-9.10782 15.7773 -0.646199 97 95 110
-9.03876 15.827 -0.646712 97 93 109
-8.41827 15.2457 -0.608001 90 93 105
-8.18287 21.1322 -0.708408 198 168 140
-8.20808 21.435 -0.720385 200 170 144
-54.2238 5.84512 -2.09369 84 95 115
-54.9325 7.12122 -2.12881 81 93 109
-54.9961 7.30154 -2.13228 80 91 109
-29.7948 11.109 -1.31396 87 94 108
-30.3482 13.5994 -1.38421 88 86 95
-30.3299 13.7025 -1.38538 81 84 99
-29.9599 13.6386 -1.36728 79 85 103
-29.679 13.6698 -1.35513 85 84 101
-29.6083 13.7458 -1.35344 70 64 78
-29.5714 13.8382 -1.35362 71 68 81
-29.2533 13.7921 -1.33831 80 76 91
-29.0517 13.8561 -1.33051 78 81 88
-28.7417 13.8097 -1.31559 90 85 86
-28.6476 13.8707 -1.31262 77 56 45
-28.6168 14.0176 -1.3143 125 104 68
-28.5967 14.1162 -1.31548 98 81 61
-28.6524 14.2545 -1.32089 150 125 87
-30.0502 15.271 -1.40499 107 87 68
-29.7463 15.225 -1.39048 83 68 76
-30.2797 15.8049 -1.42681 85 88 98
-30.0158 15.7788 -1.41457 58 59 71
-29.0635 15.773 -1.37252 104 111 129
-28.7961 15.7936 -1.36128 106 113 125
-28.5781 15.7831 -1.35151 118 120 133
-28.3466 15.7635 -1.34097 74 76 93
-28.1183 15.8008 -1.3319 76 79 96
-27.8996 15.7854 -1.32205 77 80 97
-27.7053 15.7831 -1.31357 75 80 97
-27.6727 15.9332 -1.31573 73 80 96
-27.7479 16.0927 -1.3228 72 78 94
-8.61829 15.7933 -0.635844 104 115 133
-8.53276 15.8065 -0.634536 105 116 136
-8.46878 15.8006 -0.632896 105 112 127
-8.40573 15.7963 -0.631353 89 91 100
-8.31795 15.803 -0.629759 129 123 131
-8.25676 15.8018 -0.628409 116 109 116
-8.1989 15.8076 -0.627443 113 109 111
-8.11055 15.8114 -0.625756 124 115 116
-8.04639 15.8021 -0.624023 203 205 201
-53.9543 3.89628 -2.07737 86 98 120
-53.9271 4.06053 -2.07648 88 100 123
-54.3543 5.52234 -2.09835 81 92 114
-54.5006 5.70672 -2.1052 95 106 129
-31.178 13.4181 -1.41876 77 88 108
-31.2726 15.7986 -1.47079 116 90 40
-20.1562 10.4591 -0.966375 130 111 100
-20.1147 10.5528 -0.966704 86 87 97
-7.98473 15.798 -0.622579 159 166 168
-7.89834 15.8043 -0.621086 184 174 166
-7.90636 15.9632 -0.628177 118 99 97
-7.92274 16.1444 -0.636416 117 102 102
-52.9478 1.94952 -2.03204 117 119 136
-53.1021 2.11839 -2.03876 109 112 126
-52.8675 2.35201 -2.02869 93 105 131
-35.7218 15.7834 -1.67177 83 89 103
-35.445 15.787 -1.65916 91 91 100
-10.1986 13.9046 -0.677687 92 82 83
-9.50783 13.9276 -0.658325 92 89 98
-9.4551 13.9399 -0.657373 96 94 99
-7.94036 16.3314 -0.644942 113 102 100
-7.94155 16.5551 -0.654755 116 107 102
-52.8676 1.21701 -2.02868 131 133 157
-52.8507 1.37858 -2.02789 93 101 112
-52.7277 1.53686 -2.02251 135 127 138
-34.7099 11.1215 -1.54701 91 93 109
-39.0947 15.6993 -1.82604 90 98 112
-38.7262 15.6847 -1.80865 79 86 101
-38.3263 15.7231 -1.79075 74 82 97
-37.9735 15.7098 -1.77416 75 84 101
-37.6284 15.6977 -1.75797 70 79 96
-37.3012 15.7584 -1.74395 73 83 100
-37.061 15.7878 -1.7334 77 83 103
-36.7518 15.7849 -1.7191 77 85 104
-17.5206 15.8444 -1.01591 80 79 95
-17.4087 15.8353 -1.01115 81 83 96
-17.3028 15.8313 -1.00682 79 81 96
-17.1622 15.842 -1.00167 81 80 96
-17.0595 15.8396 -0.997549 81 80 96
-16.9527 15.8325 -0.993113 81 80 98
-16.8227 15.8508 -0.988714 79 82 97
-16.7094 15.8354 -0.983745 80 83 96
-16.5977 15.8209 -0.978884 83 82 96
-16.4794 15.8484 -0.975347 82 81 96
-16.3833 15.8486 -0.971666 82 81 97
-16.2695 15.8294 -0.966594 82 81 97
-16.1669 15.8214 -0.96238 84 82 97
-16.0438 15.8405 -0.95842 83 81 95
-15.9362 15.8255 -0.953781 83 81 95
-15.8451 15.8276 -0.950427 86 84 98
-15.7225 15.8446 -0.94647 83 81 94
-15.6263 15.8398 -0.94269 84 82 95
-15.5303 15.8346 -0.938911 85 83 94
-15.4096 15.8512 -0.935066 84 82 93
-15.3086 15.8389 -0.930861 86 80 93
-15.2303 15.8516 -0.928475 84 79 93
-15.1219 15.8798 -0.925595 84 82 94
-14.9992 15.8405 -0.919577 84 82 93
-14.7679 15.8252 -0.910578 84 80 94
-14.6799 15.8236 -0.907342 83 79 93
-14.592 15.8215 -0.904107 86 83 94
-14.4979 15.8114 -0.900338 88 85 96
-14.3791 15.8216 -0.896506 85 83 96
-14.2892 15.8151 -0.89306 88 83 97
-10.4874 14.605 -0.717165 93 84 79
-10.4375 14.629 -0.716736 93 82 79
-10.523 14.8694 -0.729905 92 83 87
-10.3029 14.7774 -0.719326 91 89 95
-10.1673 14.6612 -0.710189 92 89 96
-9.47923 14.1337 -0.666772 97 91 101
-9.45703 14.1994 -0.669109 98 91 98
-9.39961 14.2045 -0.667733 85 76 84
-9.37628 14.3211 -0.672353 86 84 93
-8.59952 13.9753 -0.635513 92 98 112
-8.52073 13.9872 -0.63399 103 114 131
-8.46582 13.9907 -0.632727 101 104 123
-8.4119 13.9958 -0.631571 99 94 114
-8.34324 14.0262 -0.631215 93 90 109
-7.96185 16.7556 -0.663947 115 106 101
-7.98096 16.9564 -0.673137 120 109 105
-7.96895 17.1608 -0.681889 119 108 104
-41.0094 13.4954 -1.88143 64 64 75
-40.9617 13.6882 -1.88194 87 87 97
-40.8463 13.7878 -1.8779 86 90 102
-40.7738 13.9021 -1.87614 89 93 102
-40.6791 14.0779 -1.87426 87 90 102
-40.604 14.1907 -1.87241 87 91 102
-40.5435 14.3087 -1.87135 84 88 99
-40.3964 14.4644 -1.86679 80 83 96
-40.3015 14.5691 -1.86395 88 89 101
-40.2157 14.6768 -1.8616 85 85 99
-40.0486 14.823 -1.85606 83 81 97
-40.0328 14.9569 -1.85747 79 82 97
-39.7843 15.3502 -1.85228 60 56 70
-39.7759 15.4874 -1.85419 86 89 102
-39.7615 15.6225 -1.8558 93 101 115
-39.4839 15.7201 -1.84452 95 103 116
-21.8246 15.8175 -1.1955 77 83 97
-21.7063 15.8294 -1.19069 75 81 97
-21.5035 15.8259 -1.18172 76 82 96
-21.3793 15.8313 -1.17648 75 81 95
-21.2459 15.8287 -1.1706 75 81 95
-21.0536 15.829 -1.16228 74 80 96
-20.944 15.8435 -1.15802 73 79 95
-20.8066 15.8348 -1.15182 73 79 95
-20.6617 15.8191 -1.14509 74 80 96
-20.4908 15.8316 -1.13817 75 81 97
-19.9472 15.8345 -1.11516 77 80 97
-19.8207 15.8284 -1.10962 75 81 97
-19.647 15.8309 -1.10239 80 79 93
-19.5316 15.8324 -1.09761 77 74 85
-19.4089 15.8267 -1.09229 89 84 91
-19.2571 15.8448 -1.08657 82 80 94
-19.1438 15.8456 -1.08189 78 79 97
-19.0172 15.8339 -1.07625 79 78 96
-18.8939 15.8243 -1.07083 79 76 97
-18.7489 15.8442 -1.06555 78 77 95
-18.3651 15.8443 -1.04986 78 81 96
-18.2401 15.8285 -1.04423 77 79 94
-18.1284 15.8244 -1.03957 79 81 97
-17.995 15.8489 -1.03505 81 83 99
-17.8736 15.8339 -1.02964 73 73 89
-17.7698 15.8349 -1.02552 97 97 105
-17.6355 15.8557 -1.02089 76 74 80
-15.1388 16.1043 -0.935037 85 82 91
-14.2083 15.819 -0.890362 91 83 96
-14.0927 15.8305 -0.886747 84 73 81
-14.0045 15.8242 -0.883411 89 79 79
-13.924 15.8269 -0.880716 88 78 80
-13.8014 15.8272 -0.876464 89 82 82
-13.715 15.8212 -0.873237 90 87 96
-13.6349 15.8227 -0.870545 90 86 100
-13.524 15.8353 -0.867257 89 85 99
-13.438 15.828 -0.864033 89 85 99
-13.3511 15.8188 -0.860703 87 85 98
-13.2704 15.8172 -0.857908 87 85 98
-13.1637 15.8324 -0.854944 88 84 98
-13.0808 15.8267 -0.851937 88 84 98
-12.9981 15.8207 -0.84893 91 85 99
-12.8872 15.8278 -0.845544 90 86 100
-12.8083 15.8258 -0.842859 89 87 100
-12.7296 15.8234 -0.840175 89 87 100
-12.6227 15.8337 -0.837111 90 88 101
-12.586 15.889 -0.838262 88 86 99
-12.5503 15.9458 -0.839519 89 85 99
-12.4237 15.9273 -0.834647 92 88 102
-12.3626 15.9477 -0.833563 93 89 103
-12.2479 15.8908 -0.827478 94 93 101
-12.1258 15.8219 -0.820649 91 89 100
-12.0245 15.8353 -0.818018 91 85 97
-11.9493 15.8329 -0.815554 93 87 101
-11.8731 15.8285 -0.812984 94 89 100
-11.7711 15.8387 -0.81025 95 90 97
-11.6941 15.8319 -0.807576 96 91 98
-11.6227 15.8331 -0.805434 92 83 86
-10.4965 14.9325 -0.731918 94 88 94
-10.4287 15.1977 -0.741722 94 91 98
-10.3346 15.2052 -0.739326 95 92 99
-9.18106 14.844 -0.690928 92 93 111
-7.99197 17.3789 -0.691937 121 110 106
-8.01443 17.5992 -0.702079 123 112 106
-42.2039 11.3636 -1.91121 111 116 122
-42.127 11.4807 -1.90885 102 106 113
-39.8573 10.9738 -1.79283 97 99 105
-39.9043 11.1186 -1.79685 99 100 106
-41.8336 12.0199 -1.90121 92 88 95
-41.7892 12.1454 -1.90064 114 111 117
-41.8873 12.3838 -1.90841 115 114 118
-41.8665 12.5171 -1.90914 107 106 113
-41.733 12.6154 -1.904 100 99 109
-41.5755 12.7751 -1.89855 95 93 104
-41.4547 12.876 -1.89411 92 90 103
-41.3508 12.9818 -1.89056 93 90 106
-41.3018 13.1748 -1.89087 95 94 112
-25.0472 15.8028 -1.34015 75 81 97
-24.8857 15.8029 -1.33272 75 81 97
-24.6748 15.8222 -1.32359 74 80 96
-24.5138 15.8203 -1.31617 74 79 98
-24.3218 15.796 -1.30669 75 81 97
-23.294 15.8164 -1.26074 96 104 117
-23.1185 15.8472 -1.25378 91 99 110
-22.9342 15.8179 -1.24465 93 99 111
-22.8001 15.8244 -1.23887 97 97 107
-22.6517 15.8194 -1.23211 67 71 86
-22.45 15.8255 -1.22333 77 83 99
-22.3182 15.8307 -1.21766 77 83 99
-22.142 15.8015 -1.20897 76 81 100
-21.9985 15.8475 -1.20408 76 81 100
-9.5262 15.1954 -0.716314 95 91 111
-9.15612 14.9113 -0.693367 85 91 108
-8.49048 14.5435 -0.65908 97 92 112
-8.39356 14.5225 -0.655649 97 94 111
-8.31185 14.4735 -0.651317 98 94 111
-8.27342 14.512 -0.652171 98 94 109
-8.25133 14.5845 -0.655036 98 92 106
-8.21269 14.6825 -0.658698 99 93 105
-8.00972 17.8361 -0.712451 122 112 103
-8.02847 18.0552 -0.722492 127 115 102
-43.1793 9.81005 -1.94215 98 105 117
