15.561 -6.01877 -1.52522 115 102 101
15.3887 -6.01148 -1.50861 115 102 105
15.2519 -6.01658 -1.4958 106 96 104
15.1984 -6.08137 -1.49301 100 94 106
16.9695 5.99581 -1.81682 71 77 99
16.9984 5.94314 -1.8179 72 77 99
16.9858 5.87656 -1.81426 71 76 96
17.0065 5.79023 -1.81341 72 78 98
17.0141 5.73062 -1.81213 69 77 98
16.8197 -2.40826 -1.70207 86 84 105
16.7992 -2.48941 -1.70101 92 93 114
16.7941 -2.54466 -1.70123 89 90 110
16.7692 -2.59699 -1.69931 87 84 103
16.7478 -2.67778 -1.69825 91 90 108
15.1727 -6.12819 -1.49222 104 97 105
15.0877 -6.15165 -1.48501 105 97 106
15.0582 -6.1966 -1.48382 105 97 108
16.9485 6.36528 -1.82815 67 75 98
16.9827 6.28289 -1.8286 68 76 99
16.9751 6.21712 -1.82538 69 75 99
16.9728 6.15343 -1.82281 69 75 99
16.9591 6.08593 -1.81895 70 76 98
16.7402 -2.73257 -1.69826 88 86 107
16.7265 -2.7864 -1.69762 91 87 104
16.6989 -2.83795 -1.69548 84 84 102
16.6941 -2.92118 -1.69636 86 83 104
16.6837 -2.97545 -1.69615 83 81 95
15.0132 -6.26379 -1.48203 109 99 107
14.9722 -6.30393 -1.47964 106 98 109
14.9238 -6.34086 -1.47644 107 99 110
16.9298 6.6442 -1.83692 67 75 96
16.9513 6.58846 -1.83693 67 75 94
16.9513 6.49309 -1.83329 68 73 95
16.9351 6.42371 -1.829 70 78 99
16.6615 -3.02765 -1.69466 90 87 102
16.6283 -3.10591 -1.69252 78 78 92
16.6252 -3.16136 -1.69318 77 76 95
16.6063 -3.21393 -1.69211 69 65 82
14.8856 -6.41026 -1.47546 108 100 113
14.8369 -6.44668 -1.47226 105 97 110
14.7864 -6.48208 -1.46886 103 95 106
16.9215 6.92976 -1.84741 67 72 92
16.92 6.86467 -1.84463 65 71 93
16.9255 6.80254 -1.8427 64 72 95
16.9136 6.70199 -1.83756 66 74 97
16.1204 1.7273 -1.70664 108 87 80
16.141 1.64873 -1.708 91 80 87
16.1882 1.54553 -1.71207 112 110 126
16.1467 1.46132 -1.70647 103 101 118
16.1481 1.40778 -1.70603 89 89 107
16.1373 1.21954 -1.70292 83 83 105
16.5899 -3.29502 -1.69191 78 75 92
16.5686 -3.34702 -1.69063 77 70 88
16.5414 -3.39777 -1.6887 74 72 86
16.5217 -3.44993 -1.68763 76 74 88
16.514 -3.53255 -1.68851 80 77 94
14.7512 -6.55227 -1.46828 104 97 105
14.7132 -6.59266 -1.46628 107 98 103
16.872 7.20144 -1.8536 63 71 94
16.8861 7.14214 -1.85254 63 71 94
16.8982 7.08207 -1.85126 65 73 94
16.91 6.98979 -1.84869 65 73 93
16.2601 2.99991 -1.74372 69 71 92
16.2591 2.91684 -1.74194 80 82 101
16.2299 2.85673 -1.73745 80 83 100
16.2356 2.80257 -1.73701 85 86 106
16.2161 2.71701 -1.7332 79 84 103
16.2273 2.66385 -1.73344 79 80 100
16.1796 2.60172 -1.72693 83 84 102
16.1846 2.52054 -1.72605 100 102 116
16.1794 2.4652 -1.72448 119 120 140
16.1294 2.34932 -1.71686 99 96 108
16.2335 2.2818 -1.72744 100 85 87
16.1764 2.2199 -1.72003 115 105 113
16.1457 2.08056 -1.71444 81 82 104
16.1648 2.02874 -1.7158 84 86 107
16.1463 1.97252 -1.71289 84 89 108
16.1365 1.89051 -1.71065 64 62 85
16.1451 1.83753 -1.71089 64 60 74
16.2108 1.79047 -1.71765 107 93 84
16.1675 1.1681 -1.70585 81 79 100
16.1759 1.11509 -1.70631 80 79 97
16.1798 1.03504 -1.70611 78 79 100
16.1877 0.981959 -1.70657 79 81 104
16.1856 0.928325 -1.7059 79 77 98
16.1886 0.848261 -1.7057 74 73 94
16.2019 0.795394 -1.70683 75 78 97
16.2072 0.742105 -1.70707 75 76 97
16.2073 0.661896 -1.70663 81 84 101
16.2121 0.608594 -1.70687 77 82 99
16.2167 0.555272 -1.70711 73 74 94
16.222 0.47522 -1.70735 81 82 103
16.2183 0.42167 -1.70668 73 71 95
16.2243 0.368345 -1.70715 78 81 101
16.2202 0.31482 -1.70648 74 75 94
16.2204 0.234695 -1.70627 72 77 96
16.2219 0.181297 -1.70628 75 75 98
16.2192 0.127871 -1.70585 72 77 96
16.2026 0.0477474 -1.70384 69 74 92
16.1996 -0.00558574 -1.7034 75 76 97
16.1884 -0.0588539 -1.70206 73 71 91
16.5017 -3.58616 -1.68831 82 79 97
16.4912 -3.64012 -1.68832 76 72 89
16.4554 -3.71681 -1.68618 67 64 81
16.4542 -3.77274 -1.68727 67 63 79
14.6733 -6.63208 -1.46409 105 98 106
14.6278 -6.6689 -1.46129 107 101 113
16.8626 7.42626 -1.86217 63 71 92
16.8683 7.36304 -1.86003 64 70 92
16.8683 7.29759 -1.85724 63 71 94
16.2666 3.64246 -1.75911 72 70 91
16.2261 3.54991 -1.75238 68 74 90
16.2574 3.50035 -1.75464 68 71 90
16.2302 3.43893 -1.75015 70 68 89
16.2684 3.36283 -1.75264 67 68 86
16.2251 3.29869 -1.74636 69 70 88
16.2342 3.24482 -1.74614 65 65 91
16.2696 3.1681 -1.74841 58 59 79
16.2393 3.10704 -1.7437 70 71 89
16.2615 3.05558 -1.74506 69 72 91
16.1749 -0.138651 -1.7005 71 71 93
16.1792 -0.191943 -1.70096 73 69 94
16.1615 -0.244909 -1.69895 74 76 95
16.1495 -0.297872 -1.69761 72 74 91
16.1389 -0.377359 -1.6965 73 71 92
16.1345 -0.430364 -1.69606 71 72 93
16.122 -0.4831 -1.69472 79 81 104
16.1145 -0.562467 -1.69406 79 76 100
16.1134 -0.615491 -1.69408 91 90 108
16.1202 -0.668833 -1.69499 83 81 104
16.416 -3.82051 -1.68426 64 62 76
16.4122 -3.90409 -1.68579 75 72 89
16.3911 -3.95552 -1.68472 76 73 92
16.3814 -4.00957 -1.68495 80 76 94
14.6008 -6.74229 -1.4617 106 98 108
14.575 -6.78762 -1.46111 102 96 110
14.5383 -6.82794 -1.45932 104 100 107
16.8405 7.58132 -1.86666 63 71 92
16.8431 7.51647 -1.86409 63 71 90
16.2605 4.15011 -1.77182 76 82 104
16.2569 4.09233 -1.76981 72 78 98
16.2632 4.00872 -1.76825 69 70 88
16.2379 3.94617 -1.76377 68 69 90
16.249 3.89217 -1.76355 65 67 88
16.2581 3.83771 -1.76312 68 66 90
16.2438 3.75006 -1.75931 69 70 90
16.2427 3.69356 -1.75775 70 71 91
16.1157 -0.74829 -1.69478 85 83 105
16.124 -0.801791 -1.69591 89 88 106
16.1282 -0.855139 -1.6966 86 87 107
16.1303 -0.908405 -1.69706 84 85 103
16.1405 -0.988808 -1.69865 83 81 103
16.1105 -1.04013 -1.69551 83 81 103
16.1277 -1.09443 -1.69777 84 83 102
16.1173 -1.17354 -1.69712 85 83 104
16.3676 -4.06267 -1.68474 75 72 89
16.3338 -4.13918 -1.68303 68 67 83
16.3254 -4.19353 -1.68347 73 71 88
16.3188 -4.24834 -1.68413 73 70 87
14.4942 -6.89348 -1.45793 106 97 105
14.4391 -6.92508 -1.45413 105 98 106
16.2336 4.60135 -1.78208 71 77 99
16.2411 4.54575 -1.78119 70 77 95
16.2465 4.48965 -1.78008 71 76 95
16.2528 4.40528 -1.7783 71 76 96
16.25 4.34727 -1.77628 71 77 95
16.2509 4.29029 -1.77472 69 77 96
16.2582 4.20654 -1.77316 71 80 97
16.1263 -1.22742 -1.69848 74 74 91
16.1252 -1.28059 -1.69871 76 79 98
16.1237 -1.36042 -1.69918 85 83 105
16.1064 -1.41224 -1.69762 82 80 102
16.1087 -1.46571 -1.6983 82 80 99
16.1088 -1.51901 -1.69876 88 86 107
16.0984 -1.59804 -1.69833 89 89 107
16.2956 -4.32736 -1.68372 66 68 83
16.279 -4.37965 -1.6833 66 63 79
16.2391 -4.42586 -1.68029 68 66 79
16.1866 4.99337 -1.78942 73 80 98
16.2163 4.94379 -1.79101 73 78 98
16.221 4.85807 -1.78877 74 79 99
16.2007 4.79436 -1.78451 71 79 98
16.226 4.74354 -1.78565 71 78 97
16.2317 4.65852 -1.78364 73 75 98
16.0961 -1.65114 -1.69856 83 81 102
16.1075 -1.70566 -1.70038 91 89 111
16.0903 -1.78398 -1.69927 84 83 101
16.0894 -1.83728 -1.69973 90 89 105
16.0844 -1.89014 -1.69974 81 83 99
16.0584 -1.96729 -1.69773 79 78 95
16.2286 -4.50801 -1.68138 64 60 77
16.2248 -4.56364 -1.68247 65 63 77
16.1883 -4.61041 -1.6799 69 66 77
16.1631 -4.66016 -1.67861 74 70 83
16.1527 5.30459 -1.79633 73 75 100
16.1909 5.25768 -1.79882 71 76 98
16.1587 5.18922 -1.79298 70 75 97
16.1909 5.14043 -1.79479 72 77 99
16.2043 5.05687 -1.79346 73 78 98
16.0589 -2.02077 -1.69842 86 85 101
16.0553 -2.07377 -1.69865 81 82 100
16.0319 -2.12423 -1.69664 79 82 101
16.0383 -2.20531 -1.69845 88 86 106
16.0184 -2.25611 -1.69689 82 79 99
16.016 -2.30926 -1.69735 88 87 103
16.1418 -4.73939 -1.67863 78 76 81
16.1564 -4.80029 -1.68187 79 77 80
16.1326 -4.85035 -1.6808 79 74 81
16.1024 5.6422 -1.80301 69 76 95
16.1152 5.58716 -1.80235 68 76 94
16.1326 5.50426 -1.80124 70 78 97
16.1373 5.44676 -1.79968 69 76 94
16.1249 5.3839 -1.79609 71 76 98
15.9823 -2.38475 -1.69467 91 89 110
15.9736 -2.43695 -1.69445 85 83 105
15.9844 -2.49207 -1.69649 86 85 103
15.9518 -2.56743 -1.69403 86 83 100
15.9328 -2.61794 -1.69269 88 86 101
16.1257 -4.93388 -1.68255 81 71 80
16.0976 -4.98264 -1.68105 80 72 80
16.0562 -5.02727 -1.67804 82 73 76
16.0667 5.89776 -1.80881 68 76 95
16.069 5.83887 -1.80679 70 78 97
16.0805 5.78323 -1.8059 69 75 96
16.0951 5.69912 -1.80435 70 78 97
15.9312 -2.67121 -1.69337 84 81 99
15.9178 -2.72254 -1.69271 89 86 103
15.8704 -2.79494 -1.68867 99 96 113
15.8664 -2.84772 -1.68913 94 90 107
15.8446 -2.8974 -1.68757 82 79 98
16.0484 -5.11059 -1.67978 84 74 77
16.0217 -5.15953 -1.6785 82 73 77
16.0044 -5.2113 -1.67829 81 71 79
16.0382 6.15757 -1.81595 68 76 97
16.0508 6.10189 -1.81506 69 76 97
16.0557 6.04352 -1.81327 70 75 95
16.0641 5.9567 -1.81082 68 73 95
15.816 -2.97258 -1.68578 87 83 98
15.8035 -3.02378 -1.68534 83 79 94
15.789 -3.07456 -1.68468 88 84 100
15.7596 -3.14929 -1.68289 78 73 93
16.0032 6.44708 -1.82399 67 75 93
16.023 6.36352 -1.82266 70 77 95
16.0176 6.30087 -1.81952 69 76 95
16.0325 6.24588 -1.81886 67 75 96
15.7544 -3.20179 -1.68335 81 77 94
15.7413 -3.25273 -1.68291 81 80 96
15.7027 -3.29849 -1.67955 63 59 77
15.6724 -3.37256 -1.67776 65 62 79
15.6548 -3.42237 -1.67687 69 66 83
15.9345 -5.44685 -1.67855 90 82 79
15.9378 -5.53432 -1.6818 98 92 101
15.8742 -5.57059 -1.67642 100 94 105
15.9793 6.71288 -1.83271 65 73 94
15.9893 6.62493 -1.83003 65 73 94
16.0015 6.56848 -1.82891 66 73 92
16.0062 6.50917 -1.8269 65 71 93
15.6429 -3.47334 -1.67666 66 64 77
15.6215 -3.54907 -1.676 76 74 88
15.6131 -3.60077 -1.67623 65 63 77
15.5909 -3.64939 -1.67489 66 63 79
15.8913 -5.63394 -1.68031 78 72 84
15.8805 -5.71697 -1.68205 87 81 95
15.9445 6.91457 -1.83784 65 73 94
15.9684 6.83175 -1.83673 63 74 94
15.9758 6.77303 -1.83495 64 72 95
15.5667 -3.72435 -1.67401 62 61 77
15.5578 -3.77589 -1.67424 61 60 78
15.5332 -3.82374 -1.67268 74 70 87
15.5316 -3.87703 -1.67381 71 69 83
15.8802 -5.77473 -1.684 83 78 92
15.8685 -5.82858 -1.68466 86 79 94
15.8547 -5.88174 -1.6851 89 79 93
15.9237 7.1233 -1.845 61 72 92
15.9358 7.0351 -1.84232 63 69 93
15.9439 6.97633 -1.84053 67 73 95
15.5218 -3.95536 -1.67473 77 74 91
15.4967 -4.00294 -1.67316 73 72 88
15.483 -4.0533 -1.67295 74 70 87
15.8334 -5.96143 -1.68576 58 45 44
15.7949 -6.00568 -1.6834 106 95 91
15.6334 -6.00454 -1.66681 113 99 93
15.4553 -6.02496 -1.64937 106 90 93
15.4685 -4.13047 -1.67341 69 67 84
15.4544 -4.18072 -1.6732 67 65 79
15.4402 -4.23092 -1.67298 69 68 82
15.2755 -6.01463 -1.63062 107 93 92
15.1053 -6.00675 -1.61295 105 91 91
14.9241 -6.02158 -1.59507 109 94 87
14.7636 -6.01499 -1.57848 110 95 90
14.6088 -6.00963 -1.56254 115 100 93
15.4095 -4.30379 -1.67165 65 62 79
15.4044 -4.35643 -1.67256 64 61 78
15.3705 -4.40116 -1.67009 64 62 76
15.3824 -4.45852 -1.67303 66 64 78
14.456 -6.00407 -1.54681 114 100 93
14.2922 -6.02032 -1.53087 102 90 91
14.1362 -6.01121 -1.51471 108 98 105
14.0538 -6.03125 -1.50717 109 99 106
15.1325 1.85773 -1.72319 70 66 83
15.1253 1.8062 -1.72152 113 101 102
15.1239 1.75541 -1.72057 107 92 86
15.0894 1.67587 -1.7153 117 103 102
15.1171 1.57786 -1.71725 88 87 103
15.2116 1.53669 -1.72806 103 105 120
15.1089 1.45111 -1.71463 100 100 118
15.128 1.40251 -1.71632 66 68 88
15.3297 -4.52497 -1.66922 67 64 73
15.3182 -4.5758 -1.66945 76 73 80
15.297 -4.62383 -1.66856 75 73 78
14.0133 -6.09503 -1.50568 111 99 111
13.984 -6.13639 -1.50439 104 95 106
15.1528 2.57553 -1.73866 102 101 115
15.1382 2.52173 -1.73579 107 108 124
15.1252 2.44278 -1.73268 85 83 104
15.1321 2.34141 -1.7315 106 96 97
15.2498 2.28175 -1.74448 99 84 89
15.1464 1.93552 -1.72606 76 78 99
15.1482 0.0265662 -1.70916 72 73 94
15.1655 -0.09825 -1.71111 80 83 102
15.1441 -0.14803 -1.70848 78 76 98
15.0826 -0.222091 -1.70104 79 81 102
15.0945 -0.271955 -1.7025 77 78 98
15.3083 -4.70866 -1.6724 79 73 75
15.2582 -4.74805 -1.66814 77 71 73
13.9417 -6.17221 -1.5016 103 96 104
13.8878 -6.22984 -1.49859 106 99 106
13.849 -6.26674 -1.49623 103 96 107
15.2085 3.31375 -1.76252 68 70 91
15.2014 3.2336 -1.75966 63 65 86
15.1939 3.12736 -1.75608 72 73 94
15.1183 -0.322121 -1.70539 75 77 98
15.1101 -0.371741 -1.70444 79 80 98
15.109 -0.446375 -1.70445 79 77 100
15.1222 -0.496537 -1.70615 75 82 101
15.2324 -4.93067 -1.6711 76 69 77
15.1969 -4.97406 -1.66863 77 72 74
13.8047 -6.30108 -1.49322 100 94 108
13.7675 -6.33838 -1.49107 102 96 108
15.2008 3.60223 -1.76943 70 71 91
15.1958 3.49533 -1.76585 68 71 90
15.207 3.41874 -1.76515 69 71 92
15.2263 3.37014 -1.76612 67 69 92
15.1688 -5.01969 -1.66706 74 67 71
13.7257 -6.40045 -1.48957 101 93 104
13.6919 -6.43898 -1.48786 105 98 106
15.2007 4.10893 -1.78446 68 71 89
15.2187 4.03305 -1.78423 64 65 83
15.2052 3.97599 -1.78088 69 72 89
15.2011 3.92144 -1.77873 68 71 90
15.2067 3.84278 -1.77707 69 71 92
15.123 -5.19606 -1.668 76 73 84
15.0861 -5.26601 -1.66644 81 74 80
13.6598 -6.47818 -1.48636 109 102 110
13.6355 -6.54785 -1.48702 105 95 104
15.1811 4.45496 -1.79351 68 70 93
15.192 4.40369 -1.79304 63 65 86
15.1874 4.34821 -1.79065 61 68 87
15.1932 4.26872 -1.78875 64 71 87
15.1997 4.21645 -1.7878 65 67 87
15.206 4.16418 -1.78685 69 72 88
15.091 -5.32249 -1.66892 83 73 81
15.0749 -5.45457 -1.67187 106 101 105
15.1472 4.77244 -1.80065 70 77 96
15.1496 4.71836 -1.79898 71 77 99
15.1668 4.6415 -1.79828 71 77 101
15.1516 4.5825 -1.79445 69 76 99
15.1782 4.53564 -1.7959 71 79 100
14.7201 1.98517 -1.72148 85 89 108
14.7192 1.9354 -1.72051 73 74 94
14.6836 1.85685 -1.71487 64 63 83
14.6528 1.80386 -1.71021 102 91 99
14.6986 1.75968 -1.71514 107 89 84
14.6878 1.68448 -1.7127 99 88 83
14.6662 1.58371 -1.70854 77 78 96
14.741 1.54183 -1.71715 98 98 119
14.7074 1.4647 -1.71201 100 100 118
14.7147 1.41614 -1.71226 88 87 105
14.7239 1.24479 -1.71131 80 79 101
14.7424 1.19705 -1.71304 81 82 103
14.7427 1.12336 -1.71232 76 78 99
14.7411 1.07411 -1.7116 76 76 99
14.7551 1.02592 -1.71283 79 75 98
14.7452 0.976202 -1.71112 81 84 104
14.7702 0.904051 -1.7136 76 79 95
14.7857 0.855769 -1.71508 77 80 98
14.7693 0.805813 -1.71263 75 74 95
14.7698 0.732253 -1.71216 72 73 91
14.7946 0.684267 -1.71487 75 81 97
14.7857 0.634818 -1.71341 78 79 99
14.7734 0.560839 -1.71146 72 77 97
14.77 0.511733 -1.71073 75 76 100
14.7585 0.462442 -1.70902 74 79 98
14.7309 0.41283 -1.70534 78 81 99
15.0492 -5.5007 -1.67076 96 95 101
14.973 -5.52878 -1.66356 105 103 114
14.9975 -5.59262 -1.66852 57 50 68
15.1263 5.06902 -1.80924 72 79 98
15.1165 5.01057 -1.80589 72 78 98
15.1121 4.954 -1.80326 70 76 98
15.1418 4.88071 -1.80399 70 78 99
15.1503 4.8283 -1.80304 71 78 97
14.7181 2.73527 -1.73632 81 82 105
14.7274 2.68645 -1.73633 85 88 107
14.7329 2.61185 -1.73536 86 87 107
14.7614 2.56619 -1.73783 99 96 115
14.7055 2.50691 -1.72973 98 99 114
14.716 2.43344 -1.7295 85 87 107
14.7091 2.3323 -1.72657 118 110 114
14.7034 2.28152 -1.72486 102 89 83
14.7187 2.20894 -1.72537 96 90 102
14.7181 2.10919 -1.72342 79 84 105
14.713 2.03396 -1.72147 80 83 102
14.7157 0.3393 -1.70314 74 78 98
14.7155 0.290542 -1.70291 71 72 92
14.7271 0.241961 -1.70415 76 77 97
14.6991 0.168552 -1.70048 76 79 99
14.7004 0.119873 -1.70049 78 80 101
14.6817 0.0711469 -1.69804 76 74 96
14.6748 -0.00174782 -1.69707 72 73 96
14.6855 -0.0503771 -1.69831 77 82 102
14.6702 -0.0988681 -1.69635 73 72 91
14.6944 -0.147693 -1.69931 82 80 101
14.6647 -0.220175 -1.69564 74 77 96
14.6806 -0.269019 -1.69762 87 87 111
14.6726 -0.317424 -1.69664 75 77 100
14.6817 -0.390517 -1.69789 72 72 98
14.9887 -5.67246 -1.67057 72 70 81
14.9866 -5.72707 -1.67238 71 69 80
15.0565 5.32366 -1.81111 69 74 98
15.086 5.2501 -1.8116 70 76 99
15.0806 5.19271 -1.80873 70 78 101
15.092 5.14095 -1.80802 70 76 98
14.7292 3.19393 -1.74901 80 78 99
14.7303 3.14311 -1.74779 72 75 92
14.772 3.10038 -1.75173 73 79 95
14.7658 3.02274 -1.74904 73 76 95
14.7819 2.97486 -1.74979 75 78 97
14.749 2.91787 -1.74439 73 75 98
14.7277 2.86325 -1.74047 83 84 105
14.736 2.78891 -1.73975 84 82 103
14.6654 -0.438617 -1.69593 82 84 106
14.6548 -0.486825 -1.69471 75 77 97
14.6631 -0.559926 -1.69596 74 75 95
14.6482 -0.607864 -1.69425 82 80 98
14.653 -0.656584 -1.69499 80 80 101
14.6605 -0.729776 -1.69624 78 79 99
14.6392 -0.777233 -1.69379 77 78 94
14.6335 -0.825439 -1.69331 76 79 96
14.6515 -0.874999 -1.69577 72 68 93
14.9769 -5.77896 -1.67329 65 64 78
14.9467 -5.85117 -1.67285 70 64 73
14.9106 -5.89311 -1.67061 73 67 74
15.0157 5.56123 -1.8161 66 77 94
15.0406 5.48596 -1.81588 68 74 98
15.038 5.42903 -1.81325 69 75 99
15.0689 5.38371 -1.81494 69 75 99
14.7409 3.60727 -1.76195 71 72 90
14.7723 3.56273 -1.76442 68 69 88
14.7688 3.51026 -1.76246 69 75 91
14.7747 3.45997 -1.76173 65 70 87
14.7567 3.37892 -1.75733 68 71 90
14.7719 3.33078 -1.75783 72 71 89
14.7676 3.27852 -1.75587 69 69 93
14.656 -0.948169 -1.69677 77 79 99
14.6478 -0.996235 -1.69605 78 78 98
14.6712 -1.04645 -1.69925 75 71 96
14.6848 -1.12053 -1.70148 77 75 99
14.6919 -1.16984 -1.70272 77 80 97
14.6929 -1.21871 -1.70322 76 77 98
14.9077 -5.94767 -1.67242 98 92 92
14.8324 -6.00223 -1.66658 122 109 107
14.9713 5.79882 -1.8211 66 74 97
14.9902 5.74921 -1.82111 66 73 99
14.9918 5.66527 -1.81776 67 75 98
15.029 5.62226 -1.82017 69 75 97
14.7666 3.97743 -1.77637 74 74 94
14.7625 3.92408 -1.77417 71 72 91
14.7794 3.87603 -1.77467 69 70 90
14.7732 3.79638 -1.7715 71 73 94
14.7723 3.74414 -1.76979 70 71 91
14.7713 3.69194 -1.76808 71 72 92
14.6978 -1.29239 -1.70447 82 80 101
14.6787 -1.33957 -1.70251 78 76 98
14.6812 -1.38862 -1.70326 76 78 94
14.6657 -1.436 -1.70179 76 77 97
14.6695 -1.50967 -1.70304 81 80 101
14.6754 -1.55915 -1.70427 78 77 94
14.6634 -1.6068 -1.7033 80 81 100
20.8665 -7.35878 -2.36409 78 74 82
14.6907 -6.00224 -1.6515 110 98 91
14.527 -5.99264 -1.63372 102 88 88
14.3856 -5.99091 -1.61863 101 89 89
14.235 -6.01174 -1.60356 101 91 90
14.072 -5.99909 -1.58578 108 96 93
14.9467 5.98829 -1.82658 65 76 95
14.9552 5.93453 -1.82515 66 74 95
14.9633 5.85253 -1.82253 67 75 98
14.7394 4.33845 -1.78515 63 70 89
14.7232 4.28112 -1.78123 68 73 92
14.7305 4.20418 -1.77952 66 73 91
14.7023 4.14409 -1.77413 67 70 89
14.7199 4.09627 -1.77463 66 68 87
14.7565 4.05335 -1.77759 60 66 85
14.6644 -1.68033 -1.7043 80 78 95
14.6579 -1.72854 -1.70406 88 87 104
14.6552 -1.77719 -1.70432 85 84 102
14.6327 -1.89694 -1.70311 83 79 102
14.6 -1.94173 -1.69968 82 80 101
14.6735 -3.30521 -1.68894 68 67 81
14.693 -3.35975 -1.69255 73 72 85
13.9275 -5.99306 -1.57024 107 93 87
13.7683 -6.00652 -1.55404 112 97 90
13.6333 -6.00239 -1.53963 114 99 94
13.4985 -5.99746 -1.52523 110 96 96
14.9015 6.2281 -1.8323 66 74 98
14.907 6.17287 -1.83039 67 76 97
14.9216 6.12128 -1.82968 67 75 98
14.94 6.04276 -1.82825 66 77 95
14.67 4.63682 -1.78754 72 77 97
14.6886 4.56258 -1.78707 66 77 99
14.698 4.51214 -1.78634 68 76 97
14.711 4.46278 -1.7861 68 75 98
14.7116 4.3836 -1.78342 69 75 97
14.5848 -1.98866 -1.69846 82 83 103
14.584 -2.06198 -1.69946 75 73 95
14.5626 -2.10795 -1.6975 84 80 97
14.5685 -2.15772 -1.69899 86 87 105
14.674 -3.43131 -1.69209 66 63 80
14.6698 -3.48084 -1.69282 71 69 82
14.6499 -3.52684 -1.69163 71 69 83
14.6243 -3.59678 -1.69044 65 62 79
13.3526 -6.01294 -1.5106 108 97 105
13.2163 -6.00542 -1.49597 104 94 105
13.1838 -6.04254 -1.49417 104 98 108
14.8645 6.41489 -1.83682 64 75 95
14.889 6.36709 -1.83731 67 74 100
14.8847 6.27893 -1.83277 64 75 98
14.6509 4.87152 -1.79413 71 76 95
14.6593 4.79382 -1.79218 69 76 95
14.677 4.74568 -1.79244 71 78 97
14.6679 4.6895 -1.78925 74 79 98
14.563 -2.23045 -1.6995 90 91 110
14.5508 -2.27765 -1.69877 86 83 105
14.5307 -2.32358 -1.69706 86 82 105
14.4911 -2.39088 -1.69338 88 89 107
14.5001 -2.44126 -1.69536 76 75 95
14.4756 -2.48622 -1.69316 74 73 91
14.6022 -3.6421 -1.68901 64 64 82
14.5742 -3.68592 -1.68685 67 67 82
14.5904 -3.74038 -1.69023 67 65 78
14.5657 -3.81037 -1.68928 73 71 85
13.1547 -6.08112 -1.49283 103 97 111
13.0925 -6.13063 -1.48856 87 83 97
14.838 6.60708 -1.84303 65 73 94
14.8595 6.55785 -1.84304 63 70 96
14.8783 6.47857 -1.84137 65 73 96
14.6076 5.154 -1.80022 70 78 98
14.6169 5.10297 -1.79924 72 80 102
14.6186 5.04949 -1.79729 69 77 98
14.6392 4.97538 -1.79681 70 77 96
14.6442 4.92314 -1.79535 71 78 96
14.4646 -2.53336 -1.69267 77 74 93
14.4553 -2.60532 -1.69293 78 76 93
14.4267 -2.69828 -1.69123 85 82 99
14.5699 -3.8621 -1.69121 72 71 85
14.5451 -3.90655 -1.68954 74 73 87
14.5274 -3.97822 -1.68955 73 72 88
13.0434 -6.15984 -1.48474 95 92 102
13.0014 -6.19208 -1.48182 105 98 106
14.8511 6.67107 -1.84758 64 72 95
14.5776 5.33386 -1.80411 68 76 97
14.5801 5.28028 -1.80216 66 73 99
14.5899 5.22927 -1.80118 69 76 95
14.4011 -2.76718 -1.68952 86 82 99
14.3834 -2.81289 -1.6883 81 76 90
14.389 -2.86298 -1.69004 81 77 94
14.384 -2.93573 -1.69103 82 78 93
14.4696 -4.01382 -1.68379 71 73 88
14.4348 -4.05523 -1.68092 70 69 86
14.4163 -4.12637 -1.68093 67 64 81
14.5237 5.5607 -1.80751 66 73 99
14.5606 5.51905 -1.80997 67 75 99
14.5468 5.45942 -1.80581 68 74 98
14.5497 5.40581 -1.80385 67 75 96
14.3639 -2.98088 -1.68957 80 76 92
14.3456 -3.02632 -1.68835 85 82 91
14.3369 -3.07367 -1.68836 75 68 84
14.3095 -3.14177 -1.68665 66 62 81
14.4596 -4.18901 -1.68791 66 63 82
14.4453 -4.23599 -1.68768 68 65 82
14.4117 -4.27752 -1.68505 69 65 80
14.5077 5.74733 -1.81386 67 75 98
14.4948 5.68741 -1.80969 66 75 99
14.5171 5.64055 -1.81019 67 74 100
14.3082 -3.19065 -1.68764 64 62 76
14.2835 -3.2345 -1.68568 68 68 81
14.2961 -3.31122 -1.68914 63 61 72
14.2652 -3.35359 -1.68645 64 63 82
14.398 -4.35017 -1.68578 66 63 80
14.3851 -4.39748 -1.68579 61 60 75
14.4475 6.00148 -1.81848 67 75 98
14.4431 5.91651 -1.81407 67 74 99
14.4735 5.87268 -1.81555 66 74 97
14.4574 5.8112 -1.8109 65 75 95
14.2593 -3.40155 -1.68695 70 68 81
14.2459 -3.47256 -1.68721 70 67 85
14.1972 -3.51042 -1.6823 76 71 92
14.4137 6.1557 -1.82189 65 72 97
14.4411 6.11065 -1.82288 66 76 97
14.4186 6.04587 -1.81724 65 78 97
14.2082 -3.56236 -1.68501 71 68 85
14.1881 -3.60689 -1.68379 68 65 82
14.1276 -3.66609 -1.67815 62 58 72
14.1304 -3.7161 -1.67988 69 65 79
14.3941 6.34439 -1.82873 63 76 94
14.3799 6.28216 -1.82407 65 72 98
14.4003 6.23427 -1.82408 66 74 95
14.1176 -3.76223 -1.67964 66 61 81
14.1332 -3.84057 -1.68384 72 70 84
14.0912 -3.87911 -1.67991 71 70 84
14.3542 6.41232 -1.82749 66 74 95
14.0875 -3.92764 -1.68091 78 75 91
14.0755 -3.9989 -1.68166 72 69 88
14.0637 -4.04533 -1.68167 74 70 87
14.048 -4.09065 -1.68118 63 60 77
14.0168 -4.1316 -1.67873 64 62 78
13.9943 -4.19985 -1.67826 65 63 78
13.8764 2.11278 -1.73923 80 78 102
13.8917 2.06795 -1.74028 80 81 102
13.8785 1.99572 -1.73715 78 75 95
13.8836 1.94952 -1.73689 76 77 95
13.8453 1.8976 -1.73087 68 71 90
13.8392 1.82685 -1.72878 89 79 88
13.9124 1.78933 -1.73771 110 90 81
13.8599 1.73616 -1.72985 108 89 83
13.8681 1.69052 -1.73012 109 98 93
13.8235 1.56929 -1.72226 117 115 139
13.8705 1.52795 -1.72778 103 100 118
13.8823 1.4595 -1.72832 105 107 122
13.8857 1.41338 -1.72807 74 75 95
13.8782 1.29672 -1.72547 78 76 97
13.9008 1.25237 -1.72784 81 79 100
13.9193 1.20756 -1.72968 85 83 104
13.9061 1.16008 -1.72733 79 77 98
13.9122 1.0911 -1.72734 75 75 99
13.9282 1.04596 -1.72893 79 80 101
13.9105 0.998382 -1.72605 79 80 101
13.9277 0.930161 -1.72764 75 78 97
13.9452 0.884974 -1.72948 75 76 96
13.9428 0.838524 -1.7287 73 74 95
13.9336 0.768635 -1.72688 74 80 99
13.9447 0.722981 -1.72794 73 73 97
13.9576 0.677364 -1.72926 73 77 97
13.9526 0.63088 -1.72822 76 78 98
13.9404 0.561076 -1.72613 72 73 94
13.9449 0.515078 -1.7264 74 72 94
13.9532 0.469197 -1.7272 76 78 98
13.9304 0.399287 -1.7238 75 76 97
13.9244 0.353049 -1.72276 82 82 102
13.9224 0.306947 -1.72224 78 78 98
13.9264 0.237979 -1.72252 73 73 97
13.9161 0.191789 -1.72095 75 81 97
13.9095 0.145718 -1.71991 75 78 97
13.8989 0.0996601 -1.71834 75 77 98
13.8981 0.0307741 -1.71809 78 79 100
13.887 -0.0151493 -1.71652 77 83 99
13.8897 -0.0610303 -1.7168 79 84 104
13.8723 -0.129726 -1.71445 89 87 111
13.8747 -0.175569 -1.71472 75 74 92
13.9781 -4.2449 -1.67777 66 64 78
13.9522 -4.28709 -1.67606 66 65 79
13.929 -4.35497 -1.67558 67 64 81
13.8803 2.70506 -1.75355 79 80 100
13.8817 2.65764 -1.75251 70 73 92
13.9298 2.6187 -1.75777 103 104 124
13.8804 2.53855 -1.74939 96 97 117
13.8716 2.48956 -1.74703 110 111 131
13.8261 2.38729 -1.73865 82 78 95
13.959 2.3381 -1.75494 103 85 89
13.8655 2.27585 -1.7413 101 83 84
13.8832 2.23145 -1.74262 101 91 92
13.8768 -0.221422 -1.71499 80 79 97
13.8864 -0.290346 -1.71631 76 77 98
13.8684 -0.335825 -1.71396 82 85 104
13.8859 -0.382056 -1.71633 76 77 97
13.8835 -0.42785 -1.71608 77 78 98
13.8762 -0.496413 -1.7153 79 80 99
13.8735 -0.542155 -1.71505 81 80 99
13.8824 -0.588336 -1.71637 78 77 93
13.8941 -0.657669 -1.71822 79 81 97
13.879 -0.702884 -1.71639 81 79 100
13.9028 -4.39689 -1.67387 65 62 78
13.9277 -4.45436 -1.6788 65 60 74
13.9085 3.09454 -1.76792 72 70 91
13.8957 3.04357 -1.76478 70 73 92
13.8905 2.99434 -1.76269 74 79 99
13.8832 2.94476 -1.76033 78 79 99
13.9016 2.87653 -1.76087 75 77 97
13.8881 2.82593 -1.75773 83 84 102
13.8821 2.77695 -1.75564 80 83 98
13.8756 -0.748592 -1.71614 81 80 97
13.8826 -0.817815 -1.71746 77 79 94
13.8749 -0.863285 -1.71668 75 73 94
13.8809 -0.909548 -1.71774 81 78 97
13.8867 -0.955851 -1.7188 80 78 99
13.8986 -1.02565 -1.72092 82 78 101
13.8942 -1.07136 -1.72066 73 73 92
13.8999 -4.52089 -1.67783 68 66 77
13.877 -4.56375 -1.67661 69 66 76
13.9858 -5.45046 -1.67831 96 89 95
13.9602 -5.49293 -1.67711 97 90 100
13.9091 3.43441 -1.77836 63 68 87
13.8706 3.37664 -1.77154 67 72 91
13.8607 3.32579 -1.76866 67 68 88
13.8828 3.25816 -1.76946 64 72 88
13.8937 3.21216 -1.76947 68 68 92
13.8736 3.15938 -1.76528 70 68 90
13.8719 -1.11571 -1.71804 79 79 96
13.8516 -1.18308 -1.71596 78 77 96
13.8525 -1.2291 -1.71649 84 82 100
13.8554 -1.2753 -1.71729 80 78 97
13.8422 -1.34312 -1.71625 77 75 98
13.8505 -1.38988 -1.71783 78 75 96
13.8312 -1.43402 -1.71574 79 80 99
13.922 -5.55677 -1.67544 100 95 102
13.8812 -5.59328 -1.67233 89 86 95
13.8792 -5.64462 -1.67426 78 76 87
13.8617 3.76555 -1.78328 67 73 91
13.8934 3.7245 -1.78592 70 72 93
13.8981 3.65202 -1.78409 70 71 91
13.9046 3.60452 -1.78331 67 69 90
13.9012 3.55467 -1.78122 68 73 92
13.867 3.49745 -1.77493 68 73 92
13.8196 -1.47884 -1.7147 75 73 95
13.8192 -1.54781 -1.7155 85 84 98
13.8033 -1.5921 -1.71393 77 77 96
13.8011 -1.63783 -1.7142 83 81 102
13.8 -1.70675 -1.715 91 88 107
13.7718 -1.74943 -1.71186 82 81 99
13.8458 3.98344 -1.78902 71 72 91
13.8838 3.94426 -1.79244 70 71 89
13.8549 3.88694 -1.78667 73 74 95
13.8681 3.8165 -1.7859 67 74 90
13.7789 -1.79628 -1.71344 78 81 94
13.7613 -1.86315 -1.71214 85 85 105
13.7621 -1.90928 -1.71294 81 82 104
13.7471 -1.95333 -1.71164 80 82 103
13.7241 -1.99622 -1.70928 88 85 103
13.7995 -5.84862 -1.67406 73 69 80
13.8362 4.2794 -1.79894 64 64 84
13.8228 4.2006 -1.79423 62 64 87
13.8596 4.16129 -1.79739 68 70 91
13.8277 4.10238 -1.7911 68 73 89
13.8394 4.05597 -1.79084 63 72 87
13.735 -2.06684 -1.71192 80 79 94
13.7195 -2.11069 -1.71061 77 75 96
13.7058 -2.15474 -1.70957 79 80 94
13.7042 -2.22368 -1.71064 85 83 104
13.7763 -5.9181 -1.67455 58 51 63
13.6307 -5.96284 -1.66014 82 73 75
13.8033 4.4954 -1.80336 69 75 99
13.8162 4.44902 -1.80311 68 74 98
13.8359 4.37966 -1.80286 68 74 98
13.8447 4.33206 -1.80208 70 73 93
13.6745 -2.26517 -1.70749 89 85 102
13.6721 -2.31085 -1.70802 76 71 91
13.6678 -2.37938 -1.70883 84 82 104
13.6455 -2.4218 -1.70673 82 81 99
13.6445 -2.46776 -1.70753 79 77 96
13.5448 -6.00534 -1.65246 120 108 97
13.4026 -5.99706 -1.63612 104 95 84
13.2478 -5.98246 -1.61809 106 94 93
13.7802 4.71572 -1.80962 71 77 101
13.7882 4.66754 -1.80858 70 76 98
13.7829 4.61515 -1.8057 66 72 94
13.8147 4.54948 -1.80703 69 74 96
13.3785 1.53837 -1.72406 101 102 118
13.3683 1.49229 -1.7219 103 100 121
13.3819 1.42627 -1.72273 72 73 94
13.3913 1.26997 -1.72167 79 80 100
13.4079 1.22651 -1.7233 72 73 91
13.3908 1.18022 -1.72034 75 75 99
13.4012 1.13622 -1.72116 73 73 95
13.4348 1.07152 -1.72496 73 73 97
13.4172 1.0254 -1.72199 74 74 98
13.4212 0.980864 -1.722 78 76 97
13.4344 0.914531 -1.72309 76 78 99
13.436 0.869828 -1.72283 81 84 101
13.4415 0.825352 -1.72311 76 81 100
13.4401 0.758139 -1.72231 71 73 94
13.4472 0.713734 -1.72286 75 78 97
13.4482 0.669028 -1.7226 74 72 100
13.4511 0.624411 -1.72261 76 77 96
13.4389 0.55688 -1.72046 75 73 95
13.4315 0.511957 -1.71911 74 77 94
13.4418 0.467647 -1.7202 74 77 93
13.4367 0.400554 -1.71913 73 72 94
13.4387 0.355984 -1.71914 71 77 94
13.6239 -2.51034 -1.7057 83 79 96
13.6244 -2.57974 -1.70729 81 79 96
13.5977 -2.62108 -1.70467 85 81 98
13.598 -2.66732 -1.70573 83 80 99
13.1129 -6.00115 -1.60392 102 87 92
12.9641 -5.98696 -1.58661 106 92 92
12.8462 -5.98552 -1.5734 104 90 91
13.752 4.93571 -1.81562 69 76 96
13.7383 4.87989 -1.81143 69 80 96
13.7787 4.84244 -1.81485 67 75 94
13.7608 4.78549 -1.81013 71 79 100
13.36 2.26084 -1.73609 100 89 86
13.3581 2.21492 -1.73475 88 80 94
13.3453 2.09927 -1.73044 80 82 105
13.3703 2.05744 -1.73289 66 68 91
13.3735 2.01246 -1.73235 77 79 105
13.3758 1.94473 -1.73128 68 67 85
13.3709 1.89872 -1.72967 70 71 85
13.3482 1.85048 -1.72562 63 60 78
13.4215 1.81455 -1.73483 109 96 95
13.3698 1.74028 -1.72645 110 92 80
13.3681 1.69492 -1.72538 116 100 96
13.4446 0.311491 -1.71969 69 70 91
13.4091 0.244024 -1.71456 75 82 102
13.4146 0.199597 -1.71511 72 75 94
13.4041 0.154997 -1.7135 73 71 93
13.4093 0.110565 -1.71405 72 75 94
13.4145 0.0438661 -1.7146 78 79 97
13.3956 -0.000581308 -1.7119 73 76 93
13.3845 -0.0449432 -1.71029 75 77 97
13.377 -0.11144 -1.70922 71 73 96
13.4031 -0.156125 -1.71275 75 80 99
13.3757 -0.200117 -1.70897 74 74 102
13.3853 -0.266838 -1.71033 78 81 98
13.3912 -0.311351 -1.71115 80 78 99
13.3771 -0.355363 -1.70927 66 66 87
13.3887 -0.40006 -1.7109 78 80 101
13.5822 -2.73376 -1.70521 80 77 92
13.5783 -2.77925 -1.70575 88 85 96
13.5471 -2.81939 -1.7026 81 77 91
13.5365 -2.8867 -1.70288 81 77 94
13.508 -5.46859 -1.66867 93 87 99
12.7304 -5.9842 -1.56042 104 93 89
12.5908 -5.99647 -1.54552 104 92 95
12.4644 -5.98865 -1.5311 98 89 92
13.6908 5.09382 -1.81506 68 76 99
13.7374 5.05883 -1.81927 68 74 98
13.7166 5.00022 -1.81403 69 75 99
13.379 2.70029 -1.74981 79 77 100
13.3807 2.63139 -1.7482 56 57 75
13.4384 2.59571 -1.75497 98 99 119
13.3576 2.53512 -1.74253 96 94 115
13.3722 2.46883 -1.74282 94 97 116
13.3382 2.37144 -1.7358 102 98 107
13.4441 2.34303 -1.74933 98 87 85
13.3894 -0.466685 -1.71118 77 80 99
13.3788 -0.510679 -1.70984 70 71 91
13.38 -0.555095 -1.71011 75 76 97
13.382 -0.621775 -1.71067 80 81 99
13.367 -0.665433 -1.70878 84 85 103
13.3775 -0.710338 -1.71041 78 79 97
13.365 -0.776247 -1.70907 78 76 98
13.3712 -0.820995 -1.71017 78 81 100
13.5243 -2.93049 -1.70236 77 73 90
13.5198 -2.97584 -1.70289 76 72 86
13.4957 -3.01709 -1.7008 77 72 90
13.4387 -5.518 -1.66278 96 89 101
13.4369 -5.56816 -1.66475 77 71 84
13.3742 -5.59407 -1.65861 72 70 86
13.6761 5.26896 -1.82133 67 73 95
13.673 5.21609 -1.81845 69 77 98
13.718 5.18071 -1.8224 68 76 97
13.392 3.07475 -1.76245 70 71 87
13.4052 3.00751 -1.76219 77 79 96
13.3863 2.95691 -1.75814 68 73 92
13.3847 2.91002 -1.75653 74 73 94
13.3849 2.86356 -1.75518 77 75 97
13.3699 2.79108 -1.75114 78 79 95
13.3794 2.74662 -1.75115 78 78 96
13.3694 -0.865284 -1.71017 76 77 96
13.3734 -0.909957 -1.71099 72 74 92
13.3698 -0.976387 -1.71101 75 78 96
13.3734 -1.0211 -1.71183 73 71 90
13.3769 -1.06584 -1.71265 75 77 93
13.3607 -1.1313 -1.71104 82 80 102
13.3363 -1.17368 -1.70807 81 80 96
13.4764 -3.0825 -1.70002 72 69 85
13.4656 -3.12645 -1.69977 68 65 82
13.4662 -3.17295 -1.70109 68 67 84
13.4269 -3.23374 -1.69769 70 67 84
13.374 -5.64485 -1.66083 81 78 91
13.634 5.48694 -1.82654 65 75 98
13.615 5.42758 -1.8213 65 76 98
13.6439 5.3865 -1.82288 67 75 98
13.6318 5.33012 -1.81869 65 76 93
13.3412 3.39163 -1.7659 67 72 90
13.3482 3.32278 -1.76457 64 69 88
13.3459 3.27525 -1.76268 67 70 85
13.3472 3.22865 -1.76134 73 76 94
13.3476 3.1586 -1.75919 65 66 86
13.4028 3.12391 -1.76541 72 78 93
13.3689 -1.22098 -1.71295 68 69 88
13.35 -1.28607 -1.71106 71 72 90
13.3329 -1.32893 -1.70918 81 81 99
13.3374 -1.37385 -1.71027 83 81 102
13.3299 -1.41759 -1.70974 87 90 109
13.2984 -1.48101 -1.70623 73 72 88
13.431 -3.28108 -1.69954 67 65 79
13.4157 -3.32395 -1.69875 68 64 79
13.395 -3.38881 -1.69798 61 60 76
13.3757 -5.72225 -1.66454 79 75 89
13.3567 -5.7656 -1.6643 75 70 86
13.3321 -5.8066 -1.66332 78 74 80
13.5852 5.65094 -1.82861 64 75 97
13.5742 5.59422 -1.82442 65 76 98
13.5925 5.54908 -1.82443 65 76 96
13.3655 3.61044 -1.77668 66 69 88
13.3792 3.54274 -1.77616 69 70 89
13.3757 3.49446 -1.774 64 66 87
13.3355 3.43739 -1.76671 61 66 85
13.324 -1.52829 -1.7103 77 76 90
13.3043 -1.57059 -1.70814 80 77 96
13.2936 -1.63616 -1.70761 86 86 104
13.3089 -1.68255 -1.71033 81 80 98
13.2887 -1.72462 -1.70817 83 82 100
13.3737 -3.43012 -1.69641 66 69 84
13.3579 -3.47273 -1.69563 73 72 86
13.367 -3.52151 -1.69826 69 67 81
13.3201 -5.87869 -1.6653 64 54 62
13.2878 -5.9164 -1.66334 82 77 73
13.5462 5.7666 -1.82964 64 75 95
13.5595 5.71933 -1.82886 67 75 94
13.3447 3.86742 -1.7834 68 73 91
13.3595 3.8235 -1.78368 69 71 92
13.3723 3.77903 -1.78368 68 71 90
13.3735 3.70777 -1.78126 66 71 90
13.3782 3.66129 -1.78019 65 71 89
13.2754 -1.78979 -1.70737 79 79 95
13.2882 -1.83607 -1.70981 80 79 100
13.2577 -1.87655 -1.7063 81 82 100
13.231 -1.9174 -1.70333 93 92 110
13.2129 -1.98164 -1.70199 87 87 105
13.2094 -2.02564 -1.70227 81 82 102
13.3377 -3.58409 -1.69644 70 67 80
13.331 -3.62899 -1.69697 63 60 77
13.2803 -3.66237 -1.69146 63 62 78
13.2628 -5.95709 -1.66237 62 41 47
13.1973 -6.00606 -1.65721 113 101 110
13.4796 5.92382 -1.82961 67 75 97
13.5099 5.88351 -1.83119 65 73 94
13.5382 5.81608 -1.8312 65 76 96
13.3095 4.09776 -1.78768 65 67 92
13.299 4.02262 -1.78337 65 70 87
13.3066 3.97672 -1.78257 64 69 88
13.3332 3.9361 -1.78447 62 63 84
13.2038 -2.06934 -1.70228 87 85 106
13.2046 -2.13637 -1.70365 84 86 100
13.1986 -2.18004 -1.70365 73 72 88
13.177 -2.22116 -1.7015 76 77 94
13.2542 -3.7254 -1.69016 65 62 78
13.2967 -3.78347 -1.69752 67 64 81
13.3868 -3.85488 -1.71146 76 75 89
13.2083 -6.06233 -1.66116 104 93 100
12.996 -6.02006 -1.63484 104 94 93
12.871 -6.01529 -1.62033 102 91 89
13.486 6.0327 -1.83615 64 75 95
13.4874 5.98014 -1.83354 66 77 95
13.2792 4.30651 -1.79224 70 76 95
13.2907 4.2373 -1.7909 65 72 91
13.2781 4.18517 -1.78712 69 70 91
13.2901 4.14038 -1.78686 64 69 88
13.1633 -2.28588 -1.70097 82 80 94
13.1627 -2.33041 -1.70179 77 74 93
13.1426 -2.37157 -1.6999 74 71 90
13.1456 -2.41675 -1.70126 78 77 93
13.2283 -3.88168 -1.69203 73 72 88
13.2245 -3.92738 -1.69308 73 73 85
13.2016 -3.96766 -1.69152 75 74 88
12.7259 -6.02594 -1.60435 104 93 90
12.5941 -6.01618 -1.58885 104 93 92
13.2779 4.52555 -1.8014 68 76 97
13.2607 4.47116 -1.79681 67 76 95
13.2824 4.40485 -1.79682 72 79 98
13.3046 4.36293 -1.79791 67 74 90
13.1369 -2.4823 -1.70155 82 79 96
13.1221 -2.5243 -1.70047 76 72 87
13.1111 -2.56696 -1.69994 81 78 97
13.09 -2.6301 -1.6986 77 74 93
13.1956 -4.01276 -1.69231 71 70 86
13.1755 -4.07734 -1.69206 75 72 89
13.1522 -4.11733 -1.69049 58 56 71
13.2225 4.72849 -1.80325 69 75 99
13.2418 4.68566 -1.8038 68 74 96
13.2479 4.63844 -1.80246 70 75 97
13.2572 4.56792 -1.80058 72 80 101
13.0825 -2.67338 -1.6986 79 74 94
13.0866 -2.71896 -1.70023 76 72 88
13.0647 -2.78186 -1.69889 77 74 92
13.02 -2.81741 -1.69376 79 77 90
13.1381 -4.16005 -1.69024 58 60 73
13.1022 -4.21969 -1.68788 62 60 78
13.0879 -4.26224 -1.68763 63 61 75
13.1991 4.89345 -1.80782 69 77 98
13.1965 4.843 -1.80512 68 76 97
13.2255 4.77888 -1.80595 67 78 96
13.0565 -2.86985 -1.69999 79 73 88
13.0289 -2.90886 -1.69729 73 69 86
13.0275 -2.976 -1.69893 73 71 90
13.0715 -4.30414 -1.68711 66 66 79
13.0784 -4.37704 -1.6908 61 60 76
13.1495 5.0498 -1.80887 68 74 100
13.1904 5.01457 -1.81239 71 77 100
13.1847 4.93807 -1.80808 67 78 97
13.0132 -3.01777 -1.69812 73 71 85
12.9832 -3.05599 -1.69515 71 69 80
12.9811 -3.12301 -1.69679 68 64 79
12.9644 -3.16411 -1.69572 67 66 80
13.0315 -4.4092 -1.68608 64 64 76
13.0448 -4.46064 -1.68976 63 62 76
13.0391 -4.50604 -1.69082 62 61 75
13.1316 5.21812 -1.81479 65 74 96
13.1246 5.1654 -1.81128 68 75 101
13.1588 5.10308 -1.81265 70 76 100
12.9206 -3.19874 -1.69085 70 69 83
12.9004 -3.26139 -1.69005 64 64 81
12.8852 -3.30261 -1.68925 67 64 80
13.028 -4.57351 -1.69215 64 63 77
13.0013 -4.61196 -1.69032 67 65 78
13.0711 5.37107 -1.81476 66 74 95
13.121 5.31472 -1.81829 67 74 97
13.1107 5.26049 -1.81424 65 74 96
12.8814 -3.34664 -1.69007 68 66 80
12.8678 -3.38824 -1.68953 66 64 78
13.0327 5.53285 -1.81825 67 75 95
13.0447 5.46178 -1.8161 66 74 93
13.081 5.4254 -1.81881 65 73 94
12.983 -3.48555 -1.70795 79 77 90
12.8617 -3.49949 -1.69226 70 68 82
12.8477 -3.54098 -1.69172 71 67 84
12.8298 -3.60413 -1.69147 63 61 75
13.0163 5.6279 -1.82121 66 72 96
13.0145 5.57632 -1.81824 68 72 97
12.7098 1.56261 -1.73812 95 94 110
12.6723 1.51532 -1.73184 94 92 113
12.6801 1.45202 -1.73185 91 92 110
12.6702 1.30143 -1.72788 73 74 94
12.7144 1.26302 -1.7336 72 69 86
12.7132 1.22014 -1.73275 77 78 98
12.706 1.17677 -1.73105 70 72 93
12.7201 1.11399 -1.7322 74 79 99
12.7243 1.07165 -1.73221 76 74 96
12.7166 1.02838 -1.73051 80 79 100
12.7379 0.966058 -1.7328 72 77 97
12.7417 0.923675 -1.73281 74 75 98
12.7394 0.880872 -1.73196 77 75 98
12.7581 0.81816 -1.73397 73 75 100
12.7456 0.774782 -1.7317 70 72 92
12.7409 0.73194 -1.73056 82 80 100
12.745 0.668361 -1.73057 71 69 93
12.7656 0.62683 -1.73315 77 77 95
12.7546 0.583745 -1.73116 73 73 96
12.7571 0.541322 -1.73117 74 75 93
12.7604 0.477687 -1.73118 72 74 95
12.7646 0.435325 -1.73147 75 77 94
12.7628 0.392761 -1.73091 75 77 98
12.7416 0.328475 -1.7275 74 78 98
12.7434 0.286108 -1.7275 64 65 87
12.7431 0.243699 -1.72723 74 71 100
12.7331 0.179967 -1.72552 75 73 95
12.7384 0.137683 -1.7261 79 80 101
12.7238 0.0951923 -1.72383 74 76 97
12.7169 0.052847 -1.72269 64 66 87
12.7849 -3.63716 -1.6866 66 65 78
12.7667 -3.67731 -1.68552 59 59 74
12.7596 -3.74325 -1.68689 63 64 79
12.9677 5.78647 -1.82361 63 74 94
12.9555 5.73027 -1.81902 62 73 95
12.9944 5.69525 -1.82201 66 72 98
12.6643 2.09576 -1.74316 79 80 100
12.6619 2.05204 -1.74174 80 77 100
12.6691 2.00985 -1.74174 67 68 89
12.6753 1.94593 -1.74119 67 69 90
12.6391 1.89751 -1.73491 66 67 85
12.6634 1.85787 -1.73749 63 60 76
12.7081 1.79936 -1.74264 95 87 95
12.6557 1.74924 -1.73408 95 84 89
12.6698 1.70809 -1.73523 98 87 93
12.7257 -0.0105549 -1.72385 76 76 99
12.7126 -0.0528278 -1.72185 73 77 100
12.7093 -0.0950627 -1.72129 74 79 94
12.7056 -0.158385 -1.72073 79 76 97
12.7236 -0.200841 -1.72331 79 80 97
12.7099 -0.242898 -1.72132 83 82 100
12.7095 -0.306246 -1.72133 77 76 94
12.7211 -0.348759 -1.72305 69 71 90
12.6971 -0.390377 -1.71963 63 64 85
12.6927 -0.432441 -1.71907 80 78 99
12.7012 -0.496032 -1.72051 71 73 88
12.7353 -3.78162 -1.685 63 62 80
12.7509 -3.83137 -1.6888 78 76 92
12.7396 -3.8735 -1.68881 67 66 80
12.6369 2.54841 -1.75135 94 93 109
12.6282 2.50295 -1.74879 103 102 120
12.6354 2.39517 -1.74681 88 84 100
12.7584 2.37343 -1.76367 96 84 89
12.6437 2.28778 -1.74512 99 87 91
12.6458 2.24463 -1.74427 95 86 97
12.6945 -0.537995 -1.71966 80 86 102
12.6936 -0.580159 -1.71967 76 81 100
12.7014 -0.643848 -1.72111 79 76 97
12.6864 -0.685348 -1.71912 74 75 96
12.685 -0.727477 -1.71912 75 75 99
12.7 -0.791668 -1.72171 80 78 100
12.6884 -0.833239 -1.72029 77 73 96
12.7004 -0.876239 -1.72229 76 74 96
12.724 -3.93718 -1.68909 73 71 84
12.6897 -3.9724 -1.68585 72 71 85
12.6443 2.85804 -1.76186 71 71 93
12.6506 2.79313 -1.76073 71 69 94
12.6601 2.75094 -1.76074 72 75 98
12.656 2.70595 -1.75875 80 84 102
12.642 2.65908 -1.75533 64 65 85
12.6881 2.60228 -1.7602 97 98 116
12.6886 -0.917742 -1.72087 83 83 101
12.7027 -0.982181 -1.72346 80 79 93
12.6885 -1.02346 -1.72175 83 81 100
12.6881 -1.06573 -1.72204 80 79 97
12.6877 -1.12921 -1.72263 81 82 100
12.6711 -1.17013 -1.72064 84 86 99
12.6781 -1.21305 -1.72207 81 78 99
12.6856 -4.01662 -1.68694 72 72 87
12.6749 -4.0818 -1.68803 70 71 84
12.6516 -4.12014 -1.68641 61 60 74
12.6216 3.09714 -1.76667 67 69 90
12.6609 3.06166 -1.77096 69 69 92
12.6443 3.0133 -1.76697 65 70 90
12.663 2.95087 -1.76756 65 70 90
12.6537 2.90441 -1.76471 66 69 86
12.675 -1.27633 -1.72237 87 84 105
12.66 -1.31724 -1.72066 75 72 91
12.6566 -1.35924 -1.72067 81 81 99
12.6492 -1.40082 -1.72011 74 72 93
12.6256 -1.46185 -1.71755 76 77 97
12.6297 -1.50461 -1.7187 83 85 105
12.6206 -4.15599 -1.68371 62 61 77
12.5923 -4.2155 -1.68237 64 63 77
12.6085 3.36228 -1.77433 64 70 88
12.6448 3.32643 -1.77805 65 71 93
12.6131 3.25136 -1.77093 62 70 84
12.6202 3.20833 -1.77036 67 68 87
12.633 3.16667 -1.77066 63 72 89
12.6395 -1.54807 -1.7207 82 83 103
12.6192 -1.60931 -1.71872 76 74 94
12.6247 -1.65236 -1.72015 86 82 101
12.6026 -1.69202 -1.71759 93 95 113
12.5798 -4.2571 -1.68238 63 62 78
12.5692 -4.29928 -1.68266 64 62 76
12.5395 -4.33521 -1.68023 62 60 75
12.6808 -5.42627 -1.68651 122 111 103
12.5965 3.56203 -1.78029 67 69 90
12.5932 3.51592 -1.77802 63 70 88
12.6104 3.45284 -1.77803 64 69 88
12.6124 3.40828 -1.77661 65 69 86
12.611 -1.75674 -1.71989 90 91 111
12.6239 -1.80091 -1.72247 88 86 107
12.5877 -1.83849 -1.7179 78 77 96
12.573 -1.87886 -1.71648 72 75 89
12.5668 -1.94167 -1.71678 79 78 96
12.548 -4.40678 -1.6843 64 62 76
12.5443 -4.45141 -1.68566 65 64 78
12.7378 -5.49803 -1.69703 110 94 93
12.6012 -5.51451 -1.68101 90 87 98
12.5701 -5.54984 -1.67892 103 97 108
12.6025 3.76812 -1.78939 66 69 86
12.6075 3.7239 -1.78826 69 70 88
12.5894 3.67336 -1.7837 67 70 88
12.5959 3.60716 -1.782 67 68 89
12.5497 -1.9816 -1.71507 77 75 96
12.558 -2.02527 -1.71708 87 84 102
12.5257 -2.08406 -1.71366 82 79 96
12.5336 -2.12776 -1.71567 70 69 87
12.5297 -2.16962 -1.71596 77 75 97
12.5349 -4.49413 -1.68621 64 64 76
12.5182 -4.55752 -1.68676 71 71 83
12.575 3.96611 -1.79393 69 71 94
12.5522 3.91345 -1.78851 64 67 89
12.569 3.87262 -1.78909 67 70 90
12.5202 -2.23191 -1.71598 75 74 90
12.4964 -2.27042 -1.71341 76 73 94
12.4901 -2.31184 -1.71342 74 71 92
12.4622 -2.34945 -1.71028 73 72 90
12.4841 -4.59164 -1.68379 69 70 82
12.4649 -4.63089 -1.68299 73 73 85
12.4327 -4.6886 -1.68137 74 72 85
12.5282 4.11284 -1.7939 61 67 87
12.5759 4.08143 -1.79904 60 67 93
12.544 4.02561 -1.7922 60 69 90
12.4343 -2.40822 -1.70772 83 79 95
12.4431 -2.45231 -1.71002 81 78 97
12.4362 -2.49355 -1.71002 82 78 95
13.2083 -5.99598 -1.77986 80 77 94
12.5164 -5.81876 -1.68606 73 70 86
12.5189 4.34131 -1.80299 67 72 91
12.5118 4.2694 -1.79872 61 66 87
12.5146 4.22397 -1.79702 55 59 84
12.555 4.19047 -1.80102 65 67 90
12.4232 -2.55499 -1.70975 81 76 96
12.3888 -2.59082 -1.70576 79 75 92
12.4067 -2.63691 -1.70948 77 75 88
12.4085 -2.70134 -1.71149 74 71 86
13.0687 -5.98633 -1.76226 69 72 87
12.4266 -5.82772 -1.67555 68 67 76
12.3983 -5.86374 -1.67398 62 60 63
12.4975 4.47421 -1.8064 69 77 100
12.5197 4.43494 -1.80755 67 74 100
12.5138 4.38623 -1.80441 71 78 102
12.1462 1.42129 -1.72503 69 67 88
12.1546 1.33986 -1.72475 76 79 96
12.1792 1.28063 -1.72742 76 77 97
12.184 1.23991 -1.72743 74 75 96
12.1906 1.19937 -1.72774 78 80 96
12.207 1.15966 -1.72952 79 85 99
12.2052 1.09782 -1.72835 76 77 96
12.2094 1.05704 -1.72835 73 79 95
12.2076 1.0158 -1.72747 73 72 90
12.2091 0.954344 -1.72689 76 74 95
12.2129 0.913548 -1.7269 73 78 100
12.2185 0.872883 -1.7272 78 78 103
12.2351 0.812383 -1.72899 72 76 98
12.2561 0.772543 -1.73166 68 69 90
12.2258 0.729794 -1.72664 75 74 92
12.2525 0.690179 -1.7302 79 80 100
12.2446 0.62826 -1.72843 73 75 96
12.2612 0.587971 -1.73051 69 70 91
12.2361 0.545933 -1.72638 74 79 99
12.2473 0.484937 -1.72757 71 69 91
12.2476 0.443992 -1.72729 79 78 98
12.2636 0.403501 -1.72936 78 78 98
12.2484 0.341674 -1.72671 72 75 95
12.2404 0.300586 -1.72524 79 80 99
12.2361 0.259628 -1.72436 75 76 94
12.242 0.19842 -1.72496 68 69 92
12.2276 0.157407 -1.7226 73 70 95
12.2348 0.116639 -1.7235 80 80 102
12.2201 0.0757466 -1.72114 75 73 97
12.3873 -2.73964 -1.7095 79 75 90
12.364 -2.77742 -1.70722 77 74 87
12.3599 -2.81921 -1.7078 71 69 84
12.3861 -5.90698 -1.67477 97 92 89
12.4712 4.6293 -1.81037 69 75 99
12.4958 4.59083 -1.8118 69 77 98
12.4624 4.53233 -1.80439 68 74 97
12.1349 1.95771 -1.73499 77 78 97
12.1174 1.89284 -1.73086 62 65 83
12.1026 1.84925 -1.72761 63 60 77
12.1131 1.8093 -1.72821 96 89 102
12.1105 1.74694 -1.72645 96 86 97
12.1148 1.70616 -1.72616 90 82 97
12.1131 1.66464 -1.72499 80 78 92
12.2294 1.57548 -1.74039 103 105 120
12.137 1.52322 -1.7256 90 89 107
12.1484 1.4833 -1.7265 89 88 106
12.1975 0.0146019 -1.7176 79 82 99
12.222 -0.026194 -1.72116 72 80 93
12.2227 -0.0669698 -1.72117 82 79 101
12.2033 -0.127908 -1.71822 69 69 95
12.1957 -0.168502 -1.71704 76 74 95
12.192 -0.209116 -1.71646 72 70 91
12.1957 -0.27021 -1.71706 77 77 102
12.1838 -0.310581 -1.71529 71 69 90
12.2013 -0.351736 -1.71796 79 79 103
12.205 -0.392553 -1.71856 80 80 103
12.192 -0.453159 -1.7168 78 80 99
12.1874 -0.493653 -1.71622 75 78 96
12.3281 -2.87639 -1.70495 73 70 87
12.3372 -2.9211 -1.70753 69 67 80
12.325 -2.9611 -1.70696 69 67 80
12.4208 4.7763 -1.81091 66 77 97
12.4626 4.7441 -1.81491 67 75 97
12.4448 4.69046 -1.80978 67 75 98
12.0955 2.28518 -1.73789 101 87 83
12.1088 2.22476 -1.7382 96 88 88
12.0969 2.1392 -1.73407 77 79 98
12.1316 2.10311 -1.73822 73 73 94
12.1188 2.03855 -1.73468 74 72 94
12.1279 1.9983 -1.73498 75 79 100
12.1886 -0.534374 -1.71652 78 77 97
12.1848 -0.595229 -1.71623 76 74 95
12.1995 -0.636657 -1.71861 73 74 88
12.1864 -0.676677 -1.71684 76 79 93
12.1957 -0.7383 -1.71863 84 83 103
12.1627 -0.776981 -1.7139 76 75 93
12.1748 -0.81842 -1.71598 80 78 99
12.1671 -0.858586 -1.7151 68 70 86
12.3156 -3.02323 -1.70755 66 63 80
12.2992 -3.06222 -1.70641 69 65 80
12.2923 -3.10342 -1.7067 68 65 82
12.3929 4.93183 -1.81516 67 75 98
12.4036 4.88827 -1.81432 68 76 96
12.4271 4.8495 -1.81547 66 74 93
12.0961 2.62191 -1.74818 84 82 104
12.2 2.60022 -1.76268 95 93 115
12.0714 2.51159 -1.7411 97 96 115
12.0955 2.4741 -1.74347 105 107 123
12.1045 2.37069 -1.74172 98 88 95
12.1905 2.34407 -1.75356 95 83 83
12.1716 -0.919976 -1.71629 76 74 95
12.1794 -0.961283 -1.71778 72 71 91
12.1673 -1.00107 -1.71631 71 72 92
12.1712 -1.06254 -1.71751 82 83 104
12.1765 -1.10377 -1.7187 85 82 99
12.1679 -1.14379 -1.71782 81 79 100
12.2649 -3.16122 -1.70472 70 68 82
12.2577 -3.20232 -1.70501 69 66 83
12.2466 -3.24245 -1.70473 71 70 86
12.241 -3.28398 -1.70531 62 61 75
12.3836 5.04739 -1.82 67 75 96
12.3895 4.97818 -1.81716 68 76 95
12.1105 2.85863 -1.7582 71 72 92
12.0951 2.81263 -1.75436 75 73 94
12.1105 2.77335 -1.75525 70 71 92
12.0987 2.72833 -1.75201 71 77 93
12.0909 2.66318 -1.74877 69 69 88
12.1711 -1.20532 -1.71901 77 73 89
12.1681 -1.24585 -1.71902 79 78 96
12.1571 -1.28557 -1.71784 75 73 94
12.1499 -1.32564 -1.71726 85 84 99
12.1443 -1.38632 -1.71727 74 73 88
12.1427 -1.42698 -1.71757 66 67 88
12.232 -3.34626 -1.70618 66 65 79
12.2146 -3.38477 -1.70504 64 61 78
12.1723 -3.41664 -1.70019 67 64 81
12.3249 5.19211 -1.81997 66 77 97
12.35 5.13017 -1.81998 68 76 99
12.3595 5.08595 -1.81885 69 77 100
12.0926 3.11152 -1.76466 68 69 89
12.0743 3.0642 -1.76023 69 71 92
12.1067 3.00749 -1.7629 69 70 90
12.0937 2.96167 -1.75936 65 68 86
12.0845 2.91683 -1.75641 63 67 83
12.143 -1.46786 -1.71817 74 74 95
12.1368 -1.52849 -1.71818 85 84 102
12.1249 -1.56791 -1.71701 83 82 99
12.1227 -1.60852 -1.71731 68 66 87
12.1913 -3.48635 -1.70535 63 62 76
12.1583 -3.52049 -1.70192 59 58 76
12.1517 -5.41639 -1.68014 89 88 91
12.2996 5.27823 -1.82138 65 74 98
12.3297 5.24217 -1.82339 66 77 97
12.0502 3.33825 -1.76728 68 69 89
12.0652 3.29883 -1.76788 68 69 90
12.0591 3.25406 -1.76522 66 69 88
12.0508 3.20889 -1.76227 66 69 87
12.0436 3.14269 -1.75874 67 73 87
12.1041 -1.66749 -1.71555 84 81 98
12.1036 -1.7083 -1.71614 95 94 109
12.1041 -1.79023 -1.71764 82 83 100
12.0885 -1.8495 -1.71647 73 75 97
12.1499 -3.56128 -1.70222 63 62 80
12.0977 -3.61146 -1.6968 64 62 76
12.0948 -3.65369 -1.69795 68 66 80
12.1779 -5.49852 -1.68773 97 94 103
12.0797 -5.50319 -1.67556 94 91 104
12.2475 5.42584 -1.82278 66 74 97
12.2872 5.39387 -1.82622 66 75 96
12.2994 5.35045 -1.82537 66 74 97
12.037 3.48657 -1.7714 64 75 93
12.041 3.44418 -1.77022 67 72 92
12.0373 3.39979 -1.76786 68 69 87
12.0718 -1.88796 -1.7147 84 83 102
12.0647 -1.92783 -1.71441 85 84 102
12.0466 -1.9865 -1.71294 75 72 90
12.0528 -2.02847 -1.71472 73 71 88
12.0161 -2.06344 -1.70999 86 83 102
12.0784 -3.69211 -1.6971 62 61 75
12.0581 -3.72934 -1.69567 63 63 75
12.0433 -5.53433 -1.67258 103 99 114
12.2606 5.4799 -1.82763 65 72 98
12.0098 3.69711 -1.77639 65 70 90
12.0164 3.63346 -1.77462 65 71 87
12.0324 3.59421 -1.77522 63 68 84
12.0387 3.55229 -1.77434 65 71 90
12.0188 -2.12538 -1.71178 81 79 99
12.0304 -2.16838 -1.71445 80 77 96
11.9952 -2.20328 -1.71002 78 76 92
