-1.48354 4.30006 -1.81766 91 101 113
-1.45587 4.36392 -1.82471 88 96 109
-1.44123 4.36485 -1.82466 87 97 109
-1.46287 4.31059 -1.82177 90 100 110
-1.44827 4.30969 -1.82089 93 101 114
-1.43338 4.30331 -1.81751 90 100 112
-1.4125 4.31181 -1.82078 90 98 109
-21.737 -52.3553 2.13387 100 85 40
-21.6695 -51.7281 2.11301 134 119 72
-21.6831 -51.0795 2.0925 143 131 77
-21.5987 -50.4342 2.07091 147 134 79
-21.7295 -50.3045 2.06841 148 144 81
-21.941 -50.1461 2.06606 110 104 53
-21.8727 -49.5612 2.04665 129 124 71
-22.1623 -49.8005 2.05794 103 96 63
-22.051 -49.1287 2.03527 127 116 75
-22.3206 -49.1132 2.03831 92 93 43
-22.3925 -48.8635 2.03139 95 92 59
-22.3892 -48.452 2.01841 103 98 70
-22.6876 -48.5015 2.02397 123 122 89
-22.7774 -48.2987 2.01884 93 96 67
-22.9596 -48.2947 2.02119 91 94 71
-23.168 -48.1495 2.01954 93 94 76
-22.937 -47.2809 1.98927 98 99 84
-23.5552 -48.1846 2.02602 92 93 81
-23.6942 -48.0879 2.02498 96 98 84
-24.3151 -48.78 2.05526 90 91 83
-23.8154 -47.3908 2.00512 98 100 89
-23.7577 -46.9057 1.9893 90 90 77
-24.3538 -47.5378 2.01747 101 105 91
-23.8314 -46.1468 1.96701 91 98 89
-24.9398 -47.9488 2.03873 86 100 88
-23.0721 -43.1469 1.86381 82 85 74
-23.1241 -42.9198 1.85768 95 102 89
-23.2296 -42.634 1.85062 97 104 89
-22.341 -39.929 1.75487 92 101 82
-20.482 -34.2506 1.55479 176 162 104
-24.9332 -47.5696 2.02701 95 101 86
-25.0431 -47.237 2.01849 92 96 85
-23.4339 -42.6934 1.85558 69 82 73
-23.6388 -42.7519 1.86054 78 86 83
-22.6393 -40.1719 1.76692 99 105 79
-22.6434 -39.8854 1.75836 165 168 123
-22.5771 -39.4774 1.74504 110 119 65
-22.7768 -39.3978 1.74588 89 89 57
-22.8737 -39.2819 1.74399 124 123 64
-22.179 -37.8001 1.68841 107 112 53
-22.363 -37.7084 1.68871 85 77 44
-21.3345 -35.4425 1.60436 99 98 54
-21.885 -35.9833 1.62961 91 86 42
-20.9219 -34.1373 1.55885 184 181 123
-20.8837 -33.8351 1.5493 95 95 50
-20.917 -33.6526 1.54451 117 115 73
-20.9576 -33.3664 1.53683 145 135 91
-21.1027 -33.3673 1.53938 101 100 66
-21.6637 -34.0289 1.56848 117 122 82
-21.3976 -33.2581 1.54137 89 92 67
-21.7401 -33.5652 1.55635 88 92 56
-21.7201 -33.3043 1.54844 98 96 64
-22.0361 -33.4489 1.55828 93 87 75
-22.0592 -33.2567 1.55316 113 106 96
-22.387 -33.5282 1.56691 90 93 80
-22.7036 -33.778 1.57984 78 85 70
-22.8783 -33.6966 1.58072 90 94 69
-22.9731 -33.6105 1.58001 112 114 93
-21.9291 -30.8034 1.48096 91 94 64
-21.7363 -30.3275 1.46392 98 94 61
-20.8969 -28.4765 1.39603 100 107 74
-20.7934 -28.1484 1.3849 99 99 55
-21.3357 -28.0546 1.39303 116 122 86
-21.5683 -52.1813 1.91972 254 246 112
-21.5121 -51.5823 1.902 218 191 81
-21.46 -51.0027 1.88488 144 124 50
-21.493 -50.4127 1.86843 164 142 75
-23.7833 -34.5763 1.62252 94 95 77
-23.8897 -34.1554 1.61258 118 116 65
-24.399 -34.6596 1.63642 147 156 101
-22.2216 -30.6058 1.48104 96 102 49
-22.5576 -30.367 1.48095 147 146 89
-21.7606 -28.9954 1.42735 112 104 52
-21.9236 -29.0253 1.4314 143 135 86
-21.5392 -28.0503 1.39699 79 88 60
-21.9367 -28.3897 1.41426 97 104 84
-22.1053 -28.4258 1.41866 82 89 71
-21.6911 -27.7076 1.39073 89 98 79
-21.8783 -27.6801 1.39381 84 86 70
-22.11 -27.7972 1.40173 83 87 72
-22.1876 -27.7174 1.40119 87 92 76
-22.5366 -27.8882 1.413 80 80 64
-22.4529 -27.6063 1.40372 98 91 67
-21.552 -50.1143 1.86058 145 117 66
-21.3212 -49.144 1.83045 137 111 65
-21.3806 -48.6504 1.81713 156 136 79
-21.2567 -47.9545 1.79602 131 117 64
-21.2054 -47.4335 1.7807 125 109 56
-21.2454 -47.1249 1.77244 141 125 70
-21.4739 -47.042 1.77276 131 123 68
-21.6464 -47.0317 1.77448 142 141 97
-21.8208 -47.0243 1.77632 87 86 55
-26.2065 -37.7565 1.75799 103 102 81
-26.0642 -36.1993 1.71143 118 110 74
-22.6643 -27.6916 1.41042 118 112 100
-22.8404 -27.6428 1.41282 96 90 80
-23.2574 -27.9742 1.43042 138 127 105
-23.1341 -27.6478 1.41918 210 209 133
-23.1956 -27.5465 1.41782 191 207 110
-23.4155 -27.5465 1.42253 183 193 103
-22.0117 -25.1509 1.3297 252 221 205
-22.0962 -25.0898 1.32998 228 91 154
-22.2727 -25.0539 1.33294 234 78 169
-22.4099 -25.0518 1.33592 232 82 168
-22.5514 -25.0535 1.33911 221 74 168
-22.6878 -25.0487 1.34203 218 93 160
-22.7845 -24.9202 1.34092 112 94 103
-22.9949 -24.9954 1.34756 105 92 96
-23.1574 -25.0165 1.35177 107 96 100
-23.342 -24.9814 1.35506 114 103 100
-36.283 -7.76129 1.45484 59 54 74
-36.3996 -7.48839 1.45696 163 127 133
-36.2773 -7.34461 1.45201 193 158 171
-36.2929 -7.17016 1.45145 174 123 129
-36.2967 -7.05272 1.45089 185 131 147
-36.3001 -6.93531 1.45033 155 107 101
-36.2961 -6.75765 1.44916 97 103 68
-22.0742 -46.993 1.77847 112 109 81
-22.2523 -46.9913 1.78055 106 102 77
-22.4519 -47.0341 1.78416 97 92 77
-22.7578 -47.1077 1.78995 112 109 89
-22.924 -47.0765 1.79113 92 82 71
-25.5224 -29.8612 1.52847 190 198 122
-25.496 -29.6417 1.52217 190 195 128
-24.3513 -28.0303 1.45539 157 150 109
-23.4875 -24.9817 1.35839 118 108 98
-23.6359 -24.9842 1.36185 119 108 102
-25.265 -26.4731 1.43629 107 99 93
-25.2507 -26.2929 1.43149 117 107 103
-25.2121 -26.0886 1.42555 104 93 91
-25.1738 -25.8861 1.41968 128 114 113
-24.4059 -24.8545 1.37646 111 100 96
-25.1271 -25.4365 1.40757 120 107 102
-25.1205 -25.2712 1.40339 113 98 94
-25.1271 -25.0415 1.39797 139 125 122
-25.0818 -24.8402 1.39203 120 107 106
-23.9063 -20.355 1.25916 97 94 66
-24.027 -20.3297 1.26169 97 93 84
-23.8515 -19.9887 1.24968 98 89 92
-23.9087 -19.9104 1.24944 100 90 91
-24.0638 -19.9138 1.25353 100 90 88
-24.0609 -19.722 1.24929 102 99 77
-24.2105 -19.0376 1.23863 113 113 64
-24.3242 -18.9438 1.23966 108 115 61
-24.096 -18.6441 1.22735 97 106 51
-24.1646 -18.5774 1.2278 129 135 73
-34.2187 -9.13307 1.3969 97 76 63
-34.1697 -8.94802 1.39376 92 96 73
-36.3426 -8.31202 1.46054 147 158 177
-36.283 -8.1189 1.4572 156 148 171
-36.2821 -7.99933 1.45637 152 157 179
-36.273 -7.87815 1.45527 181 177 194
-40.7431 -6.99616 1.59883 138 140 69
-40.8821 -6.88814 1.60293 111 115 48
-45.4018 -7.50692 1.75712 103 108 53
-46.0922 -7.39875 1.77966 114 122 64
-46.0197 -7.23893 1.77648 110 115 61
-46.1715 -7.11448 1.78101 92 90 48
-51.5592 -6.79181 1.96038 115 120 54
-51.615 -6.63435 1.96167 132 138 64
-23.2124 -47.2963 1.80081 109 102 92
-23.3865 -47.2779 1.80247 96 94 83
-23.988 -47.9347 1.82825 91 88 77
-24.2376 -48.0602 1.83489 101 96 90
-24.0777 -47.3691 1.81377 99 97 83
-23.8964 -46.4643 1.78651 96 95 82
-23.0315 -42.9249 1.67816 131 131 92
-22.0113 -39.6487 1.57529 94 100 93
-22.2524 -39.6454 1.57856 108 113 81
-20.8134 -34.4748 1.41966 110 118 81
-25.0595 -24.6634 1.38725 117 107 109
-25.0279 -24.4785 1.38206 103 99 106
-25.0335 -24.255 1.37684 97 92 99
-24.9969 -24.0683 1.37152 102 97 104
-24.9694 -23.8917 1.36668 99 94 101
-24.9725 -23.6711 1.36153 99 93 98
-24.9517 -23.5036 1.35709 103 98 97
-24.9156 -23.3228 1.35198 100 95 97
-24.9995 -23.1828 1.35076 98 93 100
-25.0771 -23.1102 1.35098 93 90 97
-25.134 -23.0183 1.35026 96 94 100
-25.2023 -22.9371 1.35008 93 90 99
-25.3358 -22.8431 1.35123 95 85 97
-25.3753 -22.7359 1.34977 103 93 89
-25.4621 -22.6713 1.35047 112 112 90
-25.5408 -22.528 1.34919 98 103 76
-25.6165 -22.4535 1.34941 105 107 82
-25.6815 -22.3695 1.34917 91 93 68
-25.8143 -22.2739 1.35039 100 100 62
-25.853 -22.1671 1.349 117 123 74
-26.4542 -21.4259 1.34832 85 94 56
-26.5679 -21.3131 1.34887 117 130 74
-26.6276 -21.225 1.34857 95 92 62
-24.7421 -18.8412 1.24867 104 113 47
-24.6735 -18.5464 1.24079 86 93 39
-24.7053 -18.3898 1.23845 109 112 69
-24.8485 -18.3771 1.24207 116 125 72
-24.788 -18.2126 1.23713 130 139 89
-25.063 -18.2961 1.24628 117 114 70
-25.5371 -18.462 1.26249 110 96 84
-24.9743 -17.9336 1.23664 128 111 95
-25.3313 -18.0724 1.24916 123 104 89
-25.3778 -17.9269 1.24757 122 105 89
-25.8571 -18.1474 1.26509 121 104 89
-30.9037 -13.3504 1.33576 220 204 188
-30.9043 -13.2361 1.33429 215 197 181
-30.9966 -13.104 1.33543 73 55 40
-31.0569 -13.0154 1.33619 155 140 118
-31.1409 -12.9365 1.33782 223 193 168
-31.3004 -12.8885 1.34222 116 86 76
-31.3765 -12.748 1.34283 129 108 99
-31.4507 -12.6639 1.34412 128 109 94
-32.3512 -11.5798 1.36001 121 102 98
-32.3782 -11.4182 1.35908 106 96 94
-34.2754 -11.85 1.42444 106 97 100
-34.3677 -11.7015 1.4258 100 97 104
-34.4469 -11.6084 1.42738 97 96 101
-34.5277 -11.5155 1.42903 95 92 99
-34.5932 -11.4173 1.43013 81 76 82
-34.6836 -11.2668 1.4315 102 93 86
-34.8186 -11.1904 1.4351 106 103 80
-35.2122 -11.196 1.44787 97 100 78
-34.4844 -10.7853 1.42032 102 97 96
-34.7212 -10.7405 1.42756 92 84 78
-34.9881 -10.5239 1.43416 49 45 28
-35.3051 -10.4993 1.44424 107 112 76
-35.6607 -10.4841 1.45566 99 99 74
-36.1814 -10.5148 1.47289 57 54 51
-35.9113 -10.1316 1.46068 101 100 63
-37.6569 -9.6139 1.51353 103 107 72
-48.4684 -8.72132 1.86585 98 100 66
-53.0238 -8.00479 2.0146 153 150 92
-51.5802 -7.53763 1.96412 124 127 63
-53.2818 -7.44587 2.02084 127 131 70
-51.6058 -6.96293 1.96259 119 116 51
-56.4946 -6.81389 2.12636 111 112 50
-65.6103 -7.18709 2.4344 127 138 72
-65.8163 -7.00055 2.44078 106 115 56
-65.847 -6.79465 2.44123 106 114 53
-24.5953 -47.4688 1.82322 102 104 85
-24.9666 -47.8234 1.83782 105 108 93
-25.0168 -47.3739 1.82618 111 104 81
-23.9755 -44.3663 1.73016 114 121 96
-23.2759 -42.578 1.67205 92 95 81
-23.8355 -43.2879 1.69897 93 100 84
-22.4902 -39.7802 1.58553 103 106 80
-22.5721 -39.6354 1.58279 101 106 61
-22.9622 -40.0342 1.59904 159 170 126
-23.0463 -39.7467 1.59255 149 148 95
-22.819 -39.0679 1.57114 142 148 84
-23.0816 -39.2386 1.5795 154 162 106
-23.3091 -39.2047 1.58193 156 156 107
-21.6949 -36.2059 1.47857 124 134 85
-20.7527 -34.0099 1.40647 134 130 81
-20.9179 -34.0426 1.40982 94 99 56
-20.909 -33.7902 1.40305 95 89 47
-21.9417 -35.2284 1.4565 122 118 64
-21.336 -33.8898 1.41218 112 105 65
-21.8145 -34.4174 1.43334 90 89 42
-21.8394 -34.2195 1.42857 128 132 75
-21.4187 -33.2082 1.39571 98 105 72
-21.6807 -33.1602 1.3986 110 105 89
-26.7135 -21.158 1.34942 111 103 75
-27.1842 -20.5823 1.34993 110 116 53
-28.0379 -19.5592 1.35276 125 111 76
-28.1189 -19.4207 1.35231 122 112 74
-28.1904 -19.3406 1.35276 137 123 85
-28.255 -19.2558 1.35294 124 111 68
-28.3342 -19.1809 1.35373 127 120 66
-27.5276 -18.4434 1.31721 137 129 82
-27.7458 -18.3407 1.32142 129 112 96
-27.8943 -18.2521 1.32395 125 111 102
-27.9289 -18.1506 1.32305 116 101 94
-27.6482 -17.8444 1.30949 119 106 95
-28.902 -18.4677 1.35645 116 105 92
-28.9673 -18.3826 1.35677 108 95 86
-29.0442 -18.3047 1.35757 120 107 101
-29.099 -18.2127 1.35749 117 103 100
-29.231 -18.1056 1.35934 111 100 96
-29.2766 -18.0078 1.35893 110 101 96
-29.3559 -17.9307 1.35986 110 100 98
-29.4391 -17.7928 1.35983 109 97 97
-29.5298 -17.7223 1.36123 115 104 102
-29.5913 -17.6339 1.36149 110 100 98
-29.7058 -17.5142 1.36275 106 95 100
-29.7528 -17.4171 1.36247 116 105 109
-29.8478 -17.3481 1.36408 118 106 108
-29.9047 -17.2567 1.36421 120 109 108
-30.0107 -17.131 1.36519 122 111 107
-30.0652 -17.038 1.36525 109 97 97
-30.1576 -16.9665 1.3668 112 100 101
-30.2415 -16.8276 1.36698 117 105 100
-30.3334 -16.7552 1.36852 118 105 99
-30.371 -16.6525 1.36798 115 104 99
-30.4639 -16.5183 1.36857 119 108 107
-30.5288 -16.4305 1.3691 118 107 105
-30.6268 -16.3604 1.37092 123 110 106
-30.6772 -16.2644 1.37092 139 127 116
-30.8055 -16.1481 1.37292 127 113 100
-30.8587 -16.0534 1.37306 131 115 102
-30.9364 -15.9714 1.37414 139 121 111
-31.0299 -15.836 1.37486 130 113 105
-31.1195 -15.7596 1.37642 117 101 94
-31.1715 -15.6639 1.37655 130 115 108
-31.2482 -15.5805 1.37764 127 113 102
-31.3471 -15.4469 1.37863 119 103 96
-31.434 -15.368 1.38012 121 107 106
-31.4884 -15.273 1.3804 96 89 97
-31.6166 -15.1526 1.38254 92 90 101
-31.674 -15.0587 1.38295 93 88 96
-31.7581 -14.9774 1.38437 99 92 102
-31.8382 -14.8331 1.38477 103 97 101
-31.9217 -14.7509 1.38619 96 88 92
-31.996 -14.6642 1.38728 93 83 89
-32.0755 -14.5797 1.38857 96 86 93
-32.1775 -14.4444 1.38985 101 102 109
-32.2674 -14.3639 1.39154 124 137 140
-32.357 -14.283 1.39324 215 208 194
-30.9595 -13.4896 1.33932 223 211 193
-33.1743 -13.2411 1.4054 132 113 96
-33.2502 -13.0908 1.40595 133 114 99
-33.3386 -13.0055 1.40772 123 105 93
-33.4137 -12.9147 1.40902 120 107 98
-33.5106 -12.7717 1.41037 120 109 105
-33.6131 -12.6907 1.41269 117 106 101
-33.6687 -12.5915 1.41331 129 115 104
-33.7539 -12.5033 1.41502 118 104 99
-33.8584 -12.3616 1.41671 186 167 140
-33.9243 -12.2656 1.41775 232 197 174
-36.9911 -11.3192 1.50661 115 109 95
-39.1901 -10.73 1.57287 87 89 78
-44.1235 -10.9044 1.73608 76 80 53
-42.2732 -10.3048 1.67065 89 95 57
-43.9796 -10.5765 1.7289 74 78 53
-45.2543 -10.6592 1.7715 80 93 76
-66.1222 -8.19103 2.45499 128 122 55
-65.6489 -7.71368 2.43744 107 112 36
-65.4812 -7.38119 2.43065 82 87 29
-27.3985 -51.5321 1.97155 130 122 85
-22.214 -34.217 1.43437 95 95 67
-21.9905 -33.0693 1.4012 92 92 89
-22.5254 -33.6519 1.42477 84 91 78
-23.145 -34.006 1.44388 101 107 93
-21.9894 -30.6156 1.33889 94 92 63
-21.9892 -30.4139 1.33384 124 122 74
-21.6733 -29.7767 1.31253 117 118 69
-21.7701 -29.4239 1.30543 78 82 57
-21.5506 -28.9349 1.28951 142 138 90
-21.3496 -28.1994 1.26785 79 84 58
-21.6275 -28.3848 1.27732 101 107 81
-23.7079 -35.1951 1.48343 77 79 74
-23.7855 -34.7206 1.47259 83 87 72
-23.7221 -34.3958 1.46329 99 98 90
-24.141 -34.658 1.47687 95 100 71
-23.732 -33.8398 1.44936 97 96 79
-23.9187 -33.8821 1.45356 109 109 74
-24.7755 -34.7571 1.49001 114 119 92
-22.8141 -31.0497 1.36386 101 104 65
-21.7639 -28.2885 1.27739 115 117 94
-21.9847 -28.2112 1.27947 75 83 62
-21.8245 -27.8242 1.26718 106 108 86
-21.8175 -27.5477 1.26037 108 110 94
-23.057 -28.9391 1.31653 103 110 90
-22.6293 -28.2168 1.29132 92 93 79
-22.5183 -27.8087 1.27949 91 89 76
-22.5105 -27.6221 1.27489 120 112 91
-22.7616 -27.755 1.28273 79 76 65
-22.0039 -25.0975 1.20596 250 227 209
-22.1318 -25.086 1.20819 208 83 140
-22.3085 -25.0499 1.21081 219 100 151
-23.8746 -28.845 1.32941 89 83 78
-23.1899 -27.8343 1.29263 184 166 145
-23.4119 -27.9248 1.29895 218 215 147
-23.4037 -27.7385 1.29441 189 201 112
-23.452 -27.5329 1.2905 214 203 144
-22.4446 -25.046 1.2134 242 171 198
-22.5864 -25.0475 1.21623 219 185 196
-22.7029 -25.0202 1.21792 134 95 118
-22.8331 -24.9287 1.21843 114 103 105
-23.0562 -25.0167 1.22488 114 100 99
-23.1962 -25.0125 1.22759 110 102 99
-23.3769 -24.9727 1.23034 112 104 101
-23.5281 -24.9786 1.23353 111 103 92
-23.6673 -24.9707 1.23619 109 100 96
-36.2944 -7.72609 1.31759 86 91 104
-36.3099 -7.55112 1.31702 86 68 71
-36.3444 -7.43954 1.31743 177 148 141
-36.3373 -7.31953 1.31657 160 94 100
-36.3038 -7.13534 1.31457 157 97 104
-36.3114 -7.01871 1.3142 152 97 99
-36.3206 -6.90248 1.31388 132 95 84
-25.535 -29.8063 1.38349 215 195 162
-25.508 -29.587 1.37786 219 213 190
-25.496 -29.2937 1.37081 227 215 187
-25.2656 -26.4183 1.30096 123 114 108
-25.2495 -26.2369 1.29661 110 100 99
-25.1979 -26.0199 1.29077 111 101 101
-25.1535 -25.8121 1.28528 115 105 104
-24.367 -24.767 1.24608 108 96 99
-25.1448 -25.4032 1.27615 116 104 103
-25.1083 -25.2083 1.27115 122 110 108
-25.1313 -24.9959 1.26703 118 106 102
-25.0997 -24.809 1.26233 138 128 123
-25.0643 -24.6197 1.25752 108 104 108
-25.0707 -24.3961 1.25286 101 96 103
-25.0446 -24.2189 1.24853 108 103 110
-25.0104 -24.0352 1.2439 102 94 105
-24.9812 -23.8575 1.23951 102 96 108
-24.9824 -23.6358 1.23485 104 98 103
-24.9438 -23.4521 1.23016 109 103 106
-24.951 -23.3126 1.22741 97 90 98
-25.0333 -23.1712 1.22624 107 102 109
-25.1037 -23.0917 1.22614 101 98 105
-25.1693 -23.0079 1.22585 98 95 102
-25.2347 -22.924 1.22556 107 102 106
-25.3327 -22.7977 1.22513 99 95 99
-25.4019 -22.7172 1.22502 101 98 97
-25.4678 -22.6339 1.2248 107 110 92
-24.0287 -20.4277 1.14825 101 98 68
-23.8918 -19.8657 1.1341 105 93 84
-24.0132 -19.8409 1.13641 108 97 88
-24.067 -19.6966 1.13485 117 111 91
-24.1529 -19.5171 1.1334 108 120 68
-24.0462 -18.8792 1.11882 108 100 62
-24.2868 -18.8858 1.1246 130 136 73
-24.2552 -18.7401 1.12114 93 101 42
-24.275 -18.635 1.11967 121 131 63
-24.5413 -18.6583 1.12641 107 112 55
-24.7696 -18.5901 1.13063 122 121 61
-24.5981 -18.2815 1.1209 127 114 81
-24.9388 -18.4154 1.13152 104 94 69
-24.8701 -18.245 1.1268 118 122 80
-25.4185 -18.5272 1.14511 111 111 73
-25.5209 -18.2991 1.14354 121 105 90
-34.1587 -9.0828 1.2638 92 79 62
-34.1906 -8.91948 1.26352 90 96 68
-36.2904 -8.26173 1.32067 148 156 179
-36.3007 -8.08477 1.31986 159 160 180
-36.2957 -7.96442 1.319 149 156 173
-36.2962 -7.84544 1.31832 117 105 122
-45.3594 -7.22202 1.58384 126 128 80
-45.7263 -6.9864 1.59383 143 150 108
-25.5688 -22.5106 1.22454 93 88 92
-25.6355 -22.4281 1.22438 92 88 86
-25.7065 -22.3493 1.2244 114 118 90
-25.8092 -22.2275 1.22427 94 100 62
-25.878 -22.1469 1.22423 124 131 89
-26.1159 -21.8618 1.22402 111 100 98
-26.5945 -21.2937 1.2241 111 115 70
-26.651 -21.2031 1.2237 116 111 64
-26.7103 -21.1149 1.22343 100 97 61
-27.2188 -20.5685 1.22529 118 116 64
-25.6082 -18.483 1.14891 118 104 94
-27.9252 -19.7009 1.22682 124 108 95
-26.0892 -18.2801 1.15709 123 105 79
-28.0696 -19.5421 1.22761 116 106 60
-28.1523 -19.4046 1.22727 126 126 66
-28.2222 -19.3234 1.2276 126 115 69
-27.58 -18.6309 1.19992 132 125 69
-27.484 -18.379 1.19327 123 113 74
-27.5774 -18.3174 1.19457 134 124 86
-27.6639 -18.251 1.19563 130 114 90
-27.7153 -18.0992 1.19439 130 117 100
-28.0979 -18.225 1.20609 128 115 100
-28.1189 -18.1144 1.20481 137 121 112
-27.8005 -17.725 1.19041 136 122 112
-30.8995 -13.3159 1.2111 216 205 192
-30.9238 -13.212 1.21057 223 211 196
-31.0198 -13.0813 1.21171 115 96 85
-31.0875 -12.9957 1.21262 180 153 132
-31.1661 -12.9143 1.21389 241 209 187
-31.3832 -12.8896 1.21967 126 107 93
-31.4057 -12.727 1.21847 127 109 95
-31.478 -12.642 1.21956 135 117 102
-33.1828 -13.2064 1.27342 129 110 94
-33.2959 -13.0708 1.2751 133 115 101
-33.3658 -12.978 1.27608 122 105 97
-33.4372 -12.8856 1.27712 117 103 97
-33.5415 -12.7454 1.27856 120 110 104
-33.6179 -12.6543 1.27978 124 112 105
-33.7035 -12.5663 1.2813 135 121 110
-33.7738 -12.4724 1.28234 117 105 97
-33.8764 -12.33 1.28379 178 151 109
-33.9686 -12.2434 1.28555 160 128 107
-32.1589 -11.4779 1.22668 121 105 104
-32.306 -11.3597 1.22968 113 103 100
-34.3239 -11.8282 1.29162 103 98 102
-34.4105 -11.6776 1.29266 99 98 103
-34.4841 -11.5824 1.29388 93 92 97
-34.5668 -11.49 1.29541 92 91 97
-34.6171 -11.3866 1.29591 94 90 91
-34.7113 -11.2372 1.29725 110 103 91
-34.877 -11.1704 1.30142 103 95 84
-35.3303 -11.1937 1.31465 97 93 81
-34.666 -10.8046 1.29215 100 94 93
-34.4925 -10.6323 1.2857 88 82 84
-37.1164 -11.3132 1.36708 106 101 94
-37.4768 -11.2308 1.37677 111 106 97
-37.996 -11.2567 1.39199 111 108 77
-36.0342 -10.4313 1.32859 92 87 83
-35.7317 -9.92084 1.31583 113 114 83
-38.9062 -10.6043 1.41326 110 111 100
-39.0678 -10.5169 1.41732 138 135 117
-39.9627 -10.289 1.44175 95 102 68
-37.9805 -9.65271 1.37939 76 80 55
-37.9321 -9.5141 1.37702 94 97 74
-41.6959 -10.2483 1.49213 92 97 61
-41.4997 -10.0624 1.48515 112 113 83
-41.5477 -9.93634 1.48574 62 65 46
-46.0542 -8.22375 1.60903 112 120 69
-49.6594 -8.70513 1.71835 107 113 57
-49.7384 -8.47788 1.71961 76 80 44
-53.1533 -7.86141 1.81865 115 121 73
-51.3623 -7.43273 1.7636 114 122 66
-51.2835 -7.25717 1.76061 118 118 62
-51.533 -7.12749 1.7676 116 115 61
-51.6721 -6.89892 1.77091 130 128 61
-55.3504 -7.03494 1.88134 118 102 48
-28.2934 -19.243 1.228 129 120 63
-28.991 -18.3591 1.23082 138 123 116
-29.0595 -18.2758 1.23123 130 117 109
-29.1311 -18.1944 1.23175 117 106 102
-29.2429 -18.0745 1.23267 125 115 113
-29.2969 -17.9819 1.2326 121 112 107
-29.3934 -17.9152 1.23403 124 112 112
-29.4714 -17.7741 1.23381 120 111 114
-29.5537 -17.6983 1.23476 119 111 109
-29.6048 -17.6038 1.23463 118 109 111
-29.7176 -17.483 1.23568 126 116 117
-29.7801 -17.395 1.23597 126 115 110
-29.877 -17.3269 1.23746 126 115 110
-29.9217 -17.2284 1.23715 120 109 107
-30.0382 -17.1086 1.23838 136 122 122
-30.1031 -17.0215 1.23879 123 109 107
-30.1904 -16.9468 1.23998 121 108 102
-30.262 -16.8011 1.23972 123 112 108
-30.3313 -16.716 1.24031 124 113 110
-30.4231 -16.6431 1.24168 116 105 103
-30.4898 -16.4945 1.2413 131 121 116
-30.5758 -16.4179 1.24249 127 116 111
-30.6387 -16.3288 1.24291 128 118 109
-30.7102 -16.2441 1.24363 127 113 104
-30.8138 -16.1146 1.24457 129 116 108
-30.9025 -16.0383 1.24588 123 113 104
-30.9589 -15.9452 1.24612 132 118 105
-31.0774 -15.8224 1.2476 140 126 116
-31.1278 -15.726 1.24766 132 120 112
-31.1976 -15.6392 1.24838 136 124 116
-31.3167 -15.5157 1.24993 134 120 112
-31.3787 -15.4247 1.25041 132 119 110
-31.4513 -15.3387 1.25125 139 126 119
-31.5291 -15.2549 1.25227 99 92 91
-31.6286 -15.1205 1.25322 96 95 100
-31.7003 -15.0334 1.25406 119 111 114
-31.7791 -14.9494 1.25515 108 96 98
-31.8809 -14.8152 1.25622 117 106 102
-31.9591 -14.7304 1.2573 118 105 97
-32.0407 -14.6469 1.25851 121 106 99
-32.1148 -14.5597 1.25948 121 107 99
-32.2132 -14.4226 1.26049 103 103 110
-32.2849 -14.3338 1.2614 179 188 191
-32.3582 -14.2456 1.26236 210 206 199
-32.4809 -14.1181 1.26422 216 206 199
-38.583 -11.2992 1.40932 115 110 89
-39.9285 -11.3541 1.44871 85 84 80
-40.5367 -11.3898 1.46664 78 75 69
-44.9242 -10.5193 1.58855 63 79 77
-48.4162 -11.1756 1.69528 145 168 177
-51.1045 -9.28856 1.76401 102 104 74
-53.8402 -9.00142 1.84391 71 84 58
-53.9305 -8.84267 1.8459 94 106 73
-53.1964 -8.29469 1.8217 78 85 58
-65.6902 -8.03031 2.19374 129 122 54
-65.5773 -7.80768 2.18969 110 117 49
-65.8946 -7.63565 2.19869 118 125 55
-65.7346 -7.40812 2.19326 101 105 42
-21.0878 -47.0292 1.3796 72 71 35
-21.1883 -46.8596 1.37682 69 65 15
-20.4941 -42.7561 1.28382 210 170 130
-19.057 -38.6102 1.18367 193 154 110
-19.2397 -38.6785 1.18678 229 184 142
-19.4262 -38.5996 1.18687 225 173 134
-19.5599 -38.5661 1.18742 229 175 141
-19.6909 -38.5268 1.18783 254 202 163
-19.8777 -38.4474 1.18797 221 175 132
-20.0075 -38.4053 1.18833 242 207 161
-20.1465 -38.3804 1.18916 212 184 120
-20.3234 -38.2811 1.18884 85 90 59
-20.4641 -38.2586 1.18976 115 123 93
-20.5955 -38.218 1.19022 61 69 43
-20.7193 -38.1628 1.19032 95 100 79
-20.917 -38.1013 1.19105 101 113 93
-21.0406 -38.045 1.19115 77 84 74
-22.627 -39.1874 1.23081 112 112 90
-21.8887 -36.6818 1.17247 127 102 84
-21.4883 -35.7456 1.14936 160 132 104
-21.7728 -35.9688 1.15693 83 74 25
-21.3286 -34.3648 1.12009 144 146 99
-21.5781 -34.5299 1.12617 86 90 56
-23.8098 -42.3347 1.30701 84 92 79
-24.494 -43.2478 1.33266 81 86 62
-24.3345 -42.6492 1.31885 132 143 99
-23.6792 -40.7377 1.27327 130 135 106
-23.7191 -40.5134 1.26917 112 109 68
-23.779 -40.3256 1.26603 121 118 75
-22.0712 -36.0826 1.1625 126 135 90
-22.3891 -36.3521 1.17139 102 104 66
-22.7742 -36.0898 1.17054 129 123 91
-21.8532 -34.3716 1.12617 92 91 67
-22.0264 -34.4084 1.12888 87 91 64
-21.5498 -33.3065 1.10176 92 94 72
-22.198 -34.0868 1.12457 81 83 69
-22.1401 -33.7644 1.1176 84 87 78
-22.1603 -33.4501 1.11172 75 76 70
-22.1786 -33.251 1.10807 77 78 72
-22.3726 -33.3186 1.11169 90 92 86
-23.1419 -34.2463 1.13884 87 88 81
-22.9976 -33.4604 1.12196 97 100 81
-21.9963 -30.5258 1.05365 104 96 67
-22.0748 -30.4346 1.05293 138 125 83
-21.4762 -29.1151 1.0205 123 118 78
-22.0108 -29.6544 1.03747 121 109 69
-22.1599 -29.6631 1.03955 124 108 75
-21.6722 -28.5324 1.01218 109 107 75
-21.744 -28.4426 1.01147 112 121 102
-21.9113 -28.2031 1.00927 97 95 84
-21.7907 -27.6861 0.998191 89 84 78
-23.6306 -34.6253 1.15204 86 84 73
-23.8098 -34.425 1.15038 94 98 86
-23.8459 -34.1327 1.14523 96 92 68
-24.0592 -33.9855 1.14507 87 94 73
-24.2805 -33.961 1.14737 93 96 75
-22.2102 -29.4409 1.03607 77 70 40
-22.691 -29.409 1.0418 82 81 72
-22.0698 -28.2266 1.01182 84 79 73
-23.4685 -29.5573 1.05493 101 92 77
-22.6251 -28.3001 1.02065 84 81 63
-22.8622 -28.4174 1.026 109 106 85
-23.409 -28.8263 1.04087 74 70 50
-22.4813 -27.4942 1.00411 158 147 128
-23.1958 -28.1979 1.02663 97 88 80
-23.3614 -27.5992 1.01827 202 212 121
-21.9828 -25.1426 0.955393 254 233 207
-22.0923 -25.1103 0.956413 210 91 132
-22.2201 -25.0986 0.958065 230 112 162
-22.402 -25.0681 0.960182 208 104 136
-22.5488 -25.076 0.962468 254 204 205
-22.6839 -25.0698 0.964348 206 155 158
-22.7656 -25.0035 0.964419 108 81 88
-22.9092 -24.9266 0.965226 120 108 108
-15.5908 -24.5137 0.748476 91 94 69
-15.6456 -24.4317 0.747642 100 105 76
-15.6903 -24.3344 0.74647 83 84 67
-15.8277 -24.2985 0.747188 79 81 69
-23.9019 -28.7891 1.04702 102 88 71
-23.7444 -28.4157 1.03816 216 221 144
-23.862 -28.3771 1.03912 199 219 131
-25.5294 -29.9034 1.0897 202 210 141
-25.5434 -29.7309 1.08686 239 237 205
-25.5032 -29.4963 1.08217 198 206 167
-23.1496 -25.0337 0.970631 108 97 96
-23.3003 -25.0409 0.973008 112 102 100
-23.4851 -25.0051 0.975172 111 101 99
-23.6241 -24.9975 0.977142 117 105 105
-23.7605 -24.9865 0.979023 112 100 103
-23.9399 -19.8314 0.900646 112 101 94
-24.4727 -19.1432 0.900001 91 99 51
-24.5018 -18.9817 0.898234 94 105 38
-24.5808 -18.7992 0.897091 138 125 88
-24.6317 -18.6561 0.896001 129 126 77
-24.7004 -18.5876 0.896286 122 110 95
-24.7498 -18.5044 0.896032 113 107 87
-24.6837 -18.2748 0.891705 107 97 86
-36.3306 -7.26721 1.03625 161 99 110
-36.342 -7.09187 1.03578 159 97 107
-36.3298 -6.97135 1.03507 159 100 102
-36.331 -6.85357 1.03466 89 63 52
-25.2656 -26.3373 1.02451 118 107 105
-25.2437 -26.1501 1.02105 117 106 104
-25.2168 -25.959 1.01747 115 104 102
-25.1875 -25.7669 1.01384 111 97 97
-25.1848 -25.5231 1.00977 117 103 103
-25.1617 -25.3405 1.00641 113 99 97
-25.1236 -25.1441 1.0026 113 102 98
-25.1236 -24.9091 0.998762 113 101 99
-25.0974 -24.7278 0.995408 116 106 105
-25.0803 -24.5567 0.992372 102 97 102
-25.0663 -24.3134 0.988222 101 98 105
-25.0471 -24.1432 0.985188 103 100 107
-25.0099 -23.9566 0.981613 108 105 112
-24.9861 -23.7844 0.978491 109 103 115
-24.9885 -23.564 0.975023 109 99 108
-24.9424 -23.3734 0.971272 108 98 106
-25.0002 -23.2818 0.97077 108 103 107
-25.0941 -23.1511 0.970237 105 100 106
-25.1541 -23.0619 0.969826 106 99 104
-25.2167 -22.9753 0.969506 117 110 113
-25.3458 -22.8773 0.970104 99 96 101
-25.3989 -22.7821 0.969514 99 97 102
-25.4694 -22.7028 0.969466 98 95 97
-25.5561 -22.6379 0.969915 95 92 95
-25.6331 -22.493 0.968982 97 92 98
-25.7072 -22.4169 0.969071 98 94 93
-25.7856 -22.3445 0.969296 103 103 86
-25.8731 -22.2093 0.968727 86 82 73
-25.9494 -22.135 0.968908 109 100 90
-26.0118 -22.0487 0.968684 115 102 94
-26.0922 -21.9778 0.969002 114 101 92
-26.1853 -21.8478 0.968661 112 100 96
-26.3264 -21.6891 0.968758 113 99 88
-26.4135 -21.5542 0.968284 109 97 85
-26.477 -21.4692 0.968154 106 100 76
-26.5651 -21.4041 0.968745 105 98 68
-26.643 -21.262 0.968049 101 100 63
-26.7305 -21.1962 0.968641 111 108 75
-26.7773 -21.0978 0.968063 115 110 72
-25.2658 -18.4666 0.904787 111 102 95
-25.6575 -18.3285 0.910035 118 108 99
-27.4054 -18.5712 0.945298 130 121 92
-27.17 -18.287 0.937315 139 132 80
-27.5502 -18.3577 0.945273 135 121 96
-27.5087 -18.2062 0.942598 139 126 110
-31.0716 -13.0465 0.958647 161 147 128
-31.1373 -12.96 0.959285 203 181 156
-31.2213 -12.8808 0.960372 76 51 31
-31.4381 -12.684 0.963251 123 106 98
-32.3902 -11.62 0.975038 93 77 71
-32.3241 -11.4821 0.972631 111 102 103
-32.4899 -11.3698 0.97533 110 102 99
-34.2263 -9.16307 0.998868 180 167 152
-34.173 -9.03412 0.997013 97 89 78
-36.2757 -8.3267 1.03957 157 157 176
-36.3105 -8.21505 1.03984 136 131 150
-36.303 -8.03409 1.03884 154 130 148
-36.2998 -7.91416 1.03825 160 134 146
-36.3041 -7.79598 1.03784 112 96 111
-36.3741 -7.51338 1.03818 99 71 73
-21.0877 -46.8248 1.17708 120 135 146
-20.4905 -42.5803 1.09775 253 254 214
-19.1754 -38.714 1.02026 247 241 207
-19.2661 -38.5937 1.01883 252 243 193
-19.4629 -38.5361 1.01932 254 253 202
-19.5938 -38.4972 1.01964 254 254 204
-19.7228 -38.4543 1.01988 255 253 205
-19.913 -38.382 1.02011 255 252 204
-20.0409 -38.3362 1.02031 253 246 197
-20.1751 -38.3024 1.02078 252 233 176
-20.3648 -38.2278 1.02101 88 92 77
-27.636 -20.082 0.969322 113 102 96
-27.7456 -19.9641 0.969715 102 91 89
-27.88 -19.7985 0.969972 105 92 81
-27.9688 -19.6654 0.969828 121 111 80
-28.0605 -19.5998 0.970655 131 131 70
-28.1014 -19.4983 0.970088 130 131 60
-28.2347 -19.396 0.971206 131 121 73
-28.288 -19.3031 0.971 122 112 75
-27.7281 -18.2283 0.946982 134 120 111
-28.0116 -18.2285 0.952288 116 103 95
-28.0242 -18.1125 0.951098 123 108 101
-28.4274 -18.2495 0.960383 132 119 111
-28.9816 -18.4166 0.972881 133 119 116
-29.0823 -18.3537 0.97403 121 107 104
-29.1608 -18.2766 0.974595 127 116 113
-29.1918 -18.1694 0.973902 127 118 113
-29.3118 -18.0545 0.974805 104 96 94
-29.3725 -17.9659 0.974922 133 124 122
-29.4466 -17.8855 0.9754 108 96 96
-29.5365 -17.7513 0.975541 118 107 112
-29.6271 -17.6805 0.976469 113 103 110
-29.697 -17.597 0.976859 113 104 109
-29.7735 -17.4544 0.976688 115 105 104
-29.8548 -17.3774 0.977393 120 111 106
-29.9273 -17.295 0.977874 122 113 108
-29.9841 -17.2033 0.977951 122 112 110
-30.0847 -17.0744 0.978456 110 101 96
-30.1772 -17.0029 0.979479 114 105 100
-30.2313 -16.9094 0.979513 114 105 98
-30.3393 -16.7839 0.980245 115 104 102
-30.3875 -16.6869 0.980146 118 108 107
-30.4774 -16.6129 0.981126 118 109 108
-30.5544 -16.4697 0.981097 121 110 108
-30.6455 -16.3958 0.982122 116 103 100
-30.7029 -16.3036 0.982295 129 116 110
-30.7954 -16.23 0.983366 123 112 109
-30.8724 -16.0862 0.983386 115 106 101
-30.9715 -16.0153 0.984638 127 116 115
-31.0189 -15.9174 0.984588 114 107 110
-31.1247 -15.788 0.985374 104 102 107
-31.1963 -15.7022 0.985954 98 97 102
-31.2714 -15.618 0.986624 97 96 101
-31.3741 -15.4861 0.987367 94 93 101
-31.4539 -15.4037 0.988174 98 97 103
-31.5084 -15.3087 0.988352 99 98 104
-31.5932 -15.2283 0.989295 99 96 102
-31.6816 -15.0884 0.989726 88 85 89
-31.7749 -15.0115 0.990894 118 110 107
-31.8426 -14.9221 0.991435 97 88 92
-31.9569 -14.7935 0.992542 117 103 100
-32.015 -14.6993 0.992858 108 97 90
-32.0982 -14.6164 0.993805 114 103 95
-32.1913 -14.477 0.99442 90 78 81
-32.2831 -14.3974 0.995592 91 83 93
-32.3308 -14.2979 0.995687 203 198 200
-32.4277 -14.2199 0.996995 203 193 192
-30.9419 -13.3919 0.958954 206 199 193
-30.9004 -13.2593 0.956941 206 196 188
-30.9722 -13.1758 0.957712 216 203 193
-31.3789 -12.8316 0.963255 119 103 94
-33.2709 -13.1865 1.00575 115 98 88
-33.3466 -13.0359 1.0061 116 103 94
-33.4497 -12.956 1.00764 110 100 95
-33.5117 -12.8597 1.0082 106 96 97
-33.6083 -12.7163 1.00909 115 104 100
-33.6752 -12.6215 1.00978 120 107 100
-33.7756 -12.539 1.01128 115 99 102
-33.8382 -12.4421 1.01188 128 123 120
-33.9575 -12.3054 1.01336 186 173 147
-34.2866 -11.8819 1.01729 110 101 102
-34.3455 -11.7821 1.01785 103 96 103
-34.481 -11.6482 1.01978 102 96 106
-34.5297 -11.5445 1.02012 96 93 100
-34.6294 -11.4576 1.02167 95 92 96
-34.687 -11.3565 1.02223 116 112 110
-34.8209 -11.2197 1.02417 118 108 107
-35.1195 -11.1952 1.03044 108 98 101
-35.6392 -11.239 1.04191 109 104 101
-36.2267 -11.2383 1.05454 115 107 104
-36.7993 -11.2907 1.06723 116 111 109
-37.3094 -11.3203 1.07844 106 99 96
-37.8819 -11.3007 1.09067 102 96 96
-38.4947 -11.3533 1.10427 85 79 81
-39.1274 -11.4077 1.11831 91 86 87
-39.3387 -10.8703 1.11977 97 92 87
-37.6439 -9.64187 1.07608 95 99 73
-41.1619 -10.4101 1.15707 91 93 71
-41.7371 -10.2089 1.16864 109 115 76
-41.8574 -10.0996 1.17075 112 106 79
-40.9699 -8.66914 1.14466 102 106 117
-20.4914 -38.1788 1.02118 74 79 72
-20.6245 -38.1416 1.02161 96 101 95
-20.7548 -38.0987 1.02193 85 91 84
-20.9466 -38.0265 1.02228 69 82 73
-21.0584 -37.9492 1.02188 84 92 85
-39.7493 -11.4549 1.13208 83 77 79
-40.3994 -11.4377 1.14607 80 75 78
-41.0727 -11.4903 1.16102 75 72 79
-42.507 -11.535 1.19247 124 122 121
-44.5943 -10.6152 1.23337 65 62 61
-52.3683 -9.47138 1.4004 94 101 72
-50.8194 -8.8611 1.36384 78 77 59
-55.5108 -9.41349 1.47009 83 92 72
-55.7421 -9.27298 1.47479 112 118 96
-51.3762 -8.37817 1.37463 87 94 61
-55.7798 -8.82996 1.4742 93 97 74
-53.3313 -8.26926 1.41788 90 92 77
-56.0713 -8.51579 1.47979 173 174 154
-54.6655 -7.68786 1.44604 129 68 66
-54.7438 -7.52375 1.44738 181 115 105
-55.0312 -7.29947 1.4532 179 159 124
-24.2094 -43.373 1.1405 78 82 76
-24.5715 -43.5442 1.14646 81 77 60
-24.7848 -43.6053 1.14929 112 117 71
-23.5659 -40.6922 1.08962 83 93 73
-23.1324 -39.3639 1.06349 93 98 68
-23.3934 -39.5282 1.06853 163 139 116
-21.7871 -36.3933 1.00186 224 206 168
-21.8492 -36.2398 0.999849 242 217 176
-22.7943 -37.5575 1.03028 246 228 183
-22.5335 -36.4745 1.00993 117 121 83
-21.3409 -34.283 0.962742 83 93 54
-22.6909 -36.0952 1.00511 85 82 50
-22.0454 -33.7515 0.960615 103 108 86
-22.1341 -33.6579 0.95994 87 95 74
-21.8766 -32.9235 0.945538 75 75 74
-22.846 -34.1649 0.975049 82 86 73
-22.334 -33.1663 0.953916 95 98 84
-21.8959 -30.5082 0.907079 106 104 79
-22.0582 -30.5344 0.909166 121 111 74
-21.6504 -28.6216 0.874999 87 77 73
-21.7069 -28.5112 0.873898 69 72 60
-21.7582 -28.12 0.868429 118 108 110
-51.0634 -11.908 1.38172 58 57 71
-55.4548 -9.85225 1.47037 66 67 47
-65.925 -9.70103 1.70323 90 84 65
-61.3004 -8.8215 1.59745 91 75 66
-66.0583 -8.55783 1.70321 102 77 52
-66.3831 -8.38819 1.7101 131 96 67
-66.538 -8.08949 1.71284 137 110 82
-24.9475 -42.792 1.13695 69 77 55
-24.3025 -39.6457 1.07861 90 87 60
-22.9471 -33.8566 0.971062 77 78 67
-22.694 -33.1425 0.957084 109 116 81
-22.7814 -33.0489 0.956451 92 97 68
-22.8333 -32.9039 0.954652 88 90 77
-23.4658 -33.4866 0.970312 102 106 88
-23.3857 -33.15 0.964146 82 88 74
-23.9085 -33.6736 0.977778 90 95 80
-22.1564 -30.2707 0.906044 113 105 68
-22.2318 -30.077 0.903803 117 110 58
-22.1024 -29.7055 0.896643 88 81 43
-22.4197 -29.94 0.903657 99 91 72
-21.9529 -28.1915 0.87165 108 95 94
-23.229 -29.4637 0.90509 107 81 87
-23.4013 -29.3991 0.906013 51 34 24
-22.9625 -28.4759 0.88715 104 96 73
-22.9361 -28.1711 0.882262 93 87 65
-22.6973 -27.6981 0.872462 82 78 64
-22.7479 -24.9332 0.832575 123 107 111
-25.6213 -32.0064 0.970228 59 35 25
-25.5479 -31.009 0.954391 101 96 86
-25.544 -30.7092 0.94987 101 91 82
-23.8276 -28.2687 0.893895 102 94 82
-23.6813 -27.9162 0.886991 109 101 90
-24.3627 -28.4543 0.902843 118 113 104
-23.9266 -27.7648 0.88762 98 94 88
-25.4488 -29.3595 0.928843 124 111 105
-25.4615 -29.0971 0.925161 255 245 215
-25.4348 -28.8839 0.921746 112 93 89
-25.4018 -28.6651 0.918182 118 93 105
-25.4043 -28.3983 0.914355 123 105 113
-25.3873 -28.2014 0.911319 126 113 112
-25.344 -27.9767 0.907572 113 92 97
-25.297 -27.3181 0.897614 117 106 102
-25.2434 -27.0896 0.893724 122 111 109
-25.2539 -26.8474 0.890434 120 108 108
-25.2332 -26.658 0.88752 109 99 98
-25.2075 -26.4647 0.884495 127 119 116
-25.2068 -26.2167 0.881023 108 101 94
-25.2037 -26.0502 0.878674 114 106 104
-25.1553 -25.838 0.875129 114 106 103
-25.1198 -25.6407 0.87196 122 110 112
-25.133 -25.4148 0.869018 112 100 104
-25.1008 -25.2242 0.866001 116 105 103
-25.0776 -25.0439 0.863246 112 102 103
-25.0896 -24.8222 0.860384 116 107 105
-25.0302 -24.609 0.856736 107 102 105
-25.0168 -24.4427 0.854321 93 91 96
-25.0377 -24.235 0.8518 98 96 101
-24.9908 -24.0388 0.848566 101 97 104
-24.9688 -23.868 0.846006 102 100 105
-24.9373 -23.6894 0.843223 104 99 105
-24.9389 -23.4696 0.840334 112 101 109
-24.9243 -23.3096 0.838039 112 103 111
-24.9761 -23.2128 0.837462 99 94 100
-25.0887 -23.0999 0.837489 104 98 102
-25.1411 -23.0041 0.83695 108 99 102
-25.2182 -22.9311 0.837047 101 95 100
-23.9606 -19.8159 0.780538 108 95 87
-24.155 -18.8623 0.771917 107 108 64
-24.3404 -18.8252 0.774167 121 121 61
-24.7005 -18.8605 0.779834 139 131 83
-24.6688 -18.6541 0.776983 143 135 98
-24.6929 -18.5518 0.776169 113 103 94
-24.9052 -18.591 0.779748 96 91 73
-25.0397 -18.5101 0.780809 100 91 81
-25.1375 -18.3417 0.780375 118 105 97
-15.7435 -24.4252 0.630341 78 78 67
-15.8193 -24.3763 0.630274 85 84 65
-25.2954 -22.7862 0.836218 93 92 97
-25.3764 -22.7166 0.836428 98 93 102
-25.4497 -22.6401 0.836453 91 88 96
-25.5167 -22.5581 0.836328 96 94 97
-25.6113 -22.4293 0.835987 88 86 91
-25.6793 -22.3481 0.835901 92 88 88
-25.7484 -22.268 0.835854 114 111 99
-25.8521 -22.1473 0.835776 105 95 94
-25.9282 -22.0732 0.835916 111 97 95
-25.9843 -21.9819 0.835571 112 97 90
-26.0913 -21.864 0.835608 114 99 91
-26.1513 -21.7762 0.835376 102 88 83
-26.278 -21.6063 0.835102 122 105 95
-26.391 -21.4933 0.835328 119 107 90
-26.4559 -21.4097 0.835248 114 110 74
-26.5268 -21.3309 0.835318 114 103 76
-26.6292 -21.2091 0.835322 111 101 77
-26.6932 -21.1247 0.835245 127 116 84
-26.7663 -21.0475 0.835391 110 109 63
-27.2077 -19.99 0.829651 116 105 101
-27.6119 -20.0245 0.83606 116 102 93
-27.7099 -19.8985 0.836112 117 105 94
-25.6013 -18.2571 0.786365 116 103 95
-27.8488 -19.7368 0.836421 116 103 93
-27.9356 -19.6027 0.836252 115 117 67
-28.0125 -19.5268 0.836594 119 119 64
-28.0843 -19.4473 0.836824 141 133 80
-28.1714 -19.3133 0.836695 131 113 90
-27.2373 -18.4219 0.812946 134 121 86
-27.2544 -18.3099 0.812027 141 129 92
-28.0932 -18.5594 0.827534 128 114 103
-27.518 -18.055 0.813416 118 105 97
-28.0638 -18.2271 0.82363 126 115 109
-28.177 -18.1763 0.824871 124 111 105
-30.7737 -13.4596 0.82572 205 197 192
-30.7863 -13.2935 0.824704 209 200 193
-30.8619 -13.212 0.825414 211 201 192
-30.9336 -13.1287 0.826051 210 196 185
-31.0163 -12.9925 0.826485 164 149 131
-31.0947 -12.9115 0.827271 222 198 173
-31.234 -12.8552 0.829282 106 80 70
-31.3617 -12.7362 0.830646 123 110 102
-31.4062 -12.6402 0.830766 121 109 100
-32.3459 -11.5725 0.840275 114 105 100
-32.2851 -11.4371 0.838397 114 105 103
-34.1461 -9.10888 0.859358 119 106 95
-34.1157 -8.98651 0.858273 79 77 60
-36.2201 -8.27722 0.893516 51 73 95
-36.2177 -8.1574 0.893032 38 57 75
-36.2255 -7.98045 0.892502 62 80 75
-36.2241 -7.86124 0.892056 109 122 100
-36.2145 -7.74047 0.891462 64 69 69
-36.2299 -7.62515 0.891353 160 164 170
-36.335 -7.469 0.892719 109 94 91
-28.2392 -19.2309 0.836852 127 113 85
-28.8616 -18.4924 0.838752 119 108 106
-28.966 -18.3688 0.839113 127 119 113
-29.0311 -18.2835 0.839277 129 120 114
-29.1112 -18.2076 0.839775 124 114 108
-29.1673 -18.1166 0.839754 129 119 115
-29.2616 -17.986 0.839933 128 119 120
-29.3341 -17.9049 0.840284 128 120 118
-29.4029 -17.8215 0.840562 123 113 112
-29.5044 -17.6948 0.840929 137 130 127
-29.583 -17.6168 0.84143 131 125 121
-29.6475 -17.5304 0.841635 124 121 116
-29.7375 -17.3963 0.841781 130 122 119
-29.8083 -17.3133 0.842136 122 114 111
-29.8997 -17.2421 0.842938 117 109 107
-29.951 -17.1475 0.842886 118 109 104
-30.0514 -17.0187 0.843294 118 107 103
-30.1247 -16.9365 0.843726 119 109 108
-30.1925 -16.851 0.844047 113 104 105
-30.3003 -16.7257 0.844644 119 110 111
-30.3763 -16.6443 0.845152 120 111 113
-30.4363 -16.554 0.845326 114 108 112
-30.5271 -16.4187 0.84559 126 117 118
-30.6057 -16.3382 0.846174 127 118 116
-30.6683 -16.249 0.846425 129 120 117
-30.7466 -16.1679 0.84701 129 119 119
-30.8463 -16.0364 0.8475 127 120 115
-30.9186 -15.9518 0.847975 126 118 116
-30.9926 -15.8678 0.848487 110 105 109
-31.0803 -15.7294 0.848757 113 112 120
-31.15 -15.6429 0.849197 107 106 114
-31.2249 -15.5587 0.849748 99 96 105
-31.322 -15.4244 0.850243 102 99 108
-31.3999 -15.3413 0.85087 97 94 105
-31.4775 -15.2578 0.851498 95 93 105
-31.564 -15.1783 0.852311 92 91 101
-31.6522 -15.0386 0.852661 94 89 93
-31.7381 -14.9582 0.853476 119 110 105
-31.7895 -14.8614 0.853586 117 108 110
-31.8854 -14.7246 0.854124 122 110 107
-31.9778 -14.6464 0.855088 117 108 102
-32.05 -14.5586 0.855646 108 98 99
-32.1428 -14.4195 0.856148 173 172 171
-32.2253 -14.3359 0.856929 162 154 151
-32.2967 -14.247 0.857489 192 188 179
-33.1724 -13.2316 0.865328 130 117 109
-33.2148 -13.1284 0.865374 123 111 104
-33.3163 -12.9882 0.866183 112 101 97
-33.3858 -12.8953 0.866788 119 109 108
-33.4569 -12.8028 0.86743 114 105 103
-33.5795 -12.6695 0.868688 123 109 108
-33.6519 -12.5768 0.869369 117 103 98
-33.724 -12.4838 0.870049 117 108 106
-33.8128 -12.3967 0.871065 140 138 133
-33.8999 -12.2485 0.871658 199 185 167
-34.2397 -11.8294 0.875121 117 107 109
-34.3344 -11.7421 0.87629 100 95 102
-34.4319 -11.5953 0.877147 103 100 105
-34.5033 -11.4993 0.877871 105 102 109
-34.5876 -11.4074 0.878855 103 101 104
-34.6413 -11.3051 0.879246 116 112 109
-34.758 -11.1629 0.880514 111 104 98
-35.1709 -11.1743 0.887922 111 103 100
-35.7576 -11.2377 0.898709 116 107 108
-36.2807 -11.2152 0.907886 97 91 88
-36.8766 -11.2731 0.918823 108 104 105
-37.3776 -11.2985 0.927906 104 99 96
-38.0079 -11.2944 0.939127 95 90 88
-38.671 -11.3599 0.95133 89 81 79
-21.042 -47.0125 0.968261 111 131 143
-21.1939 -46.7608 0.965551 116 115 123
-20.5079 -42.6908 0.905356 255 254 208
-19.0254 -38.6189 0.840914 248 248 211
-19.23 -38.5785 0.841546 254 249 202
-19.3812 -38.5814 0.842462 247 243 196
-19.5076 -38.5337 0.842548 255 255 201
-19.7033 -38.4729 0.842884 254 255 198
-19.8304 -38.4259 0.843 254 254 196
-19.9592 -38.382 0.843177 252 254 199
-20.1518 -38.3136 0.843426 235 230 179
-20.2767 -38.2615 0.843485 79 79 71
-20.4089 -38.2232 0.843781 83 85 82
-20.5382 -38.1791 0.843989 79 81 80
-39.3119 -11.4145 0.963089 101 91 89
-39.9382 -11.4609 0.974551 101 90 88
-40.5735 -11.4371 0.985815 82 79 77
-41.2608 -11.4914 0.998432 75 72 72
-41.0973 -11.3074 0.994639 106 102 91
-42.6538 -11.52 1.02362 125 125 123
-41.4243 -10.564 0.997193 98 95 77
-41.9146 -10.4097 1.00544 90 87 68
-44.1094 -10.7344 1.04653 99 96 74
-44.3499 -10.6458 1.05054 81 80 53
-46.1683 -8.95972 1.07763 98 90 69
-45.846 -8.74819 1.07107 86 81 52
-46.0431 -8.6362 1.07436 103 104 74
-51.1045 -8.83895 1.16795 101 100 76
-51.2569 -8.61698 1.17012 120 122 95
-20.7292 -38.106 0.84421 74 79 76
-20.8602 -38.0643 0.844478 83 93 85
-20.994 -38.0275 0.844835 77 87 80
-21.1826 -37.9486 0.844999 89 94 88
-21.6794 -36.1305 0.824281 184 158 123
-22.0018 -36.0295 0.825208 64 62 45
-21.7083 -34.9223 0.808754 86 88 61
-21.7715 -34.3001 0.801168 74 82 58
-20.2992 -24.0564 0.663314 114 105 98
-20.3892 -24.0115 0.663611 102 96 90
-50.4445 -11.9403 1.16638 77 74 57
-51.2798 -11.8834 1.1813 73 73 79
-54.4514 -9.94542 1.23262 89 102 68
-54.389 -9.75784 1.23094 74 79 56
-55.6168 -9.79772 1.25363 63 65 51
-55.606 -9.16734 1.25169 85 89 63
-56.2471 -9.09162 1.26332 63 71 48
-59.1958 -9.28151 1.31813 93 96 74
-56.0522 -8.60945 1.2585 83 93 86
-61.324 -8.92539 1.35656 75 67 56
-24.1427 -42.6911 0.927419 83 86 64
-24.4753 -42.8129 0.93123 68 83 45
-24.6562 -42.82 0.93252 72 80 68
-24.8443 -42.8385 0.934017 98 104 87
-25.2226 -43.185 0.941129 87 84 72
-23.203 -39.2609 0.875793 84 77 51
-23.7802 -39.2564 0.87971 178 172 124
-23.9384 -38.966 0.877029 151 149 107
-22.1216 -35.3477 0.81721 87 88 62
-22.1608 -35.1651 0.815132 115 121 83
-21.8032 -33.5298 0.791521 80 87 62
-21.9958 -33.4831 0.792359 86 96 72
-22.4938 -33.7865 0.799951 74 83 72
-23.6128 -35.1277 0.825414 93 95 78
-23.2198 -34.3033 0.812005 132 136 100
-23.4672 -34.4397 0.815621 97 98 67
-23.6202 -34.4344 0.816734 87 91 62
-22.7818 -32.8646 0.79055 93 89 80
-23.4262 -33.58 0.804528 87 83 73
-23.2092 -33.044 0.79614 101 102 82
-23.6066 -33.0616 0.799513 113 107 74
-21.9973 -30.5787 0.75593 104 98 46
-21.8861 -30.1218 0.749404 128 118 65
-21.961 -30.0277 0.748855 133 122 73
-21.9673 -29.8396 0.746601 134 129 73
-22.0033 -29.6937 0.745114 128 127 71
-22.2619 -29.753 0.74797 113 102 81
-21.4488 -28.4669 0.725597 117 96 96
-21.6282 -28.5216 0.727757 90 83 86
-22.1713 -28.9622 0.737636 78 78 85
-23.2551 -30.1984 0.761669 114 112 105
-22.594 -29.1409 0.743362 103 86 87
-22.8034 -29.1299 0.745017 95 71 84
-22.8216 -27.9612 0.731334 104 92 74
-22.7593 -24.958 0.696361 117 103 103
-22.8326 -24.8826 0.696219 105 93 93
-66.3987 -9.44962 1.45152 94 84 68
-25.9611 -43.6715 0.952549 142 130 108
-23.7193 -33.4425 0.805132 94 91 59
-25.8016 -32.7919 0.814439 146 112 134
-25.6549 -32.1865 0.805973 253 239 207
-23.6 -29.2983 0.753909 205 200 156
-23.3659 -28.8194 0.746212 101 92 68
-23.7877 -28.8798 0.750644 101 97 75
-25.0625 -24.3477 0.712473 107 102 107
-24.5884 -23.734 0.701219 104 99 105
-24.6475 -23.6433 0.700884 98 91 102
-24.8095 -23.5774 0.701865 102 100 105
-24.9808 -23.5937 0.703807 95 90 96
-24.9349 -23.4029 0.701372 105 100 106
-24.9958 -23.2408 0.700343 103 97 109
-25.0531 -23.1491 0.700011 101 95 107
-24.5734 -18.6407 0.651533 116 115 87
-24.801 -18.6932 0.654625 106 100 89
-24.6739 -18.4158 0.650688 114 105 95
-24.9194 -18.4798 0.654101 129 128 97
-25.6031 -18.1369 0.659133 117 104 86
-25.6538 -30.9718 0.791673 102 98 77
-25.5745 -30.679 0.787555 102 92 83
-25.5012 -29.9171 0.778075 105 98 92
-25.5217 -29.7522 0.776365 105 97 95
-25.5279 -29.4778 0.773276 94 82 84
-25.5032 -29.2634 0.770602 228 211 200
-25.4669 -29.0374 0.767695 192 185 176
-25.4733 -28.7707 0.764728 118 109 105
-25.4515 -28.5653 0.762205 111 101 101
-25.4168 -28.3469 0.75942 107 97 96
-25.3756 -28.1229 0.756519 118 106 106
-25.3333 -27.2068 0.745919 113 103 101
-25.3116 -27.0134 0.743581 127 115 118
-25.2781 -26.8088 0.74101 130 118 118
-25.2949 -26.5754 0.738614 130 119 116
-25.2576 -26.3702 0.736017 129 118 115
-25.2262 -26.1728 0.733566 132 123 118
-25.1952 -25.9773 0.731146 135 128 122
-25.2092 -25.7487 0.728815 131 120 118
-25.1717 -25.5498 0.726309 131 120 118
-25.1389 -25.3571 0.723922 125 111 107
-25.153 -25.1342 0.721683 112 98 91
-25.1236 -24.9481 0.719415 127 114 114
-25.0891 -24.7582 0.71706 120 112 107
-25.0977 -24.5353 0.714796 107 101 105
-25.1394 -23.0844 0.700263 94 88 98
-25.2189 -22.9407 0.699644 95 90 98
-25.3031 -22.874 0.699868 90 83 90
-25.3531 -22.7761 0.699422 84 82 86
-25.4354 -22.7076 0.699618 87 86 91
-25.5232 -22.5723 0.699206 90 85 91
-25.6035 -22.5017 0.699374 89 84 88
-25.6566 -22.4072 0.699018 95 89 91
-25.7714 -22.2959 0.699163 94 86 82
-25.8252 -22.2023 0.698837 101 89 88
-25.909 -22.1345 0.699094 100 86 85
-25.9937 -21.9974 0.698688 112 97 90
-26.08 -21.9316 0.699005 116 99 91
-26.1325 -21.8371 0.698682 111 94 87
-26.2153 -21.7682 0.698941 109 92 85
-26.3134 -21.6426 0.69883 112 97 90
-26.3556 -21.54 0.698333 102 89 81
-26.433 -21.4664 0.698507 107 92 79
-26.5545 -21.3599 0.698864 117 101 86
-26.6127 -21.2705 0.69869 120 111 82
-26.7314 -21.2297 0.699652 119 110 83
-26.78 -21.0645 0.698671 117 101 76
-26.8482 -20.9832 0.698703 133 127 80
-26.8926 -20.8831 0.698298 106 102 59
-26.9807 -20.8174 0.698709 131 129 75
-27.0774 -20.6907 0.698663 113 108 73
-27.4547 -20.2435 0.699051 98 92 74
-27.5568 -20.1205 0.699154 104 90 86
-27.6092 -20.0271 0.698959 113 100 92
-27.6888 -19.9536 0.699259 116 102 89
-27.7406 -19.8599 0.699065 111 97 84
-27.9067 -19.6517 0.699241 113 99 79
-27.9967 -19.585 0.699747 122 113 75
-28.0892 -19.4546 0.699739 127 117 79
-28.164 -19.3768 0.699985 122 107 87
-27.0904 -18.5084 0.67994 121 105 90
-27.2957 -18.3385 0.680999 122 106 90
-27.2992 -18.2174 0.680056 113 100 93
-30.8545 -13.49 0.692857 206 198 190
-30.7732 -13.3398 0.690928 210 201 194
-30.8469 -13.2575 0.691467 211 202 192
-30.9319 -13.1224 0.69185 222 203 188
-30.9995 -13.037 0.692304 153 140 130
-31.0707 -12.9529 0.692816 203 183 158
-31.1525 -12.8158 0.693172 110 88 79
-31.3486 -12.7824 0.69566 118 108 99
-31.3636 -12.6743 0.695302 119 106 103
-32.2447 -11.5866 0.702009 105 91 80
-32.2772 -11.4273 0.701709 119 112 103
-32.3873 -11.3525 0.702898 116 107 101
-34.132 -9.15372 0.718687 165 154 147
-34.1931 -8.99794 0.719014 92 89 72
-34.1449 -8.87086 0.717921 81 84 67
-36.2904 -7.51013 0.744711 66 49 55
-28.3199 -19.1605 0.70005 134 118 102
-28.5244 -18.9127 0.700503 120 107 102
-28.6521 -18.8051 0.701169 120 109 105
-28.6884 -18.7011 0.700779 124 113 109
-28.7828 -18.6352 0.701407 118 109 104
-28.8608 -18.4945 0.701232 117 106 104
-28.9413 -18.4192 0.701629 113 101 101
-28.9997 -18.3296 0.701648 116 106 105
-29.1168 -18.2134 0.702173 117 107 106
-29.1577 -18.1127 0.701904 117 108 103
-29.2694 -18.0561 0.702854 107 100 98
-29.2961 -17.9466 0.702353 108 103 99
-29.4219 -17.8348 0.703055 118 111 110
-29.4648 -17.7354 0.702845 120 114 113
-29.5673 -17.6719 0.703653 115 108 107
-29.6458 -17.5308 0.703574 112 105 105
-29.7186 -17.449 0.703889 111 103 109
-29.7654 -17.3519 0.703769 119 109 112
-29.8653 -17.2857 0.70455 119 112 110
-29.9731 -17.1612 0.704996 123 116 110
-30.0241 -17.0662 0.704965 121 110 108
-30.1078 -16.9899 0.705487 110 101 102
-30.2039 -16.858 0.70576 111 102 103
-30.2418 -16.7556 0.705528 119 109 110
-30.3474 -16.6907 0.706429 113 104 108
-30.4387 -16.5556 0.706647 110 100 109
-30.5369 -16.486 0.707433 116 107 115
-30.57 -16.3807 0.707145 109 102 109
-30.6678 -16.3103 0.707931 114 104 112
-30.7433 -16.166 0.70792 111 101 110
-30.823 -16.0854 0.708418 103 97 101
