-30.4918 10.8257 -2.06405 118 109 112
-30.4546 10.9685 -2.06517 114 105 108
-30.395 11.0507 -2.06325 112 101 106
-30.378 11.1491 -2.06467 112 101 107
-30.2614 11.2612 -2.05967 122 113 114
-30.2103 11.3462 -2.05847 121 115 115
-30.1422 11.4243 -2.05596 118 115 118
-30.1203 11.5207 -2.05709 115 113 120
-30.0797 11.6621 -2.05821 115 114 119
-30.033 11.7486 -2.05745 120 120 121
-11.6468 16.1278 -1.19095 68 80 94
-11.5716 16.1236 -1.18772 68 78 90
-11.4943 16.1157 -1.18421 72 80 93
-11.4214 16.1142 -1.18128 74 80 94
-11.3265 16.1334 -1.17877 74 82 95
-11.2422 16.1126 -1.17424 71 81 93
-11.1708 16.1118 -1.17145 71 81 93
-11.0762 16.1296 -1.16894 72 80 93
-11.0008 16.1213 -1.16557 76 84 97
-10.9296 16.1195 -1.16279 77 85 98
-7.45947 11.427 -0.807133 76 85 100
-7.44081 11.4799 -0.810056 78 87 102
-6.28631 16.1565 -0.897185 76 81 93
-6.22816 16.1517 -0.895729 75 80 92
-6.14886 16.1679 -0.895169 76 82 93
-30.7541 8.45976 -2.02782 49 51 67
-31.0593 8.6488 -2.05312 52 54 71
-30.88 8.74798 -2.0426 57 59 72
-30.6532 8.7813 -2.02743 58 62 74
-30.6666 8.88599 -2.0306 58 63 76
-32.3316 10.1403 -2.17436 70 73 88
-31.9679 10.1282 -2.14885 71 74 88
-31.5812 10.159 -2.12275 95 99 109
-31.2221 10.1433 -2.09753 111 114 121
-30.9237 10.146 -2.07698 118 118 123
-10.8312 16.1292 -1.1597 73 82 96
-10.7593 16.125 -1.15676 75 84 99
-10.6875 16.1206 -1.15383 73 82 97
-10.5946 16.1375 -1.15147 75 82 98
-10.516 16.1203 -1.14752 78 87 102
-10.4476 16.12 -1.14502 80 89 104
-10.3812 16.123 -1.14282 75 84 99
-10.2837 16.1295 -1.13973 77 86 101
-30.9964 7.13258 -2.01992 95 94 115
-30.6229 7.28678 -1.99612 54 73 87
-30.7484 7.5639 -2.01003 59 69 82
-33.3642 9.86775 -2.24019 85 85 92
-33.3551 9.97537 -2.24191 91 94 102
-33.2716 10.0597 -2.23794 85 88 103
-33.0892 10.1122 -2.22641 81 84 100
-32.7013 10.152 -2.2003 81 82 99
-22.4982 11.4398 -1.67241 116 110 122
-22.3931 11.469 -1.66631 116 113 121
-9.98454 16.1336 -1.12944 75 85 97
-9.91397 16.1261 -1.12651 74 83 98
-9.8163 16.1282 -1.12328 75 85 97
-9.75165 16.1306 -1.12122 78 84 98
-33.5051 8.11069 -2.21522 54 60 74
-33.5314 8.38698 -2.22214 58 66 75
-33.5426 8.49816 -2.22502 64 66 79
-33.5361 8.65903 -2.2276 75 74 92
-33.5387 8.76843 -2.22989 53 53 74
-33.5448 8.87901 -2.23248 53 54 71
-33.5333 8.9849 -2.23376 53 53 66
-33.5052 9.14078 -2.23488 81 80 92
-24.9082 11.1099 -1.82841 123 116 109
-24.7325 11.1623 -1.81778 129 122 124
-24.7001 11.2375 -1.81806 68 68 77
-24.732 11.3439 -1.82394 55 60 76
-20.4869 16.1107 -1.74864 71 79 93
-20.3638 16.1104 -1.7413 76 84 98
-20.2181 16.0902 -1.73162 70 79 94
-20.0894 16.0835 -1.72366 73 82 97
-19.9433 16.1119 -1.71646 70 79 93
-19.8075 16.0972 -1.70772 69 76 92
-19.2912 16.1034 -1.67787 72 78 94
-19.1314 16.1133 -1.66911 69 76 92
-19.0076 16.1036 -1.66146 71 81 93
-18.8855 16.0946 -1.65397 102 109 117
-18.7622 16.0836 -1.64631 100 105 109
-18.6139 16.0993 -1.63865 102 102 104
-18.5042 16.0992 -1.6324 81 80 90
-18.3903 16.0945 -1.62568 71 79 90
-18.2427 16.1077 -1.61801 73 83 95
-18.1321 16.1044 -1.61161 72 81 96
-18.0045 16.0841 -1.60333 72 79 95
-17.8676 16.1044 -1.59676 69 78 93
-17.7663 16.1076 -1.59128 70 80 92
-17.6537 16.0993 -1.58457 69 79 91
-17.5285 16.0777 -1.57645 69 78 92
-17.3968 16.0992 -1.57034 73 81 94
-9.68239 16.1238 -1.11843 81 82 100
-9.61234 16.1151 -1.1155 73 81 94
-9.51712 16.1191 -1.11256 73 81 92
-9.45192 16.1185 -1.11035 74 80 92
-9.38769 16.1195 -1.10829 73 79 92
-9.29464 16.1258 -1.10564 79 77 84
-9.23059 16.1262 -1.10358 79 72 79
-33.3126 6.63341 -2.17702 81 92 110
-33.3727 6.75095 -2.18311 79 91 108
-33.3894 6.85979 -2.18599 81 92 109
-33.3988 7.01998 -2.18916 77 91 105
-33.4186 7.13007 -2.19233 72 84 100
-33.4283 7.23817 -2.19478 45 53 74
-33.4358 7.39901 -2.19794 50 57 72
-33.4193 7.50155 -2.1985 72 81 94
-33.4491 7.61507 -2.20254 70 79 97
-26.5656 12.8295 -2.0038 115 112 114
-26.5687 12.9315 -2.00766 116 113 116
-26.5413 13.018 -2.00887 114 113 113
-26.4754 13.1348 -2.00851 111 109 114
-26.4614 13.2285 -2.01096 109 106 113
-26.4013 13.298 -2.00937 108 105 116
-26.3023 13.3466 -2.00435 107 104 115
-26.1411 13.6145 -2.0033 110 106 113
-26.0619 13.7235 -2.002 110 111 116
-25.9935 13.7875 -1.99979 66 68 80
-25.9354 13.8571 -1.99851 57 54 65
-25.862 13.9689 -1.99783 108 106 111
-25.8034 14.038 -1.99655 106 104 111
-25.7411 14.1048 -1.99496 105 105 110
-25.6993 14.1834 -1.99523 110 108 114
-25.573 14.2637 -1.98989 108 107 111
-25.5135 14.3316 -1.98861 108 106 111
-25.4624 14.4045 -1.98811 105 103 109
-25.3815 14.5108 -1.98697 106 105 110
-25.3094 14.5708 -1.9846 104 103 108
-25.2593 14.644 -1.98425 104 104 109
-25.1655 14.7419 -1.98202 104 104 110
-25.059 14.7798 -1.97654 103 102 108
-25.0353 14.8691 -1.97867 107 106 111
-24.9724 14.934 -1.97724 112 113 115
-24.8842 15.0345 -1.97563 113 113 115
-24.8193 15.0977 -1.97404 113 113 114
-24.7475 15.1562 -1.97182 115 115 113
-24.6733 15.2653 -1.97161 116 112 118
-24.5894 15.3156 -1.96831 107 105 111
-24.2997 15.5971 -1.96176 75 77 90
-24.2712 15.6838 -1.96375 100 107 121
-24.2372 15.8202 -1.96758 111 111 121
-24.2177 15.9137 -1.9705 101 99 110
-24.1406 15.9673 -1.96797 90 89 96
-24.0122 16.0378 -1.96294 89 90 93
-23.8537 16.0328 -1.95264 96 95 101
-23.6744 16.0118 -1.94031 87 85 95
-23.4977 16.0445 -1.93062 85 86 93
-23.3159 16.0191 -1.91798 78 81 91
-23.1553 16.008 -1.90737 71 74 85
-22.9998 15.9996 -1.89722 71 73 85
-22.8211 16.0254 -1.88722 70 72 84
-22.6614 16.0115 -1.87661 70 73 85
-22.4972 15.9932 -1.86553 74 77 89
-22.332 16.0252 -1.85677 73 76 88
-22.1969 16.0269 -1.84849 68 76 87
-22.0715 16.0351 -1.84115 69 74 86
-21.9462 16.0948 -1.83628 66 73 87
-21.8116 16.0943 -1.828 69 75 87
-21.6835 16.0981 -1.82034 77 79 89
-21.5274 16.0789 -1.80989 72 69 75
-21.3683 16.1079 -1.80159 68 62 65
-21.2315 16.102 -1.79301 67 65 72
-21.0918 16.0928 -1.78411 86 89 101
-20.921 16.1087 -1.77457 70 80 92
-20.7927 16.1068 -1.76676 72 79 95
-20.6492 16.0915 -1.7574 73 80 96
-16.9503 16.1055 -1.54626 72 79 97
-16.8365 16.0902 -1.53923 71 80 96
-16.7018 16.103 -1.53266 71 80 95
-16.6091 16.1081 -1.52796 71 80 95
-16.5028 16.0983 -1.52171 74 81 91
-16.3899 16.0807 -1.51469 82 81 93
-16.2697 16.1051 -1.50967 85 79 90
-16.1627 16.0922 -1.50326 76 72 86
-16.0654 16.089 -1.49795 74 79 93
-15.939 16.1041 -1.49215 70 78 94
-15.8407 16.0984 -1.48668 72 79 95
-15.7346 16.0833 -1.48028 73 80 96
-15.6247 16.1142 -1.47635 72 81 96
-15.5217 16.101 -1.47025 74 83 96
-15.4215 16.0904 -1.46447 72 78 96
-15.4094 16.1798 -1.4691 72 77 96
-15.2148 16.1107 -1.45507 73 76 95
-15.1205 16.1046 -1.44991 72 78 94
-15.0185 16.089 -1.44382 74 80 96
-14.8941 16.0974 -1.43803 72 79 95
-14.8015 16.0914 -1.43302 72 79 95
-14.7169 16.0941 -1.42895 70 76 92
-14.5943 16.1022 -1.42331 73 79 95
-14.5049 16.0978 -1.41862 73 81 94
-14.4181 16.0962 -1.41424 73 79 93
-9.16751 16.1281 -1.10166 74 67 78
-9.07302 16.1297 -1.09872 75 80 94
-9.00661 16.1239 -1.09623 70 80 92
-8.9412 16.1196 -1.09388 72 80 93
-8.87763 16.1187 -1.09182 72 80 93
-8.78707 16.1258 -1.08946 72 82 94
-33.3084 5.64297 -2.16285 82 91 110
-33.2807 5.7934 -2.16282 79 86 102
-33.2791 5.89687 -2.1641 114 120 136
-33.3399 6.01213 -2.17004 127 131 148
-33.242 6.14953 -2.16491 84 91 111
-33.2988 6.3691 -2.17214 82 93 111
-33.315 6.47687 -2.17487 83 91 112
-27.7343 11.541 -2.04302 121 120 121
-27.336 11.4643 -2.01217 120 119 119
-28.155 11.9273 -2.08529 117 119 118
-28.1358 12.0707 -2.08851 128 127 131
-28.0498 12.1333 -2.08443 73 69 81
-27.7787 12.1107 -2.06447 73 67 74
-26.7763 12.4361 -2.00475 80 80 90
-26.6826 12.539 -2.00174 75 75 88
-26.6102 12.6025 -1.99891 75 71 87
-26.6106 12.7025 -2.00245 57 51 61
-13.9848 11.059 -1.2189 73 82 93
-13.9328 11.0844 -1.21702 74 83 97
-13.8841 11.1477 -1.21749 73 82 97
-12.5799 11.3851 -1.1513 70 79 94
-12.5265 11.4035 -1.14925 71 80 94
-12.4872 11.472 -1.15107 68 77 92
-14.2962 16.1023 -1.4086 77 80 97
-14.2073 16.0966 -1.40391 71 77 93
-14.1284 16.103 -1.40046 72 78 94
-14.0349 16.0903 -1.39514 70 77 93
-13.9162 16.0972 -1.38982 72 80 93
-13.839 16.1039 -1.38652 73 80 93
-13.7435 16.0867 -1.3809 72 79 93
-13.6303 16.0981 -1.3762 71 78 91
-13.5535 16.1037 -1.3729 72 80 93
-13.4647 16.093 -1.36805 75 78 93
-13.3556 16.1075 -1.36382 76 82 98
-13.2779 16.1103 -1.36037 74 82 95
-13.1873 16.0952 -1.35521 73 80 93
-13.1039 16.0894 -1.35099 72 78 92
-13.0001 16.1081 -1.34737 76 79 94
-8.72027 16.1171 -1.08682 70 80 92
-8.65781 16.1172 -1.0849 71 81 93
-8.56591 16.1196 -1.08225 69 79 91
-8.50362 16.1191 -1.08034 71 81 93
-8.44059 16.1165 -1.07828 74 82 95
-8.35393 16.1286 -1.0765 73 81 92
-33.1715 4.59306 -2.14053 91 103 119
-33.1994 4.69929 -2.14371 91 103 119
-33.2507 4.80931 -2.14863 90 101 119
-33.3272 4.97503 -2.15603 89 100 118
-33.3834 5.08691 -2.16139 89 100 118
-33.4471 5.20046 -2.16734 87 99 115
-33.5044 5.31351 -2.17284 86 97 115
-33.4626 5.46218 -2.17165 88 96 115
-33.3562 5.5477 -2.16506 83 94 112
-28.7883 10.1427 -2.07817 114 114 121
-28.4921 10.1303 -2.05619 117 117 124
-28.2252 10.1753 -2.03793 117 114 121
-28.1271 10.2347 -2.03245 115 112 119
-28.0661 10.3079 -2.03008 113 110 117
-28.0479 10.446 -2.03268 117 115 120
-28.0049 10.5262 -2.03187 116 115 119
-27.945 10.5995 -2.02966 118 116 121
-27.8922 10.6755 -2.02807 121 115 125
-27.8482 10.8034 -2.02865 120 118 123
-28.0953 11.0029 -2.05243 118 116 121
-28.1795 11.1366 -2.06252 120 117 124
-28.1627 11.2784 -2.06558 118 113 120
-28.1483 11.3719 -2.06742 120 115 122
-28.1556 11.4749 -2.07112 120 116 122
-28.1352 11.6161 -2.07403 118 118 120
-12.9112 16.0933 -1.34237 75 78 93
-12.8331 16.0927 -1.33876 75 78 93
-12.7251 16.1034 -1.33453 75 78 93
-12.6425 16.0955 -1.3303 73 76 93
-12.5601 16.0873 -1.32608 74 77 94
-12.4618 16.1094 -1.32308 70 77 93
-12.3785 16.0987 -1.31871 69 79 91
-12.3012 16.0959 -1.3151 69 78 93
-12.2261 16.096 -1.31181 72 79 95
-12.1159 16.0981 -1.30711 71 79 93
-12.0412 16.0975 -1.30382 72 78 92
-8.29106 16.1255 -1.07444 72 82 94
-8.22669 16.1186 -1.07209 72 82 94
-8.16719 16.1223 -1.07061 71 81 93
-8.07215 16.1129 -1.06723 74 83 98
-8.01283 16.1161 -1.06576 74 84 96
-32.9522 3.75355 -2.11639 85 93 112
-33.0265 3.86327 -2.12278 88 97 114
-33.0608 3.96859 -2.12625 95 102 121
-33.0883 4.12395 -2.12971 99 106 124
-33.0744 4.22355 -2.12969 96 103 119
-33.1135 4.33034 -2.13359 97 106 121
-33.1462 4.4366 -2.13707 94 103 120
-30.3107 10.1401 -2.18982 81 84 99
-30.0598 10.1537 -2.17173 79 82 95
-29.736 10.1396 -2.14756 76 76 88
-29.4088 10.1223 -2.12309 77 73 87
-29.0829 10.1526 -2.1 89 89 98
-17.5031 10.675 -1.43633 96 96 105
-17.4554 10.717 -1.43495 99 99 107
-17.4006 10.7906 -1.43457 93 93 104
-11.9676 16.0983 -1.30068 73 79 93
-11.859 16.1005 -1.29613 73 79 92
-11.7857 16.1005 -1.293 71 77 91
-11.7115 16.0985 -1.28971 71 77 92
-11.6067 16.1042 -1.28563 71 79 92
-11.5316 16.0998 -1.28218 73 81 94
-11.4556 16.0934 -1.27858 72 81 93
-11.3808 16.0884 -1.27513 71 81 93
-11.2766 16.0922 -1.27105 72 81 93
-7.95276 16.1173 -1.06413 74 82 95
-7.86588 16.125 -1.06221 74 82 93
-7.79988 16.1109 -1.05942 74 82 93
-7.74081 16.1132 -1.05794 75 81 93
-7.65494 16.1217 -1.05616 75 83 94
-32.7678 3.13267 -2.09787 86 92 114
-32.8025 3.2359 -2.1012 88 93 113
-32.8337 3.38901 -2.10467 84 97 113
-32.8794 3.49413 -2.10887 83 96 112
-32.9249 3.59957 -2.11307 84 95 113
-30.6159 8.72014 -2.17798 74 78 90
-30.6181 8.82121 -2.18044 54 55 73
-30.6161 8.92121 -2.18259 60 59 73
-30.6053 9.06899 -2.1852 97 91 98
-30.5835 9.16318 -2.18579 97 92 98
-30.5746 9.26156 -2.18747 114 109 119
-30.5616 9.35875 -2.18884 127 123 131
-30.6055 9.5253 -2.19611 112 110 115
-30.5462 9.60774 -2.19375 100 94 100
-30.4715 9.68485 -2.19013 98 92 99
-30.5362 9.85963 -2.19928 77 76 83
-30.4948 9.94799 -2.19846 72 72 83
-30.489 10.0486 -2.20061 77 78 92
-11.2105 16.1 -1.26885 74 82 95
-11.1319 16.0871 -1.26478 72 82 94
-11.0366 16.1031 -1.26194 71 81 93
-10.9655 16.1014 -1.25896 77 85 98
-10.8874 16.0876 -1.2549 75 85 97
-10.7965 16.109 -1.25268 73 83 95
-10.7268 16.1081 -1.24985 72 82 94
-10.6562 16.1053 -1.24688 73 82 97
-10.5757 16.0849 -1.24234 75 82 98
-7.596 16.1235 -1.05468 76 84 95
-7.53415 16.1176 -1.05263 76 84 95
-7.44561 16.1176 -1.05027 75 83 94
-7.38615 16.1168 -1.04864 74 83 92
-7.32389 16.1083 -1.04644 76 82 94
-32.3776 2.21079 -2.06339 93 92 106
-32.4015 2.31047 -2.0657 154 142 139
-32.5335 2.56644 -2.07687 153 155 165
-30.63 7.43554 -2.15203 58 61 76
-30.6267 7.58183 -2.15464 55 58 75
-30.6173 7.67774 -2.15586 51 57 72
-30.6192 7.77676 -2.15801 53 60 73
-30.6045 7.92075 -2.15984 58 57 75
-30.594 8.01677 -2.16105 61 60 78
-30.6178 8.12244 -2.16507 53 55 70
-30.624 8.22347 -2.16769 60 61 74
-30.6109 8.36891 -2.16983 65 65 77
-30.6181 8.47074 -2.1726 69 71 83
-30.6211 8.57156 -2.17506 78 79 90
-14.0811 11.1626 -1.27868 72 77 91
-13.9375 11.108 -1.2661 71 80 90
-13.8933 11.1754 -1.26711 74 80 96
-13.8855 11.2401 -1.27039 72 79 94
-12.6428 11.4664 -1.20535 70 79 94
-12.5334 11.4283 -1.19625 68 77 92
-12.5023 11.5054 -1.19918 71 78 94
-7.55066 11.4143 -0.896396 73 82 97
-7.50236 11.4132 -0.89435 74 83 98
-10.4792 16.0943 -1.2392 75 85 97
-10.408 16.0887 -1.23606 75 84 99
-10.3429 16.0933 -1.23386 76 85 100
-10.2457 16.0996 -1.23056 76 85 100
-7.266 16.1108 -1.04511 75 81 93
-7.18071 16.1169 -1.04333 75 83 94
-7.12085 16.1132 -1.04156 75 83 96
-7.06105 16.1094 -1.03979 75 85 97
-32.3143 1.52356 -2.05551 115 120 141
-32.2767 1.61904 -2.05316 157 155 169
-32.3449 1.86651 -2.05923 153 141 130
-30.7162 6.33683 -2.13863 80 91 111
-30.6989 6.47801 -2.13969 73 86 103
-30.695 6.57403 -2.14106 74 85 105
-30.7045 6.67318 -2.14353 76 85 107
-30.6855 6.81446 -2.14458 76 84 103
-30.6942 6.91384 -2.14704 72 80 97
-30.6754 7.00683 -2.14733 67 75 94
-30.6718 7.10354 -2.14886 61 66 88
-30.6546 7.24583 -2.15022 62 67 89
-30.6483 7.34214 -2.15159 54 58 78
-7.4677 11.4794 -0.897856 75 85 97
-9.87153 16.0849 -1.2155 76 86 98
-9.77613 16.0904 -1.21235 76 86 98
-9.71172 16.0926 -1.21015 77 85 98
-9.6483 16.0963 -1.2081 79 82 97
-9.58033 16.091 -1.20528 71 79 92
-6.97603 16.1145 -1.03801 76 84 95
-6.92044 16.1213 -1.03711 75 83 96
-6.86287 16.1224 -1.03578 73 81 94
-6.77476 16.1171 -1.03328 75 83 94
-30.706 5.47046 -2.12422 82 93 112
-30.7055 5.5659 -2.12559 83 95 115
-30.7211 5.71242 -2.12899 75 86 108
-30.7101 5.80611 -2.12959 87 94 114
-30.6987 5.89978 -2.13018 126 129 149
-30.7651 6.0095 -2.13701 110 119 136
-30.6576 6.13146 -2.13074 77 86 103
-22.5435 11.362 -1.83348 104 100 106
-22.5258 11.4816 -1.83699 105 104 110
-22.4294 11.5157 -1.83121 110 108 112
-17.5165 10.7087 -1.49378 91 93 100
-17.4622 10.7462 -1.49166 90 91 99
-17.4156 10.8255 -1.49214 91 95 105
-9.48542 16.0948 -1.20213 71 81 93
-9.42224 16.0977 -1.20008 72 82 94
-9.35553 16.0932 -1.19742 76 80 93
-9.261 16.0959 -1.19427 80 79 84
-9.1972 16.0961 -1.19207 74 71 78
-9.12731 16.0837 -1.18878 70 69 77
-6.71994 16.1252 -1.03252 74 82 93
-6.65673 16.1086 -1.02989 74 80 92
-6.59944 16.1088 -1.02856 76 82 94
-6.51623 16.1153 -1.02707 74 80 92
-6.45655 16.1074 -1.02515 75 81 95
-30.5817 4.59602 -2.10278 89 101 117
-30.6077 4.69438 -2.10603 89 101 117
-30.6353 4.79329 -2.10943 88 100 116
-30.6489 4.93737 -2.11236 88 99 117
-30.6442 5.03131 -2.11327 87 98 116
-30.6353 5.12458 -2.11387 86 97 115
-30.6673 5.22523 -2.11773 84 97 115
-30.6885 5.37182 -2.12144 84 96 114
-24.5958 11.3955 -1.98963 32 36 53
-24.5358 11.5023 -1.98908 36 43 53
-24.4738 11.5626 -1.98668 55 54 67
-24.4348 11.6343 -1.98648 129 126 140
-24.3702 11.7384 -1.98559 96 95 103
-24.3306 11.8098 -1.98539 101 102 107
-24.2661 11.8682 -1.98282 104 103 109
-24.2128 11.9779 -1.98312 106 106 111
-24.1514 12.0376 -1.98089 103 103 110
-24.1144 12.1101 -1.98102 99 97 105
-23.917 12.4193 -1.97885 114 112 115
-23.8262 12.5081 -1.97576 107 105 106
-23.7912 12.5816 -1.97623 73 70 79
-23.7612 12.6579 -1.97721 78 72 87
-23.7058 12.7664 -1.97767 106 103 108
-23.6959 12.8544 -1.98068 97 97 99
-23.6529 12.9236 -1.98048 95 94 100
-23.5925 12.9826 -1.97858 96 94 104
-23.5492 13.0984 -1.98039 96 94 108
-23.4952 13.161 -1.97918 95 95 105
-23.441 13.2234 -1.97796 97 96 107
-23.3505 13.3109 -1.97521 91 93 106
-23.2755 13.3604 -1.97196 91 92 104
-23.2174 13.4199 -1.97041 92 95 104
-23.1616 13.5281 -1.97121 92 96 105
-23.1081 13.5903 -1.97016 92 96 104
-23.0629 13.6575 -1.96995 92 96 105
-23.0326 13.7342 -1.97127 91 95 105
-22.9635 13.8342 -1.97088 91 94 103
-22.8957 13.887 -1.96848 92 95 102
-22.8512 13.9547 -1.96845 90 93 100
-22.7829 14.0548 -1.96823 88 93 100
-22.5429 14.43 -1.96905 90 94 106
-22.4655 14.4753 -1.9658 102 109 125
-22.3619 14.551 -1.96221 118 118 129
-22.3023 14.6079 -1.96082 103 102 111
-22.2441 14.6657 -1.9596 91 90 96
-22.1448 14.7434 -1.95651 87 90 97
-22.0522 14.7765 -1.95175 84 86 97
-22.0146 14.8485 -1.95272 82 85 94
-21.9292 14.9353 -1.95115 83 86 93
-21.8765 14.9964 -1.95061 84 86 93
-21.7981 15.0386 -1.94737 80 79 87
-21.7515 15.104 -1.9475 85 84 92
-21.6698 15.193 -1.94643 80 83 90
-21.6388 15.27 -1.94825 81 81 91
-21.5295 15.2881 -1.9418 76 76 84
-21.466 15.3904 -1.94276 75 74 82
-21.3695 15.4173 -1.93766 76 79 88
-21.3879 15.5325 -1.94488 78 81 90
-21.309 15.6233 -1.94433 75 78 87
-21.2466 15.6762 -1.94294 69 72 81
-9.04455 16.1083 -1.18765 75 83 96
-8.97839 16.1024 -1.18498 71 79 92
-8.91061 16.0926 -1.18201 71 81 93
-8.84726 16.0916 -1.17981 73 81 94
-8.75617 16.0968 -1.17713 72 82 94
-8.69215 16.0934 -1.17477 73 83 95
-6.4007 16.1107 -1.02411 75 82 92
-6.32073 16.1257 -1.02335 75 82 92
-6.26008 16.1133 -1.02115 75 82 92
-6.20256 16.1102 -1.01967 75 81 93
-30.4408 3.82741 -2.08302 85 92 110
-30.4969 3.92804 -2.08845 81 87 105
-30.5686 4.03126 -2.09512 90 97 115
-30.5826 4.12682 -2.09728 99 105 123
-30.5304 4.25969 -2.09476 93 101 119
-30.5358 4.35417 -2.09629 92 101 118
-30.531 4.44722 -2.09705 91 100 117
-25.4569 10.1655 -2.0125 108 108 118
-25.382 10.2233 -2.00858 103 101 112
-25.3234 10.2877 -2.00618 109 108 118
-25.2757 10.4013 -2.00631 114 115 122
-25.2239 10.4684 -2.00459 121 122 126
-25.1738 10.5361 -2.00303 120 121 125
-25.1125 10.5987 -2.00047 119 119 123
-25.0398 10.7007 -1.9984 122 119 125
-25.0035 10.7742 -1.99819 121 120 127
-24.9597 10.8443 -1.99732 124 122 131
-24.9166 10.9596 -1.99812 123 120 126
-24.8633 11.0251 -1.9964 122 121 126
-24.8134 11.0921 -1.99501 123 123 133
-24.7278 11.1871 -1.99193 105 108 117
-24.6972 11.2631 -1.9924 108 110 119
-24.6287 11.3207 -1.98933 66 68 81
-21.2074 15.7473 -1.94408 72 75 84
-21.143 15.7986 -1.94253 82 85 92
-21.0785 15.9006 -1.94366 77 80 89
-21.0416 15.9738 -1.94514 95 98 103
-20.9581 16.0094 -1.94155 100 103 110
-20.8125 16.0449 -1.93391 88 92 99
-20.6799 16.0389 -1.92492 94 99 105
-20.5399 16.0258 -1.91509 96 99 106
-20.3918 16.0561 -1.90711 96 96 101
-20.2523 16.0414 -1.89728 99 99 104
-20.1252 16.0363 -1.8888 94 94 103
-19.9953 16.0281 -1.87999 93 93 103
-19.8375 16.0457 -1.87082 85 85 92
-19.248 16.09 -1.83585 71 73 87
-19.1018 16.1116 -1.82787 70 78 90
-18.9958 16.1179 -1.82158 103 114 124
-18.8767 16.1116 -1.81378 100 105 109
-18.7608 16.1074 -1.80632 104 106 108
-18.611 16.1218 -1.79783 112 110 114
-18.4999 16.1203 -1.79088 70 68 81
-18.3817 16.1115 -1.78308 72 78 93
-18.237 16.1274 -1.7751 72 80 98
-18.1178 16.1159 -1.76713 70 81 99
-18.0133 16.1176 -1.76085 72 81 96
-17.8607 16.1227 -1.75185 70 80 92
-17.7579 16.1245 -1.74574 70 79 94
-17.6368 16.1078 -1.73744 73 82 97
-17.5344 16.1086 -1.73133 73 82 97
-17.397 16.1245 -1.72402 72 81 96
-16.931 16.1108 -1.69552 70 80 92
-16.8255 16.1041 -1.6889 73 84 96
-16.706 16.1325 -1.68362 70 78 93
-16.5954 16.1189 -1.67633 71 78 94
-16.496 16.1163 -1.67039 76 79 94
-16.39 16.106 -1.66361 80 77 88
-16.263 16.1231 -1.65732 81 73 84
-16.1641 16.1189 -1.65138 76 73 87
-16.052 16.0996 -1.64375 75 79 96
-15.9269 16.116 -1.63763 71 78 94
-15.8393 16.1221 -1.63304 70 79 94
-15.7332 16.1071 -1.62609 69 81 95
-15.6166 16.1304 -1.62098 72 79 95
-15.5255 16.1307 -1.61588 72 78 94
-15.4213 16.1155 -1.6091 74 80 96
-15.3279 16.1119 -1.60367 74 80 96
-15.2002 16.1193 -1.59704 70 76 92
-15.1071 16.1146 -1.59161 72 80 93
-8.62991 16.0934 -1.17272 71 81 93
-8.53916 16.0974 -1.17004 70 80 92
-8.47461 16.0914 -1.16753 71 81 93
-8.41346 16.0924 -1.16564 72 80 93
-8.32467 16.099 -1.16327 71 81 91
-6.12094 16.1186 -1.01847 76 83 93
-6.06295 16.1131 -1.01685 75 82 92
-30.2489 3.0199 -2.06044 90 98 117
-30.2474 3.15735 -2.06151 87 95 114
-30.29 3.25405 -2.06569 86 94 113
-30.3322 3.35104 -2.06988 86 96 113
-30.345 3.49096 -2.07219 87 96 113
-30.3865 3.58856 -2.07637 83 95 111
-30.4178 3.68518 -2.07977 84 93 108
-26.7089 10.1329 -2.1097 84 83 98
-26.4473 10.1203 -2.08871 83 85 100
-26.1793 10.1489 -2.06855 93 95 107
-25.9331 10.1389 -2.04891 103 105 118
-25.6891 10.1282 -2.02944 113 115 127
-15.0155 16.1111 -1.58634 71 81 93
-14.8962 16.1255 -1.58073 70 78 91
-14.8049 16.121 -1.57547 71 78 94
-14.7138 16.1161 -1.5702 71 78 94
-14.6026 16.1378 -1.5656 73 81 94
-14.5055 16.1243 -1.5595 74 80 96
-14.4149 16.118 -1.55424 76 78 93
-14.3282 16.116 -1.54948 58 57 71
-14.2101 16.1261 -1.54387 79 82 97
-14.1225 16.1216 -1.53894 73 80 93
-14.0301 16.1105 -1.53334 74 78 94
-13.9237 16.1329 -1.52925 75 76 94
-13.8305 16.1192 -1.52348 75 78 94
-13.7484 16.1193 -1.51923 76 79 94
-7.58499 11.4792 -0.938794 76 85 100
-7.52897 11.4643 -0.935287 75 84 99
-7.47227 11.4904 -0.934906 76 86 98
-8.26044 16.0921 -1.16076 72 82 94
-8.20032 16.0942 -1.15903 72 82 94
-8.13788 16.0905 -1.15683 72 82 94
-8.04793 16.0919 -1.15415 74 84 96
-7.99035 16.0987 -1.15288 76 84 97
-29.934 2.39823 -2.03113 113 104 104
-29.9862 2.5838 -2.03654 155 155 167
-30.1559 2.91868 -2.05236 90 101 120
-27.6526 9.32732 -2.16028 122 124 132
-27.613 9.4065 -2.15941 123 122 130
-27.6237 9.50377 -2.16309 103 101 110
-27.5686 9.62397 -2.16221 87 89 102
-27.4833 9.6862 -2.15727 75 77 89
-27.5277 9.93758 -2.16836 75 78 93
-27.4956 10.0197 -2.16833 75 81 95
-27.4595 10.1003 -2.16796 83 88 103
-27.2423 10.1571 -2.15253 85 85 99
-26.9745 10.1454 -2.13103 93 93 107
-23.3237 11.6397 -1.97327 93 96 105
-23.332 11.7331 -1.97778 98 99 109
-22.7962 11.5341 -1.92815 96 96 107
-22.5415 11.5265 -1.9082 96 96 108
-22.4503 11.5633 -1.90276 95 95 106
-23.2009 12.0648 -1.98165 97 96 106
-23.1674 12.1812 -1.98405 99 98 106
-23.1317 12.2516 -1.98437 79 77 85
-23.075 12.3102 -1.98259 76 70 85
-23.023 12.4164 -1.98324 112 110 116
-22.8848 12.4277 -1.97326 102 101 108
-22.8362 12.4903 -1.97235 107 106 112
-22.7532 12.5326 -1.96795 107 106 109
-22.7257 12.6526 -1.97122 107 107 107
-22.6526 12.7003 -1.96787 102 100 104
-22.6033 12.7621 -1.96696 103 99 106
-22.5319 12.8559 -1.96587 96 94 103
-22.4974 12.9266 -1.96654 95 92 106
-22.4 12.9585 -1.96074 94 93 105
-22.3481 13.0639 -1.96174 95 96 106
-22.3568 13.1616 -1.96694 95 96 105
-22.2775 13.2041 -1.96307 95 96 105
-22.1965 13.2453 -1.95902 94 95 104
-22.1633 13.3628 -1.96211 92 93 104
-22.082 13.4033 -1.95806 92 93 104
-22.0523 13.4771 -1.95943 89 91 102
-21.9729 13.5647 -1.95781 89 93 104
-21.7234 13.9135 -1.95675 89 93 105
-21.7018 13.9933 -1.95916 102 109 124
-21.6021 14.0664 -1.95562 121 119 132
-21.5408 14.1186 -1.95384 103 101 112
-21.4809 14.1717 -1.95223 88 87 95
-21.4099 14.2642 -1.95183 90 93 102
-21.3464 14.3145 -1.94988 85 87 99
-21.2698 14.3552 -1.94652 86 88 100
-21.1932 14.4431 -1.9456 82 84 96
-21.1437 14.5031 -1.94522 81 81 92
-21.0893 14.5593 -1.94431 86 84 96
-21.0251 14.6083 -1.94235 84 82 93
-20.9409 14.6902 -1.94073 84 84 94
-13.6424 16.1401 -1.51514 74 79 93
-13.5509 16.1267 -1.50954 72 80 93
-13.4633 16.1176 -1.50445 75 78 93
-13.3553 16.1336 -1.50001 74 80 95
-13.2715 16.1284 -1.49543 74 80 96
-13.1868 16.1213 -1.49067 73 77 94
-13.0951 16.1042 -1.48491 73 76 93
-12.9959 16.1292 -1.48166 74 80 96
-12.9175 16.129 -1.47775 74 80 96
-12.831 16.117 -1.47266 71 77 93
-12.7241 16.1293 -1.46823 72 77 94
-12.6438 16.1246 -1.46398 73 78 93
-7.92434 16.0851 -1.1499 73 83 93
-7.83931 16.0965 -1.14815 75 81 93
-7.77887 16.0952 -1.14626 74 81 92
-7.71699 16.09 -1.14406 73 81 92
-29.8489 1.85146 -2.02111 153 136 122
-29.8979 2.16977 -2.02681 98 103 121
-29.9994 2.26805 -2.03536 118 115 114
-27.7603 7.98445 -2.13298 89 90 104
-27.7666 8.07718 -2.13583 87 87 101
-27.7484 8.20794 -2.13765 91 91 103
-27.7483 8.2991 -2.13999 90 89 102
-27.7308 8.38493 -2.1408 87 89 102
-27.7358 8.47803 -2.14365 86 90 102
-27.7307 8.61388 -2.14682 89 89 103
-27.7311 8.70599 -2.14933 90 89 103
-27.7218 8.79504 -2.15099 91 89 103
-27.6981 8.92548 -2.15264 90 90 104
-27.6918 9.01588 -2.15464 89 88 104
-27.6776 9.10372 -2.15596 82 81 97
-27.66 9.23681 -2.15829 79 84 95
-24.4682 10.1754 -2.00716 99 99 109
-24.2789 10.1784 -1.99211 99 102 111
-24.2406 10.2479 -1.99155 100 103 112
-24.1405 10.3326 -1.98662 103 105 115
-24.1162 10.4082 -1.98746 102 106 116
-24.0971 10.4863 -1.98883 98 104 113
-24.0304 10.5858 -1.98721 102 106 115
-23.9603 10.64 -1.98369 97 103 115
-23.9206 10.7084 -1.98313 92 98 110
-23.8781 10.8189 -1.98396 88 94 106
-23.8163 10.8766 -1.98131 76 83 92
-23.7687 10.941 -1.98006 81 86 92
-23.7192 11.0043 -1.97863 65 62 71
-23.7251 11.1389 -1.98435 70 62 75
-23.6394 11.1841 -1.97943 68 60 71
-23.5768 11.2405 -1.97678 85 78 86
-23.5033 11.3352 -1.97481 95 90 97
-23.4951 11.4193 -1.97757 91 91 101
-23.4266 11.4723 -1.9744 93 93 103
-23.3786 11.5799 -1.97505 95 95 105
-20.8939 14.7517 -1.9407 84 84 94
-20.8292 14.7999 -1.93874 80 80 88
-20.7506 14.8856 -1.93782 84 83 91
-20.6951 14.9404 -1.93691 82 82 92
-20.652 15.0049 -1.9374 82 82 93
-20.5678 15.086 -1.93595 81 81 91
-20.4992 15.1303 -1.93365 84 83 94
-20.415 15.162 -1.9296 83 83 91
-20.3976 15.2467 -1.93305 82 82 90
-20.3015 15.3177 -1.93038 81 80 89
-20.2819 15.4011 -1.93366 75 75 87
-20.1586 15.4001 -1.92525 75 75 87
-20.1281 15.5242 -1.93009 76 76 88
-20.0432 15.5539 -1.92604 72 72 82
-20.0011 15.6191 -1.92687 77 75 86
-19.9159 15.6979 -1.9256 91 90 96
-19.8567 15.7485 -1.92452 89 89 97
-19.7639 15.7705 -1.91959 94 96 109
-19.7709 15.8777 -1.92619 99 99 111
-19.7161 15.9827 -1.92858 94 97 106
-19.161 16.0534 -1.89628 92 93 103
-19.0269 16.0852 -1.88943 78 82 91
-18.8991 16.0709 -1.88032 109 115 122
-18.7773 16.0615 -1.87191 103 108 112
-18.6544 16.05 -1.86332 108 108 108
-18.5153 16.0732 -1.85577 100 98 101
-18.3986 16.0659 -1.84789 71 69 82
-18.2764 16.0525 -1.8393 70 73 85
-18.1408 16.0759 -1.8321 73 79 95
-18.0363 16.0777 -1.82561 73 80 96
-17.9134 16.0611 -1.81685 72 80 93
-12.5624 16.118 -1.45956 75 78 94
-12.4605 16.1351 -1.45581 72 78 94
-12.4758 16.2668 -1.46572 70 75 94
-12.2952 16.115 -1.44647 71 77 93
-12.2156 16.1085 -1.44222 73 76 91
-12.1165 16.127 -1.4388 74 77 94
-12.0361 16.1181 -1.43439 74 77 94
-11.9602 16.1154 -1.43065 71 77 93
-11.8603 16.1308 -1.42706 71 81 93
-7.62921 16.0929 -1.1417 74 82 95
-7.5727 16.1001 -1.14058 76 82 94
-7.5089 16.0886 -1.13792 78 84 96
-7.44669 16.0806 -1.13556 75 83 94
-7.36079 16.0858 -1.13351 74 80 92
-29.9206 1.36163 -2.02433 98 110 135
-29.9014 1.45049 -2.02322 93 104 130
-29.9338 1.54208 -2.02616 139 141 156
-29.8278 1.67067 -2.0185 153 159 172
-27.8698 6.98169 -2.11841 97 100 115
-27.8547 7.06691 -2.11906 96 99 114
-27.8395 7.19679 -2.12071 94 96 111
-27.8218 7.28146 -2.12119 96 99 111
-27.8075 7.36716 -2.12201 95 98 110
-27.818 7.45985 -2.12502 95 96 110
-27.8047 7.59093 -2.12702 95 95 109
-27.7953 7.67835 -2.12834 94 95 107
-27.7893 7.7669 -2.13 92 92 104
-27.7708 7.89697 -2.13166 88 92 104
-25.6351 10.1464 -2.1001 88 92 103
-25.3901 10.1774 -2.08136 90 97 106
-25.1614 10.169 -2.06264 95 99 110
-24.9073 10.1483 -2.04147 104 106 119
-24.6869 10.1841 -2.02501 110 110 122
-17.7826 16.0863 -1.81018 70 76 88
-17.6645 16.0725 -1.80194 71 77 91
-17.5508 16.0623 -1.79423 71 77 91
-17.4557 16.0697 -1.78879 73 78 94
-17.3566 16.1231 -1.78595 76 81 97
-16.9176 16.1355 -1.75981 75 84 99
-16.8136 16.13 -1.75314 75 82 98
-16.6941 16.1583 -1.74769 76 83 98
-16.5946 16.1561 -1.74155 78 82 94
-16.4788 16.136 -1.73332 76 74 85
-16.3824 16.1357 -1.72753 76 71 79
-16.2554 16.1526 -1.72103 79 75 84
-16.1566 16.1483 -1.71489 80 80 93
-16.0526 16.1377 -1.70805 71 78 94
-15.9302 16.1569 -1.70208 69 76 92
-15.8386 16.1585 -1.69681 69 77 92
-15.7179 16.127 -1.68771 70 78 94
-15.6001 16.1487 -1.68225 71 78 94
-15.5183 16.1593 -1.67821 72 78 94
-15.4207 16.1515 -1.67207 72 78 94
-15.3012 16.1178 -1.66297 72 78 93
-15.1958 16.1505 -1.65909 71 79 92
-11.7749 16.1125 -1.4218 72 82 94
-11.6995 16.1088 -1.41806 70 77 93
-11.6032 16.1277 -1.41498 69 79 91
-11.527 16.1216 -1.41107 79 87 100
-11.4541 16.1202 -1.40767 75 81 95
-11.376 16.1101 -1.40342 80 85 99
-11.2749 16.1188 -1.3995 72 83 95
-11.2013 16.1148 -1.39593 72 82 94
-7.30164 16.0846 -1.13177 73 81 92
-7.24325 16.0852 -1.13019 73 81 92
-7.15623 16.0856 -1.12782 74 84 96
-7.09662 16.0819 -1.12593 74 84 96
-29.9394 0.823759 -2.02396 91 106 129
-29.9444 1.04833 -2.02501 94 109 135
-29.9182 1.13708 -2.02327 94 107 131
-29.8957 1.22586 -2.02185 99 111 135
-27.9472 6.07111 -2.10599 93 101 114
-27.8894 6.27769 -2.10525 90 96 112
-27.8784 6.36323 -2.10607 86 94 110
-27.8846 6.45301 -2.10841 84 95 111
-27.8647 6.58068 -2.10939 84 96 112
-27.8875 6.67499 -2.11325 86 95 110
-27.8849 6.76313 -2.11492 85 92 108
-27.8828 6.89593 -2.11759 87 94 110
-26.4896 9.35962 -2.14414 128 127 137
-26.478 9.44552 -2.14586 114 113 121
-26.4956 9.58791 -2.15176 86 86 100
-26.4442 9.65893 -2.14981 79 83 94
-26.3647 9.71887 -2.14523 75 79 90
-26.4031 9.87021 -2.15323 78 83 95
-26.3767 9.95102 -2.15372 75 81 93
-26.3593 10.0355 -2.15509 77 83 95
-26.3435 10.1207 -2.15663 89 95 107
-26.1143 10.1641 -2.13947 91 94 111
-25.8975 10.1654 -2.12196 88 93 107
-15.1144 16.1594 -1.65504 73 83 95
-14.9919 16.1194 -1.64542 75 85 97
-14.8893 16.1534 -1.64188 71 77 91
-14.8084 16.161 -1.63784 74 77 94
-14.6905 16.1239 -1.62874 74 76 94
-14.5871 16.1547 -1.62503 76 79 96
-14.5052 16.1595 -1.62081 76 79 96
-14.3933 16.1269 -1.61241 77 79 94
-14.3255 16.1479 -1.61011 80 79 93
-14.205 16.1548 -1.60396 77 80 95
-14.1236 16.158 -1.59975 75 78 93
-14.0325 16.1484 -1.59413 77 80 96
-13.92 16.1629 -1.58903 75 78 94
-13.8293 16.1523 -1.58342 75 79 94
-13.7533 16.1602 -1.5799 72 80 93
-11.131 16.1155 -1.39286 71 78 94
-11.0324 16.1262 -1.38928 74 83 98
-10.9561 16.116 -1.3852 75 85 97
-10.8861 16.1157 -1.38214 75 85 97
-10.7868 16.1233 -1.37839 74 83 96
-10.712 16.1138 -1.37448 74 84 97
-10.6404 16.1092 -1.37108 75 84 99
-10.5709 16.1077 -1.36801 77 86 101
-7.0405 16.0873 -1.12482 76 86 98
-6.95444 16.0885 -1.12261 76 83 95
-6.89574 16.086 -1.12087 75 81 94
-6.83578 16.0794 -1.11883 75 81 95
-27.933 5.28179 -2.09047 89 98 113
-27.9194 5.36594 -2.09079 87 99 114
-27.9281 5.49812 -2.0938 89 98 115
-27.9352 5.58678 -2.09597 89 98 115
-27.9401 5.67512 -2.09798 88 95 111
-27.9369 5.76187 -2.0993 81 88 103
-27.932 5.89207 -2.1013 94 101 118
-27.9475 5.98328 -2.10432 103 110 127
-26.6315 7.98792 -2.11629 87 91 104
-26.6282 8.07453 -2.11836 84 90 103
-26.6171 8.15874 -2.11973 83 91 104
-26.5966 8.28384 -2.12144 84 90 102
-26.5999 8.3731 -2.1242 86 91 103
-26.601 8.46184 -2.12679 87 90 103
-26.5751 8.58579 -2.12815 88 91 106
-26.5811 8.67661 -2.13127 89 91 106
-26.568 8.76101 -2.13264 88 89 104
-26.5614 8.89227 -2.13592 87 93 106
-26.5438 8.9754 -2.13694 86 89 102
-26.5446 9.06525 -2.1397 79 79 93
-26.5152 9.1443 -2.13967 77 76 90
-26.5047 9.27513 -2.14278 86 89 101
-13.634 16.1635 -1.57375 72 78 94
-13.5498 16.1595 -1.56901 72 79 95
-13.4694 16.1599 -1.5648 72 79 95
-13.3652 16.1282 -1.55709 72 78 94
-13.2682 16.1579 -1.55408 74 80 94
-13.1752 16.1395 -1.54795 72 78 92
-13.1025 16.148 -1.54478 75 78 93
-12.9974 16.1649 -1.54055 74 80 92
-12.9132 16.1565 -1.53564 73 79 93
-12.8315 16.151 -1.53107 72 78 92
-10.4721 16.1135 -1.36426 79 89 101
-10.4088 16.1217 -1.3622 78 88 100
-10.3356 16.1124 -1.35847 77 86 101
-10.2393 16.1203 -1.35505 75 84 99
-6.75266 16.0872 -1.11724 77 83 95
-6.69225 16.0782 -1.11504 74 80 92
-6.63579 16.0804 -1.11377 75 81 93
-6.57748 16.0768 -1.11204 75 82 92
-27.7602 4.4756 -2.06328 93 101 120
-27.7904 4.56617 -2.06714 94 103 120
-27.7966 4.65285 -2.06898 92 101 118
-27.8261 4.74382 -2.07285 92 101 118
-27.881 4.8827 -2.07958 90 99 116
-27.9058 4.97356 -2.08311 90 98 117
-27.9107 5.06092 -2.08495 90 98 119
-27.9034 5.18925 -2.08644 86 98 114
-26.731 7.02015 -2.10016 86 94 107
-26.7252 7.10462 -2.10171 86 94 107
-26.7116 7.18695 -2.10256 85 93 106
-26.6977 7.31236 -2.10444 87 93 108
-26.6968 7.3986 -2.10651 87 93 107
-26.6745 7.47868 -2.10666 89 94 107
-26.663 7.6053 -2.1089 87 90 106
-26.6592 7.69111 -2.11079 89 92 109
-26.6607 7.77872 -2.11321 87 90 106
-26.6306 7.90018 -2.11387 85 88 103
-12.7314 16.1729 -1.52754 75 78 95
-12.6431 16.1568 -1.52193 75 78 95
-12.5653 16.1551 -1.51789 75 78 95
-12.4599 16.1673 -1.51349 73 77 92
-12.4455 16.2564 -1.51921 71 77 93
-12.3082 16.1667 -1.50593 72 78 94
-12.2253 16.1553 -1.50102 71 79 92
-12.1217 16.1672 -1.49679 73 76 93
-12.0424 16.1599 -1.4924 73 77 93
-11.9655 16.1556 -1.48836 73 78 94
-9.93396 16.1113 -1.34194 76 86 98
-9.86831 16.1123 -1.33938 76 83 99
-9.79802 16.1043 -1.33598 76 85 100
-9.71001 16.1233 -1.33391 79 87 100
-9.63813 16.1111 -1.33017 70 76 88
-6.49213 16.0756 -1.10983 75 81 93
-6.4377 16.0828 -1.10902 75 82 92
-6.37716 16.0709 -1.10667 76 83 93
-27.6967 3.74468 -2.04806 84 91 109
-27.735 3.87691 -2.05294 94 103 118
-27.7298 3.9608 -2.05359 96 105 120
-27.7066 4.042 -2.05272 92 101 118
-27.712 4.16994 -2.05489 97 104 122
-27.7372 4.25892 -2.05825 95 104 121
-27.7602 4.34777 -2.06144 95 104 121
-26.7661 6.134 -2.0833 84 88 103
-26.7967 6.35355 -2.09058 85 95 109
-26.7758 6.43338 -2.09055 85 95 110
-26.7759 6.51861 -2.09245 84 93 108
-26.746 6.63873 -2.09259 84 93 110
-26.7512 6.72556 -2.09501 85 94 111
-26.7465 6.80991 -2.09656 83 92 109
-26.7421 6.93729 -2.09914 83 92 107
-13.9541 11.0791 -1.41883 79 82 89
-13.8975 11.1006 -1.41612 80 81 86
-13.8856 11.1613 -1.41916 81 81 90
-13.8988 11.2444 -1.42548 84 85 90
-12.6142 11.3645 -1.34353 101 103 108
-12.5359 11.394 -1.34023 99 99 107
-12.5035 11.4336 -1.34078 97 97 107
-11.8546 16.1544 -1.48291 70 79 92
-11.7867 16.1626 -1.48027 71 80 94
-11.7049 16.1489 -1.47536 70 77 93
-11.6086 16.1678 -1.47218 75 84 95
-11.5281 16.155 -1.46744 82 85 99
-11.4542 16.1519 -1.46375 57 55 69
-11.3772 16.1434 -1.45953 41 40 55
-9.57468 16.1145 -1.32795 73 81 92
-9.48321 16.1254 -1.32521 72 80 93
-9.41266 16.114 -1.32165 74 81 95
-9.34584 16.1095 -1.31875 76 77 90
-9.25827 16.1262 -1.31669 76 72 80
-6.29999 16.0934 -1.10647 74 82 95
-6.24261 16.0904 -1.1049 75 82 93
-6.18237 16.0778 -1.10254 74 81 91
-6.09937 16.0803 -1.1008 74 81 93
-27.6461 3.19167 -2.03737 87 94 112
-27.6549 3.27654 -2.03904 87 94 110
-27.6614 3.36126 -2.04054 88 95 111
-27.6721 3.4886 -2.04288 90 97 113
-27.6917 3.57538 -2.04556 89 96 112
-27.6973 3.66041 -2.04706 85 94 111
-26.8032 5.30199 -2.07007 89 98 116
-26.8324 5.39178 -2.07425 89 98 116
-26.8321 5.4755 -2.07579 89 96 114
-26.8315 5.55927 -2.07734 90 99 116
-26.8236 5.68351 -2.07906 86 94 113
-26.832 5.76961 -2.08148 83 92 109
-26.8305 5.85357 -2.08303 89 96 110
-26.8231 5.97847 -2.08492 128 133 147
-26.8867 6.0783 -2.09241 108 111 125
-11.2824 16.1623 -1.45653 71 78 93
-11.2057 16.1531 -1.45231 75 83 96
-11.1386 16.1589 -1.44967 71 81 93
-11.0368 16.1645 -1.44544 74 83 98
-10.9595 16.1526 -1.44106 74 83 98
-10.8978 16.1659 -1.43928 76 85 100
-10.7964 16.1702 -1.43506 75 85 97
-10.7216 16.1607 -1.43102 74 83 98
-9.19078 16.1193 -1.31362 75 69 81
-9.12692 16.1192 -1.31123 74 69 80
-9.03431 16.1241 -1.30816 73 78 92
-8.96804 16.1181 -1.30526 73 79 93
-8.89929 16.1065 -1.30186 73 82 94
-8.83753 16.109 -1.29981 70 80 92
-6.04341 16.0805 -1.09953 73 81 92
-27.4732 2.59004 -2.01686 160 158 170
-27.6023 3.06109 -2.03232 85 93 112
-26.7551 4.58742 -2.05365 91 101 118
-26.7383 4.70802 -2.05415 90 99 117
-26.7735 4.79732 -2.05867 91 99 118
-26.779 4.88123 -2.06057 90 100 118
-26.7745 5.00471 -2.06229 91 100 117
-26.7871 5.09037 -2.06488 87 96 114
-26.817 5.17973 -2.06906 87 95 114
-17.5026 10.6754 -1.66777 103 101 103
-17.4746 10.7671 -1.67042 110 106 107
-17.4018 10.7925 -1.66597 114 108 109
-10.649 16.1543 -1.42733 75 84 99
-10.5855 16.1631 -1.4252 73 82 97
-10.4768 16.1517 -1.41959 79 89 101
-10.4105 16.1547 -1.41694 79 89 101
-10.3403 16.1506 -1.4136 76 85 100
-10.2488 16.1673 -1.41094 78 88 101
-8.74714 16.1159 -1.29707 72 82 94
-8.68299 16.1124 -1.29452 73 83 95
-8.62312 16.1177 -1.2928 72 81 96
-8.53217 16.1217 -1.28989 71 81 93
-27.3271 2.08283 -2.00039 86 89 106
-27.4015 2.21211 -2.00764 80 77 88
-27.4431 2.29809 -2.01185 145 131 129
-27.3478 2.37195 -2.00438 145 133 127
-26.7166 4.04716 -2.04208 96 103 120
-26.699 4.12608 -2.04171 94 103 118
-26.7067 4.2092 -2.04361 94 103 120
-26.7192 4.33422 -2.04655 93 102 119
-26.736 4.4193 -2.04933 93 102 119
-26.7349 4.50138 -2.05053 92 101 118
-9.93981 16.1513 -1.3967 75 85 97
-9.8826 16.168 -1.39562 77 86 101
-9.80859 16.153 -1.39141 79 87 100
-8.46832 16.1174 -1.28734 73 83 95
-8.40782 16.1201 -1.28545 72 82 94
-8.31397 16.1156 -1.28187 72 82 94
-8.25283 16.116 -1.27982 73 83 95
-8.19254 16.118 -1.27794 73 83 97
-27.2939 1.63042 -1.99456 149 151 164
-27.3818 1.84085 -2.00332 145 130 124
-27.2838 1.91574 -1.99552 133 123 117
-26.6047 3.3807 -2.02354 85 92 108
-26.6307 3.4651 -2.02684 85 92 110
-26.6524 3.54914 -2.02979 85 92 110
-26.662 3.63163 -2.03169 83 92 109
-26.7224 3.92559 -2.04088 89 98 115
-9.71773 16.1668 -1.38875 77 83 97
-9.64956 16.1617 -1.38559 69 77 90
-9.58427 16.1616 -1.38294 72 80 91
-9.49185 16.1707 -1.37994 74 80 92
-9.42492 16.1664 -1.37695 75 79 91
-8.12602 16.1051 -1.27471 73 83 95
-8.03901 16.1137 -1.27248 73 81 94
-7.97896 16.115 -1.27059 73 81 94
-7.9159 16.1086 -1.26804 75 85 97
-26.6054 3.25977 -2.02216 86 95 112
-21.6507 10.1834 -1.99097 98 99 110
-21.5433 10.2097 -1.98286 95 98 107
-21.528 10.2822 -1.98475 96 100 109
-21.4683 10.3321 -1.98184 101 101 111
-21.4116 10.4233 -1.98103 94 97 106
-21.355 10.4745 -1.9785 95 99 108
-21.3336 10.5439 -1.97982 106 109 118
-21.2601 10.626 -1.97728 108 106 117
-21.1978 10.6736 -1.97417 102 100 111
-21.1931 10.7521 -1.97741 96 91 100
-21.152 10.8514 -1.97853 80 75 80
-21.0909 10.8993 -1.97561 89 84 88
-21.0209 10.9422 -1.97173 93 86 93
-20.9909 11.007 -1.97228 89 83 89
-20.945 11.1035 -1.97301 73 70 76
-20.8868 11.1524 -1.97048 62 54 67
-20.8077 11.1892 -1.96564 57 49 62
-20.7747 11.2929 -1.96791 81 79 84
-20.7297 11.3491 -1.96692 75 74 80
-20.6692 11.3959 -1.96419 95 98 107
-20.6282 11.4952 -1.96569 101 105 116
-20.5946 11.5579 -1.96605 97 99 111
-20.5592 11.6195 -1.96621 94 97 106
-20.5269 11.683 -1.96675 90 92 104
-20.4336 11.7507 -1.96248 104 107 114
-20.4127 11.8212 -1.96437 112 112 122
-20.3646 11.8749 -1.96319 106 106 116
-20.2841 11.9498 -1.96045 102 100 111
-20.2557 12.0158 -1.96158 98 96 107
-20.2222 12.0785 -1.96212 100 98 109
-20.1241 12.1417 -1.95747 98 98 108
-20.0951 12.2073 -1.95859 93 93 103
-20.0309 12.25 -1.95567 95 95 103
-19.7386 12.5641 -1.94915 107 103 102
-19.6687 12.6018 -1.94566 104 104 106
-19.6266 12.6584 -1.94543 99 103 115
-19.5138 12.7083 -1.93924 119 121 134
-19.4697 12.7633 -1.93882 106 105 114
-19.4239 12.8169 -1.93821 98 97 102
-19.3892 12.8784 -1.93895 98 96 101
-19.3292 12.9647 -1.9391 91 91 94
-19.307 13.0353 -1.94137 89 88 94
-19.2668 13.093 -1.94153 88 86 94
-19.2234 13.1917 -1.9438 89 87 96
-19.1602 13.2327 -1.94126 90 89 97
-19.1258 13.2947 -1.94219 93 91 100
-19.0463 13.3667 -1.94023 87 86 99
-19.0399 13.45 -1.94462 89 91 99
-19.0095 13.5154 -1.94612 90 90 97
-18.9393 13.5505 -1.94282 88 86 96
-18.8824 13.6396 -1.94374 89 88 100
-18.8214 13.6814 -1.94159 85 84 96
-18.7493 13.7144 -1.9381 86 85 98
-18.6916 13.8027 -1.93902 87 86 98
-18.6271 13.8413 -1.93648 89 89 99
-18.5579 13.8758 -1.93337 88 88 99
-18.5101 13.9721 -1.93564 87 86 97
-9.35722 16.1601 -1.37378 79 78 91
-9.26337 16.1644 -1.37043 76 73 82
-9.20208 16.17 -1.36848 74 71 80
-9.1286 16.1503 -1.3641 82 81 89
-9.07443 16.1697 -1.36355 75 80 90
-7.82914 16.1162 -1.26581 74 82 95
-7.7693 16.1166 -1.26392 74 82 95
-7.70804 16.1132 -1.26171 74 84 96
-7.623 16.1234 -1.25981 74 84 96
-26.4621 2.5219 -2.00188 146 146 158
-26.4691 2.60231 -2.00326 147 151 160
-22.5917 10.1546 -2.07136 87 91 103
-22.4011 10.1457 -2.0544 85 89 100
-22.202 10.172 -2.0382 89 93 105
-22.0085 10.1589 -2.02086 96 99 111
-21.8312 10.1526 -2.00524 99 102 113
-18.4438 14.0086 -1.93291 84 88 92
-18.4389 14.0953 -1.93788 82 85 90
-18.3677 14.1276 -1.93458 85 88 93
-18.3185 14.2233 -1.93684 84 84 93
-18.2303 14.241 -1.93142 86 86 94
-18.1907 14.2993 -1.93216 86 85 93
-13.9668 11.063 -1.4922 86 86 96
-18.0558 14.3222 -1.92366 84 84 94
-13.8969 11.0727 -1.48755 83 81 93
-18.0069 14.3723 -1.92324 85 83 94
-13.8717 11.1215 -1.48893 87 87 95
-17.9322 14.4002 -1.91955 83 86 93
-13.8819 11.2019 -1.49514 81 84 91
-17.5847 14.7431 -1.91645 85 84 92
-17.5081 14.7676 -1.91257 80 80 92
-17.42 14.8279 -1.91022 104 111 119
-17.3608 14.8678 -1.90865 106 108 113
-17.2943 14.9007 -1.90611 109 109 109
-12.5859 11.4108 -1.41482 81 82 90
-12.5018 11.3981 -1.40796 78 78 86
-12.4916 11.4604 -1.41175 79 79 87
-7.58416 11.4339 -1.05453 74 83 98
-7.50522 11.4205 -1.0497 74 83 98
-7.46849 11.4403 -1.04968 73 82 97
-7.45464 11.5018 -1.05426 77 86 101
-8.97758 16.1653 -1.3595 71 79 90
-8.91058 16.1573 -1.35633 70 80 90
-8.84967 16.1616 -1.35439 71 81 93
-8.75836 16.1668 -1.35138 71 81 93
-8.6934 16.1615 -1.34857 71 81 93
-7.56262 16.1213 -1.25776 77 85 97
-7.49942 16.1115 -1.25504 74 82 94
-7.43996 16.1108 -1.25315 73 82 95
-7.35665 16.1234 -1.2516 72 82 94
-23.644 9.67849 -2.14461 83 82 97
-23.6182 9.75095 -2.14515 81 80 95
-23.6276 9.88083 -2.15108 78 84 100
-23.6193 9.96138 -2.15355 79 85 101
-23.569 10.0232 -2.1516 81 88 103
-23.5533 10.1428 -2.15502 85 91 102
-23.4085 10.1612 -2.14306 89 94 107
-23.2241 10.1604 -2.12687 88 93 106
-23.0093 10.1443 -2.10741 93 96 111
-22.7915 10.1666 -2.08928 94 96 109
-17.1999 14.9544 -1.90299 101 101 101
-17.1564 15.0085 -1.90354 84 83 88
-17.1228 15.072 -1.90542 84 84 94
-17.0135 15.1108 -1.90038 83 83 91
-16.9967 15.1906 -1.90458 85 85 93
-16.9438 15.2358 -1.90397 82 82 90
-16.8751 15.2656 -1.90124 82 82 90
-16.7781 15.3153 -1.89793 88 88 96
-16.7532 15.3878 -1.90116 83 83 93
-8.62852 16.156 -1.34575 71 78 94
-8.54169 16.169 -1.34362 71 79 92
-8.47704 16.163 -1.3408 73 82 95
-8.41653 16.1657 -1.33886 72 82 92
-7.29447 16.1147 -1.24904 71 79 93
-7.2331 16.1077 -1.24665 73 81 94
-7.1486 16.1155 -1.24476 74 84 97
-7.08951 16.1136 -1.24288 73 82 97
-23.8487 8.16371 -2.10818 81 89 102
-23.839 8.24055 -2.10989 78 88 100
-23.829 8.35758 -2.11293 81 89 102
-23.8149 8.43311 -2.11425 80 88 101
-23.821 8.51635 -2.11769 83 86 103
-23.8212 8.5976 -2.12054 83 87 103
-23.8297 8.72286 -2.1257 79 85 99
-23.8311 8.80507 -2.12876 78 88 100
-23.8266 8.88521 -2.13123 80 90 102
-23.793 8.99482 -2.13215 81 89 103
-23.8044 9.08171 -2.13636 81 87 103
-23.7805 9.15454 -2.13691 76 83 99
-23.7603 9.27011 -2.13937 67 73 88
-23.7266 9.33903 -2.13896 72 75 92
-23.7073 9.41398 -2.14008 85 91 107
-23.7355 9.50905 -2.14621 117 119 133
-23.6988 9.61849 -2.14714 110 111 125
-17.5124 10.6677 -1.75337 96 98 110
-17.4331 10.7253 -1.74992 95 98 109
-17.3854 10.767 -1.74828 94 94 106
-16.4343 15.6543 -1.89789 78 80 92
-16.3704 15.6877 -1.89594 77 77 87
-16.3258 15.7408 -1.89667 86 86 96
-16.2878 15.801 -1.89837 85 86 91
-16.233 15.8934 -1.9012 76 74 80
-16.1808 15.9389 -1.90097 73 71 76
-16.1299 15.9858 -1.90094 74 71 74
-16.0225 16.0222 -1.89647 98 98 103
-15.9215 16.0143 -1.88933 98 97 102
-8.32749 16.1722 -1.3362 73 83 95
-8.26076 16.1598 -1.33286 72 82 94
-8.20049 16.1618 -1.33092 74 84 96
-8.13712 16.1563 -1.32828 75 83 96
-8.04699 16.1576 -1.32528 73 81 94
-7.03047 16.1114 -1.241 74 84 96
-6.94483 16.1144 -1.23877 75 83 95
-6.88798 16.1174 -1.23739 74 82 95
-6.82849 16.1127 -1.23534 75 83 96
-24.0073 7.10691 -2.08947 84 93 110
-23.9879 7.21848 -2.09098 83 92 107
-23.9795 7.29447 -2.09249 85 91 107
-23.9651 7.36865 -2.09343 87 93 109
-23.9275 7.47459 -2.0932 85 92 108
-23.9163 7.54993 -2.09453 83 93 105
-23.9125 7.62782 -2.09662 80 92 104
-23.8989 7.70256 -2.09774 83 91 104
-23.8917 7.81921 -2.10079 84 90 104
-23.87 7.89136 -2.10115 83 89 105
-23.8668 7.97006 -2.10343 83 89 104
-23.8563 8.08622 -2.10628 81 89 102
-15.8354 16.0222 -1.8843 95 94 102
-15.7123 16.0392 -1.87753 95 95 103
-15.6158 16.0343 -1.87097 95 97 105
-15.5261 16.0364 -1.86536 95 97 105
-15.4181 16.0172 -1.85707 97 99 110
-15.3036 16.0406 -1.85145 96 97 108
-15.2104 16.0367 -1.84527 87 90 99
-15.1201 16.0355 -1.83947 95 95 105
-14.9982 16.048 -1.8327 93 95 107
-14.9029 16.0398 -1.82614 105 105 113
-14.8118 16.0356 -1.82015 97 96 104
-14.6917 16.0477 -1.81357 83 82 91
-14.6111 16.0548 -1.80912 70 69 80
-14.5344 16.0662 -1.80525 70 72 85
-7.98693 16.1589 -1.32333 73 81 94
-7.92618 16.1581 -1.32121 72 82 94
-7.8394 16.1656 -1.31891 72 81 96
-7.77582 16.1569 -1.31609 72 81 96
-6.77172 16.1153 -1.23396 75 83 96
-6.68318 16.1075 -1.23089 74 82 95
-6.62782 16.1134 -1.22985 74 82 93
-24.0482 6.34166 -2.07181 83 92 109
-24.035 6.41512 -2.07256 83 92 109
-24.0331 6.49184 -2.07446 83 91 110
-24.013 6.60202 -2.07558 82 90 109
-24.0142 6.67995 -2.07787 81 92 110
-23.9961 6.75229 -2.07823 82 93 109
-24.0445 6.8446 -2.08532 83 93 105
-24.0036 6.94921 -2.08452 83 92 107
-24.0113 7.02978 -2.08757 83 92 109
-20.5718 10.1391 -1.99244 103 107 118
-20.39 10.1586 -1.97711 101 103 115
-20.2716 10.1724 -1.96722 97 98 110
-20.2196 10.2214 -1.96498 100 99 112
-20.1479 10.298 -1.96232 103 102 111
-20.1112 10.3552 -1.96189 99 102 108
-20.0605 10.4045 -1.95985 101 103 109
-20.0201 10.4594 -1.95902 103 104 112
-19.9699 10.5475 -1.95898 101 103 109
-19.9221 10.5982 -1.95734 100 101 106
-19.8845 10.6546 -1.95691 101 102 105
-19.8352 10.743 -1.95707 101 105 113
-19.8023 10.8021 -1.95724 102 102 112
-19.7539 10.8521 -1.9556 103 103 115
-19.695 10.9348 -1.95476 99 99 111
-19.6547 10.9894 -1.95413 101 102 114
-19.6075 11.0398 -1.95269 100 100 112
-19.572 11.0972 -1.95266 102 102 114
-19.512 11.179 -1.95181 104 104 116
-19.4693 11.2319 -1.95098 103 103 115
-19.4113 11.2752 -1.94833 101 101 113
-19.3674 11.3668 -1.9495 106 106 116
-19.3157 11.4139 -1.94766 102 105 112
-19.2623 11.4597 -1.94562 98 101 110
-19.2008 11.5398 -1.94477 100 102 114
-19.1587 11.5927 -1.94414 101 103 115
-19.1264 11.652 -1.94471 93 95 107
-18.8509 11.9522 -1.93851 99 102 110
-18.8158 12.0096 -1.93888 100 100 109
-18.7707 12.06 -1.93804 90 93 105
-18.7097 12.1399 -1.9376 107 110 126
-18.661 12.1877 -1.93636 119 117 131
-18.6235 12.2433 -1.93653 99 97 108
-18.5745 12.2907 -1.9353 98 97 103
-18.4964 12.3581 -1.93284 95 93 96
-18.4599 12.4144 -1.93321 102 100 103
-18.4057 12.4577 -1.93137 101 99 101
-18.3301 12.5264 -1.92932 108 107 104
-18.2756 12.5692 -1.92748 110 109 104
-18.2241 12.6141 -1.92604 111 108 101
-18.1273 12.6662 -1.92137 116 109 101
-18.0471 12.689 -1.91631 105 100 96
-17.967 12.7115 -1.91125 107 102 97
-17.9152 12.7553 -1.90981 99 95 93
-17.8526 12.8323 -1.90957 93 93 93
-17.8099 12.883 -1.90934 90 89 95
-17.7655 12.9324 -1.9089 88 87 95
-17.7161 13.0197 -1.91047 89 87 97
-17.7303 13.1159 -1.91768 92 91 99
-17.7192 13.1924 -1.92167 92 91 99
-17.6562 13.2696 -1.92163 90 91 102
-17.5921 13.3034 -1.91878 87 89 100
-17.5019 13.3154 -1.91251 89 91 101
-17.4241 13.3371 -1.90786 93 95 103
-14.4704 16.0925 -1.80329 69 71 84
-14.3634 16.1178 -1.79864 68 70 83
-14.2831 16.1235 -1.79419 71 72 89
-14.1978 16.1226 -1.78897 76 75 94
-14.0824 16.1354 -1.78297 78 78 95
-13.9962 16.1321 -1.77756 77 79 95
-13.9015 16.1175 -1.7708 76 79 94
-13.7903 16.1331 -1.76538 74 80 94
-13.7059 16.1301 -1.76016 76 80 95
-13.6191 16.1236 -1.75456 77 80 95
-13.5325 16.1167 -1.74896 78 80 95
-7.71681 16.1591 -1.31432 73 83 95
-7.62955 16.1637 -1.31184 73 83 95
-7.56774 16.1579 -1.30937 75 83 96
-7.51037 16.163 -1.30795 72 80 93
-6.57057 16.1134 -1.22831 74 82 93
-6.48743 16.1197 -1.22658 75 81 94
-6.42968 16.1174 -1.22487 75 81 93
-6.36954 16.1073 -1.22249 75 82 92
-24.1207 5.55732 -2.05895 85 97 113
-24.1178 5.63265 -2.06047 87 99 115
-24.0979 5.74184 -2.06121 82 92 109
-24.1059 5.82016 -2.06388 79 86 105
-24.1118 5.8981 -2.06636 90 97 115
-24.1462 5.98369 -2.07173 116 124 137
-24.1612 6.10285 -2.07613 103 109 125
-24.047 6.14913 -2.06667 82 88 104
