-3.02291 4.19178 -1.85528 84 83 97
-2.90316 4.39662 -1.86154 94 99 113
-2.74475 4.56044 -1.84815 94 97 112
-2.61575 4.76027 -1.85292 93 96 113
-2.47552 4.92959 -1.84216 89 99 111
-2.41534 5.0235 -1.84466 95 97 112
-2.29095 5.25797 -1.8556 92 100 113
-2.13322 5.454 -1.85046 95 101 113
-1.97343 5.68935 -1.84988 99 102 117
-5.74455 0.121007 -1.83264 80 86 105
-3.15351 3.92716 -1.84405 82 84 96
-3.13078 4.01206 -1.85481 81 80 94
-3.10605 3.99525 -1.84331 78 79 92
-3.00741 4.1943 -1.85366 80 82 97
-2.87938 4.39977 -1.85918 92 98 112
-2.7284 4.56184 -1.8466 90 96 110
-2.44866 4.92509 -1.83774 89 96 112
-2.40241 5.04197 -1.85041 94 97 112
-2.27281 5.25805 -1.85418 95 103 116
-5.74211 0.0938481 -1.83133 80 86 106
-3.1435 3.93985 -1.84735 80 82 97
-3.0982 4.01279 -1.84904 82 82 96
-2.99556 4.20517 -1.85606 84 87 103
-2.86461 4.40523 -1.85916 92 98 112
-2.70663 4.57087 -1.84735 91 97 113
-2.6021 4.77191 -1.85589 95 96 114
-2.43331 4.9328 -1.83919 89 95 111
-2.38107 5.02791 -1.84319 98 101 118
-2.11734 5.46833 -1.85453 92 102 114
-1.94585 5.69324 -1.84986 94 101 114
-5.7432 0.0758046 -1.83133 84 90 111
-3.12548 3.93615 -1.84236 83 82 99
-3.07678 4.01852 -1.84738 82 79 96
-2.97632 4.21721 -1.85764 90 92 106
-2.85321 4.41921 -1.86305 96 99 114
-2.69028 4.57214 -1.8458 89 96 112
-2.58734 4.77997 -1.85738 94 100 116
-2.24916 5.27268 -1.85766 95 103 116
-3.10994 3.95344 -1.84649 78 77 93
-3.06405 4.02613 -1.84819 77 78 93
-2.96006 4.21789 -1.85522 89 91 104
-2.94524 4.22189 -1.85441 92 91 107
-2.82737 4.41696 -1.85835 97 100 115
-2.67508 4.57689 -1.84578 91 97 113
-2.56178 4.77955 -1.85436 93 100 116
-2.41746 4.93866 -1.83991 88 95 110
-2.35826 5.04103 -1.84605 96 102 116
-2.23176 5.27629 -1.85764 94 102 114
-2.0899 5.46947 -1.85315 94 102 115
-1.92793 5.70136 -1.85182 95 101 115
-3.09432 3.95454 -1.84399 80 78 92
-3.04897 4.02876 -1.84654 78 81 94
-2.92902 4.22246 -1.85199 81 83 98
-2.81453 4.42742 -1.86068 91 95 108
-2.54694 4.7875 -1.85584 95 101 117
-2.40023 4.93908 -1.83843 92 100 113
-2.34287 5.05032 -1.84819 99 105 119
-2.06907 5.45785 -1.84768 94 102 115
-3.08179 3.96216 -1.84481 84 82 95
-3.03292 4.04583 -1.85062 79 82 94
-2.90963 4.23422 -1.85357 82 84 97
-2.79837 4.42924 -1.8591 90 96 108
-2.65378 4.58744 -1.8473 95 99 111
-2.52948 4.78651 -1.85358 95 99 116
-2.37614 4.94501 -1.8384 92 102 114
-2.21551 5.28533 -1.85973 94 101 114
-2.19433 5.27051 -1.8527 92 99 113
-2.0517 5.46462 -1.84902 93 103 115
-3.06143 3.9694 -1.84396 85 84 96
-3.04504 3.96868 -1.84063 86 86 96
-3.01702 4.04669 -1.84815 80 82 97
-2.89547 4.23976 -1.85356 84 86 99
-2.78155 4.42929 -1.85674 92 98 110
-2.6352 4.5815 -1.84268 91 98 111
-2.3598 4.94891 -1.83839 94 102 115
-2.32435 5.0469 -1.84529 95 101 117
-3.00266 4.05082 -1.84731 75 77 92
-2.88131 4.24525 -1.85354 81 83 96
-2.76288 4.44565 -1.86063 91 97 111
-2.62324 4.59666 -1.84727 96 99 116
-2.50807 4.80006 -1.85655 95 98 113
-2.30051 5.05616 -1.84671 94 102 116
-2.17012 5.28299 -1.85548 93 100 116
-2.03428 5.47135 -1.85037 91 101 113
-3.03851 3.98939 -1.84808 86 85 99
-3.01607 3.97533 -1.83811 76 75 89
-2.9834 4.06108 -1.84812 80 82 97
-2.74478 4.44212 -1.85671 92 98 114
-2.48908 4.7936 -1.85204 94 97 112
-2.34301 4.95095 -1.83764 99 105 119
-2.99346 3.9773 -1.83477 76 75 89
-2.97426 4.07675 -1.85303 88 90 105
-2.86313 4.26023 -1.85673 90 89 103
-2.72925 4.44545 -1.85591 91 97 111
-2.60073 4.60345 -1.84725 92 95 110
-2.47416 4.80134 -1.85353 94 97 112
-2.28373 5.05985 -1.84669 93 99 113
-2.15414 5.29369 -1.85827 93 101 114
-2.00786 5.47765 -1.85102 92 99 115
-2.98747 3.99959 -1.84306 78 77 94
-2.95909 4.07907 -1.85137 88 87 101
-2.84756 4.26222 -1.85512 88 87 101
-2.83265 4.26586 -1.8543 92 88 105
-2.58488 4.60616 -1.84646 92 98 110
-2.45673 4.80011 -1.85126 92 95 110
-2.32015 4.96204 -1.83982 100 103 120
-2.26697 5.06349 -1.84668 95 96 114
-2.13491 5.28783 -1.85475 97 103 117
-1.98784 5.46945 -1.84692 91 98 114
-2.97331 4.00359 -1.84222 76 75 91
-2.94041 4.09082 -1.853 86 88 101
-2.70915 4.45815 -1.85824 93 98 113
-2.57115 4.61589 -1.84875 94 98 110
-2.30375 4.96577 -1.8398 97 100 118
-2.251 5.07072 -1.8481 92 98 112
-2.95499 4.01534 -1.84386 89 91 104
-2.92374 4.08969 -1.8497 83 85 98
-2.81167 4.27381 -1.85428 80 84 96
-2.69792 4.47351 -1.86291 94 100 114
-2.55425 4.61497 -1.84643 95 99 111
-2.43272 4.80442 -1.85049 95 98 113
-2.28486 4.95859 -1.83538 96 99 116
-2.10985 5.29637 -1.85613 94 101 113
-1.97411 5.4982 -1.85644 91 99 112
-2.94149 4.0209 -1.84385 88 90 105
-2.90857 4.09185 -1.84804 89 91 104
-2.79673 4.27734 -1.85347 89 93 104
-2.67801 4.46453 -1.85664 94 100 114
-2.53009 4.61613 -1.84411 94 100 112
-2.41869 4.81559 -1.85347 97 100 117
-2.25987 4.96039 -1.83389 95 99 116
-2.22617 5.07602 -1.84808 93 99 114
-2.09273 5.3014 -1.85681 90 101 113
-1.94359 5.48015 -1.84824 91 101 113
-2.92798 4.02642 -1.84383 86 86 101
-2.8941 4.09564 -1.84721 87 86 100
-2.7805 4.2774 -1.85105 90 93 105
-2.65595 4.4718 -1.85663 92 96 111
-2.20693 5.06857 -1.84374 93 99 115
-2.9081 4.03463 -1.84382 70 72 87
-2.87601 4.10879 -1.84965 78 77 91
-2.75754 4.27997 -1.84862 93 97 109
-2.64397 4.4853 -1.86052 90 93 108
-2.51728 4.62927 -1.84793 95 98 115
-2.49939 4.62461 -1.84408 91 97 113
-2.40364 4.82314 -1.85495 96 99 114
-2.24388 4.96574 -1.83461 95 101 115
-2.1905 5.0738 -1.84444 94 100 114
-2.07526 5.30453 -1.85679 92 100 113
-1.92577 5.48471 -1.8489 90 100 112
-2.89455 4.04006 -1.8438 73 72 88
-2.86152 4.11248 -1.84882 74 76 88
-2.74768 4.29708 -1.85422 93 97 109
-2.62537 4.4796 -1.85581 92 96 111
-2.37908 4.82541 -1.85343 93 98 113
-2.22748 4.96924 -1.83459 97 100 115
-2.87958 4.04208 -1.84213 76 75 91
-2.84771 4.1178 -1.84881 83 87 98
-2.72956 4.29181 -1.8494 91 93 108
-2.61212 4.48954 -1.85814 93 99 113
-2.47476 4.62373 -1.84099 92 98 113
-2.36213 4.82567 -1.85192 94 100 114
-2.16605 5.08065 -1.84514 95 103 114
-2.04714 5.29624 -1.85186 94 102 115
-1.90938 5.49849 -1.85297 92 102 114
-2.86739 4.05079 -1.84377 70 76 89
-2.82945 4.13078 -1.85125 87 87 102
-2.71958 4.30887 -1.85499 92 91 107
-2.4628 4.6403 -1.84634 92 98 112
-2.20557 4.98529 -1.83897 96 99 114
-2.02969 5.29923 -1.85184 94 102 115
-2.84876 4.0621 -1.84542 76 78 92
-2.81216 4.12756 -1.84713 82 81 97
-2.6947 4.30596 -1.85016 89 91 105
-2.58879 4.49302 -1.85656 92 99 115
-2.44546 4.63723 -1.84326 96 99 115
-2.3461 4.82946 -1.8519 92 98 110
-2.18795 4.98322 -1.83675 99 101 116
-2.14959 5.08577 -1.84584 93 103 115
-1.88137 5.49495 -1.85022 94 102 113
-2.83376 4.06398 -1.84374 78 77 93
-2.80171 4.14119 -1.85122 77 77 92
-2.5743 4.49937 -1.85733 92 98 112
-2.32378 4.84046 -1.85413 90 96 110
-2.13272 5.08901 -1.84583 89 99 111
-2.01472 5.31693 -1.85743 94 102 115
-1.86071 5.48076 -1.84407 95 103 115
-2.82214 4.07425 -1.84622 73 73 89
-2.77857 4.14212 -1.84792 88 90 104
-2.6846 4.32295 -1.85576 91 93 106
-2.66774 4.3209 -1.85254 87 89 101
-2.55579 4.49341 -1.85263 93 99 114
-2.42037 4.6343 -1.83941 98 101 116
-2.3055 4.83514 -1.85037 91 97 111
-2.17186 4.98837 -1.83747 98 100 115
-1.99533 5.30876 -1.85321 99 102 117
-2.7987 4.07353 -1.84205 82 81 95
-2.76602 4.15059 -1.84955 85 87 102
-2.5353 4.5054 -1.85495 95 101 115
-2.40686 4.64538 -1.84246 97 103 117
-2.15464 4.98801 -1.83599 96 101 115
-2.10817 5.09561 -1.84652 91 100 114
-2.78568 4.08032 -1.84287 84 83 97
-2.7501 4.15053 -1.84707 81 80 96
-2.6465 4.32811 -1.85252 83 86 101
-2.39235 4.65285 -1.84397 95 101 115
-2.29075 4.84417 -1.8526 94 100 114
-2.08947 5.08958 -1.8429 94 102 118
-1.96919 5.31115 -1.85249 97 101 113
-2.77133 4.08369 -1.84202 84 85 98
-2.73486 4.15212 -1.84542 82 81 97
-2.62851 4.32245 -1.8477 86 88 103
-2.52075 4.51159 -1.85572 93 99 114
-2.27509 4.84956 -1.85333 92 100 113
-2.12924 4.98738 -1.83376 98 104 118
-1.95314 5.32315 -1.85597 95 101 117
-2.74988 4.0878 -1.84035 78 80 95
-2.61759 4.33757 -1.85249 97 99 114
-2.50672 4.5195 -1.85726 94 97 114
-2.36956 4.65861 -1.84395 92 98 112
-2.1149 5.00146 -1.83815 95 99 115
-2.07294 5.09447 -1.84361 93 100 116
-2.73681 4.09446 -1.84116 81 83 98
-2.71828 4.16976 -1.85032 84 86 99
-2.48279 4.52072 -1.8549 90 93 110
-2.35273 4.65702 -1.84164 90 98 111
-2.25261 4.86026 -1.85555 93 99 111
-1.93444 5.31847 -1.85315 94 100 116
-2.72117 4.09426 -1.83866 82 85 100
-2.703 4.17124 -1.84867 86 89 102
-2.59801 4.34977 -1.85488 103 107 119
-2.57949 4.34219 -1.84925 96 98 113
-2.4671 4.52324 -1.8541 88 94 110
-2.23438 4.85469 -1.85179 94 101 112
-2.09837 5.00457 -1.83813 97 100 115
-2.0473 5.09531 -1.84214 94 100 114
-2.69157 4.18293 -1.85194 93 96 111
-2.56499 4.34675 -1.84924 97 100 114
-2.33948 4.66971 -1.84545 93 96 113
-2.21785 4.8563 -1.85103 93 103 115
-2.07363 5.00732 -1.83737 94 100 114
-2.03007 5.09641 -1.84141 96 102 118
-1.90855 5.32243 -1.85313 92 99 115
-2.70096 4.10155 -1.83864 90 94 106
-2.67031 4.18843 -1.8511 86 88 103
-2.45141 4.52571 -1.85331 91 97 112
-2.32309 4.66982 -1.8439 93 96 113
-2.01451 5.10663 -1.84427 98 104 118
-1.89182 5.33056 -1.85521 93 100 116
-2.68906 4.11149 -1.84112 95 99 108
-2.65438 4.18805 -1.84862 85 87 100
-2.54475 4.35698 -1.85082 96 99 112
-2.43116 4.53903 -1.85641 93 99 113
-2.29764 4.66449 -1.83928 92 100 113
-2.19327 4.85771 -1.84951 100 103 120
-2.05643 5.00666 -1.83589 95 101 116
-2.67404 4.11284 -1.83944 94 97 109
-2.64157 4.19619 -1.85025 92 96 107
-2.52966 4.35969 -1.85001 93 96 111
-2.41284 4.53255 -1.85171 90 96 110
-2.28173 4.66626 -1.8385 93 103 115
-2.03988 5.00959 -1.83587 93 99 115
-1.99757 5.10947 -1.84425 100 106 120
-1.8737 5.32939 -1.85379 95 101 115
-2.66513 4.13127 -1.84607 99 98 112
-2.51346 4.35885 -1.84759 96 99 113
-2.39714 4.53485 -1.85091 92 97 111
-2.18032 4.87548 -1.85548 99 102 117
-2.64172 4.12974 -1.8419 86 88 101
-2.61966 4.19974 -1.84859 98 97 110
-2.50053 4.36845 -1.84998 96 100 112
-2.26873 4.68057 -1.84308 93 101 114
-2.16295 4.8733 -1.85322 94 100 112
-2.01514 5.01207 -1.83512 93 99 115
-1.97065 5.10261 -1.83991 98 106 119
-1.84802 5.33493 -1.85447 94 100 114
-2.62608 4.12922 -1.83939 83 84 97
-2.60557 4.20435 -1.84857 87 89 104
-2.38297 4.54242 -1.85246 90 98 111
-1.99702 5.00574 -1.83143 96 99 118
-1.95562 5.11634 -1.84421 93 101 114
-1.82967 5.33177 -1.85235 93 99 115
-2.6146 4.14068 -1.8427 90 92 104
-2.59087 4.20719 -1.84774 81 83 96
-2.48175 4.38368 -1.85397 91 93 108
-2.36055 4.54837 -1.85244 95 101 115
-2.24704 4.69118 -1.84536 92 98 112
-2.13834 4.87445 -1.8517 91 99 112
-2.57797 4.21516 -1.84937 78 80 93
-2.46553 4.38267 -1.85155 93 96 111
-2.22945 4.68558 -1.84151 94 97 113
-2.12177 4.87576 -1.85093 94 100 114
-1.98234 5.01947 -1.83582 96 97 117
-1.93679 5.10797 -1.83987 94 100 117
-1.81184 5.33226 -1.85163 94 99 115
-2.59943 4.163 -1.85015 87 86 100
-2.45091 4.38689 -1.85153 93 96 111
-2.3458 4.55406 -1.85321 99 103 118
-2.21349 4.68714 -1.84073 92 98 114
-1.96515 5.01853 -1.83433 95 98 115
-2.57853 4.14682 -1.84018 85 84 98
-2.55952 4.22878 -1.85263 82 85 98
-2.54127 4.22111 -1.84687 88 90 103
-2.33056 4.55793 -1.85319 95 101 115
-2.10558 4.87884 -1.85092 96 100 113
-1.9127 5.11738 -1.84201 95 101 115
-2.56634 4.15645 -1.84265 86 88 101
-2.4304 4.39664 -1.85312 91 94 109
-2.19053 4.6921 -1.84071 93 99 115
-2.08097 4.87973 -1.8494 94 100 114
-1.89514 5.11623 -1.84055 91 97 111
-2.53002 4.23413 -1.85096 87 85 99
-2.4142 4.39547 -1.8507 91 94 109
-2.30997 4.57077 -1.85629 98 102 116
-2.17496 4.69534 -1.84069 93 99 113
-1.94129 5.02616 -1.83578 94 100 114
-2.54697 4.1665 -1.84429 90 92 105
-2.50913 4.24062 -1.85094 83 80 96
-2.39852 4.39601 -1.84908 94 97 112
-2.29371 4.57098 -1.85472 96 99 114
-2.06584 4.88813 -1.85163 93 99 113
-1.92208 5.01225 -1.82916 95 100 114
-1.87788 5.11687 -1.83982 93 100 115
-2.53189 4.1674 -1.84262 92 94 107
-2.49437 4.24317 -1.85011 81 80 96
-2.27935 4.57826 -1.85626 89 95 110
-2.16125 4.70758 -1.84451 92 100 113
-2.05031 4.89468 -1.85311 92 98 114
-1.90778 5.02946 -1.83501 96 99 118
-2.5168 4.16824 -1.84095 88 90 103
-2.47848 4.24219 -1.84763 81 80 96
-2.37793 4.40554 -1.85066 92 97 113
-2.14228 4.69446 -1.83759 95 102 116
-1.85312 5.12233 -1.84051 95 101 115
-2.50339 4.17424 -1.84176 83 82 96
-2.36225 4.40596 -1.84904 93 99 115
-2.25399 4.57305 -1.85156 90 97 110
-2.0351 4.90301 -1.85533 91 100 112
-1.88218 5.02583 -1.83205 96 102 118
-2.48227 4.17882 -1.84091 89 91 106
-2.45866 4.25193 -1.84925 75 78 95
-2.34853 4.4134 -1.85063 92 99 113
-2.23958 4.58022 -1.8531 94 99 114
-2.12113 4.70815 -1.8414 96 101 117
-1.83724 5.13206 -1.84338 94 99 115
-2.44332 4.25258 -1.84759 75 78 95
-2.33287 4.41373 -1.84901 94 102 115
-2.2238 4.58199 -1.85231 96 99 114
-2.10513 4.70937 -1.84062 93 99 113
-2.0084 4.89263 -1.84932 93 101 114
-1.86584 5.03008 -1.83277 95 102 115
-1.82022 5.13436 -1.84336 91 99 114
-2.46986 4.1882 -1.84339 89 92 107
-2.42962 4.2584 -1.8484 76 79 96
-1.99149 4.89172 -1.84781 93 103 114
-1.84922 5.03244 -1.83275 92 100 113
-2.45582 4.19232 -1.84337 87 89 102
-2.3126 4.42475 -1.8514 92 102 114
-2.20713 4.58013 -1.84995 98 103 118
-2.08913 4.71055 -1.83984 93 102 115
-1.80241 5.13108 -1.84118 89 99 111
-2.43568 4.20017 -1.84418 78 80 94
-2.40809 4.26271 -1.84756 86 89 104
-2.29691 4.42496 -1.84978 90 97 111
-1.97591 4.89806 -1.84929 94 102 113
-1.82369 5.02854 -1.82979 97 100 116
-2.42109 4.20245 -1.84334 82 84 97
-2.39434 4.26843 -1.84837 95 95 109
-2.27849 4.41448 -1.84335 90 95 111
-2.18625 4.59247 -1.85305 96 100 115
-2.06574 4.71313 -1.83905 94 102 115
-1.77729 5.13437 -1.84116 93 102 115
-2.38109 4.27586 -1.84999 90 92 105
-2.17131 4.59765 -1.85382 93 99 113
-2.04907 4.71056 -1.83673 95 101 113
-1.95161 4.90017 -1.84852 93 103 115
-1.80806 5.03813 -1.83271 97 100 117
-2.40802 4.20992 -1.84498 89 89 101
-2.36419 4.27101 -1.84588 86 90 102
-2.15592 4.60101 -1.8538 93 101 114
-1.93347 4.89177 -1.84401 95 103 116
-1.76051 5.13834 -1.84186 94 102 115
-2.38376 4.20358 -1.83916 88 92 104
-2.26176 4.43948 -1.85215 94 96 116
-2.03542 4.72428 -1.84132 95 101 113
-1.79045 5.03296 -1.82976 94 100 116
-1.74349 5.14042 -1.84184 96 104 117
-2.34313 4.27677 -1.84586 93 96 111
-2.24518 4.43598 -1.84893 91 97 113
-2.13321 4.60595 -1.85378 93 99 111
-1.91908 4.90526 -1.84848 94 104 116
-2.37315 4.2197 -1.84495 95 97 110
-2.32832 4.27879 -1.84502 94 98 113
-2.2304 4.43953 -1.84891 89 96 112
-2.01231 4.72844 -1.84129 94 100 114
-1.76523 5.03062 -1.82754 93 103 115
-1.71692 5.13234 -1.8375 96 103 119
-2.35704 4.21653 -1.84162 96 95 110
-2.34 4.20981 -1.83662 95 97 110
-2.11616 4.60201 -1.85064 93 99 111
-1.99661 4.73115 -1.84128 93 98 112
-1.89448 4.90528 -1.84696 95 101 115
-1.74906 5.03637 -1.82898 91 101 112
-2.31596 4.28956 -1.84829 95 98 113
-2.21161 4.45725 -1.8545 92 98 112
-2.10076 4.60519 -1.85063 95 101 113
-1.87848 4.90951 -1.8477 95 101 115
-2.29482 4.2951 -1.84827 91 97 111
-2.19548 4.45536 -1.85208 95 98 113
-1.98153 4.73745 -1.84279 94 100 114
-1.7322 5.03654 -1.82823 93 103 115
-2.32259 4.22768 -1.84241 93 99 114
-2.27756 4.28818 -1.84333 92 100 113
-2.17812 4.44806 -1.84726 94 97 112
-2.07646 4.60269 -1.84748 91 99 112
-1.96458 4.73279 -1.83971 95 101 115
-1.86163 4.90819 -1.84618 94 102 115
-2.3089 4.23313 -1.84323 91 98 112
-2.06339 4.61657 -1.85215 93 99 111
-1.71687 5.04956 -1.83262 94 104 116
-2.29333 4.2315 -1.84072 96 102 116
-2.26415 4.29529 -1.84496 92 101 114
-2.15751 4.45844 -1.84964 95 102 115
-1.94082 4.73298 -1.83815 93 99 113
-1.83732 4.90979 -1.84541 94 102 115
-2.24345 4.30236 -1.84576 95 101 113
-2.04678 4.61419 -1.84979 93 99 113
-1.9254 4.7373 -1.8389 93 99 113
-1.69123 5.04319 -1.82893 95 103 117
-2.27246 4.23688 -1.8407 97 101 114
-2.14467 4.47066 -1.85364 93 101 114
-2.03133 4.61718 -1.84978 93 99 113
-1.82129 4.91384 -1.84614 95 102 117
-2.25692 4.23514 -1.8382 96 99 114
-2.23322 4.32173 -1.85313 95 101 113
-2.12778 4.46498 -1.84961 92 99 114
-1.90911 4.73611 -1.83735 94 100 114
-1.80472 4.91419 -1.84537 93 99 115
-2.24319 4.24039 -1.83901 93 96 113
-2.21738 4.31989 -1.85065 96 99 114
-2.1129 4.46819 -1.8496 92 99 115
-2.00893 4.62337 -1.85054 93 101 114
-1.8876 4.75065 -1.84193 93 101 112
-1.78867 4.91815 -1.84611 93 99 115
-2.22361 4.25085 -1.84148 93 99 113
-2.19475 4.31969 -1.84817 95 101 115
-2.0902 4.46933 -1.84797 91 99 113
-1.99309 4.62443 -1.84974 96 99 114
-2.2072 4.24541 -1.83732 93 101 114
-2.18118 4.32657 -1.8498 92 99 115
-2.07456 4.46884 -1.84635 92 100 113
-1.97617 4.62003 -1.8466 99 102 117
-1.87129 4.74934 -1.84038 94 102 115
-1.76434 4.91941 -1.84533 90 95 113
-2.19342 4.25052 -1.83813 94 101 115
-2.16363 4.31748 -1.84404 90 97 113
-1.85474 4.74614 -1.83806 94 101 117
-2.05891 4.4683 -1.84473 93 99 113
-1.95548 4.63502 -1.85126 95 99 114
-1.74777 4.91958 -1.84457 91 98 115
-2.17205 4.25369 -1.83728 92 98 112
-2.15091 4.32782 -1.8473 96 99 116
-1.83151 4.74949 -1.83804 90 99 112
-2.0388 4.48176 -1.84872 92 98 112
-1.93997 4.63773 -1.85125 93 99 113
-1.73336 4.93624 -1.85054 94 101 117
-2.15904 4.26224 -1.83976 92 100 114
-2.13129 4.33972 -1.85057 99 102 118
-1.92309 4.63316 -1.84811 92 100 113
-1.81575 4.75166 -1.83803 90 97 110
-2.14642 4.27253 -1.84306 94 100 114
-2.11384 4.33044 -1.84481 100 103 118
-2.02496 4.49008 -1.85111 92 98 112
-1.70804 4.92989 -1.84677 95 103 116
-2.01 4.49298 -1.8511 93 98 112
-1.80097 4.7611 -1.84108 91 97 113
-1.69146 4.92989 -1.84601 98 104 118
-2.13292 4.27924 -1.84471 91 97 111
-2.10099 4.34065 -1.84807 95 101 115
-1.90255 4.64975 -1.85355 91 99 112
-2.10788 4.26616 -1.83639 96 102 116
-2.078 4.33812 -1.84477 94 100 114
-1.9876 4.49545 -1.85027 93 99 113
-1.88569 4.64505 -1.85041 92 98 110
-1.77648 4.75505 -1.83722 95 101 116
-1.67619 4.94088 -1.84973 94 100 114
-1.97127 4.49103 -1.84705 92 99 112
-1.86887 4.64029 -1.84727 92 98 112
-1.7614 4.76255 -1.8395 93 99 113
-2.09594 4.27987 -1.84135 96 99 114
-2.06467 4.34645 -1.84722 92 98 114
-1.65116 4.93611 -1.84672 93 102 115
-2.04973 4.34763 -1.84638 96 99 115
-1.95664 4.49557 -1.84784 92 100 113
-1.74492 4.75901 -1.83719 92 100 113
-2.08315 4.28999 -1.84466 94 98 113
-1.94165 4.49827 -1.84782 91 99 112
-1.84723 4.65122 -1.85038 93 99 113
-1.7289 4.75909 -1.8364 91 101 113
-2.05863 4.27842 -1.83717 95 98 113
-2.02794 4.3502 -1.84554 93 99 113
-1.83106 4.64998 -1.8488 93 99 113
-1.91895 4.49862 -1.8462 90 98 111
-1.81401 4.64323 -1.84488 94 100 114
-2.04542 4.28667 -1.83964 96 99 114
-2.01225 4.34769 -1.84306 93 101 114
-1.70668 4.77104 -1.84021 93 100 116
-2.02889 4.27884 -1.83465 94 100 114
-1.99808 4.35227 -1.84387 93 99 113
-1.90522 4.50842 -1.84939 89 97 110
-1.79877 4.64734 -1.84564 91 101 113
-1.88989 4.50915 -1.84857 90 98 112
-1.69024 4.76733 -1.83789 94 100 115
-2.00995 4.29374 -1.83961 93 99 115
-1.98427 4.35861 -1.84549 94 100 114
-1.67421 4.76724 -1.83711 94 101 114
-1.99454 4.29115 -1.8371 92 100 113
-1.86567 4.50023 -1.84294 93 101 114
-1.77754 4.66161 -1.85031 94 102 115
-1.96279 4.36267 -1.84547 93 99 113
-1.76055 4.65468 -1.84639 94 102 115
-1.98086 4.29743 -1.83875 92 100 111
-1.94784 4.36353 -1.84464 91 97 111
-1.85126 4.50627 -1.84453 93 99 113
-1.65146 4.77529 -1.83939 95 105 117
-1.83568 4.50503 -1.84291 92 98 112
-1.74635 4.66593 -1.85027 90 100 112
-1.6347 4.76773 -1.83554 94 102 115
-1.96002 4.30321 -1.83956 94 100 114
-1.93291 4.36435 -1.8438 93 96 113
-1.94398 4.29687 -1.83539 98 101 116
-1.72201 4.65993 -1.84635 88 100 112
-1.61887 4.76931 -1.83552 92 102 114
-1.91073 4.36459 -1.84214 90 96 110
-1.81302 4.50489 -1.84128 90 96 110
-1.93024 4.30301 -1.83704 98 101 116
-1.89646 4.36888 -1.84294 94 100 114
-1.79967 4.51802 -1.84608 90 96 110
-1.70719 4.66742 -1.84867 91 100 112
-1.69032 4.66026 -1.84475 93 101 114
-1.59572 4.77344 -1.83626 91 101 113
-1.91679 4.31091 -1.83951 98 101 116
-1.88152 4.36955 -1.84211 95 101 115
-1.78597 4.52931 -1.85007 92 98 112
-1.57973 4.77306 -1.83548 93 101 114
-1.89651 4.31999 -1.84198 94 100 114
-1.86096 4.37853 -1.84455 94 102 115
-1.76904 4.5188 -1.84444 93 99 113
-1.66855 4.67226 -1.84864 93 99 113
-1.88052 4.31345 -1.83781 94 102 113
-1.84506 4.3737 -1.84125 94 102 115
-1.65125 4.66133 -1.84316 94 100 114
-1.74661 4.52017 -1.84362 94 100 114
-1.86698 4.3212 -1.84029 94 101 114
-1.83044 4.376 -1.84124 94 102 115
-1.7313 4.52042 -1.8428 95 101 117
-1.63798 4.68141 -1.85095 95 101 115
-1.84513 4.32109 -1.83861 96 101 117
-1.71601 4.52063 -1.84198 95 100 115
-1.81008 4.38657 -1.8445 93 101 116
-1.61467 4.68222 -1.85014 94 100 114
-1.83038 4.32156 -1.83776 93 101 114
-1.79423 4.38157 -1.8412 92 98 112
-1.81535 4.32019 -1.83609 91 99 112
-1.69454 4.52903 -1.84437 93 99 113
-1.5977 4.67294 -1.84544 92 99 115
-1.78016 4.38732 -1.84283 92 97 111
-1.67923 4.52912 -1.84355 93 99 113
-1.58228 4.67642 -1.84621 93 101 114
-1.79327 4.31805 -1.83358 88 98 110
-1.76605 4.39303 -1.84445 92 97 112
-1.66505 4.53826 -1.84674 94 100 115
-1.56644 4.67619 -1.84541 93 101 114
-1.77989 4.32736 -1.83688 88 100 112
-1.74471 4.39792 -1.84525 92 100 113
-1.64171 4.53188 -1.84271 92 102 114
-1.76646 4.33664 -1.84018 90 97 113
-1.54357 4.68033 -1.84617 94 100 114
-1.75094 4.33147 -1.83685 94 97 114
-1.73001 4.39993 -1.84523 96 102 116
-1.62703 4.53728 -1.8443 91 101 113
-1.71477 4.39828 -1.84358 96 99 114
-1.61153 4.53534 -1.84268 92 100 115
-1.7301 4.33804 -1.83849 92 100 115
-1.71535 4.33816 -1.83764 93 101 114
-1.69336 4.40294 -1.84438 92 98 112
-1.58928 4.53782 -1.84266 91 101 113
-1.67716 4.39395 -1.83944 91 99 112
-1.70014 4.33463 -1.83514 93 101 114
-1.57342 4.53213 -1.83944 92 102 114
-1.66246 4.39575 -1.83942 90 100 112
-1.67811 4.33195 -1.83263 93 100 113
-1.55907 4.54097 -1.84263 93 99 115
-1.64105 4.40018 -1.84022 93 103 115
-1.66406 4.33734 -1.83427 90 98 111
-1.54448 4.54795 -1.84501 95 98 115
-1.62681 4.4055 -1.84185 92 100 113
-1.64955 4.33907 -1.83425 90 100 112
-1.6123 4.40896 -1.84265 93 100 113
-1.52167 4.54465 -1.84259 91 98 114
-1.62756 4.33616 -1.83175 90 100 112
-1.59646 4.40152 -1.83853 92 100 113
-1.50654 4.54605 -1.84257 92 101 113
-1.61386 4.34501 -1.83505 91 101 113
-1.49109 4.54375 -1.84095 92 102 112
-1.57459 4.40203 -1.83769 91 101 113
-1.59816 4.33574 -1.83005 93 101 114
-1.56068 4.41078 -1.84096 91 99 115
-1.5783 4.3525 -1.83667 92 102 114
-1.54613 4.41405 -1.84176 93 99 115
-1.56392 4.35578 -1.83748 91 101 113
-1.54866 4.34997 -1.83415 93 103 115
-1.52423 4.41434 -1.84092 92 98 112
-1.50946 4.41569 -1.8409 93 101 114
-1.53411 4.35136 -1.83413 95 103 116
-1.49435 4.41336 -1.83925 93 101 114
-1.51285 4.35517 -1.83494 92 99 114
-1.47264 4.41524 -1.83923 89 97 110
-1.49799 4.35282 -1.83327 91 99 112
-1.48298 4.34862 -1.83076 92 100 113
-1.45869 4.42551 -1.84331 89 98 111
-1.44326 4.4194 -1.84001 92 100 113
-1.46212 4.35765 -1.83406 91 101 113
-1.44742 4.35696 -1.83321 89 101 113
-1.43259 4.35442 -1.83154 93 103 115
-4.09669 -7.29253 0.481541 94 83 74
-4.11037 -7.2645 0.48093 92 76 73
-4.14095 -7.24092 0.480723 104 86 78
-4.16665 -7.23568 0.480993 94 78 72
-4.19619 -7.23738 0.481533 88 77 75
-4.23344 -7.25297 0.482615 93 82 80
-4.09462 -7.31462 0.451991 108 103 72
-4.10922 -7.26119 0.45078 93 81 77
-4.12828 -7.24373 0.450598 101 86 79
-4.15207 -7.23499 0.450717 96 81 73
-4.18064 -7.23492 0.451138 99 86 78
-4.22836 -7.24245 0.452039 90 79 76
-5.50734 -13.1383 0.681602 133 102 77
-5.53039 -13.019 0.678135 158 121 94
-5.52538 -12.8913 0.674063 153 116 87
-5.52265 -12.7712 0.670262 153 114 85
-5.56272 -12.7565 0.670323 154 119 86
-5.63432 -12.7609 0.671395 130 105 80
-5.68212 -12.7642 0.672133 117 103 78
-5.72845 -12.7637 0.672736 107 101 72
-5.8004 -12.7671 0.673808 104 101 69
-5.84286 -12.757 0.674072 92 91 63
-5.89658 -12.7724 0.675284 100 104 73
-5.96564 -12.7676 0.676085 93 95 66
-6.01227 -12.766 0.676688 96 92 59
-6.05566 -12.757 0.67702 94 91 51
-6.17532 -12.915 0.683582 88 88 59
-6.34087 -12.9053 0.685656 94 95 61
-6.63552 -12.903 0.689947 112 111 60
-4.11152 -7.30226 0.389862 120 106 53
-4.12713 -7.27776 0.389543 145 126 68
-4.14354 -7.25499 0.38927 131 112 71
-4.18635 -7.25423 0.389718 94 79 61
-4.22165 -7.26648 0.39035 105 88 77
-5.52318 -13.0566 0.62765 146 111 83
-5.52021 -12.9346 0.6242 148 111 84
-5.52416 -12.8313 0.621354 151 113 86
-5.56982 -12.7732 0.620254 157 118 87
-5.61061 -12.7602 0.620368 149 114 85
-5.66155 -12.7709 0.621266 119 96 71
-5.70551 -12.7649 0.621621 104 94 76
-5.77348 -12.7593 0.622274 101 99 81
-5.82712 -12.7748 0.623354 89 89 69
-7.23216 -14.9237 0.76042 98 100 63
-7.26779 -14.7007 0.754101 96 96 70
-7.31831 -14.6894 0.754499 102 103 68
-5.87283 -12.7719 0.62383 91 87 64
-5.94513 -12.7745 0.624784 95 96 69
-5.99261 -12.7748 0.625381 84 84 58
-6.0418 -12.7785 0.626098 100 98 64
-7.56634 -15.769 0.791172 82 82 52
-7.60731 -14.7599 0.76096 110 105 75
-7.55178 -14.5348 0.753302 118 112 66
-7.66081 -15.1019 0.772148 87 90 61
-7.67136 -14.4913 0.753822 110 105 76
-7.73339 -14.5017 0.755101 102 106 63
-7.91426 -14.6842 0.763414 88 85 55
-6.31402 -12.8978 0.632827 103 109 69
-4.08598 -7.26631 0.357037 103 94 52
-4.0957 -7.23138 0.356548 136 126 62
-4.12793 -7.21149 0.356506 131 117 71
-8.47334 -14.7375 0.774036 124 112 61
-4.15643 -7.21161 0.356767 129 119 65
-8.50999 -14.6959 0.773419 124 116 52
-9.07384 -7.29094 0.592206 101 105 86
-9.09951 -7.24253 0.591868 71 66 50
-9.11518 -7.20938 0.5916 85 75 65
-9.14474 -7.18745 0.59194 78 72 60
-9.17581 -7.16664 0.592347 86 80 65
-6.96068 -14.6757 0.689786 99 101 73
-4.19649 -7.23262 0.357477 136 128 61
-8.59902 -14.6933 0.774827 109 94 59
-8.63837 -14.6565 0.774414 119 105 79
-8.91633 -14.8733 0.785492 129 120 78
-7.0845 -14.7635 0.693756 99 95 71
-7.05706 -14.5865 0.688556 99 94 73
-8.97229 -14.8632 0.786161 104 91 60
-8.96431 -14.7446 0.782567 124 102 86
-9.13939 -14.9352 0.791154 91 74 60
-9.3035 -15.0506 0.797366 90 68 59
-7.28522 -14.7741 0.696622 92 90 60
-7.43228 -14.9625 0.703676 101 99 72
-7.34941 -14.5024 0.690072 96 93 75
-7.47662 -14.6465 0.695677 91 95 59
-7.51638 -14.613 0.695306 97 96 66
-9.35406 -15.0289 0.797629 96 75 59
-7.68365 -14.8328 0.703506 93 92 60
-7.70142 -14.5856 0.697086 109 105 76
-7.59206 -14.264 0.686939 113 112 70
-7.8298 -14.5567 0.69809 79 74 45
-10.0296 -15.8652 0.833739 109 91 69
-10.0943 -15.8598 0.834746 121 110 72
-10.1666 -15.8661 0.836226 115 110 63
-7.94549 -14.6671 0.702669 107 101 73
-7.99045 -12.9042 0.656979 107 83 73
-10.2964 -15.9633 0.84136 110 99 66
-10.4167 -15.9882 0.844256 97 78 64
-10.1582 -15.3697 0.821916 76 64 53
-10.5033 -15.743 0.838883 116 103 85
-10.4254 -15.413 0.828112 105 101 77
-9.09889 -7.28223 0.55059 69 74 62
-9.09749 -7.23529 0.549689 66 68 55
-9.11307 -7.20215 0.54945 77 68 62
-9.1395 -7.17767 0.549632 81 72 65
-8.33973 -13.1579 0.66902 101 85 62
-8.28978 -12.8986 0.661589 113 103 64
-11.1068 -16.9574 0.8845 127 108 96
-10.8344 -15.3992 0.835506 107 96 64
-10.8239 -15.282 0.83205 110 98 76
-10.8733 -15.2519 0.832178 87 75 61
-9.19436 -7.15249 0.550475 77 75 64
-4.09496 -7.25304 0.324236 115 102 69
-4.12278 -7.22423 0.324057 138 125 74
-8.83393 -15.4121 0.735242 99 86 57
-4.14662 -7.21554 0.324115 96 85 57
-4.17423 -7.21379 0.324289 121 118 69
-8.6588 -14.7225 0.714519 97 91 61
-11.3623 -16.947 0.888933 98 96 67
-8.74682 -12.905 0.669259 103 97 72
-8.88756 -12.899 0.671475 120 111 70
-11.3652 -12.9435 0.780943 94 92 54
-13.3564 -7.00453 0.709535 65 65 65
-13.3281 -6.9368 0.707649 61 63 62
-4.21334 -7.233 0.324816 117 113 68
-8.89658 -14.8681 0.721918 110 89 72
-8.96472 -14.8787 0.723237 92 75 65
-9.20809 -15.0773 0.732149 112 94 77
-9.26011 -14.9006 0.728388 123 104 91
-11.7932 -17.0776 0.900731 121 111 74
-12.0572 -16.783 0.897635 108 95 82
-11.7233 -16.2013 0.875038 91 81 70
-11.7698 -16.1602 0.874828 93 88 68
-11.9034 -16.1866 0.878197 100 92 74
-11.9894 -15.731 0.86754 105 99 55
-12.0187 -15.6684 0.866451 125 108 80
-12.0566 -15.5665 0.864479 119 105 78
-12.0334 -15.0921 0.851331 93 75 75
-13.1795 -7.41452 0.710718 136 121 108
-13.1967 -7.37049 0.71052 91 93 79
-13.2514 -7.32047 0.711333 85 86 77
-13.8203 -7.33341 0.728575 70 79 76
-13.7751 -6.87576 0.720301 62 63 66
-14.6621 -6.54232 0.74292 79 75 60
-14.802 -6.41298 0.745572 91 88 69
-14.7626 -6.34127 0.743417 100 99 71
-14.666 -6.24539 0.739169 95 79 50
-5.51094 -13.137 0.523307 140 114 78
-5.52248 -13.0481 0.521532 141 105 80
-5.53737 -12.9103 0.518756 150 111 82
-5.54386 -12.8123 0.516756 152 113 83
-5.57871 -12.7847 0.516476 155 118 89
-5.6512 -12.7909 0.517234 122 99 73
-5.69754 -12.7906 0.517633 105 94 72
-9.4092 -14.7818 0.727696 119 107 69
-12.25 -16.5591 0.895299 108 102 78
-12.3058 -16.5276 0.895562 93 94 54
-12.3793 -16.5202 0.89684 98 98 60
-12.3157 -16.2733 0.888848 106 106 65
-12.6613 -16.2578 0.895509 116 94 80
-12.7538 -15.6587 0.881531 97 87 62
-12.6705 -15.4558 0.874426 102 96 68
-12.6327 -15.311 0.869823 107 99 67
-12.4093 -12.6484 0.797639 106 102 63
-15.0927 -6.87798 0.760805 146 138 135
-14.6878 -6.60873 0.744602 89 83 75
-14.8812 -6.50274 0.749211 91 83 65
-5.74236 -12.7864 0.517943 95 88 59
-5.79666 -12.8041 0.518796 94 85 55
-5.86413 -12.7963 0.519236 94 82 57
-5.91232 -12.7988 0.519727 114 109 85
-5.96057 -12.8012 0.520217 114 110 84
-9.91603 -12.9011 0.689646 101 75 66
-13.2011 -16.8553 0.922684 109 77 76
-12.8444 -15.9244 0.890467 130 104 97
-13.3625 -15.606 0.893311 116 113 65
-13.3848 -15.5341 0.891953 104 105 58
-13.1541 -15.1657 0.877414 92 87 49
-13.3561 -15.1616 0.881793 94 96 51
-13.2926 -14.9937 0.87611 102 103 58
-12.932 -14.4428 0.854065 94 92 47
-6.03556 -12.8089 0.521065 96 87 72
-6.07332 -12.7871 0.520967 106 96 73
-10.2611 -15.8716 0.769228 122 111 75
-10.5363 -16.0838 0.779101 103 84 66
-10.2404 -15.5181 0.759917 93 85 64
-14.4006 -21.0765 1.06234 100 83 67
-13.6434 -16.4014 0.920043 112 94 72
-13.6978 -16.3637 0.92024 106 98 68
-13.6133 -16.1581 0.913068 106 98 63
-13.5659 -15.9993 0.907924 107 99 63
-13.7393 -15.2643 0.892994 150 135 76
-14.0866 -15.4616 0.905826 163 153 89
-14.0499 -15.1806 0.897971 78 86 52
-10.7876 -16.1963 0.786074 108 99 78
-10.8772 -16.2231 0.788236 101 96 67
-10.9062 -15.3183 0.766156 97 88 78
-10.9082 -15.1699 0.762526 108 101 80
-15.283 -19.4368 1.03492 103 65 67
-11.1208 -13.1728 0.718736 112 101 68
-11.0971 -13.0618 0.715718 114 102 68
-11.1319 -12.9798 0.714505 103 98 50
-11.129 -12.8952 0.712512 99 94 52
-11.1218 -12.8062 0.710339 91 87 50
-14.1597 -15.6409 0.911982 167 149 80
-14.2255 -15.47 0.909196 103 111 70
-14.2276 -15.2799 0.904523 92 103 69
-14.3621 -15.0926 0.903018 103 111 66
-14.6944 -15.3028 0.915917 111 119 62
-14.6631 -15.1747 0.91206 103 114 56
-14.5284 -14.7082 0.897582 89 80 33
-14.5792 -14.6688 0.897848 102 100 49
-14.7534 -14.7544 0.904062 135 128 77
-14.9191 -14.7833 0.908716 89 86 42
-14.3675 -13.9214 0.874983 111 106 60
-11.4055 -16.7397 0.810041 102 84 68
-11.4092 -16.2496 0.797883 106 92 79
-11.1929 -12.7682 0.710873 99 102 56
-11.2662 -12.7727 0.712436 94 99 57
-11.3357 -12.7725 0.713818 99 108 73
-11.432 -12.7617 0.715497 127 121 64
-11.5124 -12.7726 0.717361 164 145 84
-11.5836 -12.7727 0.718803 110 110 47
-15.095 -16.0743 0.944186 92 94 67
-14.9962 -15.868 0.936815 95 98 66
-14.9931 -15.4249 0.925911 104 103 60
-15.0607 -14.8329 0.913308 103 101 48
-15.0794 -14.7594 0.912021 113 106 54
-15.1546 -14.6042 0.910185 89 91 44
-15.4202 -14.7714 0.920588 114 117 70
-15.5306 -14.7396 0.922539 100 102 52
-15.5889 -14.7037 0.923145 83 81 43
-15.7269 -14.7433 0.927466 85 88 45
-15.4404 -14.3358 0.910972 98 92 59
-15.5472 -14.3464 0.913875 87 80 26
-15.8357 -14.5252 0.925156 147 133 70
-13.2171 -7.37881 0.6562 65 66 55
-13.2568 -7.34731 0.656806 84 88 75
-13.341 -6.96728 0.653765 58 60 57
-13.7202 -6.92377 0.66341 65 66 68
-13.7429 -6.88184 0.663476 62 62 64
-19.1721 -7.45271 0.89597 128 116 95
-19.2691 -7.42161 0.89868 94 91 61
-19.3269 -7.27136 0.898762 76 70 57
-19.2356 -7.06584 0.893509 81 74 58
-11.7884 -17.0806 0.825037 115 97 75
-11.8186 -17.0112 0.823823 90 75 53
-11.9892 -16.5879 0.816293 98 92 67
-11.9204 -16.3836 0.810076 100 95 65
-11.8056 -16.0645 0.800236 91 87 72
-11.8858 -16.07 0.801796 94 89 70
-11.9658 -15.9707 0.800816 97 97 59
-12.058 -15.8363 0.799229 105 93 72
-12.0845 -15.6174 0.794448 105 73 73
-12.0961 -15.5324 0.792633 106 73 73
-12.0804 -15.4128 0.789493 109 75 73
-11.9836 -15.141 0.781224 124 80 74
-11.987 -15.0489 0.779108 128 78 76
-12.0458 -15.0275 0.779705 123 77 79
-16.4413 -14.7606 0.945683 90 84 62
-16.3488 -14.5849 0.939397 103 90 81
-16.4508 -14.5391 0.940944 101 82 75
-16.4418 -14.4401 0.93851 108 90 82
-16.8046 -13.0428 0.918001 80 85 71
-16.8147 -12.9671 0.916717 66 72 58
-16.84 -12.8616 0.915227 103 109 90
-16.8873 -12.8151 0.915565 95 94 74
-16.9664 -12.7928 0.917254 98 93 79
-13.785 -7.33643 0.670727 72 78 75
-13.7142 -7.21684 0.667179 63 62 65
-14.6424 -6.55306 0.683995 86 89 68
-14.7224 -6.53407 0.685987 92 95 67
-14.8693 -6.51641 0.689842 85 81 55
-14.8449 -6.45081 0.688404 92 91 63
-14.8018 -6.3775 0.686364 89 83 57
-5.46289 -12.9387 0.464709 142 105 80
-6.96356 -14.6389 0.567497 97 88 57
-6.92853 -14.2669 0.559506 90 78 57
-12.4627 -16.7517 0.828673 109 107 70
-12.5687 -15.4402 0.799273 119 78 74
-12.6364 -15.4262 0.800231 115 74 68
-12.4661 -12.7275 0.736042 174 158 95
-15.0994 -6.89914 0.700774 94 88 94
-23.9624 -7.68516 1.05192 67 69 55
-23.9932 -7.61247 1.0522 124 112 101
-24.4243 -7.5404 1.06546 81 76 61
-24.3382 -7.43038 1.06162 141 129 114
-23.8942 -7.17147 1.04474 74 80 70
-24.3386 -7.22287 1.05968 75 80 73
-24.3718 -7.14993 1.0601 50 58 59
-5.49656 -12.8495 0.463382 146 110 83
-5.51556 -12.7832 0.462361 152 117 89
-5.54491 -12.7428 0.461865 150 117 86
-5.61801 -12.751 0.462528 129 101 77
-5.66112 -12.7434 0.462707 107 91 71
-5.70973 -12.7485 0.46315 93 84 71
-5.75604 -12.748 0.46348 87 75 62
-7.26668 -15.1173 0.580202 88 78 53
-7.31084 -14.8483 0.575104 86 78 46
-7.49024 -15.0458 0.580883 116 102 75
-7.28247 -14.4955 0.567613 109 100 79
-7.28526 -14.3872 0.565432 85 83 65
-7.32749 -14.3037 0.564151 94 94 60
-7.38843 -14.3155 0.565002 88 83 61
-7.38358 -12.9166 0.536891 84 72 54
-13.1949 -16.3753 0.833092 122 79 76
-13.635 -16.3978 0.841972 108 77 67
-13.237 -12.4729 0.747259 115 109 71
-13.3043 -12.4593 0.748461 100 100 55
-18.6309 -15.4812 1.01773 78 80 49
-18.7319 -15.4183 1.01901 159 146 123
-30.2542 -6.66348 1.2496 110 102 101
-30.3307 -6.58085 1.25157 107 106 91
-30.3133 -6.47767 1.2503 116 119 67
-34.1195 -5.35812 1.37074 111 115 45
-5.82564 -12.7458 0.463955 87 75 60
-5.87208 -12.7448 0.464285 104 99 80
-5.92344 -12.7546 0.46484 103 103 72
-5.99086 -12.7461 0.465202 86 82 64
-7.5683 -14.5649 0.571871 108 102 67
-7.72346 -14.5908 0.573975 92 78 49
-7.69181 -14.418 0.570166 110 108 60
-7.76196 -14.4443 0.571424 99 91 56
-7.99111 -12.9083 0.543594 128 104 94
-13.8321 -16.5326 0.848894 99 83 63
-14.0784 -15.4606 0.829344 145 129 75
-14.266 -15.5221 0.834514 91 89 47
-14.2315 -15.3879 0.830834 93 99 65
-14.417 -15.4936 0.836973 91 93 58
-14.3883 -15.3181 0.832505 83 87 49
-14.2402 -15.0648 0.823887 82 90 56
-14.3507 -14.0467 0.804312 107 113 67
-19.4377 -17.7613 1.08893 90 80 23
-19.5807 -17.7256 1.09169 132 120 72
-19.965 -17.463 1.09552 119 101 89
-20.1364 -17.4485 1.09956 122 113 85
-20.2761 -17.4604 1.10341 109 104 68
-20.1336 -17.2273 1.09462 102 93 61
-19.9488 -16.9601 1.08401 70 65 42
-19.9835 -16.8292 1.08205 73 74 37
-20.0293 -16.7617 1.08177 84 79 49
-20.3068 -16.6224 1.08602 136 118 94
-9.13899 -7.29625 0.464406 96 97 81
-9.13206 -7.22122 0.463233 82 76 55
-9.15231 -7.19179 0.463189 87 82 66
-9.19903 -7.18351 0.463912 83 77 61
-9.23637 -7.16754 0.464365 79 76 57
-29.3848 -7.39431 1.22632 96 88 78
-29.4262 -7.25787 1.2266 106 98 85
-29.1803 -7.10002 1.21729 113 97 62
-29.3996 -7.05622 1.2242 133 116 59
-30.2965 -7.02212 1.25354 106 104 106
-30.3876 -6.94312 1.25599 83 89 86
-30.3587 -6.78643 1.25391 113 103 98
-33.556 -6.7904 1.35999 102 108 70
-33.9687 -6.70813 1.37318 108 110 71
-43.8558 -4.93325 1.69598 149 147 40
-44.0012 -4.80983 1.70047 129 128 36
-43.9497 -4.66456 1.69826 110 115 52
-5.96313 -14.3095 0.492121 120 90 54
-6.03582 -12.7409 0.465457 104 98 76
-8.13111 -12.9138 0.545339 118 95 79
-8.1844 -12.9111 0.545921 130 110 93
-8.25696 -12.894 0.546452 107 88 74
-8.3114 -12.8925 0.547079 122 106 90
-8.36168 -12.884 0.547525 112 97 74
-14.5114 -15.2592 0.83376 104 109 77
-14.6071 -15.2176 0.834835 99 116 65
-14.7949 -15.3195 0.840974 87 90 46
-14.6896 -15.1152 0.834344 99 102 57
-14.6743 -14.7739 0.826676 142 126 68
-14.6537 -14.6616 0.823841 186 166 113
-15.1231 -14.9946 0.840937 99 107 67
-14.4787 -14.0412 0.806954 109 113 67
-14.7619 -14.1413 0.815198 103 99 62
-21.615 -16.2321 1.1128 100 93 74
-21.783 -16.2003 1.11671 95 93 70
-21.1619 -15.632 1.08841 91 79 63
-21.1362 -15.5113 1.0853 97 92 73
-21.9411 -15.9496 1.11603 91 88 69
-21.8449 -15.7752 1.10995 94 95 80
-22.1702 -15.9072 1.1215 65 67 53
-22.1904 -15.7648 1.11927 104 104 84
-22.2162 -15.6792 1.11832 77 79 57
-22.4863 -15.7666 1.12751 73 74 54
-22.5626 -15.7159 1.12865 95 95 73
-22.2501 -15.3421 1.11278 87 85 65
-22.1938 -15.201 1.10852 93 94 64
-22.318 -15.1847 1.1117 83 83 56
-22.3074 -15.025 1.10839 88 93 57
-22.4083 -14.9922 1.11062 85 95 61
-22.5241 -14.9688 1.11345 83 92 70
-22.7517 -14.968 1.11987 83 90 65
-22.7126 -14.8408 1.11642 87 100 78
-22.673 -14.7141 1.11298 68 78 60
-23.3045 -14.4134 1.12568 77 71 63
-19.2076 -7.16374 0.818666 81 75 60
-38.9664 -7.00407 1.54141 81 83 45
-39.3141 -6.62203 1.55093 95 98 58
-44.3354 -6.18974 1.71703 120 117 63
-43.9575 -5.92577 1.70321 99 102 46
-43.5792 -5.73526 1.68972 102 94 39
-44.4873 -5.71338 1.72014 122 106 46
-44.4375 -5.4943 1.7176 113 108 28
-43.748 -5.26919 1.69357 126 124 38
-43.7972 -5.13567 1.69474 117 118 29
-48.0886 -4.95388 1.83864 111 121 57
-48.2159 -4.73755 1.84224 122 127 65
-8.5937 -14.9532 0.590474 110 98 63
-8.63298 -14.9147 0.590149 137 123 82
-8.58769 -14.7265 0.585934 130 108 81
-8.62849 -14.6384 0.584654 152 128 94
-8.4461 -12.8845 0.548553 132 104 89
-8.49862 -12.8789 0.54909 134 109 86
-8.56202 -12.8899 0.550078 108 88 66
-8.61034 -12.8771 0.550434 130 112 88
-8.69418 -12.8743 0.551417 108 95 69
-8.75026 -12.8728 0.552089 109 95 74
-8.8075 -12.8726 0.552806 107 101 78
-15.5621 -15.3377 0.857615 95 99 62
-15.6685 -15.1106 0.855129 107 106 60
-15.6951 -14.9493 0.852351 78 75 37
-15.6302 -14.5658 0.843002 100 90 50
-15.9246 -14.7037 0.852327 111 111 56
-15.4811 -14.2025 0.832272 126 127 78
-15.9399 -14.5356 0.84925 92 90 34
-24.1437 -15.5692 1.17045 52 54 37
-24.0412 -15.3435 1.16343 105 106 71
-23.8392 -15.1092 1.15343 101 108 78
-23.7642 -14.9577 1.14857 98 104 86
-23.441 -14.5998 1.1329 67 65 52
-24.1284 -14.823 1.15668 79 86 76
-24.4594 -14.8703 1.16708 76 77 63
-23.7184 -14.3154 1.13595 132 119 103
-23.8547 -14.297 1.1396 206 184 162
-24.2361 -14.4246 1.1529 160 137 120
-24.1414 -14.2151 1.14656 131 109 96
-24.0474 -14.0584 1.14116 108 94 78
-24.063 -13.9671 1.14008 77 75 64
-24.1103 -13.8441 1.1394 58 56 57
-24.281 -13.8422 1.1444 52 48 47
-25.782 -14.2276 1.19513 88 92 78
-25.2923 -13.8527 1.17454 56 56 46
-25.2003 -13.6488 1.16853 90 83 73
-24.9453 -13.4093 1.15712 130 115 100
-25.5784 -13.2919 1.17429 62 62 59
-25.7486 -13.279 1.17922 63 61 63
-26.16 -13.3376 1.19253 81 86 81
-26.0835 -13.1959 1.18808 52 55 53
-19.2177 -7.47624 0.822187 93 78 59
-19.147 -7.38014 0.819186 80 80 53
-19.2162 -7.30369 0.820335 88 90 65
-19.2775 -7.2583 0.821607 90 85 69
-39.6986 -7.39374 1.56806 91 94 69
-44.5634 -7.87075 1.73303 88 94 59
-43.7628 -7.51643 1.70433 109 112 80
-43.7109 -7.22535 1.70107 87 88 48
-43.9348 -7.05016 1.70764 96 99 55
-43.7358 -6.73675 1.69944 103 102 46
-43.6378 -6.51134 1.69507 98 97 45
-45.5559 -6.65282 1.76003 136 129 73
-45.4788 -6.49578 1.75674 106 104 47
-6.63502 -13.945 0.490694 110 101 77
-8.93378 -14.9575 0.59436 117 91 66
-8.96806 -14.8561 0.592763 116 98 70
-8.96011 -14.7374 0.590359 104 86 63
-8.88838 -12.8637 0.553654 122 104 81
-8.95699 -12.8795 0.554823 115 100 69
-9.01679 -12.8818 0.555631 105 90 72
-9.10032 -12.8749 0.556569 105 92 71
-9.1683 -12.8882 0.557693 90 82 57
-9.22275 -12.8814 0.558275 91 81 72
-16.3579 -14.5964 0.859834 91 81 54
-16.4466 -14.5385 0.860669 139 120 106
-16.5273 -14.5191 0.862112 132 113 99
-16.5865 -14.1653 0.856498 109 93 49
-16.6727 -14.1499 0.858182 92 84 53
-16.7871 -13.717 0.852504 137 124 105
-16.8313 -12.9854 0.839906 69 67 52
-16.8598 -12.8823 0.838698 94 88 73
-16.9089 -12.837 0.839058 97 91 76
-16.9913 -12.8169 0.840683 87 78 63
-27.9084 -13.7437 1.25164 68 68 62
-28.6066 -13.9787 1.27636 74 73 79
-28.6048 -13.8119 1.27386 64 67 71
-28.5554 -13.678 1.27042 121 119 133
-28.6424 -13.6101 1.27212 117 115 127
-28.5542 -13.4588 1.26726 176 171 172
-28.5802 -13.3075 1.26592 95 85 96
-28.65 -13.2314 1.267 93 92 97
-44.4467 -8.64355 1.73366 89 95 61
-44.9764 -8.23538 1.74886 96 100 68
-6.87975 -14.3028 0.498706 92 80 63
-6.95513 -14.3489 0.500085 95 85 66
-4.08215 -7.2695 0.257776 108 103 72
-4.09933 -7.24855 0.25771 91 76 48
-4.11737 -7.22932 0.257658 120 106 66
-4.14757 -7.20563 0.257615 113 104 61
-4.19159 -7.23346 0.257912 126 114 62
-9.11871 -14.9007 0.595369 101 84 65
-9.28526 -12.8858 0.559173 114 100 80
-9.36699 -12.8741 0.560021 100 90 61
-9.43437 -12.8844 0.5611 108 102 72
-9.51355 -12.9107 0.56263 99 90 72
-9.5934 -12.8943 0.563388 95 89 59
-9.64597 -12.8826 0.563879 92 84 65
-18.5092 -15.3743 0.924276 100 95 64
-18.5082 -15.2278 0.921439 87 76 52
-24.0414 -7.62049 0.96117 104 90 77
-24.3396 -7.50606 0.968772 108 97 81
-24.2341 -7.39075 0.96475 61 53 47
-23.9441 -7.17989 0.954588 66 76 68
-24.3319 -7.21315 0.966093 66 67 60
-49.0264 -9.37823 1.89055 93 99 69
-5.27899 -12.7248 0.404535 150 73 72
-5.32701 -12.7313 0.404881 145 83 73
-5.39369 -12.7259 0.405163 150 113 90
-5.43966 -12.7264 0.40542 154 121 96
-7.24003 -14.3177 0.501834 87 78 58
-7.31278 -14.2973 0.502082 96 93 53
-9.79154 -12.9133 0.566398 88 77 57
-19.5851 -17.716 0.99496 56 53 28
-19.714 -17.722 0.997966 95 93 61
-19.8036 -17.037 0.986369 114 110 67
-18.8107 -15.8249 0.939934 91 86 51
-19.1127 -15.5295 0.941301 118 110 95
-45.971 -12.2839 1.81072 147 146 142
-46.1337 -12.0952 1.81445 85 89 69
-51.1089 -13.2331 1.98704 124 126 90
-48.7817 -12.4655 1.90439 100 93 68
-29.1699 -7.07771 1.10619 133 123 55
-29.3992 -7.03586 1.11264 135 126 52
-30.2842 -6.64806 1.13619 79 74 46
-30.3295 -6.55851 1.13698 101 102 58
-5.4849 -12.7249 0.405649 152 116 90
-5.55403 -12.7242 0.406019 152 113 85
-5.59863 -12.7204 0.406218 137 91 67
-5.64711 -12.7257 0.406563 123 68 58
-5.69413 -12.7271 0.40685 89 36 34
-7.36258 -14.9779 0.514017 102 85 70
-7.40367 -14.885 0.512764 94 80 64
-7.5289 -14.6202 0.509309 92 84 65
-7.55782 -14.5652 0.508625 106 95 72
-7.6794 -14.3066 0.505322 129 124 67
-7.71982 -14.2221 0.504259 113 99 66
-10.1821 -16.4013 0.63685 104 80 62
-20.0328 -17.5086 1.00089 132 112 98
-20.1443 -17.4411 1.00209 77 72 43
-20.1126 -16.8195 0.989239 99 91 58
-9.061 -7.22061 0.417561 105 112 79
-9.08938 -7.17491 0.417448 87 86 65
-21.4566 -16.6797 1.01815 78 77 49
-9.12198 -7.15557 0.41771 90 91 59
-9.15296 -7.13486 0.417936 72 72 48
-21.09 -15.77 0.99279 85 82 64
-21.1659 -15.7245 0.993812 80 73 65
-21.1324 -15.5977 0.990741 83 83 71
-21.2255 -15.5649 0.992425 84 85 70
-21.3172 -15.4795 0.993142 91 85 68
-22.0225 -15.17 1.00517 76 76 60
-22.3784 -12.9718 0.979114 72 58 49
-22.4003 -12.8449 0.977789 65 64 64
-22.4327 -12.7709 0.977551 104 97 90
-41.6164 -17.3104 1.72433 88 83 63
-42.0345 -17.2537 1.7367 105 107 72
-42.9474 -17.4728 1.76811 91 93 66
-42.3236 -17.0638 1.7434 93 97 77
-42.5318 -16.9935 1.74909 92 88 82
-42.3653 -16.6962 1.74018 87 74 65
-46.0886 -16.6836 1.85811 79 78 57
-46.0742 -16.5152 1.85576 75 73 53
-46.0602 -16.2662 1.85253 84 86 65
-46.2458 -16.1692 1.85741 73 78 60
-45.2277 -15.6532 1.8192 78 73 65
-46.7947 -15.9514 1.87263 91 81 66
-45.9414 -15.499 1.84043 94 86 66
-45.7333 -15.2691 1.83132 93 88 68
-45.7602 -15.0393 1.82978 78 74 66
-47.0688 -15.3076 1.87471 97 88 83
-50.7293 -14.674 1.98716 70 77 69
-51.9837 -14.8615 2.02973 72 75 69
-52.3385 -14.7859 2.04063 70 72 69
-50.9531 -14.2209 1.99039 67 72 68
-51.0282 -13.9835 1.99075 74 81 76
-51.2175 -13.863 1.9959 65 73 77
-29.3845 -7.3247 1.11417 121 115 92
-29.4493 -7.24299 1.11551 132 122 86
-30.4337 -6.78075 1.14141 124 112 90
-33.9233 -6.94466 1.24538 92 105 67
-33.8148 -6.8122 1.24142 85 92 59
-34.4774 -6.77674 1.26082 91 102 67
-5.76124 -12.7197 0.407133 102 38 37
-5.80837 -12.7207 0.40742 102 41 40
-5.85637 -12.7234 0.407736 108 53 52
-5.92366 -12.7151 0.408019 98 62 46
-5.97424 -12.7228 0.408423 101 68 58
-7.95461 -15.0623 0.520297 86 86 51
-7.71043 -14.4754 0.508405 129 117 72
-10.7647 -13.0058 0.581582 123 83 79
-11.1453 -13.1802 0.590097 90 82 65
-11.127 -13.0752 0.588015 106 99 79
-11.1696 -13.0022 0.587374 88 77 58
-11.1683 -12.9189 0.585925 91 80 59
-11.1549 -12.822 0.584069 108 97 76
-11.1982 -12.7921 0.584201 123 110 79
-11.2941 -12.7826 0.585456 147 125 71
-22.2383 -15.9404 1.02378 87 87 77
-22.4084 -15.9045 1.02732 69 68 61
-22.4411 -15.8229 1.02672 49 53 45
-21.9861 -15.3988 1.00818 57 61 53
-22.6335 -15.7489 1.03021 70 74 55
-22.2555 -15.229 1.01197 76 75 56
-22.4064 -15.2304 1.01576 74 76 54
-22.3247 -15.0225 1.01022 81 85 54
-22.3477 -14.9371 1.00938 93 94 62
-22.4702 -14.9182 1.01215 83 87 56
-22.7964 -14.9823 1.02141 69 73 68
-24.035 -15.6916 1.06432 61 66 57
-24.1298 -15.5401 1.06426 95 100 83
-23.6337 -14.8576 1.04067 92 102 88
-23.6823 -14.7339 1.03995 83 100 73
-23.6715 -14.6252 1.03796 85 89 72
-23.8374 -14.6255 1.04224 72 74 65
-23.8608 -14.4866 1.04067 129 125 109
-23.7514 -14.3189 1.03525 169 153 133
-23.7886 -14.2405 1.03502 176 160 127
-23.8599 -14.1825 1.03598 186 166 131
-23.9686 -14.0959 1.03748 113 93 78
-24.1552 -14.1047 1.04248 139 119 103
-24.4027 -13.7941 1.04435 127 111 100
-25.2413 -13.652 1.06446 128 110 101
-25.2058 -13.5314 1.06182 69 64 54
-39.012 -6.96883 1.3963 87 87 54
-39.2906 -6.70103 1.40326 93 89 57
-39.3165 -6.57866 1.40346 87 87 51
-43.6151 -6.17475 1.52985 115 115 47
-44.2039 -6.11639 1.54721 101 93 47
-44.0491 -5.88389 1.5417 143 139 64
-43.8583 -5.71854 1.5354 119 112 20
-44.0597 -5.60416 1.54102 156 149 59
-43.9617 -5.38161 1.53731 119 113 28
-43.9995 -5.24612 1.53799 110 113 33
-44.0149 -5.10795 1.53802 115 118 45
-47.9941 -5.33851 1.65792 124 131 54
-48.3478 -5.22412 1.66819 98 103 38
-48.2478 -5.06024 1.66472 110 116 54
-48.1791 -4.90026 1.66222 121 125 65
-6.02328 -12.7267 0.408769 112 67 62
-6.09327 -12.723 0.409139 98 64 54
-6.14081 -12.7227 0.409426 90 52 49
-6.18757 -12.7205 0.409684 104 66 59
-6.23523 -12.7199 0.409971 103 74 59
-6.3055 -12.7151 0.410342 100 74 64
-8.44044 -14.6949 0.518464 106 94 51
-8.46415 -14.6309 0.517631 110 99 49
-11.3583 -12.7764 0.586309 153 137 70
-11.4423 -12.7924 0.58784 150 132 84
-11.5347 -12.7768 0.588959 80 70 33
-11.6045 -12.7755 0.589993 129 99 44
-11.7237 -12.829 0.592698 105 85 34
-24.1085 -15.6328 1.06523 91 98 80
-24.3568 -15.5259 1.0698 77 89 71
-24.3911 -15.4412 1.06932 79 88 69
-13.2838 -7.34355 0.543507 75 71 68
-13.2903 -7.29345 0.543105 109 95 87
-13.342 -7.26851 0.543876 118 106 95
-13.7898 -7.32263 0.553394 59 61 58
-13.4876 -7.10644 0.545107 59 66 58
-13.4477 -7.00514 0.543261 63 65 56
-27.3927 -13.9449 1.12604 68 78 70
-13.7204 -6.96057 0.54832 72 79 71
-13.768 -6.93145 0.549 60 71 63
-27.7811 -13.655 1.13268 59 63 55
-27.6308 -13.4742 1.12625 61 66 60
-27.7075 -13.3513 1.12673 84 87 91
-27.6962 -13.2395 1.12499 128 124 139
-28.6617 -13.4822 1.15443 207 200 199
-28.2944 -13.1477 1.14017 84 76 86
-28.9175 -13.3278 1.15949 92 90 95
-14.6898 -6.26291 0.561839 89 85 59
-39.7241 -7.35289 1.41938 95 94 64
-44.0677 -7.22878 1.54784 112 108 73
-44.7398 -6.97885 1.56673 81 81 44
-43.7334 -6.47152 1.53456 107 103 34
-43.6854 -6.32449 1.53254 142 141 68
-6.35584 -12.7194 0.410717 102 65 60
-6.40456 -12.72 0.411033 94 64 54
-6.47508 -12.7142 0.411404 97 71 55
-6.52656 -12.7198 0.411808 103 84 61
-6.57903 -12.7268 0.412242 89 69 58
-8.61175 -14.7858 0.521519 127 116 59
-8.64074 -14.677 0.520006 107 88 67
-8.59002 -14.4845 0.516401 137 113 71
-8.64268 -14.4721 0.516693 118 97 50
-8.60358 -14.2517 0.512746 139 118 62
-8.8104 -14.5004 0.51873 148 125 86
-8.85609 -14.4752 0.51876 121 106 75
-8.99962 -12.8793 0.494952 99 84 71
-11.8564 -15.8137 0.64685 100 89 81
-11.9224 -15.6466 0.644707 110 101 94
-12.2279 -15.5955 0.647968 104 80 83
-11.9596 -12.889 0.597288 99 90 51
