-17.6163 3.75143 -1.90176 79 88 104
-17.5728 3.79534 -1.89768 81 90 106
-17.5675 3.87512 -1.89935 80 87 103
-17.5699 3.9299 -1.90129 81 90 103
-17.549 3.97902 -1.90022 80 88 103
-5.3423 7.43109 -0.961543 61 76 100
-5.31818 7.44425 -0.961481 63 77 103
-5.29688 7.46253 -0.962237 63 77 103
-4.46202 6.98118 -0.850168 63 77 103
-4.43257 6.9773 -0.847933 64 78 104
-4.41322 6.99483 -0.848966 64 78 104
-4.38382 6.99076 -0.846731 63 77 104
-4.17904 7.33908 -0.846869 127 59 100
-4.16272 7.36692 -0.849453 128 57 100
-19.4373 0.515288 -1.88617 71 87 113
-19.4387 0.572301 -1.88659 72 88 113
-19.4242 0.628755 -1.88516 70 84 110
-17.6529 3.38246 -1.89616 69 80 98
-17.6414 3.43374 -1.89609 70 81 100
-17.6282 3.51144 -1.89651 68 79 98
-17.6337 3.56648 -1.89871 69 80 98
-17.6159 3.61641 -1.89789 68 79 97
-5.74798 7.74062 -1.02661 66 74 93
-5.70384 7.72261 -1.02136 64 73 92
-5.26852 7.49591 -0.964331 63 78 104
-4.34844 7.00244 -0.846106 63 78 101
-4.32239 7.00533 -0.844961 63 78 100
-4.30042 7.01715 -0.845177 67 82 105
-4.26174 7.0212 -0.843463 66 82 105
-4.14476 7.39107 -0.851509 129 58 102
-4.11648 7.42357 -0.854069 130 55 98
-8.37436 17.9544 -1.90438 149 148 149
-19.4363 0.315997 -1.88538 70 85 114
-19.4582 0.3734 -1.88811 68 85 113
-19.4462 0.430098 -1.88691 71 88 114
-18.2018 2.2804 -1.89251 70 81 99
-18.2703 2.34382 -1.90203 122 125 143
-18.1523 2.40838 -1.8887 121 127 145
-17.6913 3.09573 -1.89372 68 81 100
-17.6593 3.14296 -1.8909 69 82 101
-17.6778 3.20002 -1.8946 70 81 99
-17.6598 3.27665 -1.89427 71 82 100
-17.6642 3.33114 -1.89622 67 78 96
-15.5393 7.40156 -1.95314 85 87 102
-15.5328 7.45551 -1.95572 84 83 99
-15.5086 7.50029 -1.95564 83 86 101
-15.509 7.58681 -1.96113 83 86 101
-15.4599 7.61845 -1.9573 79 80 98
-15.47 7.68179 -1.96255 83 85 100
-15.4225 7.7141 -1.959 82 84 99
-15.4112 7.79502 -1.96288 80 85 99
-15.405 7.84997 -1.96573 77 84 100
-15.3622 7.88473 -1.96297 79 87 101
-15.3517 7.96663 -1.96712 78 86 99
-15.3138 8.00401 -1.96516 78 84 98
-15.3102 8.0609 -1.96854 79 85 101
-15.2542 8.11711 -1.96575 78 84 100
-15.2621 8.18096 -1.97099 78 85 101
-15.2219 8.2169 -1.96877 76 83 100
-15.2044 8.29573 -1.97211 76 85 101
-15.1741 8.33747 -1.97149 76 85 100
-15.1691 8.39442 -1.97486 75 82 98
-15.1267 8.42885 -1.97237 77 84 100
-15.1165 8.51273 -1.97705 77 84 100
-15.0687 8.54377 -1.97375 76 83 99
-15.0663 8.60278 -1.97766 77 84 100
-15.0081 8.65726 -1.97487 77 87 99
-15.0102 8.71946 -1.97957 77 87 100
-14.9686 8.75413 -1.97735 79 88 101
-14.9481 8.83259 -1.98068 79 88 101
-14.9046 8.86589 -1.97819 79 87 101
-14.9041 8.92712 -1.98263 79 88 101
-14.862 8.96128 -1.9804 79 87 101
-14.837 9.03736 -1.9832 81 87 103
-14.7996 9.07451 -1.98178 80 86 102
-14.7933 9.1325 -1.98541 79 86 102
-14.7379 9.18844 -1.98341 79 87 102
-14.7229 9.24083 -1.98572 80 86 100
-14.6849 9.27751 -1.98429 79 86 100
-14.6598 9.3543 -1.98735 78 85 99
-14.6118 9.38391 -1.98433 81 84 101
-14.6041 9.44182 -1.98796 80 84 100
-14.5539 9.50123 -1.98703 81 86 102
-14.5088 9.53262 -1.98453 78 84 100
-14.5021 9.59162 -1.98843 79 85 101
-14.4519 9.61928 -1.98513 86 89 106
-14.428 9.69781 -1.98873 78 82 97
-14.3856 9.73096 -1.98677 75 81 97
-7.74414 6.9353 -1.17655 73 81 100
-7.63892 6.86796 -1.15887 71 79 100
-7.58681 6.85635 -1.15246 71 70 88
-7.52812 6.85875 -1.14688 74 72 91
-7.48568 6.85674 -1.14249 75 76 95
-7.4393 6.85017 -1.13723 77 80 99
-7.38891 6.8604 -1.13338 82 89 103
-7.33876 6.84893 -1.12726 83 87 101
-7.29533 6.84458 -1.12257 86 89 103
-7.25857 6.84742 -1.11934 85 89 101
-7.20586 6.8536 -1.11492 82 83 101
-7.16397 6.8501 -1.11052 81 81 97
-7.12736 6.85238 -1.10729 76 76 92
-7.071 6.85325 -1.102 82 75 91
-7.0345 6.85513 -1.09877 95 82 100
-6.99165 6.84932 -1.09408 100 77 98
-6.94196 6.85686 -1.09025 107 51 80
-6.90818 6.86122 -1.08759 119 55 89
-6.87062 6.86088 -1.08406 117 57 92
-6.82937 6.8558 -1.07967 106 50 89
-6.77742 6.85931 -1.07526 108 52 95
-6.73009 6.84613 -1.06942 122 68 113
-6.69162 6.84348 -1.06561 131 78 125
-6.6548 6.86467 -1.06466 134 76 124
-6.6152 6.86012 -1.06056 130 69 121
-6.5769 6.85695 -1.05675 128 66 118
-6.5291 6.86355 -1.0532 126 58 115
-6.49215 6.86155 -1.04968 125 57 114
-6.46011 6.86565 -1.04731 122 54 111
-6.41128 6.86998 -1.04347 119 54 110
-6.3793 6.87375 -1.04111 120 53 108
-6.33783 6.86478 -1.03643 119 52 108
-6.29041 6.86996 -1.03288 120 56 108
-6.25621 6.87008 -1.02994 117 56 107
-6.2209 6.86847 -1.02671 116 55 104
-6.1868 6.86831 -1.02376 118 57 103
-5.2574 7.59136 -0.975112 67 79 104
-5.23294 7.63338 -0.978567 65 81 104
-4.24368 7.04189 -0.845041 70 84 107
-4.22316 7.05711 -0.845802 77 77 100
-4.08486 7.4146 -0.851369 129 54 96
-4.08057 7.4735 -0.858444 130 58 96
-8.30968 17.9586 -1.90207 180 169 161
-8.25239 17.9811 -1.90194 168 152 142
-8.16888 18.02 -1.9024 101 69 75
-18.2237 2.04075 -1.89127 78 82 97
-18.2066 2.09248 -1.88999 122 112 111
-18.178 2.16955 -1.88771 118 106 103
-17.739 2.83796 -1.89374 69 81 103
-17.7384 2.91771 -1.89542 70 82 104
-17.7011 2.96425 -1.89185 70 82 104
-17.6753 3.01278 -1.88978 70 82 106
-15.9035 6.45333 -1.94218 84 90 104
-15.8866 6.52862 -1.94421 86 87 104
-15.8436 6.56475 -1.94092 89 88 106
-15.8402 6.61864 -1.94351 86 89 106
-15.8225 6.6938 -1.94554 86 89 103
-15.7791 6.7295 -1.94225 88 90 103
-15.7894 6.79009 -1.94697 86 85 100
-15.7565 6.85841 -1.94686 85 86 101
-15.7217 6.89792 -1.94491 86 86 101
-15.7206 6.95355 -1.94803 85 85 100
-15.7068 7.00321 -1.94929 84 87 99
-15.664 7.0668 -1.94784 83 85 101
-15.657 7.11987 -1.95016 84 85 101
-15.6497 7.17296 -1.95247 83 86 103
-15.5973 7.23174 -1.94969 78 81 96
-15.6038 7.29194 -1.95414 81 84 99
-15.5783 7.33603 -1.95379 81 82 100
-14.3701 9.78402 -1.98933 79 82 99
-14.3184 9.84222 -1.98839 78 84 98
-14.2945 9.88923 -1.98963 77 83 97
-14.28 9.94337 -1.99246 77 83 95
-14.2181 9.99387 -1.98992 87 91 103
-14.1937 10.0407 -1.99115 82 85 100
-14.1707 10.0886 -1.99265 78 84 100
-14.1036 10.1348 -1.98932 78 86 99
-14.0803 10.1825 -1.99081 78 86 99
-14.0428 10.2191 -1.98991 81 84 101
-13.9852 10.2395 -1.98555 79 85 101
-13.9315 10.2958 -1.98462 78 86 99
-13.9121 10.3469 -1.98691 78 88 100
-13.8405 10.3553 -1.98015 79 89 101
-13.7954 10.4184 -1.98081 80 88 101
-13.7679 10.4629 -1.98178 80 88 101
-13.7327 10.501 -1.98141 78 86 99
-13.6627 10.5431 -1.97781 80 88 103
-13.6303 10.5834 -1.97797 81 88 104
-13.5977 10.6236 -1.97813 80 89 101
-13.5228 10.6611 -1.97373 82 90 103
-6.14544 6.88059 -1.02166 98 36 75
-6.10798 6.87529 -1.01785 102 40 73
-6.07288 6.87305 -1.01462 109 42 76
-6.02821 6.87988 -1.01165 111 37 74
-5.99211 6.87568 -1.00814 115 44 87
-5.96175 6.87941 -1.00606 116 49 93
-5.91833 6.88723 -1.00338 122 56 100
-5.88355 6.88417 -1.00015 119 50 95
-5.85217 6.88586 -0.997784 116 48 94
-5.81748 6.88251 -0.994554 114 49 97
-5.77427 6.88953 -0.991877 115 61 108
-5.20541 7.64096 -0.977687 67 79 101
-5.18614 7.66421 -0.97926 70 81 101
-4.18833 7.06984 -0.84545 101 67 99
-4.17155 7.094 -0.847571 120 61 107
-4.15081 7.10902 -0.848332 123 60 105
-4.0657 7.50669 -0.86182 133 57 100
-4.02362 7.50575 -0.859624 131 64 107
-8.10852 18.0346 -1.90139 107 73 97
-8.04741 18.0471 -1.90018 166 136 156
-7.99337 18.078 -1.90113 157 129 132
-17.7141 2.59502 -1.88545 67 86 110
-17.7459 2.67962 -1.89115 72 86 110
-17.7347 2.73085 -1.89084 72 84 109
-17.733 2.78371 -1.89179 72 84 108
-16.0655 5.83934 -1.93029 128 128 135
-16.0647 5.89305 -1.93289 129 127 135
-16.014 5.95376 -1.92958 95 92 104
-16.0311 6.01491 -1.93485 79 76 88
-16.0187 6.06422 -1.93584 88 82 101
-15.9929 6.13511 -1.93627 89 88 102
-15.9783 6.18359 -1.93699 88 92 104
-15.9507 6.22665 -1.93584 85 87 102
-15.954 6.2828 -1.93924 85 83 101
-15.9307 6.35502 -1.9402 88 87 105
-15.9027 6.39786 -1.93905 86 88 104
-13.5034 10.7127 -1.97629 83 88 101
-13.4645 10.7473 -1.97539 83 87 99
-13.4106 10.7687 -1.97183 83 88 100
-13.3708 10.8365 -1.97381 82 88 103
-13.3286 10.868 -1.97238 80 88 102
-13.2774 10.8914 -1.96935 78 86 100
-13.2369 10.9588 -1.97134 77 84 96
-13.1958 10.9911 -1.97017 91 97 110
-13.1707 11.0381 -1.97193 101 105 120
-13.1018 11.0794 -1.96886 102 107 120
-13.0691 11.1194 -1.96928 93 98 111
-13.0463 11.1688 -1.97157 83 90 102
-5.74301 6.89078 -0.989512 123 58 108
-5.71398 6.89521 -0.987724 122 61 110
-5.66762 6.89668 -0.984183 121 61 107
-5.63108 6.88923 -0.980379 119 59 105
-5.6086 6.90319 -0.980319 116 59 107
-5.56456 6.90737 -0.977355 112 58 104
-5.53141 6.90445 -0.974415 103 56 100
-5.50045 6.90474 -0.972052 98 56 98
-4.12491 7.14332 -0.851246 123 60 105
-4.10698 7.16553 -0.853095 125 60 103
-4.01707 7.56099 -0.866169 130 75 112
-3.99315 7.57192 -0.866374 125 95 122
-7.90306 18.099 -1.89963 156 124 127
-7.8467 18.1239 -1.89993 107 76 90
-18.1924 1.60869 -1.88134 122 113 103
-17.7427 2.30904 -1.88348 115 120 139
-17.7444 2.36201 -1.88468 112 119 130
-17.7361 2.41356 -1.88463 120 127 138
-17.7394 2.49324 -1.88657 54 68 91
-17.7445 2.54692 -1.88827 71 88 114
-16.2214 5.33605 -1.92596 89 91 106
-16.1935 5.40568 -1.92559 91 90 106
-16.1757 5.45248 -1.92552 92 91 106
-16.167 5.50264 -1.92678 93 90 107
-16.1531 5.57754 -1.92856 93 92 108
-16.1422 5.62701 -1.92955 90 92 105
-16.1329 5.67717 -1.93081 88 89 107
-16.1105 5.72236 -1.9302 82 81 97
-16.1011 5.79935 -1.93277 82 83 96
-12.9756 11.208 -1.96824 74 75 95
-12.9324 11.2381 -1.9668 78 80 100
-12.8834 11.2625 -1.9643 80 82 103
-12.8515 11.3032 -1.965 82 81 102
-12.8058 11.3662 -1.96645 85 86 104
-12.7467 11.3804 -1.96209 88 88 102
-12.7186 11.4249 -1.96358 89 88 104
-12.6471 11.4622 -1.96024 81 83 98
-12.6256 11.5135 -1.96306 75 78 94
-12.5789 11.5395 -1.96109 73 76 94
-5.45763 6.90998 -0.969377 115 60 107
-5.4257 6.9083 -0.966726 110 56 103
-5.40212 6.91995 -0.966379 104 55 100
-5.36511 6.90962 -0.962289 101 54 98
-5.32553 6.91917 -0.960478 96 56 93
-5.29583 6.92034 -0.958404 93 57 90
-5.26515 6.9197 -0.956042 85 55 90
-4.08444 7.17672 -0.853311 126 59 102
-4.06633 7.19884 -0.855159 125 58 101
-3.97196 7.62613 -0.872101 121 122 138
-3.94853 7.63878 -0.87257 125 133 151
-7.7875 18.1412 -1.89936 110 80 97
-7.69971 18.1686 -1.89874 126 109 120
-7.64107 18.1873 -1.89839 129 121 129
-18.2364 1.37235 -1.884 110 120 132
-18.2416 1.47962 -1.88587 76 81 98
-18.24 1.53296 -1.88631 119 110 109
-17.7576 2.12692 -1.88215 128 113 105
-17.7481 2.17825 -1.88184 129 119 114
-17.7345 2.22898 -1.88104 85 86 95
-16.3253 4.89653 -1.91989 89 92 107
-16.3373 4.95297 -1.92383 87 90 106
-16.304 4.9946 -1.92136 86 88 103
-16.2889 5.06844 -1.9226 91 90 105
-16.2909 5.12189 -1.9252 92 91 107
-16.259 5.16384 -1.92299 89 90 105
-16.2449 5.23822 -1.9245 91 89 108
-16.2332 5.28715 -1.92523 90 92 107
-14.7553 7.82139 -1.95193 79 84 100
-14.7179 7.85677 -1.94992 76 83 99
-14.7299 7.92116 -1.95588 77 84 100
-14.7025 7.96246 -1.95552 75 82 98
-14.6489 8.01659 -1.95293 77 84 102
-14.655 8.07811 -1.95806 76 83 101
-14.6255 8.11813 -1.95742 77 84 100
-14.6049 8.19249 -1.96032 77 84 100
-14.5564 8.22086 -1.95666 76 83 101
-14.555 8.27835 -1.96069 77 84 101
-14.5117 8.33886 -1.96001 77 84 101
-14.5148 8.3996 -1.96487 76 84 99
-14.4542 8.41992 -1.95928 76 86 98
-14.4552 8.50893 -1.96602 75 84 98
-14.4028 8.5342 -1.96181 77 85 99
-14.3656 8.6287 -1.96465 77 86 99
-12.5194 11.5887 -1.96015 90 88 102
-12.4739 11.6156 -1.95845 101 98 112
-12.4449 11.6595 -1.95993 111 109 123
-12.4074 11.6947 -1.95983 116 114 126
-12.3555 11.7517 -1.96048 116 118 126
-12.3164 11.7852 -1.9601 120 117 130
-12.2745 11.8157 -1.9592 109 97 117
-12.2233 11.8735 -1.96011 110 60 100
-5.22564 6.92873 -0.954232 94 55 97
-5.19304 6.92441 -0.951294 87 55 92
-5.16449 6.92678 -0.949509 85 52 88
-5.12407 6.93357 -0.947411 85 57 90
-5.0936 6.93225 -0.94505 86 64 93
-5.06319 6.93082 -0.94269 82 66 93
-4.03679 7.22552 -0.856984 129 58 102
-4.02209 7.25673 -0.860193 128 55 99
-3.9333 7.67363 -0.876209 115 129 142
-7.57837 18.1946 -1.89673 124 120 131
-7.49038 18.2211 -1.89611 117 115 124
-6.74552 17.049 -1.74822 115 114 122
-6.63282 16.8893 -1.72773 112 112 122
-18.2779 1.24203 -1.88779 69 76 99
-18.2632 1.29437 -1.88652 114 117 133
-17.7793 1.8934 -1.88111 70 86 112
-17.7686 1.94457 -1.88056 72 87 113
-17.7577 1.99569 -1.88001 71 86 113
-17.7584 2.04827 -1.88096 83 83 98
-16.4394 4.51445 -1.91908 89 92 109
-16.4168 4.55971 -1.91794 89 92 109
-16.413 4.61063 -1.91948 89 90 107
-16.4036 4.6859 -1.92126 91 91 108
-16.3748 4.7292 -1.91932 91 94 109
-16.3723 4.78071 -1.92112 87 89 104
-16.3602 4.85534 -1.92264 87 89 104
-15.2522 6.53156 -1.93026 87 90 106
-15.2273 6.57377 -1.92963 83 85 103
-15.2026 6.64291 -1.93062 83 86 101
-15.2023 6.69699 -1.93384 84 87 104
-15.1644 6.73295 -1.93129 83 84 102
-15.162 6.81324 -1.93585 82 85 102
-15.1451 6.85951 -1.9366 83 86 103
-15.1032 6.89335 -1.93349 83 86 105
-15.0946 6.97101 -1.93723 80 86 102
-15.0789 7.01803 -1.93824 81 85 102
-15.0384 7.05236 -1.93541 81 84 101
-15.0429 7.1373 -1.94135 80 86 100
-15.0179 7.17965 -1.94099 80 83 100
-14.9771 7.21359 -1.93816 82 85 102
-14.9798 7.2706 -1.9422 80 83 100
-14.9533 7.33987 -1.94346 78 84 100
-14.9208 7.37815 -1.942 77 83 99
-14.9211 7.43432 -1.94576 79 85 101
-14.8904 7.5015 -1.94647 79 85 101
-14.8608 7.54142 -1.94556 76 83 99
-14.8501 7.59186 -1.94767 78 86 100
-14.8358 7.66853 -1.95113 76 84 100
-14.792 7.70037 -1.94802 78 84 100
-14.7979 7.76063 -1.95288 78 84 100
-14.4099 8.59828 -1.96749 77 85 100
-14.3504 8.70801 -1.96892 77 84 98
-14.3074 8.73923 -1.96635 77 84 100
-14.3038 8.79685 -1.97038 77 83 99
-14.2402 8.84382 -1.96668 78 83 102
-14.2508 8.91151 -1.97318 79 85 101
-14.2024 8.93884 -1.96979 77 83 99
-14.1837 9.01683 -1.97378 76 83 100
-14.14 9.04721 -1.97122 79 86 102
-14.1092 9.08656 -1.97085 79 86 102
-14.104 9.14419 -1.97487 78 85 101
-14.0391 9.1897 -1.97117 80 86 102
-14.0351 9.24846 -1.97547 80 83 100
-13.9924 9.2793 -1.97318 82 85 100
-13.9717 9.35692 -1.97716 80 86 100
-13.9256 9.38511 -1.97432 80 86 100
-13.916 9.44033 -1.97779 83 85 100
-13.8738 9.50238 -1.97821 82 85 102
-13.8289 9.53129 -1.97564 82 85 102
-13.8265 9.59244 -1.98048 81 84 101
-13.7647 9.63961 -1.97761 82 85 102
-13.7493 9.69108 -1.98025 80 83 100
-13.6993 9.71574 -1.97686 81 84 101
-13.6804 9.76466 -1.97896 79 82 99
-13.6475 9.83431 -1.98129 77 84 100
-13.5941 9.85599 -1.97736 80 86 102
-13.5777 9.9072 -1.98 80 86 102
-12.1879 11.911 -1.96054 125 68 113
-12.1791 11.9775 -1.96628 123 63 109
-5.02482 6.94051 -0.941168 82 56 91
-4.99449 6.93881 -0.938808 80 58 92
-4.96899 6.94563 -0.937887 80 62 96
-4.92685 6.94791 -0.935215 76 64 97
-4.89664 6.94582 -0.932855 78 70 100
-3.99488 7.25663 -0.858775 129 56 99
-3.97207 7.30148 -0.86332 130 58 97
-3.90301 7.70542 -0.878765 95 100 116
-3.89278 7.7551 -0.884515 93 92 111
-7.43485 18.2485 -1.89684 117 115 122
-7.3734 18.2588 -1.89562 116 113 120
-6.55473 16.9226 -1.72841 110 110 120
-17.8043 1.6343 -1.88059 120 112 109
-17.7798 1.7102 -1.87852 70 84 105
-17.7952 1.7642 -1.88123 75 89 114
-17.779 1.81479 -1.87992 70 84 111
-16.5053 4.17104 -1.9147 91 93 107
-16.5027 4.22194 -1.91624 93 92 106
-16.4857 4.2946 -1.91669 95 93 109
-16.4809 4.34499 -1.91796 95 93 109
-16.4626 4.39156 -1.91736 91 93 108
-16.4518 4.44028 -1.91783 90 93 108
-15.4719 5.83144 -1.91899 131 129 141
-15.4526 5.9021 -1.92027 111 111 123
-15.4314 5.94584 -1.91992 80 79 94
-15.4228 5.99495 -1.92149 78 79 97
-15.4177 6.04562 -1.92362 82 88 104
-15.3956 6.11538 -1.92461 87 88 104
-15.3846 6.16369 -1.92591 86 88 103
-15.3626 6.20721 -1.92556 86 87 105
-15.327 6.27112 -1.92463 86 85 103
-15.33 6.32585 -1.92813 84 86 101
-15.3129 6.37164 -1.9286 84 86 101
-15.2748 6.43443 -1.92739 85 88 103
-15.2753 6.48842 -1.93062 86 89 104
-13.5348 9.96904 -1.98069 78 84 98
-13.4797 9.98888 -1.97648 80 86 100
-13.4673 10.0437 -1.97994 80 85 99
-13.3948 10.081 -1.97542 76 86 98
-13.3744 10.1294 -1.97751 80 86 104
-13.3373 10.1637 -1.97659 79 81 98
-13.2689 10.204 -1.97289 79 84 103
-13.2421 10.247 -1.97389 80 85 104
-13.209 10.2847 -1.97379 82 84 102
-13.1595 10.308 -1.97067 84 85 103
-13.1264 10.3785 -1.97355 82 85 102
-13.0752 10.4002 -1.97016 83 86 103
-13.0209 10.419 -1.96622 82 88 102
-12.9857 10.4877 -1.96882 79 85 99
-12.9461 10.5194 -1.96763 79 85 99
-12.8902 10.5363 -1.96342 85 88 105
-7.61329 6.83777 -1.20177 81 80 97
-7.51783 6.84415 -1.19265 102 101 114
-7.47026 6.8362 -1.1869 112 112 124
-7.4228 6.82801 -1.18116 118 118 129
-7.36078 6.82486 -1.17449 119 117 131
-7.32409 6.82794 -1.17114 117 115 129
-7.28482 6.8279 -1.16719 115 113 127
-7.23879 6.84161 -1.16411 110 110 123
-7.19055 6.83075 -1.15806 110 111 120
-7.15536 6.83459 -1.15501 113 116 124
-7.11461 6.85356 -1.15313 114 97 117
-7.06922 6.84504 -1.14769 105 71 104
-7.03287 6.84685 -1.14434 115 70 109
-6.98074 6.85155 -1.13976 121 71 114
-6.94071 6.84844 -1.13552 117 61 106
-6.90327 6.84818 -1.13187 116 56 108
-6.86214 6.84319 -1.12732 116 56 108
-4.87023 6.95057 -0.931647 76 58 90
-4.84196 6.95175 -0.929863 76 64 96
-4.80094 6.95507 -0.927479 79 69 100
-4.77551 6.96124 -0.926559 74 69 97
-4.7464 6.96031 -0.924488 73 72 98
-3.95618 7.33074 -0.866256 132 57 97
-3.92954 7.33225 -0.865111 132 57 98
-3.89698 7.84578 -0.896072 185 177 188
-7.28386 18.2805 -1.89456 114 112 120
-7.22238 18.2904 -1.89335 112 110 121
-17.8038 1.45138 -1.87823 69 80 100
-17.8059 1.52988 -1.87943 118 109 105
-17.7825 1.57986 -1.87712 119 105 96
-16.5696 3.87987 -1.91292 94 94 104
-16.5294 3.94632 -1.9099 93 91 104
-16.5372 3.99963 -1.91278 89 88 102
-16.5314 4.04949 -1.91378 90 91 105
-16.5171 4.12274 -1.9145 90 92 107
-15.6243 5.3454 -1.91395 88 88 106
-15.6001 5.41364 -1.91413 88 90 105
-15.5619 5.4508 -1.91103 87 89 106
-15.5661 5.50423 -1.91426 86 87 105
-15.554 5.57729 -1.91636 90 91 109
-15.5265 5.61847 -1.91491 88 91 108
-15.5282 5.67129 -1.91787 82 85 105
-15.5061 5.74062 -1.91859 75 77 95
-15.5037 5.79205 -1.921 96 96 113
-12.8645 10.6138 -1.96793 83 89 105
-12.8114 10.633 -1.96427 82 85 102
-12.7612 10.6546 -1.96116 83 86 103
-12.7116 10.7102 -1.96129 84 87 106
-12.6844 10.7531 -1.96256 82 87 104
-12.6325 10.7728 -1.95917 79 85 101
-12.6079 10.8181 -1.96098 82 85 100
-12.566 10.8813 -1.96276 81 84 101
-12.5069 10.8936 -1.958 83 85 102
-12.4817 10.9387 -1.95982 85 85 104
-12.435 10.9972 -1.96077 95 97 115
-7.74762 6.93722 -1.22666 110 112 128
-7.62043 6.91139 -1.21065 116 121 133
-6.81411 6.85143 -1.12365 117 54 107
-6.77811 6.85215 -1.1203 120 55 109
-6.73968 6.84965 -1.11635 118 56 107
-6.69058 6.85561 -1.11238 118 54 106
-6.64862 6.84806 -1.10754 119 55 107
-6.61775 6.85429 -1.10539 118 55 108
-6.56764 6.85796 -1.10112 118 55 107
-6.53321 6.85919 -1.09807 120 56 108
-6.4964 6.85715 -1.09442 118 54 106
-6.45968 6.85495 -1.09078 118 54 106
-6.40867 6.85607 -1.08621 118 54 106
-6.38158 6.86611 -1.08495 118 55 106
-6.33913 6.85549 -1.07982 116 54 105
-6.29778 6.86856 -1.07764 116 54 105
-6.25903 6.8623 -1.0734 115 56 104
-6.2262 6.86383 -1.07065 118 56 103
-6.17684 6.86509 -1.06638 104 39 84
-6.14525 6.8679 -1.06393 97 34 74
-6.10568 6.85933 -1.0594 96 33 71
-4.70911 6.97014 -0.923256 68 62 90
-4.68099 6.97072 -0.921472 70 67 93
-4.65109 6.96768 -0.919114 74 77 100
-4.61296 6.97526 -0.917595 74 79 103
-3.91161 7.39175 -0.871831 129 65 107
-3.88554 7.39496 -0.870957 124 74 111
-7.75739 17.1502 -1.88616 208 189 174
-7.70195 17.169 -1.88581 222 202 189
-6.86961 18.093 -1.86047 110 113 120
-17.8052 1.39932 -1.87778 113 126 141
-16.5867 3.55267 -1.90449 85 90 105
-16.5882 3.60381 -1.9063 88 90 105
-16.576 3.65179 -1.90624 79 81 96
-16.5656 3.7002 -1.90644 83 86 98
-16.5492 3.77254 -1.90663 95 94 109
-16.5499 3.82376 -1.90844 91 91 104
-15.7402 4.9255 -1.90933 84 90 106
-15.7408 4.97672 -1.91174 83 88 106
-15.7276 5.04873 -1.9133 82 88 105
-15.6792 5.08282 -1.90855 82 88 104
-15.7034 5.14273 -1.91453 82 88 104
-15.6634 5.20522 -1.91224 84 90 104
-15.6554 5.25379 -1.91354 85 91 105
-15.627 5.29479 -1.91182 85 89 104
-12.4574 11.0895 -1.97189 117 125 138
-12.3529 11.0564 -1.95837 121 127 139
-12.2972 11.106 -1.95768 117 123 133
-12.2629 11.1422 -1.95785 113 116 125
-12.2187 11.1684 -1.95611 111 111 121
-12.1721 11.2273 -1.95733 115 116 131
-12.1388 11.2645 -1.95778 116 117 133
-12.1081 11.3045 -1.95877 114 116 131
-12.0608 11.3273 -1.95648 112 115 130
-6.06342 6.86954 -1.05692 121 57 102
-6.02629 6.86381 -1.05298 125 62 108
-6.00281 6.87737 -1.05262 105 38 83
-5.955 6.87887 -1.04866 107 33 79
-5.92477 6.88243 -1.04651 120 41 92
-5.87679 6.85975 -1.03958 122 45 92
-5.85001 6.86793 -1.03833 119 41 91
-5.80694 6.87508 -1.03556 121 47 100
-5.77362 6.87314 -1.03251 124 54 108
-5.74034 6.87107 -1.02947 122 53 107
-4.58582 6.97726 -0.9161 72 69 96
-4.56131 6.98448 -0.915468 70 70 99
-4.52407 6.99338 -0.914236 72 77 105
-4.49525 6.9915 -0.912167 71 80 105
-3.87659 7.44448 -0.876885 135 97 129
-3.89473 7.95961 -0.910243 177 163 173
-7.64786 17.1914 -1.88591 226 200 186
-7.56525 17.22 -1.8855 196 169 154
-6.8119 18.111 -1.86034 111 111 121
-6.66364 17.9386 -1.8374 113 113 124
-16.6354 3.25999 -1.90214 79 80 98
-16.6147 3.30603 -1.90075 82 83 101
-16.6175 3.38235 -1.90335 80 82 97
-16.6041 3.42999 -1.90302 83 85 100
-16.6002 3.47977 -1.90403 81 82 97
-15.8516 4.55647 -1.90792 85 88 105
-15.8515 4.60701 -1.91006 86 92 108
-15.8176 4.67193 -1.90832 86 92 108
-15.8096 4.72002 -1.90935 86 90 107
-15.8165 4.77308 -1.91259 85 90 109
-15.7631 4.80616 -1.90701 85 90 109
-15.7714 4.88514 -1.9116 85 89 106
-12.0134 11.3855 -1.9577 71 75 95
-11.9755 11.418 -1.95732 80 68 94
-11.9361 11.4489 -1.95667 98 58 97
-11.8961 11.5154 -1.95953 117 68 113
-5.69527 6.8743 -1.0261 122 52 106
-5.66536 6.87687 -1.02395 124 51 106
-5.63439 6.87766 -1.02151 122 51 105
-5.5916 6.88361 -1.01874 123 51 105
-5.55861 6.88077 -1.0157 123 49 105
-5.52252 6.87278 -1.01176 123 49 105
-5.49489 6.87804 -1.01021 123 49 105
-5.45441 6.88657 -1.00804 126 49 103
-4.46475 6.98594 -0.909522 70 73 99
-4.4411 6.99455 -0.909178 71 74 102
-4.40139 6.99749 -0.907085 69 75 100
-4.37773 7.0059 -0.90674 69 76 100
-3.87654 7.556 -0.891219 189 145 180
-3.9271 8.13461 -0.933677 180 168 176
-7.50755 17.2326 -1.88446 201 184 164
-7.45256 17.2525 -1.88433 218 196 176
-16.7025 3.04687 -1.90507 75 84 101
-16.6785 3.09247 -1.90314 76 83 101
-16.6718 3.14152 -1.90361 92 98 113
-16.658 3.21426 -1.90381 81 83 98
-15.9395 4.23125 -1.90643 86 88 106
-15.9273 4.2778 -1.90664 89 90 108
-15.9062 4.34673 -1.90656 89 88 105
-15.8993 4.39492 -1.90759 88 90 105
-15.8941 4.44369 -1.9089 88 91 106
-15.8722 4.51246 -1.90882 86 92 106
-5.4268 6.89158 -1.00649 128 51 105
-5.38893 6.87962 -1.00195 126 50 103
-5.35162 6.89266 -1.00068 126 51 104
-5.32003 6.89052 -0.997934 126 50 106
-5.28547 6.88316 -0.994297 124 51 104
-5.24922 6.89738 -0.99332 127 50 104
-4.35073 7.00706 -0.905246 73 73 99
-4.31356 7.01491 -0.904016 71 77 102
-4.28987 7.02304 -0.903672 77 84 110
-3.848 7.55349 -0.889529 179 142 174
-3.84408 7.61984 -0.897902 159 136 159
-7.37036 17.2821 -1.88415 232 205 185
-7.31653 17.3053 -1.88447 195 165 154
-7.26328 17.3303 -1.88502 121 87 84
-16.7102 2.8223 -1.90022 77 88 108
-16.6985 2.87028 -1.8999 76 87 107
-16.6945 2.91969 -1.90065 72 82 100
-16.6972 2.9955 -1.90298 86 95 111
-15.957 3.96192 -1.89851 92 95 110
-15.9761 4.01691 -1.90313 87 93 107
-15.9665 4.06408 -1.90361 91 94 109
-15.9643 4.11338 -1.9052 90 92 107
-15.9459 4.18302 -1.90539 90 89 105
-5.22177 6.90165 -0.99177 125 48 104
-5.1884 6.89557 -0.988432 125 48 104
-5.14823 6.90246 -0.986262 126 53 103
-5.11596 6.89778 -0.983223 126 51 102
-5.0896 6.90328 -0.981972 129 51 104
-5.06132 6.90525 -0.980125 127 51 101
-4.26291 7.02389 -0.902178 67 73 97
-4.22494 7.0295 -0.900661 79 67 93
-4.20201 7.03916 -0.900605 99 64 97
-7.18071 17.3589 -1.88484 117 85 89
-7.10854 17.3291 -1.87882 102 72 78
-16.7177 2.52404 -1.8941 76 88 112
-16.7342 2.5766 -1.89753 77 89 113
-16.7328 2.65121 -1.89907 72 87 110
-16.7315 2.70097 -1.90008 71 86 107
-16.7104 2.74731 -1.89842 74 86 109
-16.0279 3.63423 -1.89643 77 78 94
-16.0156 3.68049 -1.89637 77 76 94
-16.0051 3.7272 -1.89659 76 78 93
-15.9828 3.79547 -1.89596 83 85 100
-15.9873 3.84614 -1.89837 84 88 100
-16.0049 3.90045 -1.90272 94 96 111
-5.0203 6.90974 -0.977658 127 50 100
-4.99302 6.91318 -0.97611 129 51 103
-4.95915 6.90439 -0.972475 129 48 104
-4.92391 6.91875 -0.971797 127 50 104
-4.89017 6.90966 -0.968163 124 50 103
-4.86396 6.91438 -0.966913 127 51 102
-4.17826 7.04694 -0.900261 114 61 104
-4.14497 7.06301 -0.900468 123 57 105
-4.11651 7.0597 -0.8984 122 59 104
-3.85687 7.73475 -0.913345 156 133 159
-7.05643 17.3572 -1.87983 86 58 60
-6.99345 17.3531 -1.87698 107 91 92
-6.90827 17.373 -1.87589 110 104 110
-6.61287 16.8415 -1.80751 115 112 121
-16.7647 2.30756 -1.89566 76 87 115
-16.737 2.3531 -1.89294 76 88 115
-16.7327 2.40213 -1.89342 76 88 112
-16.7341 2.4769 -1.89523 75 87 110
-16.0725 3.3502 -1.89318 84 88 103
-16.0597 3.42067 -1.89366 84 87 104
-16.05 3.46748 -1.89388 80 86 102
-16.046 3.51565 -1.89492 78 81 98
-16.0456 3.56478 -1.89651 72 78 94
-14.3929 6.48452 -1.93075 83 86 103
-14.3734 6.52655 -1.93096 82 88 104
-14.368 6.57561 -1.93349 82 88 104
-14.3273 6.63274 -1.93194 83 89 103
-14.2951 6.6683 -1.93012 82 88 102
-14.2944 6.72001 -1.93352 84 90 106
-14.2848 6.76723 -1.93547 84 87 104
-14.266 6.83579 -1.93768 84 87 104
-14.2472 6.87841 -1.93818 84 90 106
-14.2195 6.91633 -1.93723 80 87 105
-14.2017 6.98568 -1.93973 81 87 103
-14.1807 7.02719 -1.93994 81 87 103
-14.1612 7.0696 -1.94044 80 86 103
-14.1305 7.13216 -1.94091 83 88 105
-14.1107 7.17443 -1.94141 83 86 105
-14.1029 7.22343 -1.94393 83 86 105
-14.0473 7.27211 -1.94034 82 86 101
-14.0494 7.32691 -1.94461 83 86 101
-14.0256 7.36702 -1.94452 83 86 101
-14.0033 7.40804 -1.94473 81 87 101
-13.9965 7.48495 -1.94954 81 87 103
-13.9688 7.52289 -1.94888 82 88 104
-13.9494 7.56578 -1.94967 82 88 102
-13.9129 7.62545 -1.94955 80 86 102
-13.8982 7.67128 -1.95121 82 85 102
-13.8699 7.70886 -1.95054 81 84 101
-13.8445 7.77542 -1.95245 82 85 102
-13.8293 7.82116 -1.95411 80 86 102
-13.7939 7.85431 -1.95228 79 86 102
-13.7811 7.92909 -1.95651 79 85 101
-13.7704 7.97791 -1.95903 77 84 100
-13.7278 8.00651 -1.95605 79 87 100
-13.7085 8.04991 -1.95712 78 88 100
-13.6929 8.12358 -1.96106 82 85 102
-13.6451 8.1485 -1.9572 82 88 102
-13.6417 8.20261 -1.96117 80 88 101
-13.6186 8.27184 -1.96395 78 85 101
-13.5771 8.3007 -1.96125 80 85 104
-13.56 8.346 -1.9629 81 87 103
-13.5426 8.41949 -1.96683 76 85 100
-13.4893 8.44013 -1.96211 82 89 107
-13.488 8.49651 -1.96665 78 85 101
-13.4503 8.55632 -1.96711 79 87 100
-13.4145 8.5889 -1.96557 79 87 100
-13.398 8.63506 -1.96751 79 87 98
-13.3781 8.67891 -1.96887 78 86 99
-13.3235 8.7267 -1.96643 79 84 101
-13.3161 8.77966 -1.9701 80 86 102
-13.3036 8.82917 -1.9729 81 87 101
-13.2643 8.88822 -1.97336 80 86 100
-13.234 8.92474 -1.97298 79 85 101
-13.1893 8.95051 -1.96999 83 86 101
-13.1825 9.03405 -1.97652 82 86 101
-13.1486 9.06791 -1.97556 80 87 103
-13.1005 9.09085 -1.97199 81 87 103
-4.82503 6.92129 -0.965044 128 50 100
-4.797 6.92228 -0.963198 128 50 102
-4.76446 6.9144 -0.959863 129 51 103
-4.72836 6.92606 -0.958888 127 50 102
-4.09504 7.07267 -0.898918 122 59 104
-4.06969 7.07647 -0.898 123 60 105
-4.04 7.10119 -0.899644 123 60 103
-3.84888 7.83172 -0.925498 160 145 169
-6.80951 17.2593 -1.85992 118 111 121
-6.53923 16.8879 -1.80982 116 116 121
-16.7499 2.08248 -1.88919 75 88 113
-16.7797 2.13602 -1.89423 74 86 112
-16.7624 2.1832 -1.89284 74 86 110
-16.7648 2.25791 -1.89465 73 88 110
-16.1611 3.10059 -1.89762 77 83 100
-16.1428 3.14559 -1.89646 79 86 102
-16.0895 3.18295 -1.89034 80 84 100
-16.0852 3.25518 -1.89192 84 87 102
-16.0857 3.30421 -1.89352 83 86 101
-14.6211 5.82812 -1.92023 121 120 136
-14.602 5.86997 -1.92016 126 122 137
-14.5845 5.91256 -1.92037 119 115 128
-14.5612 5.97758 -1.92114 79 77 91
-14.5398 6.01843 -1.92078 71 73 88
-14.5488 6.07316 -1.92535 83 86 102
-14.5229 6.13724 -1.92583 81 86 105
-14.5046 6.17963 -1.92604 83 89 105
-14.4933 6.22532 -1.92741 81 87 103
-14.4729 6.26678 -1.92734 78 85 101
-14.4532 6.33399 -1.92898 83 89 103
-14.4324 6.37533 -1.9289 82 86 103
-14.4205 6.42093 -1.93027 83 85 103
-13.0962 9.14733 -1.97653 81 87 103
-13.0662 9.21397 -1.97901 80 86 102
-13.0396 9.2535 -1.97949 79 85 99
-13.0097 9.2905 -1.9794 79 88 100
-12.9666 9.34707 -1.97956 79 85 99
-12.9287 9.37768 -1.97802 97 96 110
-12.903 9.41806 -1.97879 98 96 110
-12.8608 9.47539 -1.97924 85 81 95
-12.8364 9.51685 -1.98031 71 67 83
-12.8041 9.55198 -1.97992 73 74 93
-12.7674 9.61394 -1.98153 84 84 105
-12.7424 9.65518 -1.98259 83 87 107
-12.7188 9.69763 -1.98394 79 86 104
-12.686 9.73237 -1.98355 83 87 106
-4.70043 6.9267 -0.957043 127 51 100
-4.6761 6.93428 -0.95639 125 49 99
-4.63379 6.93314 -0.95333 126 51 102
-4.61208 6.94581 -0.95357 124 52 102
-4.57902 6.93538 -0.949939 125 53 103
-4.01085 7.09566 -0.897289 123 60 103
-3.98847 7.1065 -0.89752 125 60 103
-3.87691 7.99558 -0.948009 165 151 169
-6.56963 17.1713 -1.8416 116 115 120
-6.4947 17.124 -1.83379 114 113 118
-16.7938 1.91516 -1.89203 66 82 108
-16.7752 1.96226 -1.89037 70 86 106
-16.7917 2.01382 -1.89353 73 87 107
-16.1761 2.86004 -1.89292 71 82 103
-16.1695 2.93163 -1.89395 68 79 97
-16.1672 2.97988 -1.89499 70 81 99
-16.1608 3.02735 -1.89549 71 81 99
-14.7974 5.32977 -1.9158 86 91 106
-14.7798 5.37215 -1.91573 84 88 103
-14.7713 5.41816 -1.91711 82 88 103
-14.7504 5.48384 -1.91789 85 91 107
-14.7323 5.52608 -1.91781 87 89 108
-14.7087 5.56601 -1.91687 85 91 107
-14.7049 5.61421 -1.91912 83 90 106
-14.6794 5.67812 -1.91931 84 90 104
-14.6807 5.72867 -1.92243 83 85 100
-14.6601 5.76992 -1.92207 74 75 92
-12.6438 9.79006 -1.98429 81 82 102
-12.6107 9.82456 -1.9839 83 85 103
-12.576 9.85766 -1.98323 82 84 100
-12.5317 9.91358 -1.98367 80 84 101
-12.5027 9.95163 -1.98416 78 83 102
-12.4603 9.97781 -1.98204 78 84 100
-12.4094 10.028 -1.98132 79 85 101
-12.3859 10.071 -1.98296 80 86 102
-12.3403 10.094 -1.98026 78 83 102
-12.2962 10.1502 -1.98099 84 85 105
-12.2606 10.1823 -1.98032 82 85 104
-12.2205 10.2102 -1.97878 80 85 104
-4.55038 6.93369 -0.947797 125 53 103
-4.5186 6.9532 -0.948311 126 52 101
-4.49001 6.95128 -0.94617 128 51 100
-4.4623 6.95104 -0.944326 123 53 102
-3.95704 7.12722 -0.898589 126 59 102
-3.93818 7.14709 -0.900256 126 59 100
-6.4405 17.2382 -1.84424 118 114 115
-6.40856 17.3306 -1.85317 120 115 114
-16.8127 1.69526 -1.89089 69 80 102
-16.7986 1.74301 -1.88977 71 83 107
-16.808 1.7934 -1.89187 70 83 107
-16.7858 1.84017 -1.88968 72 86 110
-16.1804 2.59442 -1.88659 72 87 110
-16.1987 2.64603 -1.89039 72 87 110
-16.1736 2.71401 -1.88867 71 83 107
-16.174 2.76253 -1.88999 70 82 104
-16.18 2.81219 -1.89214 69 81 105
-14.9373 4.869 -1.91097 81 88 104
-14.9323 4.91582 -1.91265 84 91 107
-14.9231 4.98541 -1.91488 82 88 103
-14.9159 5.0316 -1.91626 83 88 103
-14.8974 5.07366 -1.9159 81 87 103
-14.8677 5.11149 -1.9138 82 86 105
-14.8501 5.17819 -1.91487 84 87 105
-14.8348 5.22144 -1.91509 83 89 105
-14.8195 5.26466 -1.91531 82 88 104
-12.1862 10.2433 -1.97839 82 85 102
-12.1299 10.288 -1.97681 82 85 102
-12.101 10.3263 -1.97758 82 86 103
-12.062 10.355 -1.97632 81 86 105
-12.0052 10.3991 -1.97474 82 85 104
-11.9746 10.4356 -1.97522 84 87 105
-11.941 10.4693 -1.97512 85 85 103
-11.8908 10.5197 -1.97499 86 88 106
-11.8471 10.5435 -1.97286 83 86 104
-11.8089 10.5726 -1.9719 83 87 104
-4.42705 6.96301 -0.94365 123 51 101
-4.40023 6.96432 -0.942104 125 52 102
-4.37671 6.97272 -0.94175 125 53 102
-3.92648 7.1853 -0.904795 128 57 99
-3.90462 7.23157 -0.909883 128 55 98
-16.8328 1.30679 -1.87712 77 89 111
-16.8327 1.52491 -1.89104 76 89 116
-16.8271 1.5736 -1.891 71 85 111
-16.8056 1.62065 -1.88881 74 85 110
-16.2006 2.42913 -1.88538 76 88 112
-16.2136 2.47952 -1.88836 74 86 108
-16.1912 2.54803 -1.88692 75 87 110
-15.0513 4.56985 -1.91229 87 91 106
-15.0417 4.61489 -1.91309 87 91 107
-15.0209 4.6802 -1.91329 85 88 106
-15.0203 4.7284 -1.91555 84 88 105
-14.9972 4.76888 -1.91432 87 93 109
-14.9719 4.8327 -1.91394 83 90 106
-11.7568 10.621 -1.97147 88 87 101
-11.7227 10.654 -1.97137 90 92 105
-11.6787 10.6771 -1.96925 88 91 106
-11.6388 10.7042 -1.968 84 90 106
-11.5902 10.756 -1.96844 89 91 106
-11.5515 10.7843 -1.96747 88 88 104
-11.5264 10.8267 -1.96939 89 88 106
-4.34467 6.99147 -0.942264 129 51 104
-4.31056 6.97629 -0.93804 128 52 103
-4.28864 6.98801 -0.938281 126 53 99
-3.89879 7.28638 -0.917006 130 58 98
-16.856 1.17505 -1.87866 74 88 114
-16.8515 1.25481 -1.87887 75 87 109
-16.8332 1.35284 -1.88878 75 91 116
-16.8458 1.40312 -1.89114 72 87 113
-16.8327 1.45112 -1.89003 76 89 113
-16.217 2.21545 -1.88284 76 88 111
-16.2346 2.26617 -1.88637 71 84 106
-16.213 2.31089 -1.88439 77 90 112
-16.2227 2.38456 -1.88736 74 87 114
-15.1388 4.21436 -1.90842 90 92 105
-15.1285 4.25894 -1.90894 92 91 106
-15.115 4.32637 -1.91002 90 92 107
-15.0987 4.36913 -1.90966 89 93 108
-15.0898 4.41423 -1.91047 88 94 108
-15.0826 4.45993 -1.91157 89 92 107
-15.0682 4.52726 -1.91264 91 94 109
-13.6323 6.70394 -1.9204 79 86 104
-13.626 6.75128 -1.92302 81 88 106
-13.5968 6.81132 -1.92352 81 86 105
-13.5677 6.84614 -1.92224 79 86 102
-13.566 6.89637 -1.92576 79 86 102
-13.5555 6.94178 -1.92778 81 86 105
-13.4997 6.9868 -1.92377 81 88 104
-13.5009 7.03902 -1.92789 79 88 103
-13.4814 7.07939 -1.92841 78 87 102
-13.4591 7.14387 -1.93041 79 86 102
-13.4239 7.17507 -1.92822 79 86 102
-13.4243 7.22739 -1.93234 81 87 103
-13.3911 7.28562 -1.93253 83 86 101
-13.3707 7.32571 -1.93305 80 86 102
-13.3334 7.35545 -1.93057 82 85 102
-13.308 7.41846 -1.93226 81 84 103
-13.3074 7.47088 -1.93638 81 84 103
-13.2898 7.51286 -1.9375 79 85 101
-13.257 7.54533 -1.93591 82 88 104
-13.2189 7.6007 -1.9355 81 87 103
-13.2075 7.64676 -1.93782 83 88 103
-13.196 7.69283 -1.94013 80 88 101
-13.1456 7.74033 -1.93762 80 88 101
-13.1304 7.78414 -1.93933 80 88 101
-13.1282 7.83666 -1.94345 81 89 102
-13.0773 7.88371 -1.94093 82 89 105
-13.0632 7.92852 -1.94295 81 87 103
-13.0521 7.97555 -1.94556 80 86 102
-12.9958 8.01875 -1.94215 81 87 101
-12.9909 8.07016 -1.94596 79 85 101
-12.9794 8.11713 -1.94857 80 86 102
-12.9369 8.14259 -1.94549 80 86 102
-12.9073 8.20438 -1.94717 81 87 103
-12.8573 8.27973 -1.94759 81 87 103
-4.24693 6.98469 -0.935224 129 53 102
-4.23132 7.0107 -0.937846 126 53 104
-4.19985 7.00045 -0.934515 125 53 101
-3.89478 7.34676 -0.92499 129 57 97
-16.8802 0.989766 -1.87998 71 85 111
-16.8508 1.06795 -1.877 74 90 114
-16.8584 1.12182 -1.87844 71 87 112
-16.8515 1.18248 -1.88919 76 90 117
-16.8548 1.23184 -1.89022 75 87 111
-16.8481 1.28043 -1.8899 71 86 109
-16.2402 2.00319 -1.88167 74 87 107
-16.2409 2.05116 -1.88273 75 87 111
-16.2297 2.09749 -1.88212 73 88 111
-16.2443 2.1715 -1.88565 72 88 111
-15.2061 3.9018 -1.90476 89 91 106
-15.2006 3.94758 -1.90586 88 91 104
-15.181 4.01298 -1.90578 89 95 109
-15.1695 4.05708 -1.90601 90 93 108
-15.1692 4.1045 -1.90798 92 92 107
-15.1451 4.16862 -1.90732 91 93 106
-13.9747 5.83487 -1.90749 120 121 133
-13.9499 5.89627 -1.908 105 105 119
-13.936 5.93855 -1.90882 82 82 96
-13.929 5.98421 -1.91085 76 78 95
-13.9106 6.04886 -1.91256 81 85 100
-13.9014 6.09368 -1.91429 85 88 105
-13.8797 6.13242 -1.91391 82 85 102
-13.8552 6.19434 -1.91471 82 85 105
-13.835 6.23381 -1.91464 82 87 106
-13.8304 6.2812 -1.91726 80 88 102
-13.8 6.34027 -1.91716 80 87 102
-13.781 6.38047 -1.91739 82 87 105
-13.7408 6.40974 -1.91401 82 88 105
-13.7532 6.46619 -1.91964 84 90 106
-13.7271 6.52766 -1.92043 83 85 102
-13.6883 6.55748 -1.91735 83 87 104
-13.686 6.60668 -1.92058 83 87 104
-13.6645 6.67072 -1.92228 80 88 104
-12.9001 8.25468 -1.95068 81 87 103
-12.8446 8.35399 -1.95257 79 87 100
-12.8191 8.39152 -1.95278 79 87 100
-12.7792 8.41847 -1.9503 80 86 102
-12.7578 8.48679 -1.95377 79 87 100
-12.7366 8.52762 -1.95489 79 87 101
-12.6964 8.55418 -1.9524 81 87 103
-12.6757 8.62352 -1.95617 80 86 100
-12.6603 8.66895 -1.95848 83 89 103
-12.6072 8.68552 -1.9536 82 88 102
-12.6073 8.74288 -1.9589 81 87 103
-12.5668 8.79753 -1.95908 83 86 103
-12.5275 8.82451 -1.95689 83 86 103
-12.516 8.87337 -1.9601 83 86 103
-12.481 8.93254 -1.96147 83 85 103
-12.4445 8.9616 -1.95988 83 87 104
-12.434 9.01164 -1.96339 82 88 104
-12.386 9.06052 -1.96237 76 82 97
-4.17783 7.01184 -0.934757 127 51 98
-4.14167 7.02063 -0.933783 130 53 101
-4.1188 7.03003 -0.933727 129 54 103
-3.88291 7.42264 -0.93467 136 54 100
-16.8876 0.883431 -1.88004 74 89 112
-16.8622 0.935362 -1.8773 74 88 114
-16.864 1.01168 -1.88906 72 86 112
-16.852 1.05992 -1.88794 73 88 113
-16.8577 1.10935 -1.88924 71 87 112
-16.2696 1.8397 -1.88265 78 90 114
-16.2649 1.88693 -1.88288 74 86 110
-16.262 1.93439 -1.88339 75 87 110
-15.2256 3.64822 -1.89753 75 81 95
-15.2209 3.69391 -1.89863 77 82 96
-15.2218 3.74115 -1.90061 82 84 101
-15.2128 3.80924 -1.90198 82 82 98
-15.2152 3.85709 -1.90424 85 86 102
-14.1538 5.35974 -1.90317 81 89 102
-14.1403 5.4257 -1.90518 83 89 105
-14.1207 5.46526 -1.90481 86 90 107
-14.1099 5.50867 -1.90594 85 88 104
-14.0867 5.5706 -1.90645 86 89 106
-14.0702 5.61157 -1.90668 85 88 107
-14.0535 5.6525 -1.90691 84 89 108
-14.0134 5.70691 -1.90471 76 79 96
-14.0198 5.7583 -1.90884 75 78 93
-14.0027 5.79909 -1.90907 102 105 117
-12.3537 9.09297 -1.96167 81 84 100
-12.335 9.13664 -1.96368 75 76 94
-12.3131 9.17776 -1.96509 68 70 90
-12.2599 9.2222 -1.96316 76 84 99
-12.2452 9.26952 -1.96607 106 112 124
-12.2243 9.31173 -1.96777 127 127 139
-12.1796 9.36338 -1.96764 117 114 128
-12.1449 9.39383 -1.96665 95 93 107
-12.119 9.43194 -1.96746 77 74 90
-12.0856 9.49353 -1.96973 71 70 85
-12.0506 9.52364 -1.96874 77 77 94
-12.0287 9.56544 -1.97044 82 84 103
-4.09135 7.02843 -0.931885 130 52 100
-4.05517 7.0368 -0.930912 127 54 102
-4.0345 7.05142 -0.931749 128 56 102
-3.8808 7.49054 -0.943801 136 57 102
-7.04317 16.2384 -1.89513 129 115 127
-6.96968 16.1972 -1.88728 112 100 114
-16.9007 0.697333 -1.88038 73 87 113
-16.8976 0.750545 -1.88034 72 86 112
-16.8864 0.80336 -1.87933 70 86 111
-16.9042 0.842345 -1.89294 71 86 109
-16.8947 0.89091 -1.89209 73 88 111
-16.8915 0.964326 -1.89231 71 85 111
-16.2775 1.67362 -1.88088 73 85 109
-16.2773 1.7213 -1.88166 71 83 107
-16.2867 1.77017 -1.88382 76 88 112
-15.2782 3.33463 -1.89355 82 90 103
-15.2765 3.38078 -1.89495 82 88 102
-15.2785 3.42788 -1.89692 86 87 104
-15.2652 3.49458 -1.89743 82 85 102
-15.2572 3.53935 -1.89795 83 89 105
-15.2434 3.58263 -1.8976 84 90 106
-14.2893 4.94038 -1.89842 82 88 107
-14.3006 4.99184 -1.90286 81 88 105
-14.2657 5.0255 -1.89979 79 89 103
-14.2669 5.09672 -1.90391 82 88 104
-14.2225 5.12647 -1.89933 82 87 106
-14.2276 5.17591 -1.90287 83 88 107
-14.2023 5.23679 -1.90278 82 87 106
-14.1759 5.27356 -1.9012 83 89 105
-14.1822 5.32386 -1.90504 81 87 101
-11.9975 9.62938 -1.9733 79 85 103
-11.9752 9.67109 -1.97501 81 86 104
-11.9484 9.70877 -1.97581 82 88 104
-11.9273 9.75171 -1.97781 83 89 103
-11.8805 9.80199 -1.97768 84 83 101
-11.8547 9.84077 -1.97878 86 83 104
-11.8302 9.88084 -1.98018 84 85 105
-11.777 9.92525 -1.97886 87 86 102
-7.86357 6.822 -1.3319 86 89 104
-7.81922 6.82014 -1.32696 87 89 104
-7.76534 6.80812 -1.31989 89 87 105
-7.69815 6.80316 -1.31219 88 88 103
-7.63506 6.78048 -1.303 87 87 102
-7.58708 6.77329 -1.29715 88 88 104
-7.54058 6.76732 -1.29161 88 88 104
-7.22016 6.78602 -1.26066 91 88 102
-7.17046 6.77375 -1.2542 89 82 97
-7.13133 6.77313 -1.25018 106 96 113
-7.08707 6.76637 -1.24495 116 107 124
-7.04 6.77755 -1.24152 91 50 80
-7.00493 6.78084 -1.23841 113 58 96
-6.96221 6.77496 -1.23348 119 60 101
-6.91017 6.77936 -1.22883 111 40 80
-6.874 6.7806 -1.22542 119 42 72
-6.83408 6.77712 -1.2211 124 44 72
-4.0108 7.05866 -0.931395 128 55 101
-3.97161 7.0593 -0.929232 128 56 99
-3.94717 7.06451 -0.928581 128 56 99
-3.87967 7.56221 -0.953504 134 56 98
-6.89509 16.232 -1.88807 132 105 128
-6.82541 16.1995 -1.88142 118 86 110
-16.9156 0.511228 -1.8812 70 84 110
-16.8973 0.563934 -1.8792 72 86 112
-16.8996 0.643957 -1.87991 69 83 109
-16.9129 0.671064 -1.8928 68 82 108
-16.9178 0.720334 -1.89383 75 87 113
-16.8977 0.792953 -1.89164 72 88 113
-16.2949 1.4612 -1.87997 74 89 112
-16.2973 1.50904 -1.88102 75 90 113
-16.2937 1.55629 -1.88125 73 86 110
-16.288 1.60333 -1.88121 74 86 109
-15.3097 3.13311 -1.89118 83 90 106
-15.3125 3.18009 -1.89316 76 82 99
-15.3344 3.23152 -1.89804 81 88 104
-15.2984 3.26972 -1.89421 88 90 107
-14.3961 4.60573 -1.89592 84 90 106
-14.4087 4.65682 -1.90036 85 90 109
-14.4025 4.70133 -1.9018 83 90 106
-14.3665 4.73502 -1.89843 83 90 106
-14.3674 4.80546 -1.90225 85 91 107
-14.3274 4.8375 -1.89827 84 90 106
-14.3372 4.88817 -1.90241 84 93 108
-11.7493 9.96241 -1.97966 83 86 101
-11.7129 9.99132 -1.97866 85 90 105
-11.6622 10.0379 -1.97793 86 89 104
-11.627 10.0678 -1.97724 87 89 102
-11.5833 10.0894 -1.97475 89 88 104
-11.5335 10.1367 -1.97432 88 87 103
-11.484 10.1524 -1.97063 89 88 104
-11.4485 10.1817 -1.96994 88 87 103
-11.4087 10.2068 -1.96835 88 87 104
-11.3556 10.2505 -1.96731 87 88 105
-7.62339 6.92162 -1.31769 89 89 106
-7.63158 6.97513 -1.32463 87 87 105
-7.61945 7.00691 -1.327 87 88 102
-7.60274 7.05605 -1.33086 88 88 104
-7.55053 7.04381 -1.3241 89 86 103
-7.42587 6.95039 -1.30061 90 87 104
-6.78606 6.7853 -1.21737 123 46 77
-6.74628 6.78142 -1.21305 125 45 77
-6.70784 6.77889 -1.20903 127 43 71
-6.66249 6.78939 -1.20591 124 39 71
-6.62417 6.78648 -1.20189 116 35 69
-6.5847 6.78185 -1.19757 127 50 84
-6.53951 6.79165 -1.19445 129 49 76
-6.50141 6.78818 -1.19043 120 40 66
-6.46581 6.78766 -1.18703 135 69 99
-6.42906 6.78543 -1.18332 147 98 131
-6.38407 6.79434 -1.18019 152 108 140
-3.93353 7.09722 -0.932392 128 56 97
-3.87878 7.63582 -0.963494 134 59 105
-6.79329 16.2735 -1.88855 94 47 79
-6.73676 16.2781 -1.88674 101 55 81
-16.9028 0.37765 -1.87905 68 82 108
-16.906 0.457632 -1.87976 70 86 111
-16.9272 0.549002 -1.89396 65 79 105
-16.9098 0.621909 -1.89204 70 85 108
-16.3125 1.29648 -1.88011 77 89 113
-16.3351 1.34608 -1.88392 76 88 112
-16.3005 1.39044 -1.87974 77 88 111
-15.3738 2.91582 -1.89346 71 83 99
-15.3997 2.99055 -1.8995 72 84 101
-15.3489 3.02606 -1.89334 72 83 100
-15.3752 3.07809 -1.89881 70 82 98
-14.5215 4.25506 -1.89672 85 95 107
-14.5137 4.32161 -1.89874 85 94 107
-14.5049 4.36496 -1.89958 85 92 108
-14.4866 4.40515 -1.89892 84 91 107
-14.45 4.46211 -1.89643 84 92 105
-14.452 4.50919 -1.89907 85 93 106
-14.4463 4.55373 -1.90051 86 94 108
-11.3226 10.2822 -1.96722 89 88 104
-11.2785 10.3026 -1.96473 89 88 102
-11.2263 10.347 -1.964 89 89 105
-11.1958 10.3813 -1.9645 89 87 103
-11.1555 10.4054 -1.96291 93 88 104
-6.34505 6.7886 -1.17588 119 72 107
-6.30849 6.78584 -1.17217 135 78 105
-6.26488 6.79564 -1.16935 126 38 64
-6.22964 6.79411 -1.16594 128 40 61
-6.18975 6.78607 -1.16133 128 41 61
-6.14627 6.7952 -1.15851 127 40 60
-6.11123 6.79316 -1.1551 128 40 61
-6.07971 6.79578 -1.15261 126 38 60
-6.0413 6.78864 -1.1483 128 42 60
-3.91066 7.13981 -0.937072 128 55 100
-3.87671 7.74543 -0.978338 131 59 108
-6.65914 16.3043 -1.88656 123 75 99
-6.60071 16.3028 -1.88402 110 78 97
-6.55302 16.3331 -1.88559 115 97 110
-16.9184 0.271422 -1.88059 72 88 113
-16.9266 0.324885 -1.88179 73 87 113
-16.9163 0.401656 -1.89166 72 87 112
-16.9142 0.450573 -1.89162 70 86 111
-16.3361 1.13219 -1.88135 75 90 114
-16.3455 1.18046 -1.88324 73 87 113
-16.3074 1.22483 -1.8785 80 92 116
-15.3934 2.71247 -1.8902 71 83 105
-15.3977 2.75928 -1.89218 71 82 100
-15.3799 2.82479 -1.89154 77 86 103
-15.3856 2.87206 -1.89381 72 84 100
-14.6046 3.98259 -1.89621 80 83 101
-14.5912 4.02434 -1.89615 82 89 105
-14.5777 4.06605 -1.89609 84 90 105
-14.5388 4.12262 -1.893 85 88 106
-14.5552 4.17373 -1.89775 88 95 111
-14.545 4.21653 -1.89829 86 94 107
-5.99803 6.79695 -1.14548 128 40 61
-5.96208 6.79266 -1.14177 126 40 58
-5.92847 6.79145 -1.13867 126 42 58
-5.89324 6.81049 -1.13798 127 39 63
-5.85184 6.7976 -1.13276 125 42 62
-5.81951 6.79756 -1.12997 121 39 56
-5.77652 6.80462 -1.12715 138 65 67
-3.90224 7.18724 -0.943262 130 54 100
-3.89425 7.23653 -0.94975 131 54 100
-3.88071 7.83597 -0.990909 127 58 105
-6.46275 16.3207 -1.88059 114 110 117
-6.41183 16.3412 -1.88095 112 110 116
-16.9562 0.279923 -1.89656 73 89 114
-16.9366 0.328618 -1.89412 75 89 115
-16.3579 0.967591 -1.88258 78 93 119
-16.3402 1.01385 -1.88061 73 87 113
-16.3499 1.06201 -1.8825 73 87 113
-15.4413 2.51472 -1.89159 73 86 107
-15.4384 2.56009 -1.89241 74 86 107
-15.4254 2.62655 -1.89234 72 84 106
-15.4221 2.67192 -1.89316 73 86 108
-14.644 3.6755 -1.88878 79 86 102
-14.6601 3.72539 -1.89323 81 88 104
-14.621 3.75973 -1.88896 81 89 102
-14.6081 3.82406 -1.88979 87 92 108
-14.6237 3.87416 -1.89424 87 93 107
-14.5917 3.91034 -1.89117 85 91 105
-5.73876 6.79607 -1.12284 148 79 82
-5.70551 6.79394 -1.11974 117 42 59
-5.67143 6.81355 -1.11935 123 40 60
-5.63389 6.80452 -1.11504 127 42 59
-5.60186 6.80359 -1.11225 125 39 58
-5.56882 6.80088 -1.10916 128 43 62
-3.89362 7.30618 -0.959508 132 55 99
-6.736 15.9711 -1.89793 139 96 120
-6.66364 15.9268 -1.88965 147 102 123
-6.35537 16.3445 -1.87914 111 110 117
-6.28163 16.3822 -1.88065 115 114 122
-16.3779 0.802698 -1.88382 68 84 107
-16.3765 0.850088 -1.88405 82 97 120
-16.3617 0.920367 -1.88263 72 84 110
-15.4688 2.3134 -1.89035 73 88 111
-15.4587 2.35748 -1.89001 74 86 108
-15.4544 2.4025 -1.89054 75 87 109
-15.4557 2.47139 -1.89251 72 85 104
-14.7071 3.4216 -1.8879 80 85 102
-14.6786 3.48165 -1.88602 82 88 104
-14.7031 3.53327 -1.89168 83 89 106
-14.6645 3.56812 -1.88741 85 93 109
-14.6677 3.6142 -1.88976 78 84 100
-5.52296 6.80155 -1.10543 128 41 59
-5.4943 6.80518 -1.10355 126 45 63
-5.46461 6.80704 -1.10136 123 49 67
-5.41894 6.80709 -1.09764 115 42 76
-5.38932 6.80865 -1.09546 102 32 68
-5.36287 6.81515 -1.09418 98 30 62
-3.87687 7.36912 -0.967457 133 56 98
-3.90059 7.97321 -1.01066 131 59 107
-6.57179 15.9058 -1.88329 122 75 88
-6.51722 15.9115 -1.88169 121 78 92
-6.22276 16.3775 -1.87788 114 113 120
-6.17279 16.401 -1.87872 115 114 120
-16.3854 0.68448 -1.8839 79 91 115
-16.3733 0.755002 -1.88275 71 85 109
-15.4948 2.08936 -1.88882 72 86 110
-15.4762 2.15488 -1.8876 72 85 109
-15.4686 2.1993 -1.88755 73 86 107
-15.4647 2.24431 -1.88808 74 87 106
-14.7335 3.18142 -1.88278 72 79 97
-14.7227 3.22355 -1.88272 73 80 98
-14.7136 3.26612 -1.88297 78 85 103
-14.7241 3.33594 -1.88711 75 81 99
-14.6994 3.37464 -1.88495 80 83 102
-12.8053 6.69569 -1.92491 87 90 107
-12.7919 6.73685 -1.92636 87 90 105
-12.7699 6.77299 -1.92629 86 89 104
-12.7404 6.8291 -1.92679 86 89 108
-12.7197 6.86609 -1.92702 84 87 104
-12.7057 6.90711 -1.92847 85 88 105
-12.6815 6.94197 -1.92809 87 90 105
-12.6579 7.00185 -1.92982 85 88 103
-12.64 7.04069 -1.93066 83 89 103
-12.6204 7.07846 -1.93119 83 89 103
-12.5944 7.13713 -1.93261 81 87 103
-12.5611 7.16632 -1.9307 83 89 105
-12.5427 7.20495 -1.93154 82 88 104
-12.5128 7.26121 -1.93235 83 89 103
-12.5073 7.30834 -1.93563 84 87 104
-12.4785 7.34037 -1.93463 84 87 104
-12.4478 7.39639 -1.93544 88 87 105
-12.4237 7.43149 -1.93536 85 87 102
-12.406 7.47091 -1.9365 83 86 101
-12.3915 7.5125 -1.93825 81 87 101
-5.32255 6.82303 -1.09198 102 38 66
-5.28685 6.81408 -1.08797 96 35 60
-5.25943 6.81852 -1.0864 101 40 66
-5.21922 6.82585 -1.08419 117 55 84
-3.87057 7.42592 -0.975132 133 56 98
-6.46642 15.9283 -1.88157 122 83 101
-6.39054 15.9533 -1.8814 119 107 113
-6.0969 16.4322 -1.87951 114 114 123
-6.04383 16.4459 -1.87915 111 109 119
-16.3924 0.518822 -1.88375 72 87 110
-16.3929 0.589948 -1.88426 73 85 109
-16.3862 0.637086 -1.88366 72 87 110
-15.4927 1.9526 -1.88548 74 86 108
-15.4936 1.99816 -1.88659 74 86 108
-15.4786 2.04151 -1.88538 76 88 112
-14.786 2.99275 -1.88391 74 83 101
-14.7661 3.03285 -1.88235 71 78 97
-14.8115 3.08797 -1.89103 71 76 98
-14.7837 3.12628 -1.88826 74 81 99
-13.2039 5.74165 -1.90951 74 78 92
-13.1867 5.77989 -1.90974 94 99 112
-13.1585 5.83586 -1.90965 126 127 139
-13.1428 5.87485 -1.91019 124 125 131
-13.1483 5.92438 -1.9144 119 120 130
-13.1088 5.97484 -1.91247 82 81 96
-13.0962 6.01551 -1.91362 77 76 92
-13.0729 6.05076 -1.91294 85 87 102
-13.0504 6.10985 -1.91406 87 90 107
-13.0426 6.15317 -1.91613 87 90 107
-13.0241 6.19098 -1.91636 88 88 106
-12.9939 6.24621 -1.91626 86 92 106
-12.9787 6.28576 -1.91711 83 89 103
-12.9685 6.32809 -1.91887 84 90 104
-12.9494 6.36571 -1.9191 82 85 100
-12.9219 6.42251 -1.91961 85 87 104
-12.9112 6.46479 -1.92137 88 90 105
-12.8917 6.50226 -1.9216 85 90 105
-12.867 6.56078 -1.92272 85 88 105
