-2.96767 -5.10845 -1.76283 102 101 115
-3.12146 -4.92598 -1.77261 91 95 107
-3.13705 -4.91859 -1.77326 82 88 102
-3.30057 -4.63492 -1.76762 93 94 112
-3.32254 -4.62205 -1.76829 91 94 111
-3.79621 -4.00194 -1.7845 66 80 106
-3.808 -3.99052 -1.7845 64 78 104
-3.8248 -3.98461 -1.78722 64 80 105
-4.98135 -2.35231 -1.79612 73 84 110
-4.99467 -2.34016 -1.79884 49 56 84
-5.01842 -2.32342 -1.80428 54 59 86
-5.00961 -2.30067 -1.79816 55 62 83
-5.47439 -1.63102 -1.79701 72 84 110
-5.49312 -1.61831 -1.80229 68 82 108
-5.68827 -1.32555 -1.79813 68 80 104
-5.80643 -1.18609 -1.80373 66 78 104
-6.07729 -0.785411 -1.80565 62 74 98
-6.24544 -0.577292 -1.80965 72 86 112
-6.45179 -0.150528 -1.7868 91 99 118
-2.3302 -5.98723 -1.75986 110 108 112
-2.35008 -5.98607 -1.7616 110 108 113
-2.54583 -5.68123 -1.76135 105 104 117
-2.56139 -5.67046 -1.76015 91 89 101
-2.7579 -5.45152 -1.77575 103 102 115
-2.93027 -5.13146 -1.76345 101 100 115
-2.95082 -5.13296 -1.76725 98 100 113
-3.10301 -4.92839 -1.77003 93 95 110
-3.27102 -4.65086 -1.7663 91 93 108
-3.28997 -4.6492 -1.7696 93 94 112
-3.75058 -4.03738 -1.78245 60 76 102
-3.76871 -4.03314 -1.78585 63 79 105
-3.7819 -4.01052 -1.78314 65 81 107
-5.02451 -2.28914 -1.80156 84 96 113
-5.01897 -2.26804 -1.7968 72 85 103
-5.03563 -2.24785 -1.79951 74 85 112
-5.48468 -1.5976 -1.79767 71 85 110
-5.68811 -1.29773 -1.79619 69 81 105
-5.6987 -1.28176 -1.79877 64 76 100
-5.81482 -1.15944 -1.80499 66 78 102
-5.8027 -1.1383 -1.79992 64 79 102
-6.07516 -0.765926 -1.80441 60 74 100
-6.45887 -0.134887 -1.78969 96 105 121
-2.73601 -5.47017 -1.77821 105 102 118
-2.91595 -5.14158 -1.76408 99 98 112
-3.06957 -4.95718 -1.7726 94 96 109
-3.08152 -4.94339 -1.77067 99 101 114
-3.25201 -4.6682 -1.76761 94 97 111
-3.70583 -4.07367 -1.78109 66 81 104
-3.72891 -4.07533 -1.7872 68 84 110
-3.74484 -4.05569 -1.78585 64 80 106
-5.03846 -2.2307 -1.79815 73 88 111
-5.04294 -2.21432 -1.79747 74 88 114
-5.48586 -1.57053 -1.79569 70 84 109
-5.50626 -1.55812 -1.80163 62 74 98
-5.69636 -1.26278 -1.79683 66 78 100
-5.81473 -1.12181 -1.80309 62 77 100
-6.09179 -0.748869 -1.80933 63 79 104
-6.47169 -0.111387 -1.79476 89 98 113
-2.30705 -6.00967 -1.76391 112 107 109
-2.51845 -5.68849 -1.76014 104 103 117
-2.71417 -5.46575 -1.7739 106 104 120
-2.88916 -5.14745 -1.76154 101 102 116
-3.05202 -4.96103 -1.77066 95 95 109
-3.22229 -4.68379 -1.76629 93 96 113
-3.23614 -4.67444 -1.76629 94 97 112
-3.66674 -4.11661 -1.78312 60 74 96
-3.68618 -4.11421 -1.7872 66 80 106
-3.69744 -4.08904 -1.78312 61 75 101
-5.06795 -2.19775 -1.80359 72 88 113
-5.06544 -2.17825 -1.80019 71 87 112
-5.0749 -2.16405 -1.80155 66 81 106
-5.49578 -1.53699 -1.79635 62 77 100
-5.51667 -1.51539 -1.80163 61 76 99
-5.70144 -1.23621 -1.79683 61 71 96
-5.70078 -1.21766 -1.79554 65 75 100
-5.82283 -1.09506 -1.80436 63 75 99
-6.07638 -0.727708 -1.80379 59 74 95
-6.45445 -0.0950334 -1.7883 93 105 119
-2.28225 -5.99616 -1.75754 122 117 120
-2.48291 -5.69912 -1.75894 108 107 120
-2.50282 -5.69914 -1.76134 108 106 119
-2.69847 -5.47517 -1.77451 103 102 116
-2.86382 -5.17413 -1.76534 105 102 119
-2.8739 -5.15577 -1.76154 102 101 117
-3.0128 -4.97948 -1.76936 98 100 113
-3.02944 -4.97413 -1.77066 97 99 112
-3.19905 -4.69455 -1.76496 91 97 113
-3.64356 -4.13992 -1.7838 62 77 100
-3.66541 -4.14053 -1.78923 61 76 98
-5.08424 -2.14044 -1.80155 61 75 101
-5.08151 -2.12097 -1.79815 70 86 110
-5.09254 -2.10742 -1.80019 63 78 101
-5.52421 -1.49926 -1.80295 58 73 96
-5.50986 -1.47725 -1.79634 62 73 94
-5.71485 -1.20234 -1.79941 70 82 106
-5.84219 -1.07976 -1.81006 64 76 98
-5.83166 -1.05908 -1.80562 72 84 108
-6.08082 -0.699438 -1.8044 63 77 103
-6.47254 -0.0795304 -1.79551 94 104 121
-6.44225 -0.0551107 -1.78402 91 102 118
-2.26781 -6.01342 -1.76101 120 115 119
-2.68582 -5.49151 -1.77758 101 100 114
-2.85192 -5.1891 -1.76787 100 97 114
-2.99794 -4.9881 -1.76936 99 103 115
-3.17721 -4.72254 -1.76892 89 96 113
-3.18716 -4.70697 -1.76628 90 96 113
-3.59066 -4.16614 -1.77835 63 75 99
-3.60771 -4.16122 -1.78107 68 80 103
-3.62119 -4.15187 -1.78175 63 77 102
-5.09833 -2.09162 -1.80019 78 90 116
-5.10386 -2.06644 -1.79883 68 82 108
-5.10607 -2.04917 -1.79746 66 82 108
-5.5264 -1.46351 -1.80096 74 86 108
-5.70854 -1.18258 -1.79618 64 75 97
-5.83227 -1.0404 -1.80498 73 83 108
-6.08595 -0.680868 -1.80563 62 76 102
-6.08916 -0.662049 -1.80624 65 77 103
-2.24262 -6.03015 -1.76332 123 117 117
-2.45966 -5.71669 -1.76133 104 103 117
-2.65612 -5.49239 -1.77389 91 90 103
-2.81817 -5.18109 -1.76026 105 103 116
-2.98308 -4.99667 -1.76936 99 101 116
-3.14177 -4.74534 -1.76891 88 96 112
-3.15624 -4.7205 -1.76429 92 99 115
-3.54928 -4.20637 -1.7797 61 70 89
-3.56405 -4.19869 -1.78107 61 74 96
-3.56232 -4.17047 -1.77291 64 78 101
-4.25544 -3.24075 -1.79213 67 83 109
-4.26477 -3.22774 -1.79213 67 83 109
-4.27705 -3.21698 -1.79353 69 83 110
-4.30176 -3.20526 -1.79843 67 84 110
-4.29902 -3.1831 -1.79283 64 83 109
-4.31417 -3.17443 -1.79563 66 83 109
-4.33277 -3.15796 -1.79773 72 88 113
-4.33581 -3.14025 -1.79494 70 86 112
-4.34635 -3.12808 -1.79564 68 84 110
-4.35684 -3.11587 -1.79634 65 80 106
-4.36607 -3.09256 -1.79424 66 83 108
-4.37038 -3.07592 -1.79214 65 81 106
-4.38377 -3.06577 -1.79424 64 80 105
-4.39886 -3.04668 -1.79494 68 82 108
-4.4076 -3.03319 -1.79494 70 84 111
-4.40705 -3.01327 -1.79074 68 84 110
-4.41881 -2.99192 -1.79004 63 79 105
-5.11342 -2.03403 -1.79814 72 88 114
-5.13606 -2.01583 -1.80358 66 82 108
-5.52874 -1.43683 -1.79964 67 81 104
-5.5324 -1.41966 -1.79964 60 75 98
-5.72248 -1.15787 -1.7994 68 80 103
-5.72713 -1.14045 -1.80005 68 80 102
-5.85121 -1.01539 -1.81005 64 79 102
-6.45463 -0.0394209 -1.78907 91 98 115
-2.42329 -5.72514 -1.75952 107 107 119
-2.43976 -5.71651 -1.75893 104 102 116
-2.62157 -5.50381 -1.77265 84 87 96
-2.64109 -5.50337 -1.77511 88 90 102
-2.79942 -5.1824 -1.75772 114 113 124
-2.94626 -5.01955 -1.76999 99 101 114
-2.96033 -5.00943 -1.76935 98 100 113
-3.12671 -4.75278 -1.76824 92 99 116
-3.5165 -4.23122 -1.77902 63 70 89
-3.53017 -4.2222 -1.7797 67 74 94
-4.12032 -3.42061 -1.79282 68 82 108
-4.12592 -3.40444 -1.79072 66 80 106
-4.15833 -3.39996 -1.79912 65 79 105
-4.14945 -3.37176 -1.79002 68 82 109
-4.16208 -3.36149 -1.79142 67 81 108
-4.17125 -3.33771 -1.78863 68 84 109
-4.19542 -3.33677 -1.79562 62 79 105
-4.20068 -3.32045 -1.79353 60 80 106
-4.21692 -3.30237 -1.79423 69 86 114
-4.21911 -3.28369 -1.79073 66 83 109
-4.24034 -3.28007 -1.79633 67 84 110
-4.24686 -3.26481 -1.79493 69 84 113
-4.43511 -2.98363 -1.79354 67 83 108
-4.44673 -2.97211 -1.79494 74 88 114
-4.44279 -2.9501 -1.78935 63 79 104
-4.46672 -2.93689 -1.79424 68 84 110
-4.47199 -2.9211 -1.79285 69 86 114
-4.48188 -2.90839 -1.79355 60 77 105
-4.50098 -2.8918 -1.79635 65 82 108
-4.51865 -2.88405 -1.80054 63 79 105
-4.52371 -2.86813 -1.79914 59 75 101
-4.52687 -2.84124 -1.79495 71 87 113
-4.53821 -2.81038 -1.79285 73 87 113
-5.1381 -1.99849 -1.80222 70 84 110
-5.14529 -1.98322 -1.8029 68 82 108
-5.13673 -1.96175 -1.79746 66 82 107
-5.53052 -1.4011 -1.79766 66 79 103
-5.72616 -1.12187 -1.79876 68 83 105
-5.84045 -0.994808 -1.80561 68 83 106
-5.84833 -0.977334 -1.80751 64 79 100
-6.08574 -0.632865 -1.80439 66 78 102
-6.08311 -0.613427 -1.80316 68 80 102
-6.47441 -0.0237221 -1.797 101 106 126
-2.79417 -5.21075 -1.76532 122 122 132
-2.9313 -5.02795 -1.76999 96 100 112
-3.0852 -4.76547 -1.76428 78 85 103
-3.10773 -4.75371 -1.76494 83 90 108
-3.49138 -4.2521 -1.77902 73 77 96
-3.50281 -4.2402 -1.77834 67 72 92
-4.02447 -3.52826 -1.79071 65 81 106
-4.03891 -3.51977 -1.79281 68 82 108
-4.04631 -3.50501 -1.79141 67 82 106
-4.05351 -3.47914 -1.78722 67 81 107
-4.07206 -3.4742 -1.79141 67 81 107
-4.08637 -3.46549 -1.79351 67 81 107
-4.10039 -3.4456 -1.79282 67 82 109
-4.10754 -3.43069 -1.79142 65 80 106
-4.54603 -2.83429 -1.79984 63 79 105
-4.55574 -2.80234 -1.79705 67 82 108
-4.56646 -2.78031 -1.79635 61 77 104
-4.57914 -2.76917 -1.79845 56 73 102
-4.5758 -2.74828 -1.79355 67 83 110
-4.60391 -2.73675 -1.80055 65 80 109
-4.59236 -2.71108 -1.79215 68 85 111
-5.15387 -1.9412 -1.80086 67 82 107
-5.15914 -1.92518 -1.80085 65 81 107
-5.54536 -1.37758 -1.80096 66 78 100
-5.54152 -1.35857 -1.79832 68 80 102
-5.72314 -1.09367 -1.79618 65 77 101
-5.73131 -1.07693 -1.79811 71 83 107
-5.86326 -0.951481 -1.81131 69 84 107
-6.07855 -0.593816 -1.80131 65 77 101
-2.39917 -5.74066 -1.76132 106 107 118
-2.57609 -5.51336 -1.76956 139 139 146
-2.59486 -5.51134 -1.77141 95 95 105
-2.74595 -5.21194 -1.75835 97 97 109
-2.76306 -5.20744 -1.75962 99 98 111
-2.90751 -5.03877 -1.76934 95 99 111
-3.05498 -4.77988 -1.76295 64 68 84
-3.07299 -4.77756 -1.76559 86 89 107
-3.45713 -4.27496 -1.77765 94 99 116
-3.46863 -4.26316 -1.77697 86 91 107
-3.93726 -3.60006 -1.7837 70 84 110
-3.95321 -3.59323 -1.7865 68 82 108
-3.97202 -3.57777 -1.78791 70 86 112
-3.98379 -3.56699 -1.78861 65 81 106
-3.99416 -3.55489 -1.78861 68 83 106
-3.99893 -3.53774 -1.78581 73 89 115
-4.6097 -2.70264 -1.79635 71 88 114
-4.60864 -2.67375 -1.79075 64 80 106
-4.62752 -2.66612 -1.79565 69 85 111
-4.63667 -2.65278 -1.79635 67 84 110
-4.64416 -2.63848 -1.79635 68 85 111
-4.65407 -2.61606 -1.79565 71 87 112
-5.16436 -1.90915 -1.80085 70 86 110
-5.17075 -1.88441 -1.80017 69 84 107
-5.54309 -1.34092 -1.79766 74 85 106
-5.72828 -1.05802 -1.79617 73 85 109
-5.83916 -0.928973 -1.80244 68 83 106
-2.38061 -5.74382 -1.76011 107 106 120
-2.56312 -5.52938 -1.77264 142 142 150
-2.73626 -5.2317 -1.76278 98 98 110
-2.87656 -5.05358 -1.76869 102 101 115
-2.89334 -5.04872 -1.76998 97 99 112
-3.03713 -4.7995 -1.76559 75 82 98
-3.42609 -4.30204 -1.77833 97 99 117
-3.4501 -4.29272 -1.78105 94 98 115
-3.89065 -3.65464 -1.7844 64 80 106
-3.91074 -3.65193 -1.7893 67 83 109
-3.91731 -3.63621 -1.7872 65 81 106
-3.93628 -3.62096 -1.7886 65 81 106
-4.65819 -2.59986 -1.79425 72 88 113
-4.67041 -2.58822 -1.79635 73 89 115
-4.68499 -2.56839 -1.79775 73 89 115
-4.70043 -2.55841 -1.80125 80 96 122
-4.70762 -2.54389 -1.80125 81 97 123
-5.1864 -1.87225 -1.80425 67 82 105
-5.17031 -1.84836 -1.79609 65 79 105
-5.56135 -1.31809 -1.80228 71 82 105
-5.54445 -1.29612 -1.79502 62 74 98
-5.73238 -1.03126 -1.79617 64 76 100
-5.81685 -0.906902 -1.7942 71 83 107
-6.11826 -0.568986 -1.81362 67 82 105
-6.08708 -0.546795 -1.80315 67 79 105
-2.36403 -5.75227 -1.76071 105 105 117
-2.53205 -5.52604 -1.76771 142 142 150
-2.70195 -5.2212 -1.75454 101 100 114
-2.85695 -5.07257 -1.77126 100 102 115
-3.02003 -4.8033 -1.7636 81 87 103
-3.39496 -4.31475 -1.77492 93 97 116
-3.41109 -4.30918 -1.77697 98 102 120
-3.8226 -3.72192 -1.78299 71 88 114
-3.83927 -3.70457 -1.78299 67 82 111
-3.85406 -3.69691 -1.78509 65 81 107
-3.8675 -3.68787 -1.78649 61 77 102
-3.88495 -3.6827 -1.78999 61 77 103
-4.70058 -2.51232 -1.79355 68 84 111
-4.7258 -2.50748 -1.80125 74 90 116
-4.72621 -2.48938 -1.79845 70 86 111
-4.73483 -2.47563 -1.79914 65 82 108
-4.72403 -2.44246 -1.79005 69 81 107
-5.19405 -1.82998 -1.80221 70 84 111
-5.18837 -1.81002 -1.79813 67 81 107
-5.55501 -1.28057 -1.79765 67 80 105
-5.74036 -1.01443 -1.7981 66 81 104
-5.86336 -0.885722 -1.80877 67 82 105
-6.08798 -0.527745 -1.80315 64 76 102
-2.34942 -5.76603 -1.7631 106 105 119
-2.52108 -5.54724 -1.77263 141 140 148
-2.69459 -5.246 -1.76087 98 100 113
-2.8435 -5.08405 -1.77255 100 102 117
-2.99621 -4.82871 -1.76689 89 93 107
-3.00767 -4.81521 -1.76492 91 94 111
-3.34631 -4.34519 -1.77288 89 94 113
-3.3636 -4.34134 -1.7756 89 96 114
-3.37866 -4.33437 -1.77696 87 94 110
-3.77684 -3.77749 -1.78508 62 79 105
-3.78917 -3.76742 -1.78578 67 83 109
-3.81131 -3.75558 -1.78858 63 80 106
-3.81567 -3.73742 -1.78509 67 84 110
-4.74917 -2.43727 -1.79775 70 84 110
-4.76097 -2.42514 -1.79984 67 83 109
-4.76818 -2.40135 -1.79844 70 87 113
-5.21091 -1.80016 -1.80492 67 80 105
-5.21398 -1.78332 -1.80424 72 84 108
-5.57289 -1.2666 -1.80293 67 80 102
-5.7427 -0.996544 -1.7981 65 79 105
-5.73568 -0.977008 -1.79488 59 73 96
-5.84465 -0.8643 -1.8018 64 79 102
-5.86152 -0.847983 -1.80686 68 82 108
-6.08959 -0.499159 -1.80315 64 76 100
-2.31981 -5.7669 -1.7601 106 105 119
-2.50509 -5.55605 -1.77324 138 139 145
-2.66182 -5.25785 -1.75959 100 99 113
-2.67901 -5.25367 -1.76086 99 101 114
-2.81481 -5.10351 -1.77383 101 99 113
-2.8258 -5.08703 -1.77061 101 100 116
-2.96964 -4.83333 -1.76359 86 90 103
-3.34652 -4.37342 -1.78103 92 95 112
-3.73498 -3.81438 -1.78368 64 80 106
-3.74611 -3.80312 -1.78368 66 81 107
-3.76577 -3.78885 -1.78508 65 81 107
-4.77822 -2.38827 -1.79984 72 88 114
-4.78152 -2.37181 -1.79844 71 86 112
-4.79518 -2.35125 -1.79984 76 87 112
-4.79162 -2.33148 -1.79564 47 51 82
-5.21975 -1.75836 -1.80356 64 77 100
-5.22444 -1.74212 -1.80356 67 79 105
-5.58165 -1.24141 -1.80425 65 77 101
-5.54418 -1.21527 -1.78973 66 78 104
-5.53976 -1.19645 -1.78709 62 77 100
-5.73196 -0.948916 -1.79229 61 76 97
-5.88774 -0.832848 -1.8151 60 74 100
-6.08654 -0.479779 -1.80191 65 77 101
-2.30186 -5.77157 -1.7595 105 104 118
-2.48767 -5.56128 -1.77262 136 136 142
-2.63167 -5.25543 -1.75452 102 101 114
-2.78324 -5.09845 -1.76738 100 99 115
-2.93726 -4.84364 -1.76095 92 93 111
-2.95438 -4.84016 -1.76293 86 91 106
-3.30494 -4.38579 -1.77559 92 96 112
-3.31578 -4.37292 -1.77423 89 95 111
-3.68274 -3.86321 -1.78297 62 79 105
-3.69785 -3.85624 -1.78507 63 79 105
-3.71898 -3.84361 -1.78717 63 80 106
-3.72894 -3.83105 -1.78648 62 79 105
-4.80147 -2.31827 -1.79704 52 57 85
-4.81804 -2.30826 -1.80124 51 59 79
-4.82295 -2.28345 -1.79914 82 94 110
-5.22198 -1.72344 -1.80084 63 75 99
-5.22746 -1.69845 -1.80016 68 80 106
-5.74157 -0.93231 -1.79487 70 85 106
-5.86822 -0.802036 -1.80749 61 76 99
-6.09479 -0.46133 -1.80437 67 79 101
-2.28583 -5.78156 -1.76069 104 105 117
-2.46077 -5.56812 -1.77138 132 129 136
-2.62552 -5.28355 -1.76212 101 103 115
-2.76885 -5.10802 -1.76802 99 101 116
-2.91709 -4.85947 -1.76226 93 95 110
-3.23966 -4.39188 -1.76335 89 95 109
-3.24307 -4.36839 -1.75723 89 95 111
-3.29837 -4.40478 -1.77967 89 95 111
-3.64253 -3.90171 -1.78297 59 76 102
-3.6552 -3.89214 -1.78367 65 81 107
-3.66761 -3.87012 -1.78087 62 78 104
-4.81742 -2.26293 -1.79424 71 83 105
-4.84743 -2.25907 -1.80404 52 66 92
-4.85039 -2.23339 -1.80124 51 66 92
-5.22663 -1.68041 -1.79811 73 85 109
-5.23823 -1.66646 -1.80083 64 79 102
-5.58511 -1.17906 -1.80161 67 81 104
-5.58427 -1.16092 -1.80029 68 79 103
-5.74738 -0.915028 -1.79616 60 73 98
-5.86236 -0.782572 -1.80496 59 74 97
-6.11812 -0.444001 -1.81175 65 77 99
-2.25688 -5.78388 -1.75829 106 106 116
-2.44538 -5.57852 -1.77261 131 128 135
-2.60358 -5.2772 -1.75705 100 102 114
-2.75279 -5.11413 -1.76737 97 100 115
-2.90177 -4.86611 -1.7616 91 90 108
-3.23613 -4.4154 -1.76946 89 95 109
-3.59695 -3.93413 -1.78016 63 80 108
-3.6035 -3.91773 -1.77736 62 78 104
-3.63107 -3.91262 -1.78296 63 79 105
-4.85485 -2.21757 -1.80054 68 77 105
-4.85076 -2.19788 -1.79634 69 74 95
-4.86536 -2.17759 -1.79844 80 82 102
-5.25237 -1.64428 -1.80355 66 80 106
-5.5926 -1.14466 -1.80227 67 77 101
-5.74149 -0.886652 -1.79293 65 79 104
-5.88277 -0.766446 -1.81129 56 69 94
-6.09472 -0.413471 -1.80375 65 77 101
-2.24077 -5.79374 -1.75949 106 106 114
-2.42927 -5.58709 -1.77322 128 125 132
-2.57967 -5.28823 -1.75704 99 101 115
-2.72947 -5.12575 -1.76737 98 101 116
-2.88913 -4.87767 -1.76291 97 100 115
-3.20286 -4.43915 -1.76946 88 95 111
-3.21814 -4.43279 -1.77082 89 98 113
-3.56766 -3.94856 -1.77666 62 77 106
-3.59156 -3.95192 -1.78366 67 82 111
-4.87648 -2.16477 -1.80054 68 75 101
-4.87388 -2.14587 -1.79704 71 85 111
-4.88835 -2.13449 -1.80053 71 83 107
-5.24418 -1.62393 -1.79879 58 72 98
-5.25742 -1.6104 -1.80219 61 77 102
-5.59711 -1.11854 -1.80227 65 79 102
-5.75837 -0.871099 -1.79809 65 81 104
-5.79014 -0.857744 -1.8084 68 83 106
-5.8629 -0.735896 -1.80368 64 76 102
-6.08953 -0.393988 -1.8019 50 64 89
-2.22463 -5.80355 -1.76068 105 103 114
-2.56934 -5.30764 -1.76147 98 100 114
-2.69884 -5.14108 -1.76736 98 100 113
-2.71417 -5.13344 -1.76736 96 99 113
-2.85069 -4.89477 -1.76159 92 98 110
-2.86609 -4.8883 -1.76225 97 100 115
-3.17333 -4.45325 -1.76742 90 93 110
-3.19279 -4.45326 -1.7715 90 93 110
-3.53743 -3.99854 -1.78295 62 77 106
-3.54793 -3.98651 -1.78225 64 81 109
-3.56207 -3.97871 -1.78365 61 78 106
-4.89924 -2.11246 -1.80123 67 83 108
-4.90504 -2.09724 -1.80123 68 82 108
-5.26343 -1.59457 -1.80286 66 80 106
-5.2647 -1.56831 -1.80082 67 79 105
-5.59792 -1.10075 -1.8016 66 78 102
-5.60422 -1.08403 -1.80292 55 67 93
-5.76154 -0.825912 -1.79744 74 88 114
-5.87002 -0.718069 -1.80558 61 75 101
-6.0994 -0.375538 -1.80497 52 66 92
-2.38344 -5.59495 -1.77014 132 129 136
-2.39892 -5.58474 -1.76891 129 126 133
-2.54901 -5.3045 -1.75767 99 101 116
-2.66906 -5.1387 -1.7622 98 99 112
-2.83526 -4.90118 -1.76092 93 98 110
-3.1551 -4.47037 -1.76877 94 96 111
-3.48975 -4.02814 -1.77945 60 76 102
-3.50758 -4.02487 -1.78295 65 81 107
-3.51818 -4.01293 -1.78225 64 80 106
-4.04569 -3.20536 -1.77605 63 79 104
-4.06213 -3.19908 -1.77964 64 79 108
-4.07642 -3.18063 -1.77964 63 79 105
-4.08416 -3.16712 -1.77892 64 80 106
-4.0962 -3.15711 -1.78036 67 83 109
-4.11404 -3.15172 -1.78468 60 77 103
-4.11349 -3.1214 -1.77749 74 90 116
-4.12687 -3.11242 -1.77965 60 77 105
-4.14318 -3.10568 -1.78324 62 79 107
-4.15699 -3.08683 -1.78324 67 83 109
-4.15999 -3.06966 -1.78037 70 86 112
-4.16588 -3.05477 -1.77893 69 85 111
-4.18242 -3.03807 -1.78037 71 87 113
-4.1971 -3.02987 -1.78325 67 83 109
-4.20433 -3.01601 -1.78253 70 87 113
-4.213 -3.00325 -1.78253 69 83 110
-4.22783 -2.98516 -1.78325 62 78 104
-4.2259 -2.96459 -1.77822 67 84 110
-4.24043 -2.95615 -1.78109 67 84 110
-4.25202 -2.93571 -1.78038 68 85 111
-4.26499 -2.92605 -1.78253 60 76 102
-4.27338 -2.91308 -1.78253 59 75 101
-4.28323 -2.89142 -1.7811 63 79 104
-4.30067 -2.88481 -1.78541 67 83 108
-4.30893 -2.87172 -1.78541 65 81 107
-4.31407 -2.85648 -1.78397 67 84 110
-4.31902 -2.8315 -1.78038 69 86 112
-4.32865 -2.8194 -1.7811 63 80 108
-4.34287 -2.81038 -1.78398 71 88 116
-4.34755 -2.78534 -1.78038 64 81 107
-4.36481 -2.77828 -1.7847 59 76 102
-4.36961 -2.76292 -1.78326 67 84 110
-4.91078 -2.08201 -1.80123 68 82 108
-4.93006 -2.06345 -1.80543 70 84 109
-4.91669 -2.04026 -1.79773 70 84 110
-5.2742 -1.55352 -1.80286 68 80 106
-5.27645 -1.53654 -1.80218 53 65 89
-5.58826 -1.0631 -1.79632 60 74 100
-5.76703 -0.808483 -1.79873 71 83 109
-5.84505 -0.696541 -1.79671 62 76 102
-6.11356 -0.347685 -1.80928 44 58 84
-2.19749 -5.81095 -1.76008 108 106 119
-2.36265 -5.59085 -1.76644 134 133 140
-2.52725 -5.32047 -1.75956 103 103 117
-2.65136 -5.14103 -1.76026 99 98 112
-2.82333 -4.91421 -1.7629 97 101 113
-3.12542 -4.48412 -1.76673 91 94 111
-3.14795 -4.48908 -1.77285 92 95 110
-3.45136 -4.04395 -1.77454 63 79 105
-3.47515 -4.04806 -1.78154 64 79 107
-3.956 -3.34179 -1.78178 68 83 108
-3.9919 -3.34238 -1.79257 66 81 107
-3.99741 -3.32665 -1.79041 67 82 109
-4.00283 -3.31091 -1.78826 66 82 108
-4.01243 -3.29883 -1.78826 69 86 112
-4.02576 -3.27943 -1.78754 67 84 110
-4.04945 -3.27937 -1.79473 61 77 106
-4.04187 -3.25267 -1.7861 66 82 108
-4.07496 -3.24991 -1.79545 65 81 107
-4.38026 -2.7419 -1.78254 62 80 108
-4.39432 -2.7326 -1.78542 63 80 108
-4.40366 -2.7202 -1.78613 69 85 113
-4.42554 -2.7158 -1.7926 68 85 111
-4.45168 -2.7045 -1.79907 68 83 111
-4.41675 -2.66412 -1.77967 71 85 112
-4.43697 -2.65853 -1.78542 70 85 109
-4.44232 -2.63427 -1.78254 71 88 114
-4.93263 -2.02924 -1.80193 69 83 109
-4.9361 -2.00413 -1.79983 84 96 120
-5.29002 -1.51397 -1.8049 57 72 99
-5.59422 -1.03732 -1.79698 55 67 91
-5.76498 -0.789957 -1.79744 66 78 103
-5.82671 -0.66661 -1.78974 65 79 105
-5.83549 -0.649026 -1.79227 66 80 106
-6.10246 -0.327866 -1.80558 48 61 88
-2.18125 -5.82063 -1.76127 103 105 114
-2.50995 -5.32411 -1.75829 102 101 115
-2.63834 -5.15363 -1.76219 100 99 113
-2.7838 -4.92906 -1.76091 90 93 110
-2.79319 -4.91113 -1.75696 94 97 112
-3.09463 -4.51172 -1.76876 87 94 110
-3.10196 -4.49311 -1.76469 90 96 112
-3.43696 -4.0761 -1.78014 58 74 100
-3.44537 -4.06148 -1.77804 58 76 100
-3.87942 -3.418 -1.77818 62 77 104
-3.89745 -3.40301 -1.77962 65 81 107
-3.92936 -3.41143 -1.79112 67 84 110
-3.93652 -3.39708 -1.78968 64 81 107
-3.95033 -3.37803 -1.78897 71 88 114
-3.95321 -3.3599 -1.78538 67 84 110
-4.47521 -2.63629 -1.79404 71 88 114
-4.48906 -2.62649 -1.79692 70 85 114
-4.50219 -2.60686 -1.79764 67 83 108
-4.49677 -2.58543 -1.79189 67 83 109
-4.48326 -2.5593 -1.78254 68 85 111
-4.49048 -2.54558 -1.78254 62 79 105
-4.93809 -1.98739 -1.79843 108 120 135
-4.94522 -1.97273 -1.79913 96 106 127
-4.94361 -1.95461 -1.79633 67 77 103
-5.28315 -1.49432 -1.80081 57 73 97
-5.29423 -1.47991 -1.80353 65 78 104
-5.60591 -1.02156 -1.80028 64 76 100
-5.61013 -1.00442 -1.80094 64 77 101
-5.76851 -0.772229 -1.79808 68 80 104
-5.85176 -0.632165 -1.79733 65 80 103
-6.11971 -0.309679 -1.81112 47 61 88
-2.16379 -5.82664 -1.76127 104 104 116
-2.34153 -5.61313 -1.77074 134 133 139
-2.4761 -5.33296 -1.75639 99 103 115
-2.4934 -5.32943 -1.75766 99 100 114
-2.62526 -5.16619 -1.76412 101 100 114
-2.76914 -4.93692 -1.76091 93 96 111
-3.0782 -4.51602 -1.76672 88 95 111
-3.38978 -4.10586 -1.77733 63 79 105
-3.40766 -4.10306 -1.78083 58 75 101
-3.41269 -4.08413 -1.77664 61 79 103
-3.78712 -3.49973 -1.77242 66 82 108
-3.81351 -3.49305 -1.77817 64 80 105
-3.82368 -3.4816 -1.77817 65 79 105
-3.82441 -3.46108 -1.77314 65 80 103
-3.84396 -3.44769 -1.7753 65 79 105
-3.86349 -3.44508 -1.78033 64 80 106
-3.88713 -3.44621 -1.78752 56 73 99
-4.51291 -2.53154 -1.78758 68 85 113
-4.51846 -2.5168 -1.78686 69 85 114
-4.51748 -2.49832 -1.78326 68 85 111
-4.52517 -2.47572 -1.78183 72 89 115
-4.54188 -2.46736 -1.78614 73 89 115
-4.96066 -1.93493 -1.79982 67 82 105
-4.96765 -1.92017 -1.80052 68 83 106
-5.29311 -1.45309 -1.80081 62 76 102
-5.29143 -1.43506 -1.79877 72 84 107
-5.6214 -0.979457 -1.80357 61 73 97
-5.76377 -0.744213 -1.7955 62 76 102
-5.8265 -0.611056 -1.78846 65 80 103
-2.14333 -5.82355 -1.75827 106 105 119
-2.32141 -5.61065 -1.76767 135 133 138
-2.60171 -5.17719 -1.76412 99 101 114
-2.75184 -4.9587 -1.76486 95 97 110
-3.0481 -4.54485 -1.76943 89 92 109
-3.05662 -4.52793 -1.76604 90 96 112
-3.36023 -4.13244 -1.77803 60 75 100
-3.37468 -4.12537 -1.77943 61 77 102
-3.74694 -3.55707 -1.77601 60 76 102
-3.7481 -3.5366 -1.77098 62 78 104
-3.77191 -3.52761 -1.77529 63 80 106
-3.78352 -3.5176 -1.77601 64 79 105
-4.54557 -2.45162 -1.7847 74 90 116
-4.55302 -2.42892 -1.78326 70 86 112
-4.56965 -2.42036 -1.78758 65 82 108
-4.56989 -2.40278 -1.7847 72 89 115
-4.56843 -2.38432 -1.78111 66 83 109
-4.96235 -1.90071 -1.79632 67 81 105
-4.98619 -1.88346 -1.80262 71 82 104
-5.29692 -1.41904 -1.79945 63 75 101
-5.60689 -0.959127 -1.79763 56 71 95
-5.76526 -0.726222 -1.7955 69 81 105
-5.76672 -0.708225 -1.79549 65 80 103
-6.10513 -0.280142 -1.80619 52 63 88
-2.30451 -5.61705 -1.76766 132 131 137
-2.45631 -5.35384 -1.76018 99 102 117
-2.58777 -5.18792 -1.7654 101 100 114
-2.7261 -4.94457 -1.75628 97 99 112
-3.01218 -4.54821 -1.76331 91 94 109
-3.03063 -4.54737 -1.76671 88 91 108
-3.33045 -4.15878 -1.77872 55 69 96
-3.3469 -4.14093 -1.77733 60 76 101
-3.69161 -3.59912 -1.77169 63 77 103
-3.70862 -3.59476 -1.77528 64 80 105
-3.71694 -3.5701 -1.77097 64 81 107
-3.72736 -3.55897 -1.77098 59 75 101
-4.58377 -2.36594 -1.78326 73 89 115
-4.6019 -2.35801 -1.78829 69 85 110
-4.60355 -2.34128 -1.78614 83 93 116
-4.98951 -1.86729 -1.80192 49 57 76
-4.95063 -1.83557 -1.78442 83 89 104
-5.31323 -1.40595 -1.8042 61 73 99
-5.31175 -1.37913 -1.80148 63 75 100
-5.61465 -0.942566 -1.79961 55 69 95
-5.87188 -0.587598 -1.80303 69 83 109
-6.12225 -0.261809 -1.81173 50 61 86
-2.28632 -5.61981 -1.76643 133 132 138
-2.43389 -5.34498 -1.75448 99 101 116
-2.57226 -5.19514 -1.7654 101 100 114
-2.71813 -4.96572 -1.76155 97 101 113
-2.99533 -4.56782 -1.76603 91 94 109
-3.29914 -4.16953 -1.77452 60 69 98
-3.31026 -4.15823 -1.77382 62 76 103
-3.6422 -3.64703 -1.77096 61 76 105
-3.65542 -3.63886 -1.7724 64 80 106
-3.66862 -3.63064 -1.77384 63 80 105
-3.68365 -3.61282 -1.77313 62 79 105
-4.01635 -3.09671 -1.7702 67 84 112
-4.0296 -3.08798 -1.77239 64 81 107
-4.03738 -3.06508 -1.76947 78 94 120
-4.05055 -3.05624 -1.77166 66 82 108
-4.10213 -3.02877 -1.78191 62 79 107
-4.12766 -2.96258 -1.77533 69 85 111
-4.13311 -2.94784 -1.77387 62 78 104
-4.1461 -2.92897 -1.77387 68 84 110
-4.15293 -2.91527 -1.77314 69 85 111
-4.15669 -2.8994 -1.77094 63 78 107
-4.16796 -2.88889 -1.77241 60 77 107
-4.1898 -2.87624 -1.7768 70 87 113
-4.19035 -2.85817 -1.77314 68 84 109
-4.60384 -2.31491 -1.78183 50 53 79
-4.61857 -2.30507 -1.78542 58 64 84
-4.63162 -2.2943 -1.78829 54 61 79
-4.63497 -2.26958 -1.78542 82 91 107
-4.98479 -1.82203 -1.79492 90 89 102
-5.01255 -1.81474 -1.80401 93 86 101
-5.31525 -1.36254 -1.80148 71 83 105
-5.61076 -0.915113 -1.79697 55 69 95
-5.6072 -0.89674 -1.79499 64 76 102
-5.7748 -0.681909 -1.79743 63 78 101
-5.77047 -0.663198 -1.79549 63 77 103
-5.89176 -0.570795 -1.80937 68 83 106
-5.85306 -0.548669 -1.79606 59 71 95
-6.10707 -0.241945 -1.8068 52 64 88
-2.2599 -5.62742 -1.76581 131 130 135
-2.42377 -5.3658 -1.75954 99 102 117
-2.54856 -5.20587 -1.76539 99 101 114
-2.67583 -4.97458 -1.75759 98 98 114
-2.69309 -4.9721 -1.75957 97 99 113
-2.98366 -4.57978 -1.76738 90 93 110
-3.27129 -4.19839 -1.77661 62 74 96
-3.28796 -4.1808 -1.77522 63 76 99
-3.60672 -3.68758 -1.7724 63 79 105
-3.61372 -3.67271 -1.77024 65 81 107
-3.62192 -3.65919 -1.76881 64 80 106
-3.91551 -3.21907 -1.76799 68 84 110
-3.93831 -3.20847 -1.77238 67 83 109
-3.97468 -3.21914 -1.78629 68 84 111
-3.95098 -3.17988 -1.76946 67 84 111
-3.96154 -3.16911 -1.77019 65 82 108
-3.97414 -3.14994 -1.76946 63 80 106
-3.98896 -3.14258 -1.77239 65 81 107
-3.99941 -3.13167 -1.77312 71 86 112
-4.00745 -3.10886 -1.77019 61 78 104
-4.08582 -3.06432 -1.78484 66 84 110
-4.09459 -3.05191 -1.78484 58 77 103
-4.11969 -3.023 -1.78631 63 80 106
-4.1343 -3.01493 -1.78923 66 82 107
-4.15058 -2.99828 -1.7907 69 83 110
-4.20305 -2.84857 -1.77534 67 83 108
-4.21863 -2.83145 -1.7768 67 83 109
-4.21283 -2.80919 -1.77022 66 83 108
-4.23158 -2.80361 -1.77534 64 81 107
-4.23924 -2.78115 -1.77314 65 82 110
-4.27809 -2.78875 -1.78778 63 78 107
-4.29064 -2.77876 -1.78998 70 86 112
-4.30005 -2.76668 -1.79071 66 83 109
-4.27164 -2.7207 -1.77168 72 88 114
-4.28246 -2.70967 -1.77315 70 87 113
-4.28854 -2.69558 -1.77242 70 85 114
-4.30348 -2.6779 -1.77388 72 88 115
-4.6313 -2.25031 -1.78111 66 77 97
-4.64922 -2.24192 -1.78614 67 78 100
-4.65045 -2.22515 -1.78398 68 80 102
-5.00683 -1.79536 -1.79981 97 97 113
-5.0081 -1.77852 -1.79841 83 95 118
-5.31689 -1.34546 -1.8008 64 75 98
-5.3151 -1.31869 -1.79808 66 78 102
-5.61477 -0.880108 -1.79697 65 78 104
-5.77548 -0.645617 -1.79678 62 76 102
-6.11648 -0.223182 -1.80987 58 71 93
-2.24482 -5.639 -1.76765 132 129 136
-2.3966 -5.36893 -1.757 100 104 118
-2.53672 -5.22166 -1.76861 98 102 114
-2.66514 -4.99056 -1.76088 99 98 114
-2.95005 -4.60306 -1.76806 88 94 110
-2.96809 -4.58525 -1.76602 92 95 112
-3.24428 -4.21469 -1.77521 62 74 97
-3.25335 -4.20054 -1.77311 62 74 97
-3.54739 -3.72444 -1.76664 66 83 110
-3.56579 -3.7222 -1.77095 69 86 112
-3.57544 -3.71018 -1.77024 62 79 105
-3.59966 -3.70245 -1.77455 66 82 108
-3.82018 -3.33563 -1.76798 64 80 106
-3.85333 -3.34519 -1.78042 63 79 105
-3.84632 -3.31875 -1.77164 66 82 108
-3.84753 -3.29977 -1.76725 62 79 105
-3.86356 -3.28358 -1.76798 66 83 110
-3.86882 -3.26826 -1.76579 67 84 112
-3.87963 -3.2578 -1.76652 64 81 107
-3.93359 -3.27406 -1.78702 66 82 108
-3.94161 -3.26097 -1.78629 64 80 106
-4.34408 -2.68549 -1.78925 70 86 112
-4.31223 -2.64763 -1.77095 67 83 109
-4.3586 -2.6493 -1.78706 67 83 109
-4.37556 -2.64179 -1.79145 67 83 109
-4.3433 -2.60425 -1.77315 68 85 111
-4.34745 -2.58903 -1.77169 74 90 116
-4.3699 -2.57573 -1.77681 71 85 112
-4.66176 -2.20453 -1.7847 69 82 101
-4.66619 -2.18938 -1.78398 78 89 109
-4.67227 -2.17504 -1.78398 82 86 105
-5.01913 -1.75633 -1.79981 82 96 123
-5.01849 -1.73887 -1.79771 69 83 110
-5.32023 -1.30254 -1.79875 57 73 98
-5.62041 -0.863152 -1.79828 61 75 101
-5.77856 -0.627788 -1.79742 62 77 100
-5.86041 -0.521416 -1.79795 58 73 97
-6.10149 -0.193861 -1.80495 62 74 98
-2.22475 -5.63616 -1.76457 131 128 138
-2.3736 -5.35805 -1.75067 104 106 120
-2.51742 -5.22001 -1.76539 97 101 113
-2.64704 -4.99123 -1.75824 101 99 113
-2.93729 -4.61328 -1.76873 87 93 109
-3.20726 -4.23099 -1.77171 62 71 91
-3.22302 -4.22603 -1.77381 63 74 96
-3.53189 -3.76471 -1.77382 68 84 110
-3.54415 -3.75559 -1.77454 65 81 107
-3.74834 -3.41272 -1.7665 68 84 109
-3.75819 -3.40145 -1.7665 64 80 105
-3.76939 -3.39141 -1.76724 65 81 106
-3.78172 -3.37187 -1.76577 66 82 107
-3.79282 -3.36175 -1.76651 67 82 107
-3.7984 -3.34658 -1.76431 68 82 108
-4.37233 -2.5595 -1.77462 74 88 114
-4.37792 -2.54516 -1.77388 68 84 108
-4.39703 -2.52971 -1.77755 64 80 105
-4.39446 -2.51065 -1.77315 70 86 111
-4.41116 -2.50273 -1.77755 67 83 106
-4.41398 -2.47784 -1.77389 65 82 108
-4.67999 -2.15268 -1.78326 113 109 126
-4.69773 -2.14386 -1.78829 75 78 105
-4.69016 -2.12308 -1.78254 67 81 104
-5.03021 -1.72564 -1.80051 72 88 114
-5.03923 -1.7027 -1.80121 61 78 104
-5.33077 -1.28773 -1.80147 67 79 105
-5.63664 -0.838744 -1.8029 64 79 102
-5.77688 -0.600298 -1.79613 64 79 102
-5.8971 -0.505811 -1.80999 68 82 108
-5.89408 -0.486888 -1.80872 66 80 106
-6.10126 -0.174721 -1.80494 70 82 106
-2.2007 -5.65067 -1.76641 136 136 143
-2.36049 -5.3717 -1.7532 103 105 120
-2.49288 -5.22873 -1.76474 99 103 115
-2.61952 -4.99211 -1.75428 97 98 111
-2.92164 -4.61858 -1.76737 88 94 110
-3.20241 -4.2511 -1.7766 64 72 93
-3.48529 -3.79273 -1.7695 64 80 106
-3.50617 -3.79366 -1.77525 62 79 105
-3.51711 -3.77097 -1.77166 62 79 105
-3.70581 -3.46559 -1.76796 73 85 113
-3.71717 -3.45575 -1.76869 67 81 107
-3.72984 -3.44716 -1.77016 68 84 109
-3.73982 -3.43595 -1.77016 65 79 105
-4.41928 -2.46339 -1.77315 64 80 106
-4.42941 -2.45165 -1.77462 73 89 115
-4.43299 -2.43625 -1.77315 70 86 112
-4.45007 -2.41941 -1.77608 71 87 113
-4.44867 -2.4013 -1.77242 72 88 114
-4.70439 -2.10378 -1.7847 64 80 105
-4.70679 -2.08774 -1.78326 68 82 108
-4.71763 -2.07557 -1.78541 67 81 107
-5.0384 -1.68522 -1.79911 61 76 105
-5.0393 -1.66834 -1.7977 63 78 107
-5.3287 -1.26095 -1.79875 67 81 105
-5.3373 -1.24561 -1.80079 67 81 103
-5.62165 -0.818766 -1.79696 64 79 102
-5.77605 -0.582046 -1.79548 54 68 94
-6.09528 -0.155412 -1.80309 72 84 109
-2.18188 -5.65126 -1.76456 133 133 141
-2.3389 -5.38858 -1.75572 101 104 121
-2.47509 -5.2304 -1.7628 100 103 116
-2.59379 -5.01523 -1.75757 96 101 113
-2.61109 -5.01306 -1.75955 99 101 114
-2.88398 -4.63484 -1.76533 90 97 111
-2.89964 -4.62968 -1.76669 88 96 109
-3.1558 -4.28093 -1.7752 77 82 102
-3.16303 -4.26395 -1.7717 60 67 88
-3.18426 -4.26679 -1.7773 60 68 91
-3.47017 -3.82188 -1.77381 60 76 102
-3.47654 -3.80589 -1.77094 62 78 104
-3.64646 -3.5128 -1.76356 64 81 107
-3.66872 -3.50294 -1.76722 63 79 105
-3.66959 -3.48282 -1.7621 60 76 102
-3.68232 -3.47441 -1.76356 58 72 99
-4.46025 -2.39029 -1.77462 74 88 115
-4.4706 -2.36973 -1.77462 72 88 114
-4.47883 -2.35687 -1.77535 71 88 113
-4.4788 -2.33963 -1.77242 69 85 110
-4.72164 -2.06028 -1.78469 66 81 107
-4.7339 -2.03998 -1.78613 67 81 107
-4.75656 -2.03295 -1.79332 67 81 107
-5.05795 -1.65724 -1.8033 63 79 105
-5.05596 -1.63072 -1.7998 65 79 105
-5.3422 -1.22936 -1.80146 63 75 99
-5.63084 -0.802259 -1.7996 57 72 95
-5.78456 -0.56477 -1.79806 70 85 108
-5.88413 -0.458123 -1.80492 62 77 100
-2.32221 -5.39331 -1.75509 99 102 119
-2.44664 -5.25106 -1.76537 100 99 115
-2.46303 -5.246 -1.76602 102 101 116
-2.85723 -4.65318 -1.766 89 95 107
-2.86737 -4.63831 -1.76329 92 98 110
-3.1078 -4.28098 -1.7647 94 99 114
-3.12177 -4.25951 -1.7612 88 93 112
-3.41954 -3.84474 -1.76734 66 81 110
-3.44038 -3.84605 -1.77309 63 79 107
-3.44569 -3.8287 -1.7695 58 75 101
-3.59595 -3.55754 -1.76136 67 83 109
-3.61146 -3.5521 -1.76429 65 81 107
-3.63253 -3.54116 -1.76722 64 80 106
-3.64412 -3.5316 -1.76795 64 80 106
-4.4988 -2.32413 -1.77682 80 91 114
-4.5069 -2.31115 -1.77755 53 60 84
-4.51329 -2.29729 -1.77755 55 59 82
-4.5213 -2.28425 -1.77828 53 59 79
-4.73994 -2.00856 -1.78397 67 82 105
-4.7554 -1.98961 -1.78685 62 77 99
-4.75399 -1.97201 -1.78397 122 134 154
-5.05668 -1.61381 -1.7984 63 77 104
-5.05554 -1.59636 -1.7963 66 80 109
-5.34532 -1.20387 -1.80078 63 75 99
-5.34095 -1.18548 -1.79806 59 71 95
-5.63186 -0.775639 -1.79894 64 78 103
-5.77882 -0.536911 -1.79548 67 79 101
-5.89985 -0.440588 -1.80998 68 83 106
-2.169 -5.66984 -1.76886 136 136 143
-2.30686 -5.40152 -1.75572 98 101 118
-2.57258 -5.02948 -1.75888 97 101 113
-2.83327 -4.66067 -1.76396 90 94 111
-3.11101 -4.31327 -1.77519 91 94 112
-3.38289 -3.88429 -1.76949 60 77 105
-3.38958 -3.86849 -1.76661 61 78 106
-3.40925 -3.86853 -1.77165 68 85 113
-3.55638 -3.61361 -1.76574 68 84 110
-3.58609 -3.62318 -1.77672 64 81 107
-3.58037 -3.58431 -1.76428 66 82 108
-3.59594 -3.57895 -1.76721 68 84 110
-4.52951 -2.26254 -1.77755 81 88 107
-4.52745 -2.24444 -1.77389 74 82 102
-4.52199 -2.22473 -1.76876 71 80 102
-4.7628 -1.95882 -1.78541 120 132 148
-4.78149 -1.94112 -1.78972 70 67 86
-5.06218 -1.57268 -1.7963 72 88 113
-5.35116 -1.17042 -1.80078 65 77 99
-5.63346 -0.758056 -1.79894 64 79 102
-5.6406 -0.741182 -1.80091 65 77 101
-5.77968 -0.518846 -1.79547 62 74 98
-5.88149 -0.420679 -1.80364 64 79 100
-5.85549 -0.400404 -1.79477 73 85 107
-2.14063 -5.67144 -1.7664 118 118 130
-2.29417 -5.41676 -1.75888 97 100 116
-2.41916 -5.25241 -1.76214 98 97 111
-2.53796 -5.03346 -1.75492 98 103 115
-2.5584 -5.03835 -1.75954 93 99 111
-2.82209 -4.67381 -1.766 87 94 107
-3.07243 -4.32674 -1.77099 91 94 111
-3.09933 -4.32396 -1.77589 86 89 107
-3.3538 -3.90917 -1.76948 64 80 108
-3.36531 -3.89924 -1.76948 62 78 106
-3.51774 -3.64914 -1.765 61 78 104
-3.52707 -3.63729 -1.76427 63 80 106
-3.54203 -3.62014 -1.76354 67 83 109
-4.5516 -2.21365 -1.77755 65 77 102
-4.55434 -2.198 -1.77608 65 79 103
-4.55536 -2.18155 -1.77389 66 81 104
-4.7799 -1.92351 -1.78684 73 72 91
-4.7834 -1.90805 -1.78612 73 72 92
-5.07345 -1.55905 -1.79909 63 79 104
-5.07929 -1.54375 -1.79979 65 81 106
-5.36684 -1.15653 -1.80553 72 83 105
-5.78611 -0.501293 -1.7974 65 80 101
-2.12296 -5.67544 -1.76578 111 110 124
-2.26362 -5.41032 -1.75317 101 105 117
-2.39119 -5.27449 -1.76536 96 98 113
-2.40554 -5.26435 -1.76407 96 98 113
-2.51509 -5.04401 -1.75491 97 99 113
-2.80905 -4.68363 -1.76667 89 97 110
-3.04683 -4.34474 -1.77098 86 92 106
-3.0638 -4.34198 -1.77378 86 92 108
-3.32496 -3.92158 -1.76589 61 78 104
-3.34113 -3.9176 -1.76876 63 80 108
-3.48121 -3.68696 -1.76573 64 80 106
-3.48818 -3.67246 -1.76353 60 77 105
-3.49954 -3.65139 -1.76061 62 79 107
-4.57817 -2.16688 -1.77974 67 81 108
-4.57403 -2.14801 -1.77535 66 80 106
-4.58328 -2.13549 -1.77681 67 79 105
-4.5824 -2.11822 -1.77389 70 80 105
-4.78857 -1.8933 -1.78612 66 78 103
-4.80012 -1.87252 -1.78756 67 79 103
-4.80171 -1.85633 -1.78612 60 66 88
-5.05518 -1.51093 -1.78789 66 78 102
-5.0555 -1.49409 -1.78649 59 72 98
-5.36226 -1.12935 -1.80213 68 80 104
-5.376 -1.11492 -1.80621 61 75 101
-5.65069 -0.715674 -1.80355 75 89 112
-5.63526 -0.696008 -1.79761 67 81 104
-5.78195 -0.47366 -1.79547 62 77 99
-5.85081 -0.3723 -1.79286 68 83 106
-2.10756 -5.68662 -1.76762 103 105 117
-2.25019 -5.42366 -1.7557 99 103 115
-2.50391 -5.05959 -1.75821 98 99 114
-2.76743 -4.69228 -1.76191 92 93 111
-2.78679 -4.69415 -1.76599 88 92 107
-3.0323 -4.36594 -1.77448 89 95 111
-3.29557 -3.94598 -1.76588 63 80 106
-3.31291 -3.9436 -1.76948 63 80 106
-3.43439 -3.71322 -1.7606 60 77 105
-3.48195 -3.73252 -1.7789 65 82 110
-3.48784 -3.71663 -1.77597 67 82 109
-4.59147 -2.09702 -1.77389 64 80 103
-4.60227 -2.08516 -1.77608 65 81 106
-4.82059 -1.847 -1.79187 63 66 82
-4.81457 -1.81924 -1.78612 89 90 100
-5.0917 -1.48764 -1.79909 61 77 103
-5.08833 -1.46968 -1.79629 64 78 104
-5.36032 -1.09423 -1.79941 66 78 104
-5.63847 -0.678621 -1.79827 64 79 102
-5.78638 -0.455894 -1.79675 67 82 105
-5.89657 -0.35633 -1.80807 65 77 101
-2.08872 -5.68688 -1.76577 96 96 109
-2.23472 -5.43164 -1.75633 89 93 105
-2.36574 -5.28081 -1.76406 95 99 111
-2.48809 -5.06481 -1.75754 97 99 114
-2.75519 -4.70358 -1.76327 92 95 112
-3.00746 -4.38524 -1.77517 87 93 109
-3.01835 -4.37326 -1.77377 86 92 107
-3.25203 -3.97677 -1.76444 62 78 103
-3.26826 -3.97311 -1.76731 64 81 108
-3.29076 -3.96454 -1.77019 63 79 105
-3.39226 -3.74447 -1.7584 62 79 105
-3.40656 -3.72655 -1.75694 64 81 107
-3.42108 -3.72061 -1.75913 68 85 113
-4.60458 -2.06943 -1.77462 66 80 107
-4.61003 -2.0466 -1.77315 65 81 106
-4.62749 -2.03763 -1.77828 65 81 106
-4.8212 -1.80505 -1.78684 90 90 100
-4.83997 -1.7955 -1.79259 94 95 108
-5.10159 -1.44784 -1.79908 66 78 102
-5.38115 -1.07245 -1.80552 60 72 94
-5.64725 -0.661852 -1.8009 62 76 102
-5.78509 -0.437642 -1.79611 67 81 107
-5.87981 -0.336786 -1.80236 64 76 100
-2.2101 -5.44085 -1.75633 88 91 103
-2.32873 -5.27962 -1.7589 100 100 115
-2.34518 -5.27496 -1.75955 96 99 115
-2.47152 -5.06824 -1.75622 98 101 115
-2.73461 -4.71715 -1.76394 89 96 112
-2.9874 -4.38303 -1.77027 89 92 107
-3.24366 -3.99078 -1.76659 70 86 111
-3.3776 -3.77298 -1.76278 60 75 104
-3.38859 -3.76296 -1.76279 61 78 106
-4.62624 -2.02036 -1.77535 66 82 107
-4.63657 -1.99966 -1.77608 67 81 107
-4.63858 -1.98387 -1.77461 67 81 107
-4.8232 -1.76383 -1.78252 69 77 103
-4.83839 -1.75286 -1.78684 70 85 114
-5.1071 -1.43239 -1.79978 69 79 104
-5.11436 -1.41741 -1.80118 61 73 96
-5.37817 -1.05449 -1.80348 63 75 99
-5.38066 -1.03765 -1.80348 63 77 103
-5.63825 -0.634157 -1.79694 64 79 103
-5.78374 -0.419399 -1.79546 69 83 105
-5.89755 -0.309706 -1.80806 60 74 100
-2.19201 -5.44158 -1.75443 74 78 89
-2.44997 -5.08192 -1.75754 97 101 113
-2.71703 -4.71838 -1.76122 92 98 112
-2.93851 -4.3795 -1.75907 90 93 110
-2.95445 -4.37561 -1.76117 90 93 110
-3.19636 -4.01642 -1.76299 63 80 106
-3.21041 -4.01002 -1.76443 62 79 105
-3.22334 -4.00206 -1.76515 65 82 108
-3.37111 -3.82346 -1.77595 65 80 109
-3.37987 -3.81063 -1.77449 62 79 107
-3.88018 -3.12351 -1.78548 69 85 112
-3.90384 -3.10499 -1.78847 63 78 106
-3.92476 -3.09336 -1.79221 65 81 108
-3.95221 -3.09697 -1.80192 65 81 108
-3.94398 -3.07095 -1.79296 62 78 104
-3.98634 -3.07662 -1.8079 64 80 106
-3.98656 -3.05763 -1.80342 64 80 106
-3.99969 -3.04914 -1.80566 66 82 108
-4.01759 -3.03456 -1.80791 67 83 109
-4.01034 -3.0098 -1.79969 62 78 104
-4.02045 -2.99888 -1.80044 61 77 103
-4.03636 -2.99249 -1.80418 61 77 104
-4.05549 -2.9788 -1.80717 74 90 116
-4.0523 -2.95753 -1.80119 63 79 106
-4.07845 -2.95885 -1.81016 66 83 110
-4.07826 -2.93032 -1.80343 64 80 107
-4.1 -2.92806 -1.81016 66 82 110
-4.10838 -2.9157 -1.81016 66 83 109
-4.09448 -2.87723 -1.79671 63 80 105
-4.09675 -2.86048 -1.79373 67 83 109
-4.13784 -2.8722 -1.81016 65 82 109
-4.14305 -2.85752 -1.80867 65 82 108
-4.15871 -2.84091 -1.81017 66 83 108
-4.16532 -2.82727 -1.80942 59 75 101
-4.14164 -2.79214 -1.79373 65 81 107
-4.16763 -2.78296 -1.80046 70 86 113
-4.19076 -2.78097 -1.80793 63 80 107
-4.18954 -2.76196 -1.80345 59 76 102
-4.20632 -2.74609 -1.80569 61 77 103
-4.21873 -2.73649 -1.80793 65 81 107
-4.64738 -1.971 -1.77608 66 81 105
-4.65442 -1.95736 -1.77681 69 84 107
-4.83958 -1.73661 -1.7854 73 90 120
-4.84773 -1.72294 -1.78683 72 91 121
-5.1274 -1.39536 -1.80398 72 85 104
-5.37363 -1.01023 -1.79939 65 77 101
-5.63941 -0.616536 -1.79694 63 78 101
-5.78862 -0.392527 -1.79675 72 84 106
-5.89201 -0.290794 -1.80616 71 83 107
-2.18027 -5.46007 -1.75885 69 73 82
-2.30464 -5.28916 -1.7589 99 103 115
-2.43633 -5.09214 -1.75885 100 104 116
-2.68971 -4.73566 -1.7619 93 96 111
-2.70642 -4.73287 -1.76394 94 96 111
-2.92855 -4.39283 -1.76117 89 95 111
-3.18449 -4.02579 -1.76299 59 76 102
-3.30663 -3.82802 -1.76058 63 79 105
-3.3214 -3.81047 -1.75912 63 80 106
-3.35993 -3.83342 -1.77595 65 81 107
-3.8129 -3.22165 -1.78921 64 80 106
-3.82499 -3.21271 -1.7907 65 81 107
-3.83289 -3.20004 -1.78996 62 78 104
-3.84577 -3.18159 -1.78921 65 80 106
-3.86054 -3.17496 -1.7922 67 81 108
-3.8795 -3.1719 -1.79743 62 78 105
-3.88802 -3.14961 -1.79445 74 89 118
-3.90332 -3.12387 -1.79296 59 75 103
-4.22958 -2.7258 -1.80943 64 81 109
-4.22965 -2.70782 -1.80569 68 85 111
-4.24929 -2.69374 -1.80943 71 88 114
-4.25539 -2.67984 -1.80868 71 86 115
-4.25681 -2.66288 -1.80569 70 85 114
-4.27319 -2.64655 -1.80794 66 83 109
-4.28068 -2.63359 -1.80794 73 90 116
-4.29128 -2.62261 -1.80943 70 87 113
-4.30125 -2.60208 -1.80869 63 80 108
-4.65588 -1.93292 -1.77388 77 82 97
-4.67141 -1.92277 -1.77827 107 111 122
-4.862 -1.703 -1.78971 74 91 121
-4.86478 -1.68733 -1.78899 74 91 121
-5.12553 -1.37789 -1.80188 73 84 104
-5.12901 -1.36185 -1.80187 70 81 103
-5.38703 -0.995501 -1.80347 69 81 107
-5.64237 -0.599097 -1.7976 64 79 102
-5.79844 -0.375069 -1.79997 69 81 105
-5.89398 -0.272233 -1.80679 64 76 99
-2.28947 -5.29722 -1.75954 98 102 114
-2.42044 -5.09712 -1.75819 100 103 117
-2.66637 -4.7439 -1.76054 93 95 110
-2.89955 -4.42047 -1.76396 89 93 108
-2.91161 -4.41039 -1.76327 88 94 108
-3.14666 -4.06432 -1.76586 59 75 99
-3.15321 -4.04751 -1.76226 62 78 103
-3.16514 -4.03825 -1.76227 62 77 104
-3.25874 -3.85185 -1.75545 65 81 107
-3.28187 -3.8446 -1.75911 64 79 108
-3.29426 -3.83634 -1.75984 64 80 106
-3.75273 -3.28687 -1.78771 62 79 105
-3.76331 -3.26628 -1.78547 66 82 108
-3.77414 -3.25629 -1.78622 66 82 108
-3.79726 -3.25752 -1.79369 62 78 104
-3.80669 -3.24617 -1.79369 64 80 105
-4.31801 -2.59496 -1.81317 65 82 110
-4.31908 -2.57792 -1.81018 65 81 107
-4.32321 -2.56286 -1.80869 65 81 107
-4.33603 -2.54413 -1.80944 70 84 111
-4.34005 -2.52903 -1.80794 74 90 116
-4.31389 -2.49565 -1.79225 68 85 111
-4.33594 -2.48266 -1.79748 76 91 120
-4.34612 -2.47139 -1.79898 71 87 112
-4.68002 -1.90973 -1.77974 98 104 123
-4.67089 -1.88107 -1.77242 64 79 103
-4.67595 -1.86662 -1.77241 64 80 102
-4.86751 -1.67167 -1.78827 74 91 121
-4.86223 -1.64477 -1.78323 74 91 121
-5.13456 -1.33778 -1.80187 66 77 99
-5.3838 -0.977587 -1.80143 65 77 101
-5.64057 -0.572268 -1.79628 66 81 105
-5.78935 -0.356294 -1.79674 68 80 103
-2.15175 -5.4583 -1.75505 73 76 86
-2.27428 -5.30524 -1.76018 98 102 114
-2.39799 -5.10883 -1.75884 96 99 114
-2.65306 -4.75323 -1.76121 92 94 109
-2.8982 -4.44806 -1.77235 89 92 107
-3.11315 -4.05679 -1.75579 60 76 101
-3.24194 -3.87826 -1.7591 63 80 106
-3.2556 -3.8716 -1.76057 61 78 104
-3.70465 -3.35306 -1.79068 65 81 107
-3.70905 -3.33688 -1.7877 65 82 108
-3.72409 -3.33094 -1.79069 66 83 109
-3.74301 -3.31809 -1.79293 70 86 111
-3.75264 -3.30692 -1.79293 70 86 112
-4.35467 -2.45912 -1.79973 68 85 111
-4.38141 -2.44861 -1.8072 70 86 112
-4.39151 -2.43715 -1.80869 76 90 117
-4.37265 -2.40897 -1.79674 73 89 115
-4.3794 -2.39566 -1.79674 71 87 112
-4.69304 -1.85694 -1.77754 66 79 105
-4.69916 -1.83447 -1.77681 52 58 80
-4.8789 -1.634 -1.78826 74 91 121
-4.88322 -1.6189 -1.78826 74 91 121
-5.12884 -1.31942 -1.79837 66 80 103
-5.13214 -1.30336 -1.79837 66 78 100
-5.39158 -0.961736 -1.80347 67 79 100
-5.65278 -0.555691 -1.80023 66 78 102
-5.86785 -0.243282 -1.79791 62 72 97
-5.84505 -0.223944 -1.79031 67 79 101
-2.13553 -5.46418 -1.75505 71 73 84
-2.25777 -5.30966 -1.75953 100 103 118
-2.37989 -5.10846 -1.7562 95 98 113
-2.63887 -4.76085 -1.76121 92 94 109
-2.87609 -4.45751 -1.77095 87 93 107
-3.10513 -4.09787 -1.76657 64 79 102
-3.11296 -4.08266 -1.76369 63 79 103
-3.25321 -3.92905 -1.7774 58 74 100
-3.63819 -3.41203 -1.78694 66 82 107
-3.65609 -3.39841 -1.78844 65 79 105
-3.66332 -3.38492 -1.78694 68 84 109
-3.67449 -3.37532 -1.78769 66 82 107
-3.68561 -3.36567 -1.78844 68 84 109
-4.41567 -2.39028 -1.80869 68 84 110
-4.424 -2.37774 -1.80944 68 84 110
-4.43226 -2.36517 -1.81019 67 84 111
-4.41824 -2.31446 -1.79599 62 66 93
-4.69714 -1.81724 -1.77388 101 102 115
-4.7124 -1.80669 -1.77827 87 85 94
-4.87764 -1.59206 -1.78323 77 92 123
-5.14086 -1.28864 -1.80047 71 83 105
-5.38416 -0.934403 -1.79938 69 81 103
-5.38073 -0.91655 -1.79734 65 77 101
-5.65181 -0.53784 -1.79957 66 78 102
-5.79394 -0.329344 -1.79803 69 81 105
-2.12174 -5.47717 -1.75758 95 97 109
-2.23416 -5.32063 -1.76017 101 103 115
-2.36182 -5.10801 -1.75356 97 100 115
-2.62046 -4.77891 -1.76392 92 93 108
-2.85063 -4.4758 -1.77165 91 94 109
-2.86289 -4.46587 -1.77095 89 92 109
-3.07122 -4.11583 -1.76441 59 72 95
-3.07912 -4.1007 -1.76153 66 78 100
-3.18451 -3.9135 -1.75543 61 78 103
-3.21762 -3.932 -1.76934 61 78 106
-3.23712 -3.93276 -1.77447 62 79 107
-3.59789 -3.46563 -1.78992 66 83 110
-3.60281 -3.44964 -1.78693 66 83 109
-3.61824 -3.43357 -1.78694 62 78 104
-3.63084 -3.42545 -1.78843 64 80 106
-4.44258 -2.34491 -1.81019 79 91 117
-4.41818 -2.29745 -1.79301 55 61 81
-4.42981 -2.27812 -1.79375 56 64 80
-4.44596 -2.26986 -1.79824 53 60 78
-4.44572 -2.25283 -1.79525 48 55 75
-4.712 -1.79012 -1.77607 87 88 107
-4.72129 -1.76887 -1.7768 95 97 112
-4.89065 -1.57991 -1.78682 76 92 124
-4.9125 -1.57062 -1.79401 75 93 124
-5.14787 -1.26494 -1.80116 69 81 105
-5.39017 -0.900961 -1.80006 65 77 101
-5.65911 -0.511808 -1.80155 64 79 102
-5.8017 -0.311646 -1.8006 62 74 100
-5.85818 -0.205847 -1.79474 66 81 103
-2.09874 -5.46324 -1.75061 107 110 119
-2.21634 -5.32135 -1.75823 98 102 114
-2.34426 -5.13166 -1.75883 97 96 112
-2.58942 -4.78882 -1.76188 93 96 113
-2.60619 -4.78642 -1.76392 91 94 111
-2.84023 -4.48891 -1.77374 89 96 111
-3.04264 -4.12751 -1.76153 60 72 94
-3.05903 -4.12478 -1.7644 59 73 96
-3.17562 -3.96341 -1.7686 59 76 104
-3.19624 -3.96588 -1.77446 64 80 105
-3.54278 -3.50383 -1.78468 66 83 109
-3.56192 -3.50275 -1.78991 62 79 105
-3.55933 -3.47877 -1.78245 64 80 105
-3.57877 -3.46693 -1.78469 64 80 106
-4.45199 -2.23927 -1.79525 55 66 88
-4.45841 -2.21718 -1.79375 59 71 95
-4.47115 -2.20698 -1.79674 64 78 104
-4.72252 -1.75295 -1.77534 70 83 106
-4.72891 -1.73896 -1.77607 70 87 113
-4.89181 -1.5473 -1.78395 75 92 123
-4.89825 -1.52457 -1.78394 78 93 124
-5.14189 -1.24665 -1.79766 61 76 99
-5.15227 -1.23226 -1.80046 62 74 98
-5.64672 -0.493008 -1.79693 66 78 102
-5.78485 -0.29254 -1.7948 69 81 103
-5.87533 -0.178467 -1.80044 64 79 102
-2.07518 -5.47537 -1.75187 145 145 154
-2.20419 -5.33805 -1.7621 99 101 114
-2.32617 -5.13108 -1.75619 96 95 109
-2.57592 -4.79792 -1.76256 93 96 113
-2.80278 -4.50299 -1.77094 86 93 110
-2.81988 -4.50127 -1.77374 85 94 111
-3.02495 -4.14233 -1.76224 61 73 95
-3.16735 -3.97717 -1.7708 58 75 101
-3.51017 -3.5444 -1.78692 66 83 109
-3.52302 -3.53673 -1.78841 65 82 108
-3.52875 -3.51024 -1.78244 62 79 105
-4.47727 -2.19333 -1.79674 68 82 105
-4.4818 -2.17032 -1.7945 77 90 115
-4.49443 -2.15996 -1.79749 74 86 110
-4.48547 -2.1388 -1.79077 71 84 107
-4.73796 -1.7176 -1.7768 71 88 118
-4.75299 -1.70667 -1.78119 71 88 118
-4.90224 -1.5094 -1.78394 76 93 123
-4.91683 -1.49757 -1.78825 78 93 122
-5.15719 -1.20805 -1.80046 66 78 100
-5.6587 -0.476242 -1.80089 65 77 101
-5.79858 -0.266034 -1.79931 66 81 103
-5.86559 -0.15965 -1.79727 65 78 101
-2.31088 -5.13743 -1.75619 96 98 111
-2.54914 -4.79878 -1.75848 92 94 112
-2.79037 -4.51273 -1.77164 86 94 108
-3.00039 -4.15988 -1.76224 59 73 96
-3.01578 -4.15578 -1.7644 58 73 96
-3.10783 -3.96001 -1.75103 59 75 101
-3.15166 -3.99405 -1.77226 60 77 103
-3.46961 -3.57636 -1.78467 65 79 106
-3.47879 -3.56473 -1.78393 65 81 106
-3.49604 -3.55065 -1.78468 68 83 109
-4.49638 -2.11906 -1.79151 69 83 109
-4.51721 -2.11264 -1.79824 68 83 106
-4.75574 -1.69132 -1.78046 72 89 119
-4.74353 -1.66245 -1.7724 71 89 119
-4.92125 -1.47417 -1.78753 78 93 122
-5.15832 -1.19148 -1.79975 66 80 101
-5.1594 -1.17491 -1.79905 67 81 103
-5.65373 -0.4581 -1.7989 66 81 104
-5.78537 -0.247245 -1.79479 63 76 99
-5.85577 -0.14089 -1.7941 67 80 100
-2.06783 -5.50794 -1.76136 141 143 153
-2.18168 -5.35233 -1.76402 98 100 113
-2.29834 -5.15074 -1.75882 100 104 116
-2.53723 -4.81114 -1.76051 94 98 115
-2.76897 -4.52322 -1.77093 92 97 110
-2.96609 -4.1769 -1.76008 63 74 96
-2.97947 -4.16982 -1.7608 65 77 99
-3.07102 -3.99765 -1.75395 61 76 102
-3.11641 -4.02161 -1.77225 60 76 101
-3.12708 -4.01097 -1.77152 61 77 103
-3.43364 -3.61337 -1.78541 63 79 105
-3.44419 -3.60323 -1.78541 66 82 108
-3.4616 -3.58934 -1.78616 64 80 106
-4.54807 -2.11095 -1.80944 67 82 105
-4.56056 -2.10025 -1.81243 66 82 107
-4.56962 -2.07933 -1.81243 65 81 106
-4.76194 -1.65259 -1.77826 73 90 120
-4.7733 -1.64022 -1.78119 74 91 121
