-6.87631 -12.405 -1.13898 90 82 57
-6.96972 -12.4401 -1.14626 89 81 57
-6.9965 -12.3979 -1.14396 89 82 63
-9.17872 -11.9042 -1.28483 99 86 68
-9.23083 -11.8965 -1.28744 84 73 56
-9.26407 -11.8256 -1.28384 101 86 69
-9.35137 -11.8631 -1.29226 103 86 68
-9.42921 -11.8876 -1.29907 100 84 69
-9.47315 -11.83 -1.29727 108 89 76
-9.52171 -11.8165 -1.29928 96 84 69
-9.58513 -11.8214 -1.30369 95 85 68
-9.62735 -11.7616 -1.30169 98 90 65
-9.6521 -11.7181 -1.29989 94 85 63
-15.4908 -9.02771 -1.58026 116 113 122
-15.5456 -8.99532 -1.58347 124 119 126
-15.5969 -8.96069 -1.58627 122 118 122
-15.6725 -8.9073 -1.59028 126 122 123
-15.7202 -8.87011 -1.59268 128 124 125
-15.7678 -8.83271 -1.59508 137 132 132
-15.8378 -8.77522 -1.59848 92 86 98
-15.8539 -8.72001 -1.59728 94 88 95
-15.903 -8.68289 -1.59988 93 87 91
-15.9602 -8.61781 -1.60188 102 93 98
-15.9968 -8.5736 -1.60308 117 108 112
-16.0577 -8.54232 -1.60708 108 102 108
-18.7229 -6.73697 -1.69507 141 130 124
-18.7674 -6.687 -1.69755 137 124 119
-18.8146 -6.60468 -1.69927 141 130 129
-18.8682 -6.55751 -1.70271 148 133 134
-18.9178 -6.50875 -1.70576 149 134 131
-18.9398 -6.41717 -1.70499 153 142 141
-2.74997 -6.63131 -0.550705 77 77 52
-6.38815 -12.3987 -1.11653 74 83 58
-6.41912 -12.3651 -1.11501 78 85 62
-6.46778 -12.367 -1.11731 80 84 62
-6.50034 -12.3368 -1.11616 83 80 59
-6.59829 -12.3868 -1.12479 84 88 51
-8.51325 -11.9582 -1.24933 97 90 64
-8.66209 -12.013 -1.26256 96 82 73
-8.72577 -11.9844 -1.26397 109 92 82
-8.79841 -12.0077 -1.27018 106 89 79
-8.83638 -11.9823 -1.27038 113 96 86
-8.88597 -11.9336 -1.26939 105 91 81
-8.94958 -11.9432 -1.274 96 84 72
-8.99681 -11.9301 -1.2758 94 82 64
-9.07462 -11.9188 -1.27962 88 75 52
-9.11232 -11.8926 -1.27982 89 74 50
-16.1099 -8.50609 -1.61008 133 137 142
-16.1629 -8.43793 -1.61168 33 32 44
-16.1954 -8.39109 -1.61248 61 60 73
-16.2384 -8.34957 -1.61448 124 117 113
-16.2908 -8.28063 -1.61608 94 79 74
-18.9892 -6.36795 -1.70805 85 67 56
-19.0534 -6.32352 -1.71263 123 96 67
-19.118 -6.24566 -1.71627 140 117 104
-19.1707 -6.19677 -1.7197 139 130 127
-19.2024 -6.1409 -1.72104 134 127 129
-19.2491 -6.08972 -1.7239 137 129 131
-2.6773 -6.65234 -0.550054 99 82 73
-2.69134 -6.628 -0.548116 97 80 72
-2.71405 -6.62789 -0.548978 90 77 67
-6.02246 -12.3236 -1.09449 85 77 54
-6.13559 -12.3661 -1.10292 96 99 65
-6.25578 -12.4691 -1.1169 78 73 43
-6.33652 -12.5378 -1.12628 80 78 49
-6.34275 -12.4525 -1.1192 70 74 47
-8.1419 -12.0498 -1.23568 99 94 65
-8.16895 -12.01 -1.23388 90 81 59
-8.1483 -11.8992 -1.22347 89 77 59
-8.21229 -11.875 -1.22508 87 70 55
-8.28892 -11.9089 -1.23229 97 81 63
-8.31305 -11.8656 -1.23009 99 84 68
-8.4494 -11.9449 -1.24452 98 87 64
-8.60579 -12.0118 -1.25915 92 80 64
-17.0024 -7.82714 -1.66152 96 85 79
-17.1506 -7.83092 -1.67534 108 94 85
-16.6199 -7.15512 -1.59915 147 132 125
-16.6012 -7.08595 -1.59473 147 132 129
-16.6462 -7.01339 -1.59613 148 135 127
-19.3109 -6.00981 -1.72734 134 126 134
-19.3629 -5.95982 -1.73078 133 125 135
-19.394 -5.90315 -1.73211 131 125 130
-19.4607 -5.82389 -1.73612 132 127 130
-19.4932 -5.76737 -1.73765 133 128 130
-5.64575 -12.0977 -1.05943 80 82 50
-5.71653 -12.1048 -1.06289 79 79 44
-5.89331 -12.3954 -1.09543 80 72 52
-5.93053 -12.3758 -1.09524 83 73 64
-5.99435 -12.4138 -1.10118 79 69 60
-6.13059 -12.4547 -1.11038 89 86 58
-7.3565 -11.871 -1.17774 81 81 46
-7.49937 -11.9815 -1.19477 85 83 40
-7.52676 -11.9434 -1.19297 85 83 37
-7.57381 -11.9374 -1.19498 97 96 48
-7.70488 -12.024 -1.20941 77 83 41
-7.75656 -12.024 -1.21221 78 91 47
-7.77215 -11.9668 -1.20821 89 97 56
-7.8447 -11.9579 -1.21142 90 82 58
-7.94271 -12.0291 -1.22284 90 83 54
-7.97741 -12.0015 -1.22245 94 87 59
-8.08266 -12.0819 -1.23507 95 88 60
-6.57533 -7.22379 -0.873452 127 121 123
-6.61366 -7.19961 -0.874355 121 115 116
-6.60877 -7.15 -0.869849 123 123 123
-6.62496 -7.12398 -0.868948 124 122 122
-6.6763 -7.11413 -0.872103 123 119 120
-6.71387 -7.11126 -0.874806 122 121 119
-17.3184 -7.81005 -1.68997 165 151 142
-17.4163 -7.78913 -1.69818 158 139 126
-17.4161 -7.72415 -1.69557 155 138 128
-17.4157 -7.65925 -1.69295 149 132 124
-17.4306 -7.56876 -1.69074 151 134 126
-16.6874 -6.96971 -1.59833 151 134 126
-17.4128 -7.20927 -1.67528 152 135 127
-19.6114 -5.73595 -1.74779 138 130 131
-19.8499 -5.73886 -1.77 142 135 137
-20.111 -5.71261 -1.79355 142 135 135
-5.34217 -12.1142 -1.04906 98 73 66
-5.50812 -12.244 -1.06687 96 82 66
-5.62126 -12.4027 -1.08525 91 80 59
-5.72256 -12.4775 -1.09579 88 85 49
-5.70557 -12.3347 -1.08259 85 85 51
-7.26761 -12.1006 -1.19294 77 83 50
-7.31661 -12.0555 -1.19154 66 75 45
-7.32413 -11.9837 -1.18574 68 70 40
-7.32822 -11.9069 -1.17933 84 85 51
-11.6268 -7.16574 -1.25324 122 119 123
-11.6308 -7.09373 -1.24957 121 116 120
-11.6285 -7.04301 -1.24655 124 119 125
-11.6785 -7.02447 -1.25021 122 116 123
-17.4199 -7.11695 -1.67247 150 135 128
-17.4228 -7.05495 -1.67046 152 135 125
-17.4348 -6.9967 -1.66945 151 134 126
-17.4557 -6.9421 -1.66944 149 136 127
-17.5168 -6.87168 -1.67265 155 139 130
-17.5356 -6.8161 -1.67244 157 140 130
-17.5615 -6.76332 -1.67303 158 139 132
-17.6182 -6.69064 -1.67583 158 143 134
-20.3844 -5.72192 -1.8192 130 121 119
-20.6695 -5.73277 -1.84601 133 124 119
-20.9428 -5.70321 -1.8707 133 121 115
-27.133 -1.05365 -2.07621 96 117 144
-27.1015 -0.967147 -2.07334 133 158 181
-5.3372 -12.3151 -1.06666 98 78 69
-5.3278 -12.1852 -1.0548 96 76 68
-5.48601 -12.297 -1.0707 94 76 68
-7.06086 -12.2183 -1.19271 66 82 49
-7.06315 -12.1347 -1.18551 75 90 57
-7.15149 -12.2029 -1.19593 70 84 53
-7.17335 -12.1101 -1.18892 77 87 52
-7.2364 -12.1329 -1.19414 77 81 49
-17.6698 -6.64733 -1.67923 161 146 139
-17.712 -6.60029 -1.68163 156 143 133
-17.755 -6.52182 -1.68303 157 143 135
-17.8099 -6.47908 -1.68683 153 141 136
-17.876 -6.44008 -1.69183 152 138 131
-17.927 -6.3954 -1.69523 145 131 124
-21.2476 -5.71537 -1.89942 137 127 115
-21.5393 -5.72209 -1.9268 137 124 114
-27.0472 -0.837542 -2.06845 144 154 175
-26.9813 -0.750601 -2.06272 120 141 160
-26.9548 -0.665099 -2.06035 148 170 187
-5.13756 -12.3135 -1.05917 80 87 50
-5.21507 -12.3979 -1.06951 78 85 51
-5.25832 -12.3952 -1.07086 82 87 53
-5.33757 -12.4249 -1.07641 97 88 59
-6.75948 -12.2062 -1.17686 79 86 51
-6.80944 -12.1632 -1.17547 79 91 55
-6.85151 -12.1513 -1.17647 76 81 49
-6.93192 -12.2088 -1.18549 94 97 66
-6.96746 -12.1843 -1.1851 77 83 54
-17.9785 -6.31899 -1.69763 146 132 123
-18.0273 -6.27308 -1.70082 147 133 124
-18.0648 -6.22304 -1.70282 146 132 125
-18.1155 -6.14572 -1.70522 152 137 129
-18.1771 -6.10345 -1.70982 159 139 131
-18.2198 -6.05459 -1.71242 159 139 130
-21.8574 -5.69729 -1.9559 128 120 118
-22.0264 -5.66802 -1.97102 126 122 114
-22.0625 -5.60378 -1.97293 109 102 100
-22.0877 -5.49983 -1.97292 89 85 82
-22.1117 -5.43238 -1.97367 113 111 114
-4.83493 -12.0908 -1.02853 91 78 62
-5.04698 -12.4777 -1.07063 90 80 58
-5.0703 -12.4237 -1.06662 89 84 55
-5.15818 -12.5364 -1.07983 85 83 49
-6.43162 -12.2223 -1.16281 71 84 54
-6.51284 -12.2408 -1.16822 73 86 46
-6.55681 -12.2334 -1.16963 74 85 45
-6.58975 -12.2048 -1.16863 77 93 48
-6.65655 -12.1941 -1.17085 77 84 43
-6.73038 -12.2423 -1.17866 80 85 49
-18.2603 -5.9732 -1.71381 153 136 132
-18.3064 -5.9251 -1.71681 156 140 132
-18.3429 -5.87375 -1.71881 153 138 130
-18.4172 -5.83418 -1.72481 154 139 131
-18.4473 -5.74871 -1.7252 152 140 132
-22.122 -5.36153 -1.97309 115 110 117
-22.1224 -5.28833 -1.97154 108 103 110
-22.1481 -5.18454 -1.97172 118 115 116
-22.2021 -5.12398 -1.97554 139 139 141
-6.18293 -12.2432 -1.15337 74 85 53
-6.24677 -12.278 -1.15938 88 98 69
-6.31254 -12.2675 -1.16139 62 75 50
-6.35287 -12.2537 -1.162 57 73 46
-6.40927 -12.2718 -1.16621 72 89 57
-11.5247 -10.9213 -1.49225 121 120 126
-11.5695 -10.8967 -1.49398 120 117 126
-11.6299 -10.8525 -1.49549 120 119 124
-11.6731 -10.8261 -1.497 122 121 126
-11.7047 -10.7886 -1.49679 117 116 123
-11.7618 -10.741 -1.49787 122 119 128
-11.815 -10.7234 -1.50089 121 118 125
-11.858 -10.6962 -1.5024 119 118 124
-11.9082 -10.6756 -1.50499 122 121 127
-11.9545 -10.6176 -1.50456 119 118 124
-11.9914 -10.5845 -1.5052 121 120 125
-12.0415 -10.5632 -1.50779 116 115 120
-12.1006 -10.5164 -1.50931 119 116 123
-12.1342 -10.4803 -1.50952 121 120 126
-12.1886 -10.4622 -1.51276 120 119 125
-12.2398 -10.4081 -1.51319 120 119 125
-12.2896 -10.3857 -1.51578 119 118 124
-12.3394 -10.3631 -1.51837 121 118 127
-12.3952 -10.3454 -1.52182 118 115 126
-12.4566 -10.2992 -1.52376 118 115 123
-12.5032 -10.2733 -1.52592 118 117 123
-12.5468 -10.2447 -1.52764 118 116 122
-12.6078 -10.1976 -1.52959 116 113 123
-12.6512 -10.1685 -1.53131 119 116 122
-12.7037 -10.1468 -1.53433 118 117 123
-12.7551 -10.0913 -1.53498 118 115 122
-12.806 -10.0679 -1.53778 119 116 125
-12.8507 -10.0392 -1.53972 120 117 128
-12.8828 -10.0006 -1.53994 117 115 124
-12.9445 -9.95274 -1.54209 119 117 123
-12.9921 -9.92593 -1.54447 119 117 124
-13.0302 -9.89164 -1.54554 120 118 124
-13.0883 -9.84054 -1.54727 116 115 121
-13.1294 -9.80828 -1.54878 116 115 121
-13.1735 -9.77825 -1.55072 117 114 126
-13.2185 -9.71681 -1.55072 116 115 124
-13.264 -9.68756 -1.55287 118 117 123
-13.3142 -9.66165 -1.55568 118 117 122
-13.3628 -9.63434 -1.55826 119 118 123
-13.4265 -9.58598 -1.56085 117 114 123
-13.4717 -9.55583 -1.56301 118 115 126
-13.525 -9.53127 -1.56624 121 118 125
-13.5883 -9.48192 -1.56883 126 121 127
-13.6268 -9.44652 -1.57012 80 73 80
-13.68 -9.42119 -1.57336 110 97 89
-13.7527 -9.37765 -1.57724 113 99 90
-13.791 -9.34162 -1.57853 102 89 83
-13.8095 -9.29199 -1.57723 123 121 122
-13.8772 -9.27576 -1.58241 121 122 127
-13.9165 -9.20874 -1.58198 120 117 124
-18.5934 -5.73055 -1.73882 158 142 127
-18.8232 -5.73694 -1.76126 163 145 132
-19.0697 -5.71433 -1.7845 162 142 130
-22.2379 -4.94909 -1.97533 74 84 105
-22.2602 -4.88095 -1.97608 83 95 117
-22.261 -4.80806 -1.97473 82 97 120
-2.71127 -6.6034 -0.578097 81 81 50
-2.73601 -6.60877 -0.579673 85 88 51
-5.97297 -12.2411 -1.14393 81 74 51
-6.01481 -12.2321 -1.14494 82 83 49
-6.06776 -12.2463 -1.14855 87 88 57
-6.12973 -12.2295 -1.14976 89 96 63
-10.6595 -11.3866 -1.46159 113 110 112
-10.7186 -11.38 -1.46547 122 119 122
-10.7834 -11.3434 -1.46742 124 123 126
-10.8194 -11.3116 -1.46764 124 123 126
-10.8649 -11.2898 -1.46936 121 118 119
-10.9172 -11.275 -1.47217 126 122 122
-10.9762 -11.2315 -1.47325 124 122 123
-11.0202 -11.2076 -1.47476 116 115 120
-11.0807 -11.2007 -1.47886 120 118 123
-11.1338 -11.1507 -1.47908 122 120 125
-11.1805 -11.1291 -1.48102 122 120 125
-11.2229 -11.103 -1.48232 121 119 124
-11.2868 -11.0635 -1.48426 120 119 125
-11.3375 -11.0454 -1.48685 119 118 124
-11.3783 -11.0173 -1.48793 119 118 124
-11.4233 -10.9933 -1.48966 118 117 123
-11.5083 -10.9735 -1.49484 118 117 125
-13.9643 -9.17864 -1.58456 121 119 124
-13.9971 -9.13847 -1.58521 121 119 124
-14.0391 -9.07308 -1.58521 122 120 123
-14.0916 -9.04562 -1.58844 121 120 123
-14.1307 -9.00929 -1.58995 122 121 126
-14.1905 -8.95502 -1.59232 124 122 127
-14.2277 -8.91722 -1.59361 122 120 125
-14.258 -8.87503 -1.59404 125 123 129
-14.5032 -8.65865 -1.60481 132 124 119
-14.5549 -8.62879 -1.60805 140 129 126
-14.5896 -8.58852 -1.60912 146 132 127
-14.6358 -8.52431 -1.60998 151 137 126
-14.677 -8.48773 -1.61192 153 135 126
-14.7096 -8.44597 -1.61278 151 135 124
-14.031 -7.06729 -1.4777 144 136 130
-14.0097 -7.00202 -1.47252 156 142 130
-13.9935 -6.93961 -1.46798 171 152 136
-14.0234 -6.87322 -1.46776 192 170 148
-14.0511 -6.83298 -1.46862 135 117 103
-14.1073 -6.80657 -1.47293 132 122 113
-14.1723 -6.78419 -1.47832 140 127 119
-19.3037 -5.71867 -1.80733 160 138 124
-19.5608 -5.72827 -1.83258 159 137 124
-19.8214 -5.70357 -1.85722 143 130 122
-2.66648 -6.6371 -0.579894 90 80 64
-2.67826 -6.60728 -0.577193 85 75 53
-5.80686 -12.3296 -1.14491 92 85 60
-5.83812 -12.2977 -1.14331 81 69 51
-5.8792 -12.2873 -1.14412 80 62 48
-5.91775 -12.2715 -1.14433 79 62 45
-10.1359 -11.6957 -1.4484 119 115 115
-10.1949 -11.6917 -1.45229 125 120 116
-10.2514 -11.6844 -1.45574 117 111 111
-10.3132 -11.646 -1.45704 118 115 110
-10.3528 -11.6187 -1.45769 118 111 108
-10.3831 -11.5808 -1.45683 114 107 105
-14.7557 -8.41202 -1.61536 150 136 124
-14.7943 -8.34298 -1.61536 146 134 125
-14.8023 -8.28707 -1.6132 149 138 129
-14.855 -8.25649 -1.61665 87 82 93
-14.8963 -8.1889 -1.61708 98 94 101
-14.9523 -8.15972 -1.62096 97 92 95
-14.9804 -8.115 -1.62138 103 97 99
-15.0367 -8.05528 -1.62375 107 99 96
-15.0628 -8.00931 -1.62397 125 122 118
-15.1028 -7.97074 -1.6259 130 118 123
-15.1496 -7.9357 -1.6287 55 51 61
-15.1877 -7.86569 -1.62892 66 66 76
-15.2449 -7.83569 -1.63301 130 121 118
-14.5748 -6.84039 -1.52059 75 59 53
-14.5935 -6.79404 -1.52036 90 82 78
-20.0808 -5.71019 -1.88266 141 131 119
-20.3597 -5.72058 -1.91011 136 125 115
-20.6043 -5.71973 -1.93394 136 126 117
-22.5151 -3.91045 -1.98302 78 93 114
-5.48901 -12.2256 -1.12225 86 86 50
-5.50837 -12.1672 -1.11765 88 89 49
-5.65271 -12.3424 -1.13969 89 91 51
-5.70187 -12.3509 -1.14249 84 86 46
-5.74224 -12.3392 -1.1431 92 90 55
-9.11419 -11.724 -1.38042 119 117 115
-9.16694 -11.7182 -1.38344 122 119 118
-9.2466 -11.709 -1.38798 121 118 120
-9.31041 -11.7167 -1.39294 122 118 118
-9.37557 -11.7258 -1.39812 126 120 120
-9.44826 -11.7059 -1.40136 124 120 119
-9.50506 -11.7034 -1.40503 122 118 117
-9.57306 -11.7146 -1.41064 119 118 116
-9.65716 -11.7075 -1.41582 119 117 117
-9.71925 -11.7102 -1.42035 119 115 116
-9.77643 -11.7065 -1.42402 117 113 116
-9.84502 -11.7164 -1.42963 125 121 120
-9.92455 -11.7015 -1.43394 119 115 115
-9.98961 -11.7061 -1.43891 116 112 112
-10.0535 -11.7088 -1.44365 113 108 111
-11.593 -7.15659 -1.31408 126 119 120
-11.6172 -7.09732 -1.31295 130 124 119
-11.5996 -7.03744 -1.30777 137 128 122
-11.6462 -7.0168 -1.31114 143 131 124
-15.272 -7.78994 -1.63344 127 121 115
-20.6435 -5.62634 -1.93534 130 121 114
-20.6909 -5.56978 -1.93853 118 113 107
-20.7265 -5.50992 -1.94053 114 109 106
-20.7628 -5.41528 -1.94172 102 96 100
-20.7807 -5.35059 -1.94191 106 102 101
-22.5597 -3.84541 -1.98627 77 89 111
-22.5728 -3.77483 -1.98645 78 90 112
-22.5817 -3.70354 -1.98624 78 90 112
-22.6176 -3.60019 -1.98814 75 90 112
-5.34915 -12.2638 -1.12023 104 93 75
-5.3429 -12.1435 -1.10882 100 85 73
-5.45376 -12.2474 -1.12285 97 87 65
-8.41832 -11.7215 -1.3351 142 136 133
-8.47477 -11.725 -1.33898 107 95 95
-8.5313 -11.7283 -1.34287 104 89 82
-8.60865 -11.7214 -1.34719 113 96 88
-8.66428 -11.7225 -1.35086 109 95 87
-8.72461 -11.7298 -1.35539 98 85 77
-8.79646 -11.7137 -1.35863 121 112 103
-8.85234 -11.714 -1.3623 120 116 111
-8.91537 -11.7236 -1.36726 110 107 108
-8.99577 -11.7175 -1.37201 117 116 114
-9.04837 -11.7122 -1.37503 120 119 117
-15.7743 -7.26074 -1.65819 95 80 75
-15.8285 -7.22644 -1.66207 101 86 80
-15.8575 -7.1803 -1.66293 93 80 75
-15.9065 -7.11331 -1.66487 158 143 131
-15.9677 -7.08146 -1.66961 154 139 129
-16.0416 -7.05495 -1.67586 151 138 129
-20.86 -5.30143 -1.94852 118 115 114
-20.8179 -5.22149 -1.94249 114 111 116
-20.8529 -5.12625 -1.94369 132 130 133
-20.8776 -5.0631 -1.94468 142 142 147
-20.8751 -4.99339 -1.94286 139 142 149
-22.6535 -3.53311 -1.99062 79 93 115
-22.6616 -3.46158 -1.99042 84 96 120
-22.7102 -3.35967 -1.99366 85 98 125
-24.5541 -1.74581 -2.03913 99 114 137
-24.5269 -1.67083 -2.03609 101 116 137
-5.17938 -12.3361 -1.12041 74 91 51
-5.2195 -12.3262 -1.12101 80 97 55
-5.24281 -12.2201 -1.11201 93 94 59
-5.32663 -12.3164 -1.12423 103 94 64
-7.91983 -11.7275 -1.30488 74 69 49
-7.99601 -11.7244 -1.3092 89 82 65
-8.04732 -11.7231 -1.31222 77 64 54
-8.10092 -11.725 -1.31567 89 68 65
-8.17745 -11.7207 -1.31999 114 98 91
-8.23459 -11.727 -1.32409 122 109 104
-8.28736 -11.7264 -1.32733 132 119 117
-8.36312 -11.7194 -1.33143 145 134 129
-16.0482 -6.99841 -1.67412 155 143 131
-16.1055 -6.93424 -1.67714 155 139 124
-16.3596 -6.98452 -1.70474 155 139 129
-16.6142 -7.03327 -1.73235 162 146 133
-20.9187 -4.89999 -1.94506 73 81 96
-20.9235 -4.83206 -1.94404 82 91 111
-20.9647 -4.77249 -1.94684 82 93 116
-20.9802 -4.6724 -1.94623 79 94 115
-5.18322 -12.4566 -1.13181 62 79 38
-7.62709 -11.7908 -1.29321 94 88 58
-7.65267 -11.7507 -1.29106 95 85 62
-7.70356 -11.7509 -1.29408 97 82 69
-7.76766 -11.7307 -1.29603 78 65 55
-7.81759 -11.7288 -1.29883 75 66 51
-7.87514 -11.7382 -1.30315 70 64 47
-6.6527 -7.10219 -0.945974 118 115 122
-6.6968 -7.10694 -0.950062 114 113 119
-10.9472 -10.5297 -1.4894 120 119 125
-11.0186 -10.501 -1.49301 120 117 128
-11.0578 -10.4738 -1.49414 120 119 127
-11.0984 -10.4478 -1.49549 118 117 125
-11.1768 -10.425 -1.50022 119 118 126
-11.2028 -10.385 -1.49932 119 118 126
-11.2547 -10.3693 -1.50248 120 118 125
-11.3244 -10.3372 -1.50586 119 116 124
-11.3632 -10.3089 -1.50699 121 118 125
-11.399 -10.2778 -1.50767 122 119 126
-11.4612 -10.2705 -1.5124 121 117 126
-11.5055 -10.2146 -1.51195 119 117 127
-11.5544 -10.1948 -1.51465 118 116 127
-11.584 -10.1578 -1.51443 119 117 128
-11.6397 -10.1118 -1.51578 120 119 127
-11.675 -10.0797 -1.51646 119 118 124
-11.7251 -10.0604 -1.51939 117 116 122
-11.7699 -10.0046 -1.51917 118 117 127
-11.8034 -9.97075 -1.51962 118 116 126
-11.8474 -9.94573 -1.52164 117 114 123
-11.8898 -9.91926 -1.52345 117 114 125
-11.943 -9.87032 -1.52458 119 117 127
-11.9792 -9.83837 -1.52548 119 117 128
-12.0244 -9.81386 -1.52773 120 118 129
-12.0772 -9.76419 -1.52886 118 117 127
-12.1223 -9.73924 -1.53111 121 121 126
-12.1782 -9.72282 -1.53494 119 118 124
-12.2555 -9.69212 -1.53968 123 121 127
-12.2943 -9.66151 -1.54103 120 118 126
-12.3408 -9.63688 -1.5435 118 116 127
-12.3904 -9.61449 -1.54643 119 118 124
-12.4377 -9.55922 -1.54689 118 117 123
-12.4746 -9.52668 -1.54801 118 116 124
-12.5051 -9.48917 -1.54824 120 118 125
-12.5629 -9.4417 -1.55026 118 117 123
-12.617 -9.4218 -1.55387 117 116 127
-12.6551 -9.38976 -1.55522 117 115 126
-12.7238 -9.34967 -1.55883 117 115 123
-12.7585 -9.31486 -1.55973 116 113 120
-12.7948 -9.28109 -1.56085 118 116 128
-12.8374 -9.25184 -1.56288 118 116 127
-12.8735 -9.18736 -1.56198 119 117 128
-12.9288 -9.16696 -1.56581 120 119 125
-12.9517 -9.12335 -1.56513 116 114 125
-13.0163 -9.07891 -1.56828 123 120 129
-13.052 -9.04413 -1.56941 79 70 74
-13.0925 -9.0126 -1.57121 111 98 89
-13.1354 -8.95264 -1.57144 114 97 87
-13.1921 -8.93191 -1.57549 114 103 99
-13.2175 -8.88979 -1.57526 119 117 120
-13.2609 -8.85975 -1.57751 122 119 127
-13.3313 -8.81765 -1.58157 120 117 124
-13.3646 -8.78056 -1.58247 121 118 125
-13.3928 -8.74007 -1.58269 120 119 124
-13.4545 -8.6916 -1.58562 123 123 123
-13.4908 -8.65619 -1.58697 126 125 123
-16.6974 -6.97693 -1.73838 162 143 130
-17.4287 -7.22194 -1.82207 161 143 132
-16.461 -6.54833 -1.69737 165 146 131
-16.5009 -6.50493 -1.69973 164 145 130
-16.5359 -6.42967 -1.70038 164 145 131
-16.57 -6.3837 -1.7021 163 144 132
-16.6112 -6.34044 -1.70468 163 144 134
-21.021 -4.61242 -1.94902 83 97 120
-21.0326 -4.54597 -1.94881 82 96 119
-21.096 -4.31807 -1.95058 80 94 120
-4.98182 -12.5098 -1.12938 88 88 52
-5.0399 -12.4875 -1.12939 92 100 55
-5.08403 -12.4873 -1.131 88 104 58
-5.1405 -12.5184 -1.13601 72 93 47
-7.33258 -11.8852 -1.28499 84 88 57
-7.35986 -11.8476 -1.28305 83 86 55
-7.33677 -11.7266 -1.27055 89 90 53
-7.43345 -11.7626 -1.2794 90 81 58
-7.50792 -11.8026 -1.28738 93 81 61
-7.58793 -11.8508 -1.29644 88 75 57
-6.60166 -7.20079 -0.950542 118 116 121
-6.59839 -7.1525 -0.945972 122 120 125
-6.61604 -7.12799 -0.945251 121 120 124
-10.2597 -10.8863 -1.46301 118 115 125
-10.3248 -10.8548 -1.46549 119 117 124
-10.3757 -10.8417 -1.46842 120 117 125
-10.4074 -10.8083 -1.4682 120 117 126
-10.4623 -10.7992 -1.47181 122 119 126
-10.5121 -10.7507 -1.47181 120 118 123
-10.5781 -10.7525 -1.47722 120 119 125
-10.6054 -10.7142 -1.47632 119 117 125
-10.6854 -10.6961 -1.48128 120 117 124
-10.7181 -10.6631 -1.48128 120 118 123
-10.7744 -10.6539 -1.48511 121 118 124
-10.8334 -10.6138 -1.48669 122 119 126
-10.8742 -10.5887 -1.48805 119 116 125
-10.9193 -10.5676 -1.49008 121 118 126
-13.5337 -8.62492 -1.58922 138 128 126
-13.5816 -8.56702 -1.59035 144 133 128
-13.6008 -8.52052 -1.58944 144 134 125
-13.6434 -8.48871 -1.59169 142 129 121
-13.8609 -8.2714 -1.60025 144 132 127
-13.8825 -8.2262 -1.59979 135 128 120
-13.9244 -8.19306 -1.60204 134 128 124
-13.9756 -8.13597 -1.60385 121 116 113
-14.019 -8.10338 -1.60632 126 121 124
-14.0572 -8.06763 -1.60812 126 122 123
-14.0833 -8.02481 -1.60834 125 124 123
-14.1372 -7.96872 -1.61059 125 120 122
-14.182 -7.93631 -1.61329 109 101 111
-17.443 -7.16439 -1.8212 158 140 131
-17.4591 -7.07575 -1.81925 162 143 129
-17.4491 -7.00846 -1.81558 164 142 129
-16.6549 -6.2681 -1.7064 164 144 135
-16.6866 -6.22089 -1.7079 160 142 130
-16.7163 -6.17285 -1.70919 157 139 129
-16.7722 -6.10464 -1.71242 154 140 129
-16.8016 -6.05622 -1.7137 151 136 125
-16.8383 -6.01038 -1.71585 152 138 125
-21.1411 -4.15493 -1.95196 81 94 120
-21.1863 -4.09487 -1.95536 79 93 119
-21.2079 -4.03012 -1.95635 78 92 118
-7.03003 -11.8733 -1.26707 77 89 55
-7.09101 -11.8516 -1.26837 82 92 58
-7.16419 -11.8936 -1.27635 81 86 54
-7.2517 -11.9593 -1.28735 83 87 55
-7.29402 -11.904 -1.28455 82 86 54
-9.71261 -11.1999 -1.44766 124 122 125
-9.76621 -11.1926 -1.45104 127 125 128
-9.80172 -11.1641 -1.45127 122 122 120
-9.87284 -11.1412 -1.45465 120 118 120
-9.90949 -11.1138 -1.4551 124 122 124
-9.95396 -11.0952 -1.45691 122 120 124
-14.2007 -7.88921 -1.61261 90 83 97
-14.2455 -7.82757 -1.61374 96 91 96
-14.2934 -7.79649 -1.61689 100 94 96
-14.3361 -7.76235 -1.61937 102 93 95
-14.3803 -7.69996 -1.62049 105 97 95
-14.4262 -7.66725 -1.62342 115 110 106
-14.4668 -7.63153 -1.62567 134 126 123
-14.4951 -7.58918 -1.62634 43 41 44
-14.5473 -7.53047 -1.62859 91 87 94
-14.5647 -7.48236 -1.62791 127 119 115
-14.6031 -7.44505 -1.62993 130 122 119
-13.9446 -6.97261 -1.53911 169 148 129
-13.9478 -6.92027 -1.53686 163 132 107
-13.9953 -6.86285 -1.53888 176 136 109
-14.0212 -6.82179 -1.53955 134 102 79
-14.072 -6.79272 -1.54338 132 110 90
-14.1406 -6.77198 -1.54946 127 108 90
-16.8936 -5.97102 -1.72016 155 139 129
-16.9487 -5.90156 -1.72339 156 137 126
-17.0037 -5.86156 -1.7277 156 133 126
-17.0324 -5.81221 -1.72898 165 141 132
-17.1056 -5.74815 -1.73437 161 138 121
-21.2316 -3.9312 -1.95694 79 92 116
-21.2331 -3.86271 -1.95592 74 86 110
-21.2697 -3.80047 -1.95852 78 90 112
-21.2904 -3.70085 -1.95891 78 91 110
-6.74767 -11.9287 -1.25712 75 90 61
-6.73859 -11.8246 -1.24678 73 89 59
-6.84667 -11.9347 -1.26295 77 91 62
-6.88136 -11.9105 -1.26252 71 85 59
-6.94434 -11.893 -1.26426 78 93 61
-7.00526 -11.9152 -1.26965 76 86 57
-9.24577 -11.4529 -1.43568 114 110 109
-9.2808 -11.4245 -1.43568 115 111 110
-9.33187 -11.4161 -1.43862 113 107 107
-9.38589 -11.3747 -1.43885 123 117 117
-9.43821 -11.3674 -1.442 121 115 116
-9.46919 -11.3338 -1.44133 120 114 116
-9.51269 -11.3154 -1.44291 122 118 116
-9.56751 -11.2746 -1.44337 128 125 125
-9.61345 -11.2589 -1.4454 127 123 125
-9.66451 -11.249 -1.44833 126 121 124
-15.0171 -7.04997 -1.65311 84 65 57
-17.2694 -5.74387 -1.75119 181 151 129
-17.4598 -5.74737 -1.77102 202 168 142
-17.6781 -5.72826 -1.79302 208 169 136
-21.3166 -3.63657 -1.9605 79 88 107
-21.331 -3.57021 -1.96089 83 92 111
-21.351 -3.50474 -1.96188 84 96 114
-21.3899 -3.40775 -1.96427 85 97 119
-6.65107 -12.0607 -1.26465 97 94 59
-6.70953 -12.0809 -1.26961 86 88 56
-6.71849 -12.0081 -1.26315 73 83 52
-8.92451 -11.6266 -1.42867 107 106 104
-8.97327 -11.6167 -1.43115 107 106 104
-9.00641 -11.586 -1.4307 106 104 102
-9.05634 -11.5773 -1.43341 110 106 105
-9.12446 -11.5544 -1.43612 113 105 102
-9.15372 -11.5186 -1.435 117 109 106
-9.19018 -11.4921 -1.43522 116 111 107
-6.63392 -7.1722 -0.975641 120 118 123
-6.65417 -7.15052 -0.975394 120 119 124
-6.68774 -7.14341 -0.977609 120 119 127
-15.0329 -7.00056 -1.65242 99 88 84
-15.0827 -6.93841 -1.65467 90 75 68
-15.1071 -6.89295 -1.65512 106 92 83
-15.1459 -6.85395 -1.65737 109 93 87
-15.215 -6.79996 -1.6621 129 112 98
-15.2499 -6.75887 -1.66389 136 119 107
-15.2937 -6.72161 -1.66682 128 111 99
-15.3229 -6.67779 -1.66794 129 112 98
-17.8745 -5.73095 -1.8135 206 162 127
-18.0918 -5.73909 -1.83636 212 170 131
-18.3037 -5.74413 -1.85856 152 112 92
-21.3996 -3.3405 -1.96426 85 97 121
-21.413 -3.27381 -1.96465 84 99 122
-6.35615 -12.0388 -1.24759 72 83 54
-6.39851 -12.0303 -1.24889 86 98 73
-6.49515 -12.0808 -1.25859 82 95 66
-6.54684 -12.0893 -1.26205 92 98 65
-6.58581 -12.0731 -1.26248 88 86 50
-8.45166 -11.6976 -1.40318 105 100 100
-8.50471 -11.696 -1.40656 100 91 86
-8.58195 -11.6891 -1.41107 102 87 80
-8.63517 -11.687 -1.41446 103 89 80
-8.69662 -11.6959 -1.41941 104 89 82
-8.76833 -11.6799 -1.4228 102 94 90
-8.81589 -11.669 -1.42506 112 108 107
-8.85989 -11.6531 -1.42664 110 106 108
-6.60297 -7.2491 -0.980068 121 120 125
-6.64992 -7.25706 -0.984744 121 121 123
-15.3606 -6.60907 -1.66884 127 113 102
-15.4004 -6.56964 -1.67131 124 110 101
-15.4383 -6.52923 -1.67356 120 106 97
-15.4899 -6.46599 -1.67626 108 94 85
-15.5458 -6.43275 -1.68076 111 97 87
-15.5834 -6.39168 -1.68301 146 132 120
-18.5532 -5.72773 -1.88401 197 162 132
-18.7618 -5.72861 -1.90579 173 137 116
-18.9591 -5.72476 -1.92627 169 140 118
-6.17562 -12.0969 -1.24433 76 83 45
-6.19703 -12.0462 -1.24046 69 80 47
-6.26617 -12.0448 -1.2437 78 92 58
-6.31647 -12.0526 -1.24694 71 85 51
-7.96562 -11.6854 -1.37048 124 122 124
-8.02457 -11.6957 -1.37522 120 117 118
-8.08256 -11.7041 -1.37973 117 114 114
-8.15345 -11.6917 -1.38311 117 115 118
-8.2027 -11.6864 -1.38582 125 121 123
-8.26328 -11.6973 -1.39078 114 109 113
-8.33782 -11.6887 -1.39484 115 115 117
-8.39297 -11.6908 -1.39867 120 118 119
-15.6326 -6.32676 -1.68548 143 130 127
-15.6754 -6.28748 -1.6884 140 126 127
-15.696 -6.23919 -1.68862 142 130 128
-15.7423 -6.20101 -1.692 144 131 131
-15.8055 -6.14078 -1.69627 144 133 130
-15.8312 -6.09419 -1.69717 149 136 130
-15.8734 -6.05386 -1.70009 154 140 130
-19.0134 -5.64415 -1.9295 140 123 108
-19.0454 -5.58907 -1.93121 104 87 76
-19.0715 -5.53217 -1.93228 106 92 85
-19.1059 -5.44522 -1.93335 122 111 110
-19.1297 -5.38751 -1.93421 112 106 110
-5.97697 -12.1144 -1.23655 78 78 48
-6.02351 -12.1162 -1.23892 85 85 50
-6.06584 -12.1088 -1.24022 93 93 57
-6.12375 -12.085 -1.24066 83 84 50
-7.56489 -11.6993 -1.3468 120 115 113
-7.61452 -11.698 -1.34973 111 109 107
-7.66634 -11.6999 -1.35311 102 101 99
-7.73876 -11.6932 -1.35695 118 117 115
-7.78969 -11.693 -1.36011 117 115 116
-7.84502 -11.6991 -1.36417 122 119 120
-7.89939 -11.7034 -1.368 124 119 121
-15.9082 -5.98213 -1.70099 157 143 133
-15.9762 -5.95105 -1.70707 158 141 133
-15.9939 -5.90107 -1.70706 157 142 132
-16.0858 -5.84968 -1.71494 164 145 130
-16.1069 -5.80069 -1.71538 166 144 131
-19.1361 -5.32486 -1.93312 107 102 105
-19.1537 -5.2654 -1.93333 94 88 92
-19.1908 -5.17896 -1.93483 138 131 133
-19.2405 -5.12807 -1.9387 157 150 148
-19.2442 -5.06469 -1.9374 138 137 138
-23.2024 -0.548477 -2.00049 88 104 131
-5.78143 -12.134 -1.22941 90 87 57
-5.82942 -12.1402 -1.23222 81 79 46
-5.87085 -12.1317 -1.2333 95 95 59
-5.91728 -12.1339 -1.23568 79 80 49
-7.16834 -11.7002 -1.32312 141 133 126
-7.21845 -11.7023 -1.32627 147 137 131
-7.27069 -11.7076 -1.32988 149 142 136
-7.30551 -11.6838 -1.32966 137 134 129
-7.38762 -11.6961 -1.33575 121 120 117
-7.44014 -11.7006 -1.33936 120 115 116
-7.49485 -11.7083 -1.34341 112 109 111
-11.6143 -7.14578 -1.42145 109 109 121
-11.6712 -7.13175 -1.4265 110 110 120
-11.6032 -7.04026 -1.41375 108 108 118
-11.6642 -7.00381 -1.41783 110 113 122
-16.1447 -5.7576 -1.71786 167 141 124
-16.2927 -5.75327 -1.73362 164 135 114
-16.491 -5.73667 -1.75435 207 173 145
-19.2515 -4.97016 -1.93567 77 80 93
-19.2623 -4.9088 -1.93522 85 90 109
-19.2844 -4.85035 -1.93608 84 91 110
-19.3042 -4.75914 -1.93585 80 93 112
-19.3201 -4.69907 -1.93606 82 95 113
-2.72193 -6.60509 -0.636896 82 93 47
-5.5587 -12.1388 -1.2199 79 86 46
-5.62859 -12.1447 -1.22357 89 90 51
-5.67716 -12.1533 -1.2266 93 93 55
-5.72096 -12.1508 -1.22833 90 88 47
-6.8833 -11.7094 -1.30755 82 75 56
-6.93398 -11.7143 -1.31093 110 104 81
-7.00014 -11.7034 -1.31364 129 120 107
-7.05001 -11.7061 -1.3168 141 128 121
-7.09894 -11.707 -1.31973 144 133 129
-16.6637 -5.7386 -1.77305 211 173 136
-16.8497 -5.74398 -1.79332 198 158 127
-17.0618 -5.72724 -1.81562 193 158 127
-19.332 -4.63801 -1.93583 84 95 113
-19.3938 -4.5889 -1.94122 81 94 113
-19.4259 -4.50033 -1.9425 82 94 116
-19.4545 -4.44297 -1.94422 83 95 117
-23.1644 -0.0690162 -1.99673 92 107 136
-2.65418 -6.63876 -0.637852 103 104 62
-2.67158 -6.62387 -0.636892 73 80 36
-2.6889 -6.60893 -0.635932 86 88 48
-5.4081 -12.1503 -1.21449 80 91 50
-5.45983 -12.1151 -1.21321 84 85 50
-5.49942 -12.1042 -1.21386 72 73 38
-6.6216 -11.7071 -1.29266 79 78 57
-6.668 -11.7062 -1.29514 64 61 46
-6.71639 -11.7086 -1.29807 84 76 63
-6.76387 -11.709 -1.30078 105 97 82
-6.83369 -11.7059 -1.30439 113 105 96
-10.3091 -10.039 -1.51069 119 117 128
-10.354 -9.9899 -1.51046 119 117 128
-10.3986 -9.97188 -1.51286 120 117 128
-10.4376 -9.94812 -1.51431 120 116 130
-10.4993 -9.94631 -1.5196 118 116 129
-10.5337 -9.88668 -1.51768 120 117 128
-10.5869 -9.87609 -1.52153 118 115 126
-10.617 -9.84342 -1.52153 119 116 127
-10.6913 -9.8214 -1.52634 121 120 128
-10.7184 -9.78568 -1.52586 119 117 128
-10.7613 -9.76473 -1.52803 121 119 130
-10.8034 -9.71216 -1.52755 118 116 128
-10.8579 -9.70154 -1.53164 120 118 128
-10.8845 -9.66533 -1.53116 119 118 126
-10.9361 -9.65164 -1.53477 120 119 126
-10.985 -9.60487 -1.53549 122 121 129
-11.0321 -9.58674 -1.53838 119 118 127
-11.0717 -9.56182 -1.54006 119 118 127
-11.1233 -9.51698 -1.54127 121 120 128
-11.1478 -9.47868 -1.54055 119 118 126
-11.1856 -9.45199 -1.54199 119 118 127
-11.2292 -9.40006 -1.54199 118 116 126
-11.279 -9.38331 -1.54536 117 116 124
-11.3182 -9.35738 -1.54704 117 116 124
-11.3664 -9.33894 -1.55017 120 119 125
-11.4094 -9.28615 -1.55017 120 119 124
-11.4423 -9.25462 -1.55089 121 118 125
-11.4919 -9.23682 -1.55426 122 119 128
-11.536 -9.18468 -1.5545 121 119 130
-11.5887 -9.1689 -1.55835 120 119 127
-11.6227 -9.13798 -1.55931 120 118 129
-11.6866 -9.10123 -1.56268 122 121 127
-11.7127 -9.06381 -1.56244 119 118 126
-11.7652 -9.04712 -1.56629 121 120 126
-11.7896 -9.00823 -1.56581 121 120 126
-11.8578 -8.97401 -1.5699 120 121 125
-11.874 -8.92882 -1.56822 121 120 126
-11.9185 -8.90524 -1.57086 122 119 128
-11.969 -8.85697 -1.5723 122 121 126
-11.9959 -8.81986 -1.5723 125 123 127
-12.0338 -8.79097 -1.57399 123 121 124
-12.0934 -8.74909 -1.57687 124 119 125
-12.144 -8.72917 -1.58048 128 122 125
-12.1866 -8.70318 -1.58289 129 124 122
-12.2146 -8.66655 -1.58312 130 124 119
-12.2641 -8.61661 -1.58457 134 127 121
-12.3016 -8.58661 -1.58625 147 138 134
-12.3293 -8.54958 -1.58649 84 75 72
-12.3751 -8.49671 -1.58745 106 91 84
-12.4057 -8.46171 -1.58817 109 92 85
-12.4314 -8.42321 -1.58817 116 102 89
-12.4783 -8.37089 -1.58937 138 129 121
-12.5201 -8.34329 -1.59178 138 127 122
-12.5487 -8.30663 -1.59226 138 129 125
-12.5672 -8.26327 -1.59129 139 130 124
-12.6349 -8.22441 -1.59562 127 120 120
-12.6532 -8.18082 -1.59466 124 119 119
-12.7012 -8.15671 -1.59802 120 118 120
-12.7603 -8.1115 -1.60115 116 115 119
-12.7715 -8.06329 -1.59923 113 112 120
-12.8143 -8.03535 -1.60187 111 111 121
-12.8663 -7.98512 -1.60403 112 110 123
-17.2538 -5.73191 -1.83657 198 159 128
-17.4442 -5.7348 -1.85729 205 165 132
-17.6645 -5.71563 -1.8805 184 145 111
-19.4675 -4.38194 -1.94421 80 92 114
-19.5025 -4.29375 -1.94592 80 92 116
-19.5247 -4.23468 -1.94699 81 93 117
-19.5428 -4.17467 -1.94763 79 91 117
-21.8638 -1.80976 -1.99405 85 101 126
-23.1537 -0.000662038 -1.99576 92 107 136
-5.28604 -12.1742 -1.21167 80 89 48
-5.31965 -12.1492 -1.2106 81 93 51
-5.37149 -12.1682 -1.2147 82 93 51
-6.34633 -11.714 -1.27844 87 80 60
-6.39332 -11.7159 -1.28115 99 88 67
-6.45689 -11.7045 -1.28341 78 80 56
-6.50589 -11.7094 -1.28657 85 90 63
-6.55592 -11.716 -1.28995 86 87 61
-9.72637 -10.3836 -1.49094 119 118 126
-9.79585 -10.362 -1.49479 119 117 128
-9.82075 -10.3246 -1.49359 119 118 126
-9.86042 -10.303 -1.49504 119 118 126
-9.91618 -10.2662 -1.49649 121 119 128
-9.97073 -10.2601 -1.50058 121 119 129
-10.0034 -10.2308 -1.50082 121 119 130
-10.0237 -10.1886 -1.49889 120 118 131
-10.0928 -10.165 -1.50275 120 118 129
-10.1336 -10.1439 -1.50443 121 120 128
-10.1631 -10.1112 -1.50419 118 117 125
-10.2294 -10.084 -1.50756 119 118 126
-10.2629 -10.0552 -1.50805 119 117 127
-13.0863 -7.81779 -1.61653 109 111 123
-13.1252 -7.78633 -1.61869 106 110 122
-13.1438 -7.71493 -1.61629 101 105 116
-13.1842 -7.68417 -1.61869 108 111 119
-13.2211 -7.65121 -1.62061 102 106 115
-13.263 -7.59349 -1.62157 105 107 120
-13.3134 -7.56811 -1.62542 105 107 119
-13.3569 -7.53853 -1.6283 108 110 119
-13.3935 -7.50483 -1.63022 94 92 103
-13.4295 -7.44327 -1.63046 89 83 93
-13.4676 -7.41019 -1.63262 97 92 98
-13.4899 -7.36828 -1.63262 103 98 103
-17.8609 -5.71767 -1.9019 189 151 124
-17.927 -5.67726 -1.90775 200 170 141
-17.9646 -5.6276 -1.91022 131 102 85
-17.9995 -5.54605 -1.91134 120 99 84
-18.0216 -5.49137 -1.91201 138 120 106
-19.584 -4.11954 -1.95085 80 92 116
-19.5479 -4.01606 -1.9448 79 94 117
-19.5868 -3.96027 -1.94781 78 93 116
-19.606 -3.90037 -1.94866 81 93 115
-5.08369 -12.216 -1.20755 76 93 47
-5.13894 -12.1896 -1.20713 85 101 56
-5.18377 -12.1928 -1.20929 77 90 46
-5.22793 -12.1939 -1.21123 82 98 50
-6.09679 -11.7161 -1.26558 88 97 75
-6.13805 -11.7084 -1.26694 84 92 74
-6.18562 -11.7129 -1.26987 77 82 68
-6.23148 -11.7137 -1.27235 69 70 57
-6.2985 -11.7101 -1.27551 78 73 57
-9.28043 -10.634 -1.4772 119 118 126
-9.33734 -10.6002 -1.47865 121 119 130
-9.37234 -10.5746 -1.47913 118 117 126
-9.43066 -10.5758 -1.48395 120 119 127
-9.47433 -10.5263 -1.48299 120 119 130
-11.6761 -7.15389 -1.46565 111 111 123
-11.6393 -7.0571 -1.45556 111 111 123
-11.6656 -7.02402 -1.45629 109 109 121
-13.5584 -7.32436 -1.63743 105 95 95
-13.5718 -7.27742 -1.63622 97 87 85
-13.6129 -7.24555 -1.63887 122 113 109
-13.6793 -7.19971 -1.64344 125 123 126
-13.6905 -7.15156 -1.64199 75 77 86
-13.7331 -7.12002 -1.64487 84 85 92
-13.744 -7.07175 -1.64342 124 120 116
-13.8062 -7.02299 -1.64751 115 115 117
-13.8221 -6.97728 -1.64679 131 127 128
-13.866 -6.94592 -1.64991 129 125 126
-18.0511 -5.43889 -1.91358 139 123 115
-18.0775 -5.35456 -1.91379 133 122 119
-18.0648 -5.28955 -1.91041 130 119 117
-18.1032 -5.23953 -1.9131 120 108 109
-18.1497 -5.16088 -1.9158 139 128 125
-19.6233 -3.80806 -1.94865 80 92 116
-19.6362 -3.74684 -1.94886 80 92 116
-19.6587 -3.68743 -1.95014 80 92 114
-19.6847 -3.59665 -1.95121 79 92 115
-4.93674 -12.229 -1.203 91 94 55
-5.00633 -12.2403 -1.20689 87 95 56
-5.02816 -12.1847 -1.20216 76 88 47
-5.95547 -11.749 -1.26173 85 94 56
-5.99061 -11.7294 -1.26151 86 98 63
-6.03359 -11.7256 -1.26332 88 99 67
-8.87665 -10.8215 -1.46298 117 116 125
-8.90729 -10.7912 -1.46251 118 117 125
-8.95897 -10.7871 -1.46612 118 117 123
-9.01638 -10.7551 -1.46756 118 117 126
-9.05557 -10.7351 -1.46877 120 117 128
-9.10607 -10.7288 -1.47214 122 119 130
-9.13761 -10.6993 -1.4719 120 119 125
-9.19219 -10.6633 -1.47287 120 119 125
-9.24655 -10.6609 -1.47696 119 118 125
-10.3535 -9.67179 -1.52202 121 119 129
-10.4024 -9.62789 -1.52276 121 119 130
-10.436 -9.59983 -1.5235 120 118 129
-10.4725 -9.57435 -1.52473 115 113 126
-10.5283 -9.53653 -1.52671 119 117 128
-10.5646 -9.5107 -1.52794 120 118 129
-10.614 -9.4967 -1.53138 119 117 128
-10.6577 -9.47718 -1.53384 120 119 127
-10.7042 -9.43039 -1.53434 120 118 128
-10.7388 -9.40257 -1.53533 119 117 128
-10.7882 -9.38772 -1.53877 119 117 128
-10.8389 -9.34418 -1.54001 119 118 126
-10.8733 -9.31586 -1.54099 119 118 126
-10.9211 -9.29906 -1.54419 119 118 126
-10.9729 -9.25609 -1.54567 118 116 128
-11.0025 -9.22343 -1.54592 120 120 128
-11.0442 -9.20089 -1.54813 124 123 131
-11.0828 -9.17563 -1.54985 121 120 128
-11.1188 -9.11909 -1.54887 120 119 125
-11.1664 -9.10107 -1.55207 120 119 124
-11.1956 -9.06776 -1.55232 120 119 124
-11.2464 -9.02323 -1.5538 119 117 128
-11.2785 -8.99214 -1.55454 119 119 129
-11.3135 -8.96341 -1.55577 117 117 125
-11.3718 -8.92437 -1.55848 120 118 131
-11.4097 -8.89774 -1.5602 122 121 129
-11.4601 -8.88072 -1.56389 121 120 128
-11.4965 -8.85251 -1.56537 121 120 128
-11.5465 -8.8063 -1.56684 122 120 126
-11.5906 -8.78377 -1.56955 121 122 124
-11.6235 -8.75264 -1.57054 123 121 125
-11.6716 -8.70452 -1.57177 126 120 125
-11.7043 -8.67309 -1.57275 125 119 122
-11.7481 -8.6498 -1.57546 128 120 122
-11.7926 -8.59864 -1.5762 135 126 124
-11.8122 -8.55739 -1.57521 144 134 128
-11.8446 -8.52541 -1.5762 145 136 126
-11.8672 -8.48635 -1.5757 145 136 124
-11.9319 -8.44952 -1.57964 145 133 124
-11.9575 -8.4125 -1.57964 143 133 123
-12.004 -8.39024 -1.58284 148 138 129
-12.0522 -8.34113 -1.58432 93 83 81
-12.0791 -8.30485 -1.58456 112 98 90
-12.1075 -8.2696 -1.58505 109 94 87
-12.1585 -8.22211 -1.58702 146 136 126
-12.1817 -8.18325 -1.58678 131 125 121
-12.2031 -8.14321 -1.58628 123 117 116
-12.2442 -8.11632 -1.58874 125 120 120
-12.2963 -8.06907 -1.59096 118 114 117
-12.319 -8.02979 -1.59071 116 113 117
-12.3615 -8.00343 -1.59342 115 114 120
-12.4232 -7.9619 -1.59711 119 118 125
-12.4756 -7.94148 -1.60129 116 115 121
-11.9747 -7.38881 -1.51242 114 113 124
-13.9031 -6.88378 -1.65063 130 128 133
-13.954 -6.85552 -1.65471 132 128 131
-13.971 -6.81029 -1.65423 134 128 133
-14.0234 -6.75542 -1.65711 135 129 135
-14.0652 -6.72211 -1.65999 128 126 128
-14.105 -6.68774 -1.66264 130 126 130
-14.1681 -6.66428 -1.66841 133 124 131
-14.2074 -6.60224 -1.66961 128 123 127
-18.1764 -5.10719 -1.91714 158 147 145
-18.178 -5.04649 -1.91556 128 119 120
-18.1967 -4.99055 -1.916 80 74 78
-18.1999 -4.89979 -1.91374 88 88 104
-18.2181 -4.84373 -1.91418 86 91 109
-19.7145 -3.5384 -1.95336 82 94 118
-19.7168 -3.47512 -1.95248 83 95 119
-19.7477 -3.38496 -1.9542 83 95 117
-19.8004 -3.33028 -1.95893 84 96 120
-4.86212 -12.2598 -1.20321 100 98 57
-4.9005 -12.2472 -1.20343 103 104 59
-2.70422 -6.6526 -0.657874 93 98 57
-2.72624 -6.6506 -0.658613 83 87 52
-5.86336 -11.8842 -1.27095 83 76 57
-5.88869 -11.8433 -1.26803 89 82 54
-5.9121 -11.7989 -1.26465 99 91 61
-8.55287 -10.9625 -1.45189 122 118 125
-8.58281 -10.9316 -1.45118 120 118 124
-8.62231 -10.9132 -1.45238 119 118 126
-8.65692 -10.8883 -1.45263 118 117 125
-8.73044 -10.8783 -1.4572 119 118 123
-8.76373 -10.8516 -1.4572 120 119 125
-8.81044 -10.8419 -1.45985 118 117 125
-9.66123 -10.0775 -1.4959 119 117 128
-9.70421 -10.0607 -1.49811 120 119 130
-9.73486 -10.0308 -1.49812 119 118 130
-9.7764 -10.0123 -1.50009 118 117 128
-9.83771 -9.98271 -1.5028 120 119 128
-9.86535 -9.94958 -1.50231 117 116 125
-9.90954 -9.93333 -1.50477 119 118 126
-9.96366 -9.89594 -1.50625 121 120 128
-10.0036 -9.87506 -1.50798 119 118 126
-10.0266 -9.83723 -1.50675 120 118 129
-10.0832 -9.80197 -1.50872 121 119 130
-10.1301 -9.78753 -1.51167 119 119 129
-10.1755 -9.77151 -1.51438 120 119 127
-10.2251 -9.75943 -1.51783 121 120 128
-10.2715 -9.71345 -1.51808 118 118 126
-10.3154 -9.69544 -1.52054 120 119 127
-12.513 -7.91122 -1.60326 118 116 124
-12.5693 -7.86552 -1.60621 118 117 123
-12.5947 -7.8275 -1.60646 113 112 120
-12.7932 -7.65309 -1.61654 108 108 122
-12.8197 -7.5883 -1.61531 104 106 121
-12.8528 -7.55447 -1.61678 101 102 120
-12.8824 -7.51849 -1.61776 103 105 120
-12.9408 -7.47227 -1.62121 104 108 119
-12.9701 -7.43596 -1.62219 101 103 118
-12.9942 -7.39657 -1.62243 97 100 115
-13.0217 -7.35906 -1.62317 95 101 112
-14.265 -6.5756 -1.67465 132 127 130
-14.2811 -6.52947 -1.67417 127 123 124
-14.3343 -6.47339 -1.67729 131 126 130
-14.37 -6.43609 -1.67945 134 129 125
-14.4182 -6.40431 -1.6833 141 134 131
-14.422 -6.32557 -1.67992 129 127 127
-14.4681 -6.2926 -1.68353 129 127 130
-14.4815 -6.2451 -1.6828 126 121 126
-18.2362 -4.7876 -1.91462 86 93 109
-18.2518 -4.70031 -1.91394 84 93 108
-18.2694 -4.64404 -1.91438 84 93 108
-18.3254 -4.59732 -1.91933 83 92 109
-19.8216 -3.27007 -1.96021 85 98 123
-19.8407 -3.20944 -1.96128 86 98 124
-19.8822 -3.12032 -1.96429 86 100 126
-2.70517 -6.71784 -0.665497 97 96 50
-5.68097 -11.924 -1.26619 87 89 56
-5.72252 -11.9178 -1.26755 90 89 56
-5.77659 -11.9384 -1.27228 82 77 47
-5.81404 -11.9229 -1.27251 78 71 48
-8.29162 -11.1104 -1.44706 102 89 78
-8.3198 -11.0771 -1.44586 117 107 105
-8.36544 -11.0677 -1.44827 123 118 122
-8.42374 -11.0388 -1.44972 120 118 125
-8.45161 -11.0051 -1.44852 118 117 122
-8.49125 -10.9872 -1.44972 119 116 123
-9.22969 -10.3317 -1.48258 121 120 128
-9.26119 -10.3033 -1.48258 120 119 127
-9.53918 -10.1662 -1.49343 119 117 128
-9.57556 -10.1426 -1.49441 119 117 128
-9.60782 -10.1146 -1.49466 119 117 128
-13.0708 -7.30697 -1.62538 93 96 109
-13.1153 -7.27883 -1.62858 111 110 118
-13.1494 -7.24472 -1.6303 111 111 114
-13.1946 -7.18993 -1.63202 114 108 109
-13.2319 -7.15736 -1.63423 113 104 100
-13.2639 -7.1218 -1.63571 115 105 97
-13.2981 -7.06073 -1.63595 122 113 111
-13.3281 -7.02394 -1.63718 140 135 140
-13.372 -6.9944 -1.64038 62 62 74
-13.3965 -6.95457 -1.64087 93 98 105
-14.5184 -6.20782 -1.6852 130 125 131
-14.5685 -6.14924 -1.68808 129 126 133
-14.6015 -6.10999 -1.69 133 126 133
-14.6472 -6.07597 -1.69361 133 126 133
-14.6876 -6.01272 -1.69529 133 128 134
-14.7441 -5.98273 -1.70033 130 128 133
-18.3382 -4.50918 -1.91842 83 93 111
-18.3764 -4.45771 -1.92134 82 94 111
-18.3875 -4.3996 -1.9211 80 92 113
-18.4273 -4.34825 -1.92425 81 93 115
-19.8969 -3.0588 -1.96493 86 100 126
-19.9232 -2.999 -1.96686 88 102 128
-19.944 -2.90629 -1.96771 86 101 124
-19.9954 -2.84988 -1.97244 87 101 127
-5.52642 -11.9245 -1.25897 85 85 50
-5.57028 -11.9243 -1.261 88 91 54
-5.61907 -11.9348 -1.26438 85 93 60
-7.97095 -11.2436 -1.43741 120 118 119
-8.02339 -11.2455 -1.44126 119 116 117
-8.05332 -11.2145 -1.4403 122 120 124
-8.12346 -11.2036 -1.44416 94 85 87
-8.1612 -11.1836 -1.44488 108 91 84
-8.1943 -11.1571 -1.44464 107 90 80
-8.22964 -11.1337 -1.44489 104 90 79
-8.82069 -10.5358 -1.46852 119 117 129
-8.8503 -10.5057 -1.46803 120 117 124
-8.89628 -10.4953 -1.47074 120 117 126
-8.94088 -10.4498 -1.47001 121 120 127
-8.99194 -10.4451 -1.4737 121 120 128
-9.02635 -10.4206 -1.4742 121 120 128
-9.08217 -10.388 -1.47568 121 120 128
-9.13069 -10.3796 -1.47888 119 118 130
-9.17014 -10.3606 -1.48036 121 119 131
-13.4494 -6.90282 -1.64382 124 122 121
-13.486 -6.86903 -1.64603 118 117 120
-13.5101 -6.82879 -1.64652 126 126 128
-13.5554 -6.77271 -1.64849 126 126 126
-13.5775 -6.73134 -1.64873 130 130 132
-13.6172 -6.69867 -1.65143 125 123 126
-13.6727 -6.64712 -1.65488 131 126 132
-13.7158 -6.61571 -1.65807 129 124 130
-13.7624 -6.58581 -1.66176 130 125 131
-14.7399 -5.92775 -1.69744 127 125 128
-14.7981 -5.87131 -1.70153 133 126 133
-14.8819 -5.85155 -1.71018 132 125 132
-14.8939 -5.80292 -1.70945 131 124 131
-14.9407 -5.76799 -1.7133 135 129 133
-18.4467 -4.26151 -1.92424 78 90 112
-18.4571 -4.20319 -1.92401 79 91 112
-18.4887 -4.14959 -1.92625 80 91 112
-18.5207 -4.0655 -1.92782 85 98 117
-18.4937 -3.99902 -1.9233 84 97 116
-20.0132 -2.78846 -1.97351 91 106 129
-20.0508 -2.69764 -1.9763 101 115 130
-5.37407 -11.9268 -1.2522 86 90 55
-5.42408 -11.9417 -1.25603 85 91 57
-5.48933 -11.9909 -1.26414 84 88 60
-7.74439 -11.3606 -1.43354 115 110 114
-7.79562 -11.3619 -1.43715 119 115 116
-7.83392 -11.3047 -1.43403 125 122 126
-7.8741 -11.2891 -1.43523 123 119 124
-7.91536 -11.275 -1.43668 126 122 124
-8.52065 -10.6983 -1.46062 120 119 125
-8.56188 -10.6832 -1.46234 118 117 122
-8.60062 -10.6647 -1.46358 114 113 119
-8.64736 -10.6221 -1.46309 118 117 125
-8.68226 -10.5987 -1.46359 118 117 123
-8.72083 -10.5798 -1.46482 119 118 124
-8.77968 -10.552 -1.46679 118 116 129
-6.62191 -7.22048 -1.06327 119 117 128
-6.63318 -7.18844 -1.06117 118 118 128
-6.65225 -7.16523 -1.06064 120 118 129
-6.6752 -7.14639 -1.0609 120 118 129
-6.72529 -7.13479 -1.06432 118 116 127
-13.7857 -6.54459 -1.66225 129 126 131
-13.8388 -6.49104 -1.66545 127 125 130
-13.878 -6.45708 -1.66815 126 125 130
-13.9189 -6.42378 -1.6711 126 124 129
-13.9626 -6.36521 -1.67307 127 124 127
-14.0105 -6.33474 -1.677 131 126 130
-14.0439 -6.29752 -1.67896 130 125 129
-15.0761 -5.74011 -1.72749 140 130 130
-15.2155 -5.73976 -1.74336 144 131 126
-15.4032 -5.75682 -1.76548 135 120 116
-18.5227 -3.94468 -1.92532 79 92 111
-18.5305 -3.85543 -1.92418 80 91 110
-18.5416 -3.79726 -1.92417 83 92 111
-18.5681 -3.74217 -1.92597 78 90 108
-21.5837 -0.55986 -1.9909 83 98 127
-5.20159 -11.9809 -1.25014 82 92 57
-5.23605 -11.96 -1.24947 81 92 57
-5.27736 -11.9553 -1.25083 82 90 57
-5.31713 -11.9469 -1.25174 81 90 55
-7.52996 -11.4548 -1.4287 108 102 104
-7.56721 -11.4352 -1.42919 113 109 109
-7.59904 -11.4072 -1.42847 114 108 111
-7.6713 -11.4024 -1.43281 119 116 115
-7.6965 -11.3641 -1.43065 121 116 122
-8.22027 -10.8553 -1.45321 119 118 123
-8.24986 -10.8254 -1.45247 117 118 122
-8.2972 -10.8193 -1.45543 118 117 123
-8.35432 -10.7907 -1.45691 117 116 124
-8.38606 -10.7635 -1.45667 118 117 125
-8.431 -10.7536 -1.45913 118 117 125
-8.46625 -10.731 -1.45963 118 117 125
-14.0852 -6.23738 -1.68068 132 129 130
-14.1147 -6.19821 -1.68216 131 126 132
-14.1532 -6.16288 -1.68486 132 127 134
-14.1788 -6.12185 -1.68584 133 128 132
-14.2321 -6.06632 -1.68928 131 126 131
-14.2521 -6.02266 -1.68952 130 125 130
-14.2828 -5.98353 -1.69124 134 128 132
-15.565 -5.73525 -1.78304 155 137 125
-15.731 -5.74163 -1.80228 159 137 121
-15.8784 -5.74019 -1.81911 167 141 121
-18.5788 -3.68388 -1.92596 80 91 109
-18.6028 -3.59786 -1.92685 80 92 114
-18.6151 -3.53982 -1.92706 80 92 114
-18.6428 -3.48463 -1.92908 80 93 112
-21.5734 -0.464651 -1.98965 87 102 131
-21.5699 -0.401315 -1.98925 89 104 133
-21.5603 -0.337901 -1.9882 95 110 139
-5.05221 -11.9845 -1.24404 74 91 49
-5.09566 -11.986 -1.24608 74 92 50
-5.16166 -12.0425 -1.25486 77 92 50
-7.33076 -11.532 -1.42363 114 108 108
-7.39461 -11.5155 -1.42604 108 102 104
-7.43411 -11.4997 -1.42701 114 108 110
-7.46726 -11.4738 -1.42653 113 108 110
-7.94056 -10.965 -1.44358 100 96 100
-7.96945 -10.9343 -1.4426 105 90 85
-8.01556 -10.9277 -1.44531 114 99 90
-8.07763 -10.9071 -1.44778 105 91 82
-8.11795 -10.892 -1.44926 105 91 84
-8.15475 -10.872 -1.45 110 99 97
-14.3374 -5.92798 -1.69493 130 125 129
-14.3606 -5.88547 -1.69566 127 122 126
-14.4314 -5.86228 -1.7028 130 128 129
-14.4579 -5.79464 -1.70279 133 128 132
-14.5065 -5.76192 -1.70697 136 129 134
-16.0649 -5.72361 -1.83979 196 158 128
-16.2408 -5.73009 -1.86024 211 168 133
-16.4262 -5.73883 -1.88188 202 160 122
-18.662 -3.3975 -1.92952 82 94 118
-18.7205 -3.34757 -1.93515 83 95 119
-18.7222 -3.2874 -1.93423 84 96 120
-20.2263 -2.07798 -1.98805 106 114 130
-20.2152 -1.98066 -1.98588 89 103 129
-21.5806 -0.243348 -1.99043 91 106 135
-21.5804 -0.180069 -1.99046 89 106 134
-21.5404 -0.116505 -1.98615 84 101 129
-4.88757 -11.9454 -1.23299 98 92 58
-4.94518 -11.9845 -1.23953 95 97 60
-4.99581 -12.0049 -1.24381 97 103 67
-7.12657 -11.6387 -1.42168 117 114 115
-7.15318 -11.6017 -1.41952 125 121 122
-7.21205 -11.5777 -1.42073 109 105 106
-7.25881 -11.5745 -1.42338 106 102 103
-7.30254 -11.566 -1.42531 117 111 111
-7.72267 -11.0867 -1.44036 118 115 124
-7.76605 -11.0399 -1.43864 119 117 123
-7.81217 -11.0342 -1.44135 117 116 121
-7.84927 -11.0153 -1.4421 119 118 124
-7.90699 -10.9891 -1.44358 118 119 125
-14.614 -5.75221 -1.71903 138 129 129
-14.766 -5.75917 -1.73699 142 132 132
-14.9254 -5.74121 -1.75472 142 130 125
-16.5724 -5.7327 -1.89847 205 168 133
-16.6284 -5.66532 -1.90232 184 150 123
-16.6546 -5.61655 -1.90351 150 122 101
-16.6601 -5.5607 -1.90206 143 120 103
-16.7134 -5.49194 -1.90567 129 112 102
-18.7726 -3.23563 -1.93896 85 97 122
-18.775 -3.14521 -1.93759 85 98 119
-18.8034 -3.08942 -1.93984 82 98 123
-18.8317 -3.03348 -1.94208 86 100 126
-20.1948 -1.91466 -1.98307 91 108 136
-20.1998 -1.85119 -1.98305 89 104 132
-20.2106 -1.78823 -1.98369 114 127 137
-21.5478 -0.0217895 -1.98708 88 105 133
-4.78196 -11.9459 -1.2287 130 122 87
-4.8413 -11.991 -1.23591 103 94 59
-6.94311 -11.6966 -1.41637 118 114 113
-6.99575 -11.7049 -1.42046 118 114 113
-7.02671 -11.6751 -1.41926 117 113 112
-7.08382 -11.6482 -1.41999 116 112 112
-7.4603 -11.1754 -1.43123 122 120 125
-7.50207 -11.1643 -1.43295 114 114 116
-7.53619 -11.1415 -1.43296 115 114 117
-7.58009 -11.1335 -1.43518 120 119 123
-7.64477 -11.1186 -1.43814 120 118 124
-7.6854 -11.1052 -1.43962 118 116 124
