-5.03385 -2.34855 -1.81193 48 55 74
-5.04405 -2.32517 -1.81194 54 61 80
-5.53484 -1.65706 -1.81791 73 82 99
-5.55184 -1.64366 -1.82253 72 81 98
-5.73107 -1.31641 -1.81035 74 86 103
-5.8728 -1.17975 -1.82415 72 83 103
-6.13077 -0.811841 -1.82325 77 89 113
-6.31278 -0.573191 -1.83065 73 85 109
-2.32231 -5.97219 -1.75338 127 118 111
-2.60017 -5.77068 -1.79231 86 84 85
-2.78842 -5.52445 -1.79944 82 90 109
-3.01238 -5.23271 -1.80424 90 86 100
-3.1174 -4.99242 -1.78891 85 87 112
-3.13318 -4.98508 -1.78956 85 85 111
-3.3016 -4.70096 -1.78426 80 86 112
-3.31652 -4.69295 -1.78492 80 86 112
-3.75786 -4.05264 -1.78636 71 84 101
-3.76605 -4.03714 -1.78432 71 84 101
-3.81674 -4.05663 -1.80198 74 85 105
-5.06919 -2.31836 -1.81942 80 89 104
-5.0467 -2.28917 -1.80787 85 92 108
-5.06856 -2.27123 -1.81263 76 83 102
-5.55974 -1.62751 -1.82385 78 87 102
-5.54474 -1.59542 -1.81594 74 83 98
-5.74354 -1.30076 -1.81357 72 83 101
-5.73754 -1.28079 -1.81036 71 82 102
-5.88308 -1.16274 -1.82669 71 82 100
-6.13183 -0.782856 -1.82264 71 82 102
-6.57859 -0.069537 -1.81051 77 89 111
-6.56117 -0.0531029 -1.8041 80 92 114
-2.29698 -5.95692 -1.74644 129 120 113
-2.58506 -5.78332 -1.79411 89 86 88
-2.77261 -5.53408 -1.80005 84 91 109
-2.99331 -5.23471 -1.80171 93 86 102
-3.10253 -5.00135 -1.78892 87 86 110
-3.27374 -4.71999 -1.78426 79 86 109
-3.28357 -4.70419 -1.78162 79 85 111
-3.70339 -4.10291 -1.78635 72 79 105
-3.71913 -4.09608 -1.78839 73 81 104
-3.72531 -4.06514 -1.78159 72 83 103
-3.77059 -4.09221 -1.79994 71 82 102
-5.07996 -2.25788 -1.81467 81 93 108
-5.08792 -2.24292 -1.81536 76 85 100
-5.09248 -2.21697 -1.81332 71 80 95
-5.55612 -1.58029 -1.81859 69 80 95
-5.56565 -1.56459 -1.82057 70 80 97
-5.74268 -1.25403 -1.81036 69 84 104
-5.87466 -1.14213 -1.82289 71 82 100
-6.14096 -0.764675 -1.82511 72 84 106
-6.13685 -0.74477 -1.82326 72 84 108
-6.56235 -0.0370086 -1.80484 76 88 110
-2.2697 -5.96649 -1.74645 130 120 110
-2.58064 -5.82239 -1.8049 89 83 87
-2.75443 -5.53844 -1.79883 85 92 110
-2.95583 -5.25953 -1.80298 90 86 101
-2.97138 -5.25098 -1.80298 94 92 109
-3.06576 -5.02512 -1.78956 84 86 107
-3.07886 -5.01301 -1.78827 83 87 107
-3.24933 -4.72938 -1.78228 78 86 109
-3.66043 -4.14143 -1.78634 72 80 103
-3.67625 -4.13479 -1.78838 72 82 107
-3.69005 -4.11253 -1.78566 73 80 106
-5.10203 -2.20272 -1.81469 70 79 95
-5.10466 -2.1854 -1.81333 73 80 97
-5.10725 -2.16808 -1.81198 72 79 95
-5.57937 -1.5407 -1.82322 72 81 98
-5.7476 -1.2366 -1.81101 72 85 104
-5.88471 -1.11545 -1.8248 71 82 102
-5.89292 -1.09797 -1.82671 70 83 102
-2.25056 -5.96915 -1.74529 132 123 113
-2.53844 -5.79439 -1.79172 89 85 82
-2.72981 -5.55183 -1.79945 81 88 107
-2.93675 -5.26131 -1.80045 87 85 99
-3.05079 -5.03389 -1.78956 84 85 105
-3.21929 -4.74488 -1.78097 74 84 108
-3.23534 -4.73875 -1.78228 76 85 108
-3.63472 -4.16177 -1.78566 71 81 104
-3.66855 -4.17695 -1.79789 72 83 104
-5.1321 -2.15101 -1.8181 72 81 96
-5.11902 -2.12698 -1.81063 75 84 99
-5.12486 -2.11111 -1.81063 72 81 96
-5.55604 -1.51599 -1.81333 68 80 96
-5.57084 -1.50168 -1.81729 70 82 98
-5.7543 -1.21954 -1.81231 71 83 105
-5.75174 -1.20045 -1.81038 72 83 103
-5.84882 -1.07112 -1.81087 73 86 105
-6.13759 -0.715765 -1.82265 81 93 115
-6.13898 -0.696581 -1.82266 64 77 96
-6.5859 -0.0130088 -1.81416 75 87 109
-2.22666 -5.95721 -1.73951 131 121 111
-2.52179 -5.80332 -1.79232 93 90 85
-2.70783 -5.54733 -1.79514 81 88 109
-2.91639 -5.28068 -1.80299 83 81 93
-3.02788 -5.04694 -1.78957 87 88 109
-3.1867 -4.77276 -1.78295 77 86 108
-3.1968 -4.75716 -1.78031 77 86 108
-3.59347 -4.20243 -1.78701 76 84 108
-3.60113 -4.18585 -1.78429 73 84 106
-3.61348 -4.17509 -1.7843 76 84 107
-5.14432 -2.0916 -1.81472 67 75 90
-5.14138 -2.07205 -1.81132 74 82 95
-5.577 -1.47576 -1.8173 69 80 98
-5.57528 -1.45703 -1.81532 70 79 96
-5.75278 -1.17283 -1.8091 75 86 106
-5.89426 -1.06024 -1.82545 70 82 102
-6.14409 -0.677823 -1.8239 78 90 113
-2.2064 -5.95609 -1.7372 132 122 112
-2.48214 -5.80503 -1.78813 91 87 84
-2.51347 -5.83346 -1.80011 105 100 97
-2.6919 -5.55671 -1.79576 81 89 109
-2.88506 -5.29736 -1.80299 65 62 76
-2.89558 -5.27893 -1.79919 74 69 82
-3.02898 -5.08554 -1.80116 87 88 106
-3.16465 -4.76908 -1.77767 76 83 109
-3.57591 -4.24675 -1.79516 71 79 101
-3.5709 -4.21404 -1.78497 72 80 103
-4.23787 -3.32611 -1.8039 84 96 115
-4.24453 -3.31085 -1.8025 83 92 112
-4.25406 -3.2979 -1.80251 88 96 115
-4.27163 -3.28072 -1.80391 81 90 109
-4.28699 -3.27228 -1.80671 81 90 107
-4.29345 -3.2569 -1.80531 80 90 108
-4.30281 -3.24379 -1.80532 78 89 107
-4.30528 -3.215 -1.79973 78 87 105
-4.32795 -3.21199 -1.80602 82 91 109
-4.33867 -3.19988 -1.80673 82 93 112
-4.34984 -3.17774 -1.80533 81 90 111
-4.35594 -3.16221 -1.80394 81 92 110
-4.35896 -3.14446 -1.80114 77 87 106
-4.39106 -3.13764 -1.80954 75 86 106
-4.38942 -3.11653 -1.80465 79 90 110
-4.39377 -3.09982 -1.80255 77 88 106
-4.40418 -3.08745 -1.80326 76 86 104
-4.42087 -3.06936 -1.80466 77 85 104
-4.43884 -3.06225 -1.80886 76 84 103
-4.44914 -3.04972 -1.80956 75 86 103
-4.45645 -3.025 -1.80677 71 82 101
-4.46044 -3.00817 -1.80468 75 86 106
-4.47832 -3.00079 -1.80888 70 79 98
-5.13664 -2.05183 -1.80725 73 79 95
-5.14368 -2.0272 -1.80658 74 80 99
-5.14746 -2.01054 -1.8059 56 62 80
-5.57715 -1.43926 -1.81467 69 80 98
-5.75745 -1.15532 -1.80975 69 80 100
-5.76023 -1.13742 -1.80975 73 86 103
-5.8871 -1.03052 -1.82165 68 81 100
-5.89506 -1.01294 -1.82356 76 89 108
-6.14451 -0.648796 -1.82329 72 84 108
-2.6642 -5.5628 -1.79392 80 89 104
-2.86277 -5.31313 -1.80426 73 75 88
-3.01025 -5.08751 -1.79858 83 84 103
-3.13866 -4.80783 -1.78427 78 86 109
-3.14502 -4.78591 -1.77899 75 82 108
-3.5498 -4.28067 -1.79855 69 80 102
-3.57613 -4.27363 -1.80263 66 76 97
-4.13065 -3.47846 -1.80736 76 84 106
-4.13502 -3.46103 -1.80457 75 86 104
-4.14503 -3.44845 -1.80457 78 89 107
-4.15608 -3.4259 -1.80247 76 89 106
-4.17458 -3.42046 -1.80667 76 88 111
-4.17872 -3.40297 -1.80388 78 91 115
-4.19673 -3.38624 -1.80528 79 91 113
-4.2036 -3.37109 -1.80389 78 89 109
-4.21188 -3.3571 -1.80319 79 90 110
-4.23466 -3.35485 -1.80949 76 88 110
-4.49466 -2.98226 -1.81028 78 87 105
-4.50004 -2.96639 -1.80888 72 83 101
-4.50382 -2.94947 -1.80679 70 82 98
-4.50596 -2.93153 -1.804 69 80 98
-4.52984 -2.91791 -1.8089 72 80 99
-4.53972 -2.90501 -1.8096 73 85 101
-4.53695 -2.88398 -1.80471 70 81 101
-4.54963 -2.86305 -1.80471 73 81 100
-4.57042 -2.85707 -1.81031 73 81 102
-4.57377 -2.84003 -1.80822 72 80 99
-4.58306 -2.81694 -1.80682 74 82 101
-5.15643 -1.99595 -1.80727 135 141 151
-5.17058 -1.98338 -1.81067 128 128 133
-5.58446 -1.42287 -1.81599 67 79 97
-5.59572 -1.39823 -1.81798 72 82 98
-5.76097 -1.10979 -1.80847 70 81 99
-5.89737 -0.994388 -1.82357 71 83 105
-6.14758 -0.629784 -1.82391 78 90 114
-2.46314 -5.83501 -1.79472 89 85 82
-2.63512 -5.58824 -1.79761 83 87 105
-2.65266 -5.58255 -1.79822 81 87 103
-2.83944 -5.30606 -1.79856 86 87 100
-2.98067 -5.12561 -1.80503 88 91 108
-2.98797 -5.10203 -1.79923 83 84 103
-3.10048 -4.8096 -1.77768 80 86 108
-3.11858 -4.80714 -1.78031 79 87 110
-3.52328 -4.30023 -1.79787 71 78 100
-3.53712 -4.29121 -1.79855 71 79 102
-4.03821 -3.56892 -1.80244 76 84 105
-4.04994 -3.55791 -1.80314 74 83 105
-4.06722 -3.55186 -1.80664 77 85 106
-4.08447 -3.53457 -1.80735 77 85 104
-4.08768 -3.51597 -1.80385 76 84 103
-4.09785 -3.50355 -1.80386 75 81 104
-4.108 -3.4911 -1.80386 76 81 106
-4.58627 -2.7999 -1.80473 74 83 100
-4.5974 -2.78774 -1.80613 69 81 96
-4.59409 -2.76678 -1.80124 74 86 102
-4.61425 -2.75039 -1.80474 70 81 99
-4.63487 -2.74386 -1.81034 73 84 102
-4.62813 -2.72099 -1.80405 70 78 99
-4.64489 -2.70244 -1.80615 74 83 100
-5.17029 -1.95589 -1.80728 127 125 131
-5.18611 -1.94388 -1.81136 125 123 129
-5.59924 -1.38085 -1.81798 70 82 98
-5.58621 -1.35948 -1.81205 70 81 99
-5.77471 -1.09405 -1.81234 69 82 101
-5.90861 -0.967737 -1.82611 71 83 104
-6.14492 -0.610163 -1.82268 80 92 114
-2.43956 -5.82589 -1.78933 89 85 81
-2.61905 -5.59739 -1.79823 81 85 106
-2.81042 -5.32734 -1.80046 140 142 154
-2.81952 -5.30568 -1.7954 104 105 120
-2.94227 -5.12739 -1.79923 86 91 110
-2.95753 -5.11899 -1.79923 91 97 113
-3.08732 -4.8375 -1.78361 84 86 109
-3.48756 -4.32179 -1.79583 74 81 100
-3.5094 -4.30919 -1.79719 74 82 101
-3.93156 -3.645 -1.79123 75 86 106
-3.95846 -3.64854 -1.79963 72 83 103
-3.97042 -3.63784 -1.80033 77 88 108
-3.98371 -3.62837 -1.80173 76 87 107
-4.00266 -3.61279 -1.80313 75 86 106
-4.00488 -3.59305 -1.79894 77 85 106
-4.0222 -3.58723 -1.80244 80 88 109
-4.65251 -2.68813 -1.80616 72 81 98
-4.6698 -2.67941 -1.81036 73 81 100
-4.66853 -2.65037 -1.80477 71 80 97
-4.68412 -2.6406 -1.80827 73 82 97
-4.6948 -2.62799 -1.80967 73 82 97
-4.68914 -2.6062 -1.80408 73 82 99
-5.18786 -1.92643 -1.81 125 123 125
-5.19429 -1.90159 -1.80933 129 129 131
-5.60455 -1.33649 -1.81668 66 79 96
-5.77544 -1.07572 -1.8117 74 85 103
-5.78354 -1.0588 -1.81364 73 84 102
-5.91264 -0.949433 -1.82674 74 86 110
-6.15355 -0.591704 -1.82515 77 90 110
-2.42276 -5.8345 -1.78994 88 86 83
-2.78301 -5.33253 -1.79794 127 130 142
-3.07011 -4.84145 -1.78163 86 83 110
-3.46418 -4.34544 -1.79718 72 79 105
-3.47363 -4.33063 -1.79514 74 81 101
-3.87858 -3.70527 -1.79192 81 89 112
-3.89379 -3.68636 -1.79122 77 88 110
-3.9099 -3.6798 -1.79402 77 88 108
-3.91386 -3.66148 -1.79053 73 84 104
-4.71033 -2.58992 -1.80828 73 82 100
-4.71267 -2.57268 -1.80619 76 85 102
-4.72647 -2.56172 -1.80899 72 81 98
-4.74423 -2.54338 -1.81179 72 80 99
-5.22211 -1.87578 -1.81613 156 151 157
-5.60419 -1.31822 -1.81536 71 84 101
-5.59461 -1.29785 -1.81075 71 83 101
-5.77647 -1.02972 -1.80978 78 91 110
-5.89788 -0.928245 -1.82105 69 81 105
-5.87131 -0.895955 -1.81092 73 85 109
-6.14221 -0.561552 -1.82084 81 92 112
-2.39876 -5.85178 -1.79234 83 85 82
-2.5898 -5.59958 -1.79516 83 87 104
-2.76475 -5.33533 -1.79604 121 123 137
-2.88737 -5.11613 -1.787 86 87 108
-2.92064 -5.14327 -1.80053 88 90 113
-3.05008 -4.84045 -1.77768 84 84 110
-3.41743 -4.37965 -1.7965 76 83 104
-3.43038 -4.3695 -1.7965 73 81 104
-3.44331 -4.35931 -1.7965 73 80 107
-3.82791 -3.75623 -1.79121 68 79 101
-3.84676 -3.75264 -1.79541 75 85 106
-3.86354 -3.7352 -1.79541 68 81 100
-3.89438 -3.74328 -1.8059 77 88 108
-4.73979 -2.52254 -1.8069 72 81 98
-4.75347 -2.51142 -1.8097 73 82 98
-4.75387 -2.49324 -1.80691 73 82 97
-4.77632 -2.47725 -1.81181 73 82 97
-5.22301 -1.84886 -1.81342 66 68 83
-5.25093 -1.84088 -1.82226 73 82 98
-5.62355 -1.2863 -1.81999 69 80 100
-5.78071 -1.01207 -1.81043 72 84 106
-5.88075 -0.878549 -1.81346 78 91 111
-6.1469 -0.542684 -1.82208 71 83 107
-2.3832 -5.86384 -1.79414 107 105 98
-2.55681 -5.61577 -1.79578 87 88 103
-2.58224 -5.62972 -1.80315 87 91 106
-2.75704 -5.3603 -1.80237 116 117 130
-2.87297 -5.12599 -1.78765 90 90 113
-3.03526 -4.89976 -1.79284 81 83 106
-3.04601 -4.88452 -1.79021 82 87 109
-3.40302 -4.40241 -1.79989 76 82 106
-3.78043 -3.81046 -1.7926 69 80 100
-3.78504 -3.79234 -1.78911 74 82 105
-3.80724 -3.78057 -1.79191 72 85 104
-3.81562 -3.76641 -1.79051 71 84 103
-4.78657 -2.46421 -1.81321 70 79 94
-4.79011 -2.4477 -1.81182 72 81 98
-4.80407 -2.42717 -1.81322 75 84 101
-4.80414 -2.40895 -1.81043 73 85 99
-5.23995 -1.81888 -1.81615 73 82 97
-5.24837 -1.80383 -1.81751 73 83 98
-5.6066 -1.25518 -1.81208 70 82 101
-5.77558 -0.992745 -1.80785 65 77 101
-5.89766 -0.862152 -1.81853 73 86 105
-6.14778 -0.52345 -1.82209 75 87 111
-2.35582 -5.84364 -1.78515 130 125 111
-2.72553 -5.35662 -1.79668 112 112 124
-2.83095 -5.13943 -1.78508 92 91 116
-2.84541 -5.1297 -1.78443 90 90 114
-3.01236 -4.89366 -1.78691 80 82 107
-3.36706 -4.40872 -1.79378 75 86 106
-3.38777 -4.40942 -1.79853 76 84 105
-3.73445 -3.84322 -1.7891 77 85 105
-3.74953 -3.83606 -1.7912 74 82 103
-3.77188 -3.82452 -1.794 69 78 100
-4.80414 -2.39074 -1.80764 73 82 96
-4.82457 -2.3734 -1.81184 78 85 101
-4.83284 -2.3593 -1.81254 75 80 99
-5.24536 -1.77564 -1.81344 70 81 98
-5.26783 -1.76542 -1.82024 71 81 99
-5.60783 -1.23735 -1.81143 61 74 94
-5.63665 -1.22546 -1.82067 72 83 104
-5.7868 -0.967049 -1.81044 73 85 109
-5.90701 -0.844612 -1.82107 68 80 102
-6.14935 -0.494584 -1.82209 71 83 105
-2.34007 -5.88392 -1.79534 81 73 54
-2.51343 -5.63174 -1.79517 85 84 101
-2.53596 -5.63882 -1.80009 85 87 104
-2.70884 -5.36264 -1.79604 113 113 125
-2.81645 -5.14912 -1.78572 92 89 116
-2.99295 -4.91144 -1.78889 75 81 103
-3.34144 -4.44426 -1.79853 74 81 104
-3.36266 -4.43092 -1.79921 76 86 108
-3.69958 -3.88777 -1.79189 71 79 98
-3.71192 -3.86558 -1.78909 71 79 98
-3.72449 -3.85579 -1.78979 77 85 104
-4.84612 -2.34761 -1.81534 53 57 77
-4.83576 -2.32448 -1.80835 52 58 77
-4.84751 -2.30281 -1.80906 73 82 98
-4.86403 -2.2926 -1.81326 84 92 111
-5.26719 -1.74722 -1.81821 75 84 100
-5.27811 -1.72381 -1.81957 75 84 99
-5.63227 -1.19722 -1.81737 74 85 105
-5.78712 -0.948706 -1.8098 74 86 108
-5.79483 -0.931607 -1.81174 78 90 114
-5.92134 -0.818197 -1.82488 69 81 103
-6.15004 -0.475335 -1.8221 74 86 107
-2.31158 -5.85991 -1.78516 78 71 57
-2.50477 -5.65999 -1.80255 87 88 99
-2.69689 -5.37892 -1.79921 119 118 131
-2.79218 -5.15932 -1.78508 90 93 117
-2.96925 -4.93832 -1.79285 79 85 107
-2.9802 -4.92325 -1.79021 77 85 104
-3.31502 -4.46392 -1.79853 74 80 105
-3.32826 -4.45411 -1.79853 73 79 103
-3.65291 -3.91944 -1.78838 71 82 102
-3.69692 -3.93207 -1.80307 69 79 99
-3.69325 -3.90438 -1.79468 70 78 99
-4.86189 -2.27356 -1.80977 70 81 102
-4.87171 -2.25096 -1.80977 60 72 98
-4.8711 -2.23274 -1.80698 67 78 101
-5.2809 -1.70679 -1.8189 73 82 99
-5.29788 -1.69445 -1.82366 72 81 96
-5.6204 -1.17665 -1.8121 70 81 100
-5.78898 -0.903007 -1.80852 64 78 101
-5.90988 -0.797828 -1.82045 68 80 102
-5.88329 -0.775622 -1.81095 72 84 106
-6.16583 -0.457276 -1.82702 74 87 106
-2.30221 -5.88968 -1.79295 79 72 71
-2.66704 -5.37831 -1.79478 122 122 134
-2.78005 -5.174 -1.78766 89 95 117
-2.95461 -4.94675 -1.79285 79 84 104
-3.27509 -4.47894 -1.79445 76 84 107
-3.28729 -4.46771 -1.79377 76 82 108
-3.59193 -3.95846 -1.78348 73 81 104
-3.61463 -3.96034 -1.78978 75 82 104
-3.63116 -3.94266 -1.78908 74 81 103
-3.65765 -3.94851 -1.79747 69 80 99
-4.88917 -2.22306 -1.81188 66 72 94
-4.8868 -2.19495 -1.80699 83 83 93
-4.9082 -2.18665 -1.81329 73 79 95
-5.28809 -1.6733 -1.81823 71 81 98
-5.30045 -1.65031 -1.82027 70 79 94
-5.63061 -1.16067 -1.81475 69 82 101
-5.78723 -0.884372 -1.80724 73 86 102
-6.15573 -0.427472 -1.82334 76 87 107
-2.27828 -5.87807 -1.78696 81 73 77
-2.47677 -5.66509 -1.80071 88 90 97
-2.63974 -5.40371 -1.79859 118 116 130
-2.65498 -5.39448 -1.79795 122 121 134
-2.74675 -5.18446 -1.78573 88 90 113
-2.76219 -5.1767 -1.78573 93 93 119
-2.93306 -4.96097 -1.79351 80 87 106
-3.25159 -4.50285 -1.79648 71 81 106
-3.26493 -4.49325 -1.79649 73 84 106
-3.58091 -3.99404 -1.79047 73 84 104
-3.61225 -4.00592 -1.80166 70 81 103
-4.92276 -2.17521 -1.81679 74 85 105
-4.90817 -2.15093 -1.8084 76 87 107
-5.29763 -1.63153 -1.81756 77 86 101
-5.29654 -1.61335 -1.81552 70 79 94
-5.64625 -1.1366 -1.81871 69 81 103
-5.64155 -1.11758 -1.81608 69 81 103
-5.80222 -0.868367 -1.81175 73 85 106
-5.88979 -0.748262 -1.81222 75 87 111
-5.91198 -0.732159 -1.81919 71 83 107
-6.15432 -0.408062 -1.82273 71 84 101
-2.45499 -5.65953 -1.79641 85 88 97
-2.60371 -5.36619 -1.78213 121 119 131
-2.72312 -5.19602 -1.78574 90 94 119
-2.90182 -4.97423 -1.7922 80 86 111
-2.91834 -4.96929 -1.79351 79 85 109
-3.21251 -4.51882 -1.79309 73 79 105
-3.23007 -4.51561 -1.7958 71 78 104
-3.5333 -4.02412 -1.78697 70 78 101
-3.54993 -4.01926 -1.78977 72 80 103
-3.56291 -4.01005 -1.79047 73 82 103
-4.14549 -3.13348 -1.78811 76 87 105
-4.16234 -3.11695 -1.78955 76 86 105
-4.1625 -3.09746 -1.78525 77 85 106
-4.17435 -3.08714 -1.78669 72 80 101
-4.1906 -3.08019 -1.79028 72 80 101
-4.20133 -3.05886 -1.78885 71 83 99
-4.22051 -3.05402 -1.79388 74 86 102
-4.22481 -3.03785 -1.79173 74 83 101
-4.2353 -3.01639 -1.7903 77 86 104
-4.24244 -3.00243 -1.78958 74 83 101
-4.25105 -2.98955 -1.78958 75 84 102
-4.26279 -2.96909 -1.78887 72 84 100
-4.26978 -2.95505 -1.78815 73 85 101
-4.2752 -2.9399 -1.78672 75 84 101
-4.28969 -2.93125 -1.7896 73 82 99
-4.30265 -2.91169 -1.7896 74 83 100
-4.93457 -2.13551 -1.8154 71 85 106
-4.9318 -2.1165 -1.81191 69 83 109
-4.91521 -2.09168 -1.80282 70 82 106
-5.30505 -1.58913 -1.81621 71 80 95
-5.62938 -1.09717 -1.8108 63 74 96
-5.7966 -0.849139 -1.80918 67 82 105
-5.88515 -0.710248 -1.8097 73 85 109
-6.16613 -0.389557 -1.82642 72 85 102
-2.25761 -5.90551 -1.79296 90 83 81
-2.4196 -5.66952 -1.79518 85 84 98
-2.444 -5.68234 -1.80194 87 86 100
-2.58246 -5.38412 -1.78467 122 121 134
-2.7092 -5.20708 -1.78702 91 94 121
-2.87924 -4.98653 -1.7922 81 87 109
-3.20628 -4.53925 -1.79784 74 81 104
-3.50807 -4.05613 -1.78976 66 74 97
-3.51756 -4.04277 -1.78837 68 76 99
-4.0257 -3.30589 -1.79167 79 89 109
-4.03243 -3.29132 -1.79023 78 86 107
-4.04197 -3.27916 -1.79024 80 88 109
-4.06939 -3.27169 -1.7967 82 91 108
-4.05601 -3.2402 -1.78521 79 88 105
-4.07253 -3.23393 -1.78881 79 88 105
-4.08473 -3.22401 -1.79025 78 86 105
-4.10196 -3.20786 -1.79169 81 87 109
-4.10545 -3.19074 -1.78882 78 86 107
-4.12044 -3.18303 -1.7917 77 85 106
-4.12587 -3.15731 -1.78739 76 84 105
-4.13789 -3.14716 -1.78883 76 87 105
-4.31249 -2.89968 -1.79032 74 82 100
-4.32078 -2.88657 -1.79033 73 84 102
-4.33507 -2.86791 -1.79105 70 78 97
-4.34632 -2.85683 -1.79249 74 83 100
-4.35602 -2.84466 -1.79321 78 87 104
-4.35178 -2.82303 -1.78747 75 84 101
-4.37197 -2.80834 -1.79106 78 87 103
-4.37998 -2.79503 -1.79107 77 86 104
-4.38792 -2.78169 -1.79107 69 80 98
-4.39862 -2.7606 -1.79036 77 85 103
-4.41272 -2.75126 -1.79323 72 81 98
-4.9207 -2.06733 -1.80142 71 84 101
-4.9596 -2.04817 -1.81262 73 84 106
-5.302 -1.57041 -1.81349 74 83 98
-5.3043 -1.55334 -1.81282 68 77 94
-5.64862 -1.0828 -1.81675 72 84 103
-5.63242 -1.05266 -1.8095 67 80 99
-5.80158 -0.822301 -1.80983 64 79 100
-5.80704 -0.804747 -1.81113 78 90 112
-5.93361 -0.696993 -1.82554 72 84 108
-6.14755 -0.369018 -1.82027 70 83 102
-2.2307 -5.88469 -1.78397 102 97 93
-2.58007 -5.42263 -1.79606 121 121 133
-2.69367 -5.21467 -1.78703 90 93 116
-2.84265 -4.98939 -1.78693 84 89 111
-2.86181 -4.98967 -1.79023 81 86 108
-3.17004 -4.55953 -1.79648 74 82 103
-3.17847 -4.54232 -1.79309 75 85 106
-3.46346 -4.0896 -1.78836 71 79 102
-3.47425 -4.07782 -1.78766 70 81 101
-3.49138 -4.0608 -1.78696 69 75 98
-3.93873 -3.39431 -1.78734 86 99 121
-3.94857 -3.38246 -1.78734 81 94 118
-3.9653 -3.37681 -1.79093 74 89 112
-3.99457 -3.38226 -1.80099 72 84 107
-3.98593 -3.34319 -1.78879 84 96 120
-4.01381 -3.34719 -1.79813 75 87 111
-4.00947 -3.32282 -1.79095 81 92 113
-4.43932 -2.74995 -1.80186 80 89 105
-4.45771 -2.73365 -1.80474 72 80 98
-4.43872 -2.70306 -1.79253 69 79 97
-4.4448 -2.68853 -1.79181 70 81 99
-4.45873 -2.67892 -1.79469 72 84 100
-4.461 -2.65261 -1.79038 69 80 98
-4.47802 -2.64485 -1.7947 72 84 100
-4.47436 -2.62437 -1.78967 70 79 96
-5.04728 -2.10236 -1.85039 75 88 105
-4.96517 -2.03276 -1.81263 72 84 105
-4.97905 -2.01171 -1.81473 93 104 129
-5.31793 -1.53066 -1.81554 66 74 95
-5.3237 -1.5146 -1.81623 67 78 98
-5.63672 -1.03546 -1.81016 71 84 103
-5.81058 -0.7869 -1.81178 85 97 121
-5.88886 -0.663838 -1.80971 73 85 109
-6.15787 -0.340694 -1.82336 75 87 110
-2.22095 -5.91431 -1.79177 118 115 109
-2.39621 -5.68666 -1.79765 77 76 84
-2.54823 -5.39339 -1.78277 122 120 131
-2.66989 -5.22596 -1.78703 89 91 115
-2.83648 -5.01415 -1.79352 85 89 114
-3.15244 -4.56249 -1.79376 72 80 101
-3.43235 -4.1014 -1.78416 71 79 102
-3.45143 -4.0999 -1.78836 72 80 103
-3.86797 -3.47632 -1.78732 74 85 103
-3.87535 -3.46215 -1.78589 74 85 103
-3.88405 -3.44923 -1.78517 76 87 107
-3.90084 -3.43298 -1.78589 77 89 111
-3.90943 -3.41999 -1.78518 78 90 114
-3.92622 -3.41455 -1.78877 81 93 115
-4.48271 -2.60193 -1.78824 71 79 98
-4.48845 -2.58728 -1.78753 73 82 99
-4.50214 -2.57738 -1.7904 72 84 100
-4.51987 -2.56052 -1.79328 71 82 100
-4.52868 -2.54764 -1.794 70 82 96
-4.53263 -2.53192 -1.79257 69 81 95
-4.9793 -1.99416 -1.81264 99 106 123
-4.99513 -1.98281 -1.81684 81 88 106
-5.32402 -1.49696 -1.81487 75 84 103
-5.65395 -1.02054 -1.81544 63 75 99
-5.8059 -0.758685 -1.8092 74 86 108
-5.87121 -0.643287 -1.80338 70 82 106
-6.16568 -0.321831 -1.82582 72 84 106
-2.19153 -5.91622 -1.78938 135 130 126
-2.383 -5.70399 -1.80134 80 79 86
-2.52824 -5.41455 -1.78658 128 128 140
-2.6543 -5.23343 -1.78703 94 95 116
-2.80172 -5.00263 -1.7843 86 90 115
-3.12506 -4.59662 -1.79852 74 80 102
-3.12866 -4.57156 -1.79173 77 83 105
-3.3896 -4.1369 -1.78416 71 79 102
-3.40754 -4.13415 -1.78765 71 80 103
-3.41851 -4.12253 -1.78696 71 82 102
-3.80309 -3.54266 -1.78587 77 88 107
-3.81762 -3.52425 -1.78516 77 88 106
-3.82922 -3.5141 -1.78588 76 87 105
-3.83944 -3.50262 -1.78588 75 86 104
-3.86184 -3.49177 -1.78947 73 83 103
-4.54622 -2.52178 -1.79545 75 87 101
-4.54914 -2.49629 -1.79186 71 80 97
-4.56264 -2.48604 -1.79474 76 85 102
-4.56637 -2.47025 -1.79331 72 81 96
-4.56738 -2.44383 -1.789 72 81 96
-4.99485 -1.95611 -1.81335 72 84 106
-5.00013 -1.94058 -1.81335 74 86 109
-5.00536 -1.92503 -1.81336 73 85 108
-5.33147 -1.48138 -1.81623 66 77 95
-5.32673 -1.45339 -1.81216 67 78 98
-5.65786 -0.99412 -1.81545 78 89 111
-5.81118 -0.741069 -1.8105 71 83 107
-5.92328 -0.629934 -1.82049 69 81 105
-6.14877 -0.301594 -1.82029 75 87 109
-2.36326 -5.70341 -1.79888 85 84 93
-2.51584 -5.43036 -1.78974 126 126 138
-2.63945 -5.24256 -1.78768 96 94 114
-2.79027 -5.01724 -1.78694 85 92 116
-3.06997 -4.57016 -1.7795 76 82 104
-3.10542 -4.5962 -1.79444 73 79 101
-3.35757 -4.16046 -1.78346 78 86 107
-3.37667 -4.15935 -1.78765 69 77 99
-3.75845 -3.59618 -1.7873 74 86 104
-3.76762 -3.5836 -1.78658 78 87 105
-3.78499 -3.56799 -1.7873 77 85 108
-3.79407 -3.55534 -1.78659 79 85 111
-4.58238 -2.43435 -1.7926 71 82 98
-4.59247 -2.42211 -1.79404 71 82 99
-4.6063 -2.40277 -1.79548 73 81 101
-4.60809 -2.38601 -1.79333 73 84 101
-5.01702 -1.90299 -1.81476 74 82 105
-5.0274 -1.88935 -1.81686 69 75 98
-5.33588 -1.43827 -1.8142 69 80 98
-5.3504 -1.42459 -1.81829 75 83 104
-5.64709 -0.974289 -1.81084 71 82 103
-5.66044 -0.958548 -1.8148 70 81 102
-5.81077 -0.722693 -1.80986 79 91 115
-5.92346 -0.601714 -1.81986 67 79 101
-6.16636 -0.273519 -1.82583 74 87 107
-2.33262 -5.7006 -1.79459 86 85 93
-2.49315 -5.4217 -1.78405 128 129 140
-2.62227 -5.24646 -1.78639 92 89 110
-2.7796 -5.0335 -1.79024 83 90 116
-3.05112 -4.58679 -1.78086 76 83 105
-3.34213 -4.19222 -1.78905 72 79 105
-3.34874 -4.17487 -1.78555 72 79 105
-3.71043 -3.64635 -1.78729 74 85 107
-3.74048 -3.65542 -1.79807 78 89 111
-3.73478 -3.61589 -1.78586 71 82 104
-3.74793 -3.60739 -1.7873 74 85 105
-4.61806 -2.37364 -1.79477 74 83 98
-4.62632 -2.36036 -1.79549 72 79 95
-4.64484 -2.34339 -1.79909 76 79 95
-5.00088 -1.862 -1.80428 67 70 85
-5.03748 -1.85804 -1.81687 98 97 111
-5.35079 -1.39807 -1.81625 69 82 99
-5.6473 -0.92938 -1.80887 69 80 100
-5.80954 -0.695016 -1.80857 74 86 110
-5.93014 -0.583549 -1.82176 68 80 102
-6.1512 -0.253499 -1.82091 67 80 99
-2.32555 -5.7357 -1.80442 87 85 90
-2.47077 -5.43739 -1.78595 116 117 132
-2.59459 -5.24873 -1.78318 77 75 96
-2.73844 -5.04617 -1.7876 84 91 117
-2.75843 -5.04857 -1.79156 84 91 117
-3.04715 -4.64312 -1.79716 71 82 104
-3.03943 -4.5989 -1.78221 75 86 108
-3.30631 -4.21088 -1.78625 73 79 105
-3.31868 -4.20107 -1.78625 72 80 101
-3.65535 -3.68897 -1.78369 74 87 106
-3.67688 -3.66712 -1.7837 74 85 104
-3.71132 -3.66957 -1.79375 74 85 106
-3.98667 -3.18535 -1.7795 77 84 100
-3.99003 -3.1686 -1.77658 77 84 102
-4.00344 -3.16005 -1.77877 78 86 107
-4.02464 -3.14769 -1.78243 77 85 104
-4.0351 -3.13667 -1.78317 75 83 102
-4.03388 -3.11637 -1.77805 77 85 104
-4.0457 -3.10646 -1.77952 77 85 104
-4.0594 -3.08807 -1.77952 74 85 103
-4.0697 -3.07691 -1.78025 72 83 101
-4.08436 -3.06911 -1.78318 74 83 100
-4.09641 -3.0494 -1.78246 76 84 103
-4.09771 -3.03136 -1.7788 74 82 101
-4.13754 -3.0424 -1.79417 76 84 103
-4.15839 -3.0291 -1.79783 80 89 106
-4.13268 -2.99104 -1.78101 72 79 95
-4.14867 -2.984 -1.78467 76 85 102
-4.15265 -2.9681 -1.78248 77 85 104
-4.16572 -2.94917 -1.78248 69 80 98
-4.17259 -2.93542 -1.78175 71 82 102
-4.18243 -2.92382 -1.78249 74 80 104
-4.22108 -2.92297 -1.79493 75 83 102
-4.22785 -2.90905 -1.7942 76 85 102
-4.23915 -2.89831 -1.79566 76 85 102
-4.25648 -2.88211 -1.79786 75 84 101
-4.22786 -2.84392 -1.78031 71 82 102
-4.23283 -2.82895 -1.77885 69 80 100
-4.24239 -2.8171 -1.77958 72 81 102
-4.26246 -2.80287 -1.78324 72 83 100
-4.27037 -2.78987 -1.78325 71 83 99
-4.64642 -2.32657 -1.79694 54 59 80
-4.65785 -2.31488 -1.7991 56 62 85
-4.65461 -2.28665 -1.79335 71 81 98
-4.66929 -2.27658 -1.79695 82 91 108
-5.03478 -1.8307 -1.81268 94 89 102
-5.04847 -1.81817 -1.81618 89 87 99
-5.34527 -1.37896 -1.81286 70 81 99
-5.34512 -1.36132 -1.8115 72 83 101
-5.66052 -0.913546 -1.81283 65 77 99
-5.81273 -0.677112 -1.80922 72 84 108
-5.90466 -0.562443 -1.8129 69 81 103
-6.15873 -0.234535 -1.82338 68 80 101
-2.30454 -5.73131 -1.80074 87 86 91
-2.45031 -5.43378 -1.78216 99 103 118
-2.56246 -5.26137 -1.78254 82 78 97
-2.5819 -5.26289 -1.78576 74 73 93
-2.72675 -5.06062 -1.79024 84 91 118
-3.02695 -4.65804 -1.79784 74 82 108
-3.26927 -4.2277 -1.78275 73 83 104
-3.29055 -4.21615 -1.78415 72 79 103
-3.62532 -3.71332 -1.78225 72 83 106
-3.65767 -3.72583 -1.79446 73 84 106
-3.69415 -3.70802 -1.79949 75 88 105
-3.89829 -3.29947 -1.78021 85 99 122
-3.93261 -3.29884 -1.79045 85 97 119
-3.91388 -3.26277 -1.77582 77 88 110
-3.93455 -3.26061 -1.78168 80 91 110
-3.9419 -3.23679 -1.77802 78 88 108
-3.95262 -3.22609 -1.77876 79 87 108
-3.969 -3.2201 -1.78242 87 95 114
-3.96965 -3.201 -1.77803 78 86 105
-4.28446 -2.78095 -1.78618 70 82 98
-4.28886 -2.75625 -1.78252 75 84 102
-4.32623 -2.76241 -1.79643 74 83 100
-4.31062 -2.73409 -1.78546 72 83 101
-4.31003 -2.70634 -1.77961 72 84 100
-4.3506 -2.71408 -1.79498 71 81 99
-4.3614 -2.70277 -1.79644 72 82 100
-4.36427 -2.68649 -1.79425 71 83 103
-4.35862 -2.65571 -1.78621 69 80 97
-4.67227 -2.26057 -1.79552 68 79 97
-4.67204 -2.23407 -1.79121 73 84 102
-4.69161 -2.22631 -1.79696 77 91 106
-5.05508 -1.80308 -1.81689 91 97 111
-5.06621 -1.78069 -1.81829 78 90 112
-5.35792 -1.33814 -1.81423 68 80 96
-5.65134 -0.894166 -1.80888 65 77 101
-5.84027 -0.662085 -1.81825 71 83 105
-5.94041 -0.537393 -1.82431 71 83 103
-2.27515 -5.73177 -1.79767 90 85 91
-2.43845 -5.45114 -1.78596 94 101 117
-2.70132 -5.06696 -1.78827 84 91 119
-2.9992 -4.67563 -1.79784 74 80 106
-3.00925 -4.6604 -1.79512 75 82 108
-3.26567 -4.24943 -1.78834 74 80 102
-3.59288 -3.7578 -1.78584 68 79 99
-3.61603 -3.74865 -1.78943 72 85 104
-3.6408 -3.75306 -1.79733 74 86 110
-3.81209 -3.38476 -1.7758 80 92 114
-3.83674 -3.3763 -1.78092 87 99 121
-3.84371 -3.36227 -1.77946 86 98 120
-3.85892 -3.35567 -1.78239 77 89 111
-3.87689 -3.35148 -1.78678 80 92 114
-3.88202 -3.32534 -1.78167 76 88 111
-3.90135 -3.32222 -1.78679 88 100 122
-4.36133 -2.63947 -1.78402 72 84 100
-4.39888 -2.64453 -1.79792 71 83 99
-4.37859 -2.60512 -1.78329 76 85 102
-4.3843 -2.59077 -1.78256 73 82 99
-4.38837 -2.57546 -1.7811 74 83 100
-4.39398 -2.56108 -1.78038 71 83 99
-4.69776 -2.2119 -1.79697 66 78 92
-4.70555 -2.19828 -1.79769 91 99 111
-4.71506 -2.17658 -1.79769 127 126 134
-4.71263 -2.15809 -1.79411 112 111 129
-5.06034 -1.76124 -1.8141 70 82 106
-5.07031 -1.74729 -1.8162 62 74 98
-5.36856 -1.32325 -1.81695 72 83 101
-5.3573 -1.30284 -1.81152 68 80 102
-5.65702 -0.877112 -1.8102 74 86 110
-5.80395 -0.639509 -1.80537 72 84 106
-5.92802 -0.517546 -1.81988 69 81 104
-6.16273 -0.205713 -1.82462 81 93 112
-2.42298 -5.45969 -1.78659 81 88 106
-2.52566 -5.28602 -1.78512 142 140 154
-2.53774 -5.27027 -1.7819 82 78 92
-2.68871 -5.07962 -1.79025 83 90 118
-2.97315 -4.68059 -1.79444 76 84 107
-3.25249 -4.29926 -1.80023 75 81 105
-3.26857 -4.28026 -1.79813 74 80 102
-3.55373 -3.79494 -1.78583 75 84 105
-3.58316 -3.79305 -1.79301 74 82 105
-3.59674 -3.78517 -1.79445 69 77 101
-3.76549 -3.45487 -1.78018 77 88 108
-3.77276 -3.44102 -1.77872 73 84 104
-3.77999 -3.42715 -1.77726 74 85 105
-3.79657 -3.41138 -1.77799 80 91 109
-3.80504 -3.39871 -1.77726 77 88 106
-4.41154 -2.54465 -1.78331 73 82 99
-4.41222 -2.52741 -1.78038 72 81 98
-4.42088 -2.51482 -1.78112 70 79 96
-4.43504 -2.49633 -1.78259 73 81 102
-4.44523 -2.48457 -1.78405 73 81 100
-4.45863 -2.47459 -1.78699 73 82 99
-4.73543 -2.15155 -1.80129 75 82 106
-4.73122 -2.1234 -1.79555 69 81 103
-5.07765 -1.72358 -1.8162 65 77 99
-5.35689 -1.2852 -1.81016 70 83 100
-5.67516 -0.852838 -1.81549 73 85 107
-5.6751 -0.834868 -1.81483 69 81 103
-5.81921 -0.613776 -1.80988 73 85 107
-5.89475 -0.496127 -1.80848 71 83 105
-6.17014 -0.186648 -1.82708 73 85 107
-2.24305 -5.75135 -1.80014 87 85 87
-2.2634 -5.75418 -1.80321 89 86 93
-2.39684 -5.46626 -1.78533 70 77 96
-2.50769 -5.28777 -1.78319 145 144 155
-2.67928 -5.09904 -1.79487 83 90 118
-2.9592 -4.68923 -1.79444 77 85 107
-3.22495 -4.31535 -1.79883 72 79 105
-3.23111 -4.29668 -1.79463 72 77 106
-3.53601 -3.8448 -1.79516 78 88 113
-3.52532 -3.80891 -1.78224 73 84 104
-3.55606 -3.82094 -1.79373 71 82 102
-3.71712 -3.50271 -1.77871 75 86 105
-3.7219 -3.48639 -1.77578 76 87 107
-3.73733 -3.4804 -1.77871 76 87 105
-3.74469 -3.46662 -1.77725 75 87 105
-4.46124 -2.44956 -1.78333 72 81 98
-4.47131 -2.43767 -1.7848 75 84 101
-4.47645 -2.42306 -1.78407 70 79 94
-4.49461 -2.41554 -1.7892 73 82 97
-4.7472 -2.11354 -1.79987 68 80 103
-4.74791 -2.09661 -1.79772 71 83 105
-4.75707 -2.08354 -1.79916 70 82 104
-5.09462 -1.7119 -1.82111 65 77 99
-5.08314 -1.69074 -1.81481 66 78 100
-5.09293 -1.67663 -1.81692 67 78 99
-5.38214 -1.26493 -1.81764 66 79 95
-5.66193 -0.815068 -1.80956 76 88 111
-5.81276 -0.594793 -1.80731 74 86 108
-5.93326 -0.480391 -1.82116 68 81 100
-6.15659 -0.16688 -1.82278 73 85 106
-2.22032 -5.74123 -1.79461 90 86 87
-2.37715 -5.46411 -1.78217 72 80 98
-2.65769 -5.09288 -1.78959 86 93 121
-2.93309 -4.70964 -1.7958 77 83 107
-2.94336 -4.69457 -1.79308 77 83 107
-3.19277 -4.29733 -1.78624 76 82 108
-3.49108 -3.87555 -1.79228 70 81 101
-3.48561 -3.84526 -1.78223 71 84 101
-3.51501 -3.85622 -1.79301 73 84 105
-3.65354 -3.56748 -1.77797 76 88 112
-3.65602 -3.54864 -1.77358 76 88 110
-3.67838 -3.53879 -1.77724 79 92 111
-3.68729 -3.52647 -1.77651 76 89 106
-3.69882 -3.51674 -1.77724 74 87 104
-4.49688 -2.39044 -1.78554 73 82 98
-4.50842 -2.37925 -1.78774 75 84 99
-4.51174 -2.36367 -1.78628 71 80 95
-4.52196 -2.34287 -1.78629 77 83 99
-4.78133 -2.06843 -1.80563 68 83 106
-4.7909 -2.03822 -1.80492 70 82 106
-5.09458 -1.65109 -1.81482 73 85 103
-5.36335 -1.24289 -1.80949 70 83 100
-5.36824 -1.22655 -1.81018 66 77 97
-5.68728 -0.791607 -1.81748 72 85 104
-5.82318 -0.577615 -1.81054 72 84 106
-5.93272 -0.45214 -1.82053 78 91 110
-6.15625 -0.147568 -1.82278 81 93 115
-2.36505 -5.48128 -1.78597 74 84 103
-2.46918 -5.3085 -1.78449 127 130 136
-2.48143 -5.2929 -1.78127 143 143 149
-2.63377 -5.10227 -1.78894 87 94 122
-2.90978 -4.71912 -1.79444 79 87 107
-3.15423 -4.31151 -1.78204 71 80 101
-3.19158 -4.33748 -1.79813 72 80 101
-3.46213 -3.90127 -1.79228 68 79 97
-3.45806 -3.87237 -1.78295 70 81 99
-3.59725 -3.60681 -1.77284 75 88 108
-3.61027 -3.59875 -1.7743 73 84 109
-3.63279 -3.58923 -1.77796 74 85 107
-3.66009 -3.59563 -1.78747 80 92 113
-4.52678 -2.32812 -1.78556 74 78 94
-4.53487 -2.31507 -1.78629 54 57 76
-4.5465 -2.29499 -1.78703 58 64 83
-4.55448 -2.28185 -1.78776 60 69 87
-4.83979 -2.07718 -1.82791 68 83 106
-4.79793 -2.01534 -1.8042 71 83 105
-4.80513 -2.0013 -1.80493 80 90 109
-5.10068 -1.63576 -1.81553 67 79 101
-5.11389 -1.62266 -1.81903 69 80 100
-5.38046 -1.20305 -1.8129 65 78 97
-5.67955 -0.772622 -1.81419 67 79 101
-5.81748 -0.549573 -1.80797 74 85 107
-5.91246 -0.431978 -1.81356 71 83 105
-2.19871 -5.76472 -1.79953 91 85 89
-2.33817 -5.48579 -1.78408 85 96 114
-2.4519 -5.31179 -1.7832 125 126 134
-2.6034 -5.11688 -1.78894 88 95 123
-2.62017 -5.11302 -1.79026 85 92 120
-2.88163 -4.73594 -1.79444 76 81 109
-2.89113 -4.71936 -1.79104 76 83 104
-3.13991 -4.36088 -1.79393 71 77 101
-3.16914 -4.36083 -1.80022 74 80 104
-3.39911 -3.90932 -1.77863 73 84 102
-3.43413 -3.92819 -1.793 68 77 97
-3.45064 -3.91149 -1.79228 69 77 96
-3.56761 -3.65225 -1.77722 75 83 106
-3.5782 -3.64161 -1.77722 76 85 108
-3.61367 -3.64577 -1.7882 78 90 110
-4.5558 -2.26535 -1.78557 94 102 115
-4.56036 -2.2505 -1.78485 78 85 104
-4.56503 -2.22699 -1.78266 71 82 102
-4.80202 -1.98283 -1.80134 117 126 136
-4.81908 -1.96426 -1.80494 127 131 143
-5.11705 -1.59761 -1.81764 70 81 99
-5.11047 -1.57836 -1.81344 69 78 97
-5.38339 -1.18623 -1.8129 67 80 97
-5.38809 -1.1698 -1.81359 68 80 96
-5.62503 -0.747647 -1.7944 68 81 102
-5.82587 -0.532122 -1.81055 75 86 103
-5.89405 -0.412063 -1.80723 71 83 107
-2.17784 -5.75984 -1.79585 87 85 86
-2.32457 -5.49933 -1.78661 80 91 109
-2.43744 -5.32205 -1.78449 119 120 131
-2.57162 -5.10882 -1.7817 91 97 123
-3.0974 -4.35444 -1.78274 69 80 102
-3.11654 -4.35461 -1.78694 72 78 102
-3.39934 -3.95846 -1.79299 66 74 95
-3.41447 -3.95277 -1.79515 72 80 101
-3.53238 -3.69192 -1.77868 75 86 108
-3.53805 -3.67595 -1.77575 78 89 109
-3.57093 -3.6778 -1.78526 75 86 108
-4.57951 -2.21701 -1.78632 69 81 104
-4.58392 -2.20211 -1.78559 71 83 105
-4.59504 -2.18173 -1.78633 71 82 105
-4.83128 -1.95228 -1.80781 75 74 93
-4.83314 -1.93596 -1.80638 80 78 91
-4.85045 -1.92602 -1.81142 74 75 93
-5.10203 -1.55862 -1.80855 71 81 99
-5.3744 -1.14051 -1.8068 69 80 102
-5.67702 -0.736455 -1.81222 69 82 101
-5.81728 -0.513035 -1.80733 77 90 109
-5.93482 -0.38652 -1.82054 72 87 108
-2.15701 -5.75488 -1.79216 87 87 87
-2.30357 -5.49335 -1.78218 82 93 110
-2.40902 -5.32152 -1.78063 117 117 127
-2.56491 -5.13485 -1.78895 87 93 121
-2.84679 -4.75835 -1.79512 76 84 105
-2.86457 -4.75666 -1.79784 77 83 105
-3.06583 -4.37861 -1.78344 74 80 105
-3.07771 -4.36804 -1.78274 72 78 102
-3.35244 -3.96141 -1.78222 70 81 103
-3.37218 -3.96175 -1.78725 72 80 101
-3.49545 -3.72983 -1.77941 72 83 103
-3.52207 -3.72525 -1.78526 72 82 105
-3.52164 -3.7024 -1.77868 74 83 108
-4.59766 -2.16599 -1.78487 71 83 106
-4.61199 -2.15578 -1.78853 70 82 103
-4.62121 -2.13446 -1.78853 77 85 106
-4.88457 -1.91408 -1.8222 68 78 98
-5.12282 -1.53899 -1.81415 71 82 100
-5.13576 -1.52563 -1.81765 67 78 96
-5.3918 -1.12686 -1.81224 64 75 97
-5.69081 -0.711227 -1.81618 75 87 110
-5.82633 -0.486426 -1.80991 73 85 107
-5.90867 -0.366246 -1.81168 65 77 99
-2.29187 -5.51211 -1.78662 84 94 112
-2.3986 -5.34222 -1.78579 121 121 133
-2.54965 -5.14196 -1.78895 93 94 122
-2.8317 -4.76492 -1.79444 75 83 104
-3.05187 -4.38602 -1.78274 72 80 103
-3.33193 -3.99779 -1.78796 72 80 103
-3.35799 -3.99332 -1.79299 71 81 107
-3.47121 -3.74772 -1.77794 71 82 101
-3.49447 -3.75128 -1.78526 71 82 102
-4.62536 -2.11944 -1.78781 73 82 106
-4.62946 -2.10441 -1.78708 72 83 106
-4.65042 -2.09704 -1.79367 71 83 105
-4.84293 -1.86324 -1.80065 52 56 74
-4.85431 -1.84218 -1.80209 106 109 116
-4.83148 -1.81638 -1.7906 90 90 98
-5.12712 -1.50594 -1.81276 63 74 94
-5.14359 -1.49353 -1.81766 67 78 97
-5.40367 -1.11193 -1.81564 70 83 102
-5.3953 -1.09272 -1.81157 68 79 97
-5.68096 -0.692132 -1.81223 75 87 109
-5.81758 -0.467406 -1.8067 77 89 111
-5.89382 -0.346746 -1.80661 73 85 109
-2.13688 -5.78355 -1.79893 91 85 94
-2.26297 -5.5109 -1.78282 81 92 110
-2.38128 -5.34526 -1.7845 122 120 134
-2.51945 -5.13699 -1.78303 96 92 119
-2.79308 -4.7803 -1.7924 75 83 106
-2.80908 -4.77551 -1.79376 75 83 106
-3.03225 -4.42869 -1.79183 79 86 108
-3.06247 -4.43098 -1.79882 73 83 105
-3.31625 -4.0277 -1.79299 72 82 102
-3.3315 -4.02237 -1.79514 72 83 101
-3.43972 -3.79194 -1.78232 71 82 100
-3.45687 -3.78874 -1.78598 67 78 98
-3.45808 -3.76731 -1.78013 70 81 102
-4.64921 -2.07097 -1.78928 70 82 104
-4.67181 -2.06416 -1.7966 69 81 103
-4.67061 -2.04675 -1.79368 71 83 106
-4.85199 -1.80751 -1.79707 91 91 99
-5.14612 -1.46841 -1.81627 68 79 97
-5.13546 -1.44832 -1.81068 72 80 99
-5.69163 -0.675464 -1.81553 66 81 100
-5.82951 -0.450146 -1.81057 72 84 106
-2.24465 -5.51178 -1.78093 81 91 108
-2.51019 -5.15776 -1.7883 95 92 118
-2.77969 -4.79001 -1.79308 75 85 105
-3.02522 -4.447 -1.79602 76 82 106
-3.27189 -4.05861 -1.79155 73 81 104
-3.26815 -4.0281 -1.78149 69 80 102
-3.30476 -4.05122 -1.7973 72 82 104
-3.39202 -3.81744 -1.7772 72 80 99
-3.41279 -3.8187 -1.78305 75 83 102
-3.41544 -3.79872 -1.77793 75 84 103
-3.99785 -3.02407 -1.79645 73 81 100
-4.01087 -3.01553 -1.79869 73 81 100
-4.02387 -3.00693 -1.80093 73 81 102
-4.04013 -2.99106 -1.80243 72 80 101
-4.04284 -2.97436 -1.79945 71 79 99
-4.05135 -2.9622 -1.79945 73 82 99
-4.08066 -2.95631 -1.80767 71 82 100
-4.09797 -2.95076 -1.81215 74 85 107
-4.12387 -2.92319 -1.81439 78 87 104
-4.69297 -2.03105 -1.79954 68 83 106
-4.69334 -2.01436 -1.79735 68 83 106
-4.86661 -1.78768 -1.79995 75 81 102
-4.87663 -1.77462 -1.80211 73 84 106
-5.13734 -1.43177 -1.80998 69 78 95
-5.40324 -1.06813 -1.81293 69 82 99
-5.40942 -1.05196 -1.81429 65 78 97
-5.68641 -0.647969 -1.8129 77 89 109
-5.63323 -0.624393 -1.79377 74 85 106
-5.87152 -0.435192 -1.82476 75 87 108
-5.9097 -0.319541 -1.81169 74 86 110
-2.23148 -5.52683 -1.7841 82 91 108
-2.35623 -5.35325 -1.78387 122 120 133
-2.49261 -5.1595 -1.78633 98 94 118
-2.76628 -4.79968 -1.79376 78 86 107
-2.97593 -4.44369 -1.78484 72 80 101
-3.01108 -4.45426 -1.79532 74 82 105
-3.24215 -4.04422 -1.78006 73 81 104
-3.37798 -3.85951 -1.78598 73 81 102
-3.38926 -3.8374 -1.78232 71 77 99
-3.86529 -3.1841 -1.79343 76 84 103
-3.88925 -3.17525 -1.79866 74 81 100
-3.89699 -3.1624 -1.79791 75 85 102
-3.9047 -3.14953 -1.79717 76 87 103
-3.91658 -3.14024 -1.79867 75 85 103
-3.92345 -3.11665 -1.79494 78 86 105
-3.96937 -3.13586 -1.81435 77 86 104
-3.97413 -3.12039 -1.81211 79 87 105
-3.98799 -3.1025 -1.81212 75 84 102
-3.99978 -3.09289 -1.81361 72 84 101
-4.00004 -3.07386 -1.80913 73 83 101
-4.02811 -3.06747 -1.8166 73 83 98
-4.11232 -2.94289 -1.81514 69 80 98
-4.13372 -2.91187 -1.81514 69 78 96
-4.14501 -2.90161 -1.81664 71 80 100
-4.14583 -2.88363 -1.81291 71 79 100
-4.15706 -2.86378 -1.81217 72 81 99
-4.16823 -2.85341 -1.81366 75 83 101
-4.17035 -2.83651 -1.81068 70 82 99
-4.19495 -2.8262 -1.81666 74 82 101
-4.19694 -2.80926 -1.81367 70 77 98
-4.20038 -2.7934 -1.81144 74 82 101
-4.20528 -2.77859 -1.80995 71 81 98
-4.22973 -2.76794 -1.81592 69 78 97
-4.23913 -2.7562 -1.81667 76 86 103
-4.24849 -2.74442 -1.81742 72 84 99
-4.25441 -2.721 -1.81444 69 80 98
-4.26214 -2.70813 -1.81444 75 85 103
-4.26827 -2.69421 -1.8137 71 80 98
-4.28011 -2.67482 -1.8137 70 83 101
-4.69366 -1.99768 -1.79516 68 83 106
-4.70387 -1.97665 -1.79589 68 79 97
-4.9093 -1.76998 -1.81361 74 90 117
-4.88255 -1.74319 -1.80068 75 92 118
-5.15221 -1.41012 -1.81348 74 82 100
-5.39531 -1.03175 -1.80818 75 86 106
-5.6587 -0.60932 -1.80235 65 77 99
-5.83121 -0.404562 -1.81058 72 83 105
-5.94393 -0.302428 -1.82309 67 79 101
-2.34155 -5.36322 -1.78516 122 122 132
-2.47578 -5.1629 -1.78501 97 93 115
-2.74093 -4.80493 -1.79105 79 87 110
-2.9526 -4.46576 -1.78693 71 79 101
-2.96577 -4.45712 -1.78693 70 78 99
-3.21189 -4.09388 -1.78795 72 79 104
-3.21405 -4.07089 -1.78149 70 80 101
-3.24589 -4.08852 -1.79442 73 81 102
-3.34949 -3.87222 -1.78232 70 77 98
-3.35129 -3.85087 -1.77647 71 79 100
-3.8153 -3.26847 -1.79939 78 90 106
-3.82474 -3.25708 -1.79939 76 85 102
-3.8369 -3.24814 -1.80089 80 88 109
-3.84629 -3.23668 -1.80089 76 84 103
-3.85514 -3.21451 -1.7979 79 87 106
-3.86719 -3.20543 -1.7994 73 81 101
-4.29701 -2.66793 -1.81819 73 84 102
-4.29522 -2.64887 -1.81371 69 81 97
-4.31361 -2.64288 -1.81894 73 81 100
-4.31584 -2.61729 -1.81446 77 86 103
-4.32636 -2.60619 -1.81596 77 86 103
-4.33999 -2.59702 -1.81895 76 85 102
-4.32776 -2.56259 -1.80776 72 84 100
-4.35232 -2.56017 -1.81597 69 81 97
-4.71777 -1.9657 -1.79956 90 96 109
-4.72478 -1.95183 -1.80029 97 104 112
-4.73176 -1.93794 -1.80103 113 119 128
-4.89866 -1.72374 -1.80428 76 92 118
-4.90148 -1.70797 -1.80356 76 92 118
-5.16121 -1.39546 -1.81559 68 76 97
-5.15025 -1.37551 -1.80999 65 76 94
-5.41587 -1.00959 -1.8143 70 81 99
-5.83541 -0.38659 -1.81187 74 86 108
-5.94024 -0.283467 -1.82183 74 86 106
-2.20516 -5.53241 -1.78284 83 92 110
-2.32222 -5.36075 -1.78194 120 120 131
-2.44938 -5.16615 -1.78238 99 91 112
-2.72076 -4.83737 -1.79784 79 88 110
-2.73346 -4.82617 -1.79648 78 86 110
-3.16605 -4.09601 -1.7779 72 80 101
-3.18245 -4.09279 -1.78077 72 80 103
-3.30351 -3.89934 -1.77866 71 81 101
-3.31839 -3.89392 -1.78085 71 79 100
-3.32623 -3.8798 -1.77866 71 77 99
-3.75408 -3.35368 -1.80311 73 88 109
-3.75167 -3.33102 -1.79639 75 87 109
-3.77616 -3.33383 -1.80461 75 86 106
-3.78968 -3.31567 -1.80386 81 89 108
-3.79384 -3.29932 -1.80088 83 91 112
-3.79929 -3.28424 -1.79864 81 92 112
-4.36427 -2.54987 -1.81822 71 82 100
-4.36593 -2.52422 -1.81374 72 82 95
-4.38255 -2.51671 -1.81822 71 83 97
-4.39757 -2.50816 -1.82196 71 83 97
-4.39187 -2.48723 -1.81599 73 82 99
-4.39955 -2.46533 -1.8145 82 89 105
-4.7348 -1.9139 -1.79884 73 82 104
-4.73475 -1.89719 -1.79665 73 84 103
-4.90951 -1.69408 -1.80501 76 92 118
-4.91312 -1.67007 -1.80357 77 93 119
-5.16638 -1.3627 -1.8149 66 77 94
-5.40712 -0.990538 -1.81023 68 79 101
-5.41678 -0.97497 -1.81295 73 84 104
-5.6888 -0.585579 -1.81226 75 87 109
-5.82822 -0.367822 -1.8093 70 81 101
-5.93837 -0.264601 -1.8212 74 86 104
-2.18998 -5.54201 -1.78411 87 96 113
-2.31015 -5.40392 -1.79418 121 117 129
-2.43766 -5.18156 -1.78568 99 91 114
-2.68938 -4.83062 -1.79037 82 90 113
-2.91522 -4.48078 -1.78414 76 84 107
-2.94121 -4.49298 -1.79323 72 80 101
-3.16258 -4.11743 -1.78364 74 82 101
-3.28031 -3.93082 -1.78231 72 80 103
-3.29526 -3.92551 -1.78451 72 80 100
-3.70555 -3.39969 -1.80086 76 88 110
-3.72206 -3.39515 -1.80459 75 86 107
-3.71858 -3.37117 -1.79713 70 82 104
-3.73368 -3.36525 -1.80012 76 88 111
-4.40805 -2.45289 -1.81525 74 83 100
-4.38766 -2.42371 -1.80256 73 82 97
-4.40948 -2.41014 -1.80779 70 82 96
-4.40009 -2.38757 -1.80033 71 83 98
-4.41807 -2.38057 -1.80556 70 82 97
-4.73466 -1.88049 -1.79446 77 86 108
-4.73223 -1.85444 -1.79007 56 64 82
-4.74064 -1.84115 -1.79154 77 79 95
-4.91928 -1.65549 -1.8043 78 94 120
-4.92363 -1.64027 -1.8043 76 93 119
-5.16828 -1.33753 -1.8135 62 73 93
-5.1571 -1.31771 -1.80791 68 81 99
-5.68041 -0.566899 -1.80896 69 82 100
-5.82717 -0.340345 -1.80866 74 86 108
-5.91787 -0.235688 -1.81424 68 79 99
-2.17475 -5.55156 -1.78537 83 92 109
-2.2901 -5.39954 -1.79032 125 123 136
-2.42442 -5.19347 -1.78766 100 91 115
-2.68252 -4.85345 -1.79648 77 85 108
-2.90224 -4.52012 -1.79392 71 78 101
-2.90295 -4.49086 -1.78484 68 76 99
-3.12957 -4.13736 -1.78221 73 84 108
-3.16103 -4.15569 -1.79513 75 86 108
-3.25958 -3.95298 -1.78377 70 80 99
-3.25962 -3.92877 -1.77646 72 80 101
-3.63578 -3.45584 -1.79562 79 92 111
-3.64581 -3.44505 -1.79563 73 85 107
-3.66252 -3.43012 -1.79637 80 91 111
-3.67116 -3.41793 -1.79563 76 88 110
-3.68898 -3.41486 -1.80011 74 86 108
-4.42195 -2.35679 -1.80258 71 79 98
-4.43014 -2.34423 -1.80333 74 83 98
-4.43018 -2.32718 -1.80035 73 79 95
-4.43176 -2.31103 -1.79811 57 60 78
-4.74382 -1.82581 -1.79081 96 96 109
-4.74173 -1.80848 -1.78789 85 86 98
-4.92091 -1.62264 -1.80143 78 93 122
-4.92945 -1.60039 -1.80215 78 93 122
-5.16583 -1.30293 -1.81001 71 84 103
-5.42417 -0.950178 -1.81432 72 83 103
-5.41339 -0.930882 -1.80956 71 82 102
-5.68696 -0.549663 -1.81095 72 85 104
-5.66153 -0.529531 -1.80171 71 83 105
-5.82928 -0.322222 -1.80931 73 85 107
-5.9026 -0.216476 -1.80917 70 83 102
-2.14836 -5.55684 -1.78412 81 91 106
-2.27139 -5.39864 -1.78775 128 126 139
-2.39938 -5.19992 -1.78635 100 90 109
-2.66219 -4.84936 -1.79173 76 83 108
-2.86544 -4.50543 -1.78204 73 81 104
-3.10298 -4.15248 -1.78077 71 81 104
-3.12902 -4.16335 -1.79011 75 82 108
-3.22451 -3.96944 -1.78011 66 77 98
-3.24179 -3.9673 -1.78377 72 79 105
-3.59106 -3.5053 -1.79636 76 88 107
-3.59997 -3.49333 -1.79562 77 87 112
-3.61013 -3.48266 -1.79562 79 90 112
-3.627 -3.46792 -1.79637 77 90 108
-4.46463 -2.3031 -1.80857 59 67 82
-4.46614 -2.28688 -1.80633 64 68 85
-4.47084 -2.2724 -1.80559 56 60 79
-4.47084 -2.24679 -1.80111 66 74 96
-4.75628 -1.78908 -1.79082 94 96 110
-4.76278 -1.775 -1.79155 93 95 115
-4.92479 -1.5822 -1.79856 79 94 123
-4.93247 -1.56812 -1.80001 78 93 124
-5.18744 -1.28265 -1.81631 60 71 90
-5.17423 -1.26249 -1.81002 69 82 99
-5.42102 -0.914885 -1.81161 64 75 97
-5.82943 -0.303977 -1.80931 76 89 109
-5.91949 -0.19829 -1.81488 76 88 110
-2.12942 -5.55551 -1.78159 85 91 107
-2.25716 -5.41014 -1.78968 127 128 140
-2.38178 -5.20124 -1.78437 102 92 109
-2.64938 -4.86035 -1.79309 72 82 108
-2.84066 -4.52523 -1.78344 76 83 101
-2.85403 -4.51696 -1.78344 74 82 101
-3.07185 -4.17497 -1.78077 71 79 100
-3.09988 -4.18914 -1.79154 71 77 99
-3.19497 -3.99298 -1.78011 72 83 102
-3.21514 -3.98184 -1.78158 68 76 97
-3.57138 -3.5385 -1.80009 71 84 103
-3.58722 -3.52263 -1.80009 75 85 109
-4.48858 -2.23916 -1.80634 62 73 95
-4.49149 -2.22377 -1.80485 68 80 104
-4.50588 -2.21431 -1.80859 70 85 107
-4.50389 -2.18781 -1.80337 74 85 103
-4.7727 -1.76218 -1.79375 76 87 114
-4.7731 -1.73746 -1.79083 74 90 116
-4.93899 -1.54522 -1.80001 79 94 123
-5.18461 -1.24801 -1.81282 68 81 100
-5.41749 -0.896943 -1.80957 73 84 104
-5.64435 -0.501384 -1.79512 70 83 102
-5.64318 -0.483578 -1.79447 74 86 108
-5.82764 -0.285625 -1.80867 76 88 110
-2.11832 -5.57744 -1.78729 84 90 106
-2.22932 -5.41036 -1.78647 126 124 138
-2.36701 -5.20949 -1.78503 98 85 102
-2.62883 -4.87507 -1.79445 79 87 110
-2.81732 -4.5327 -1.78134 71 77 101
-3.05948 -4.1839 -1.78077 70 78 99
-3.15315 -4.01196 -1.77572 72 80 101
-3.166 -4.0042 -1.77645 72 80 99
-3.18552 -4.0053 -1.78157 73 84 102
-3.52798 -3.58975 -1.80233 79 87 108
-3.52589 -3.56567 -1.79486 75 83 104
-3.54817 -3.55682 -1.7986 77 88 108
-3.56864 -3.55717 -1.80457 76 89 108
-4.50827 -2.17324 -1.80262 77 88 108
-4.52752 -2.16611 -1.8086 75 86 104
-4.52524 -2.13963 -1.80338 73 84 102
-4.79167 -1.72771 -1.79669 74 90 116
-4.79272 -1.71161 -1.79523 74 90 116
-4.94832 -1.53163 -1.80217 79 95 122
-4.95052 -1.51574 -1.80146 80 95 124
-5.19689 -1.22535 -1.81563 71 84 102
-5.18347 -1.20532 -1.80933 67 79 100
-5.92142 -0.170229 -1.81552 73 86 105
-2.10115 -5.58138 -1.78666 84 92 106
-2.21253 -5.41459 -1.78583 124 123 136
-2.59727 -4.88496 -1.79241 78 83 111
-2.61264 -4.8792 -1.79309 80 87 112
-2.80672 -4.54572 -1.78344 72 80 103
-3.04144 -4.22628 -1.7901 70 78 99
-3.03947 -4.19566 -1.78005 73 81 102
-3.14171 -4.03473 -1.78011 71 79 100
-3.48824 -3.62319 -1.80083 76 86 111
-3.49261 -3.606 -1.7971 76 87 108
-3.50877 -3.59052 -1.7971 77 88 108
-4.53778 -2.12908 -1.80637 72 83 103
-4.55363 -2.12008 -1.81085 72 83 105
-4.55943 -2.09761 -1.80937 71 83 107
-4.79811 -1.68871 -1.7945 74 90 117
-4.80254 -1.67383 -1.79451 74 90 116
-4.95501 -1.49219 -1.80074 80 95 124
-5.18274 -1.18827 -1.80794 67 79 98
-5.7021 -0.470493 -1.81492 76 88 110
-5.84132 -0.258904 -1.81319 75 87 107
-5.90405 -0.151125 -1.80982 76 87 105
-2.32917 -5.22903 -1.78636 89 75 91
-2.34471 -5.22265 -1.78636 98 83 101
-2.78256 -4.56678 -1.78554 71 79 102
-2.79792 -4.56195 -1.78694 70 78 100
-3.01539 -4.24232 -1.78939 69 80 102
-3.0085 -4.20389 -1.77574 72 78 102
-3.10929 -4.041 -1.77426 73 79 104
-3.13208 -4.0469 -1.78157 70 77 100
-3.4506 -3.65893 -1.80083 73 85 107
-3.45353 -3.62837 -1.79262 74 86 110
-3.47272 -3.6279 -1.79784 73 85 109
-4.56183 -2.08208 -1.80788 70 82 104
-4.55915 -2.06419 -1.80415 72 84 106
-4.58159 -2.05812 -1.81162 72 84 106
-4.80868 -1.65955 -1.79524 76 92 118
-4.80774 -1.64284 -1.79305 76 92 118
-4.98557 -1.48507 -1.81153 79 94 123
-4.95553 -1.4593 -1.79788 80 95 124
-4.95927 -1.44395 -1.79788 79 94 123
-5.1838 -1.17163 -1.80724 64 77 96
-5.68463 -0.442346 -1.80833 69 81 103
-5.82994 -0.240091 -1.80933 76 87 107
-5.89229 -0.13223 -1.80602 76 87 107
-2.07232 -5.57909 -1.78287 79 90 104
-2.20003 -5.43127 -1.7897 121 120 132
-2.31292 -5.2336 -1.78571 79 68 84
-2.55474 -4.89148 -1.78766 78 84 110
-2.57736 -4.90114 -1.79445 79 84 113
-2.76737 -4.5886 -1.78973 73 81 100
-2.98705 -4.24129 -1.78292 70 79 102
-3.07382 -4.05602 -1.7706 69 80 100
-3.09978 -4.06665 -1.78011 70 78 99
-3.42915 -3.67916 -1.80082 71 83 107
-3.43504 -3.66346 -1.79784 74 86 108
-4.58537 -2.03476 -1.80938 72 85 104
-4.59429 -2.02229 -1.81088 72 84 106
-4.81457 -1.62046 -1.79306 76 92 118
-4.99558 -1.42988 -1.8101 82 96 124
