-5.40846 4.39076 -1.8352 95 98 113
-5.40171 4.41213 -1.83896 96 98 113
-5.14611 4.94603 -1.85844 87 90 107
-5.12969 4.95826 -1.85845 90 93 109
-5.10306 4.97351 -1.85722 89 95 108
-4.88135 5.34446 -1.85927 92 95 110
-4.87125 5.36704 -1.86343 93 96 111
-4.85037 5.3738 -1.86165 91 97 111
-4.59911 5.81852 -1.8685 98 101 115
-4.57706 5.8243 -1.86679 93 97 110
-4.25684 6.41446 -1.88259 95 97 110
-4.22499 6.42698 -1.88206 93 97 109
-4.04125 6.73689 -1.88609 88 94 108
-3.82916 7.08777 -1.89106 92 98 110
-3.64125 7.49733 -1.91353 93 97 109
-3.41426 7.85742 -1.91357 91 97 109
-7.93326 0.529142 -1.81928 80 89 104
-7.92797 0.55982 -1.81862 90 99 114
-7.61885 0.925193 -1.80922 89 98 115
-7.63204 0.947475 -1.81452 84 93 109
-7.61317 0.964745 -1.80971 84 93 108
-7.3899 1.22789 -1.80231 99 105 124
-7.39262 1.24822 -1.80471 85 91 107
-7.39531 1.26859 -1.80711 91 98 116
-6.99534 1.73169 -1.79206 155 122 89
-6.9918 1.76007 -1.79388 152 117 86
-6.98185 1.77668 -1.79259 154 120 87
-6.80995 1.98299 -1.78911 80 82 97
-6.82455 2.0374 -1.80053 78 75 92
-6.79072 2.04457 -1.7909 79 78 92
-6.81179 2.07226 -1.8011 79 81 94
-5.6604 4.02204 -1.83909 97 96 110
-5.64277 4.03189 -1.83716 85 84 100
-5.62788 4.04424 -1.83651 90 89 105
-5.60936 4.0659 -1.83713 76 78 91
-5.59439 4.07814 -1.83648 76 78 91
-5.39099 4.42934 -1.84083 95 97 112
-5.36941 4.44886 -1.84082 94 97 112
-5.35726 4.46461 -1.84207 92 95 110
-5.08542 4.9841 -1.85662 88 96 107
-5.07237 5.00066 -1.85845 90 95 109
-5.05578 5.01266 -1.85845 92 94 109
-4.81364 5.37509 -1.85572 94 97 112
-4.54874 5.84026 -1.8668 93 95 108
-4.53051 5.85249 -1.86739 94 93 107
-4.20399 6.4364 -1.88208 92 94 109
-4.0086 6.7502 -1.88611 89 95 107
-3.79361 7.0966 -1.89005 91 95 107
-3.61684 7.50511 -1.91356 94 98 110
-3.38486 7.89791 -1.92144 92 98 110
-3.13256 8.42192 -1.94168 94 100 112
-3.10419 8.42444 -1.94079 94 100 112
-7.9324 0.4876 -1.81767 88 97 114
-7.93 0.50815 -1.81762 86 95 112
-7.63338 0.897129 -1.81228 85 93 112
-7.4066 1.18191 -1.80427 84 91 108
-7.39272 1.19893 -1.80117 83 90 108
-6.99678 1.69277 -1.78837 82 78 91
-7.00334 1.71445 -1.79273 139 118 108
-6.8535 1.93 -1.79628 85 84 98
-6.8341 1.94278 -1.79177 85 85 99
-6.83835 1.97356 -1.79683 79 81 96
-6.83132 2.01041 -1.79931 84 81 98
-6.33609 2.65685 -1.79015 81 83 98
-6.33932 2.68935 -1.79665 79 82 97
-6.32014 2.69956 -1.7927 78 84 97
-6.30755 2.71334 -1.79136 78 84 98
-6.29821 2.72891 -1.79134 79 82 97
-6.28455 2.75222 -1.79129 79 83 97
-6.27673 2.76865 -1.79192 78 81 96
-6.27705 2.78975 -1.79582 80 83 100
-6.2582 2.81013 -1.79382 77 79 94
-6.28118 2.84456 -1.80688 82 83 98
-6.24213 2.84287 -1.79508 78 81 98
-6.22468 2.864 -1.79373 76 79 95
-6.2246 2.88513 -1.79763 76 78 93
-6.21634 2.90143 -1.79826 77 77 93
-6.21128 2.91967 -1.8002 81 84 96
-6.20316 2.94654 -1.80278 78 80 95
-6.19791 2.96478 -1.80471 76 77 95
-6.19101 2.98202 -1.806 82 84 99
-6.16175 2.99583 -1.80007 72 74 89
-6.15632 3.014 -1.80201 80 82 97
-6.14287 3.02711 -1.80068 85 86 101
-6.13573 3.05483 -1.80392 97 100 113
-6.13484 3.07605 -1.80782 94 98 111
-6.1228 3.09009 -1.80714 91 93 108
-6.1328 3.11858 -1.81562 80 79 98
-6.1047 3.13283 -1.81036 81 83 100
-6.07994 3.13837 -1.80445 90 93 108
-6.08807 3.16591 -1.81228 80 83 98
-6.07859 3.19254 -1.81486 82 84 99
-6.04127 3.18934 -1.80372 79 81 97
-6.04135 3.21161 -1.80828 88 89 107
-6.03976 3.23285 -1.81218 88 89 107
-6.02528 3.25611 -1.8128 73 74 92
-5.97307 3.29768 -1.80685 90 92 106
-5.57801 4.08903 -1.8352 82 84 96
-5.56475 4.11571 -1.83837 101 103 116
-5.55509 4.13305 -1.84028 95 97 112
-5.53584 4.14116 -1.83772 89 92 107
-5.3361 4.47053 -1.83893 92 96 108
-5.32196 4.49824 -1.84268 92 95 110
-5.31343 4.51811 -1.84582 92 95 110
-5.2846 4.51533 -1.83891 91 92 110
-5.02894 5.02754 -1.85723 93 95 110
-5.01686 5.04549 -1.85967 92 94 109
-4.81071 5.40866 -1.86404 94 97 112
-4.7866 5.41043 -1.86048 94 97 112
-4.76238 5.43048 -1.86168 94 96 111
-4.51509 5.86964 -1.86969 98 97 112
-4.18297 6.44577 -1.8821 93 96 111
-4.15952 6.44982 -1.88046 93 96 110
-3.98946 6.76608 -1.88829 90 96 110
-3.77315 7.11204 -1.89216 92 95 110
-3.74933 7.11837 -1.89166 93 96 111
-3.59181 7.51098 -1.91308 92 95 109
-3.3519 7.87887 -1.91462 96 100 112
-3.07581 8.42687 -1.93989 93 99 111
-7.94117 0.457145 -1.81949 81 92 109
-7.64617 0.85856 -1.81417 84 91 109
-7.63508 0.877174 -1.81173 89 96 115
-7.41736 1.13473 -1.80439 90 97 113
-7.42605 1.16589 -1.8092 90 97 113
-7.04213 1.60834 -1.79424 153 154 157
-7.02828 1.6336 -1.79229 69 78 89
-6.88936 1.87393 -1.80089 78 69 68
-6.8675 1.91526 -1.79888 85 79 95
-6.44849 2.44053 -1.78858 135 130 137
-6.43492 2.45403 -1.78659 127 122 128
-6.4407 2.52752 -1.80022 137 132 136
-6.42523 2.54008 -1.79758 134 129 133
-6.41644 2.55599 -1.79755 138 136 141
-6.41027 2.58329 -1.80012 87 87 98
-6.39801 2.59742 -1.79878 76 78 92
-6.40241 2.62028 -1.80399 81 84 101
-6.38757 2.64317 -1.80329 79 83 98
-6.35683 2.6474 -1.79476 81 83 98
-6.02659 3.27954 -1.81802 83 85 98
-6.01548 3.2943 -1.818 77 79 92
-5.97263 3.32 -1.81141 88 90 103
-5.97667 3.34567 -1.81793 89 92 107
-5.94032 3.35306 -1.8094 86 89 104
-5.94721 3.38099 -1.81722 81 84 99
-5.93578 3.39551 -1.81721 77 80 95
-5.89634 3.40023 -1.80737 92 94 109
-5.91649 3.43847 -1.82108 80 82 96
-5.89737 3.44719 -1.8178 86 88 101
-5.87525 3.45353 -1.8132 91 90 104
-5.8552 3.47266 -1.81187 84 86 101
-5.83752 3.48227 -1.80924 76 78 93
-5.52607 4.15844 -1.83962 88 90 105
-5.49889 4.17173 -1.83641 96 98 113
-5.48495 4.18493 -1.83641 97 99 114
-5.48037 4.20744 -1.84087 99 98 114
-5.2664 4.53863 -1.84078 92 94 109
-5.25265 4.5527 -1.84141 93 95 110
-5.00126 5.05885 -1.86028 93 95 110
-4.97879 5.07957 -1.8615 92 93 111
-4.75073 5.45126 -1.86525 94 97 112
-4.72556 5.45117 -1.8611 92 98 112
-4.48845 5.88866 -1.87085 104 106 120
-4.47005 5.90071 -1.87144 118 120 130
-4.13224 6.47239 -1.88324 93 97 109
-3.96952 6.78014 -1.88992 90 96 110
-3.93375 6.78599 -1.8878 90 96 110
-3.72614 7.12644 -1.89169 91 97 111
-3.55674 7.52607 -1.91413 94 96 111
-3.32736 7.88956 -1.91563 93 97 109
-3.05273 8.45198 -1.9446 94 99 111
-7.94749 0.416095 -1.82018 81 92 110
-7.94532 0.436685 -1.82012 80 91 109
-7.65623 0.809502 -1.8149 82 89 109
-7.63963 0.827425 -1.81068 76 82 101
-7.42466 1.07703 -1.8027 82 89 105
-7.42602 1.09693 -1.80449 89 96 112
-7.43293 1.11788 -1.80811 80 89 104
-7.07218 1.55805 -1.79877 145 139 144
-7.05918 1.574 -1.79621 145 139 143
-7.05707 1.593 -1.79743 142 140 141
-6.90844 1.8121 -1.79975 142 111 83
-6.89724 1.83752 -1.79905 152 125 98
-6.89243 1.85543 -1.79965 154 132 109
-6.50731 2.32879 -1.78946 150 128 101
-6.49746 2.34415 -1.78877 97 84 74
-6.49956 2.36506 -1.79267 83 78 85
-6.4893 2.39005 -1.79327 87 89 106
-6.46735 2.39967 -1.78801 84 87 101
-6.4522 2.41244 -1.78536 72 70 82
-6.46873 2.49085 -1.80292 125 123 128
-6.44434 2.50901 -1.79829 127 122 129
-5.85553 3.51971 -1.8223 85 87 102
-5.82037 3.52702 -1.81442 93 96 111
-5.81735 3.54821 -1.81833 88 90 105
-5.81868 3.57294 -1.8242 79 81 96
-5.78019 3.56578 -1.81242 88 90 105
-5.7699 3.59274 -1.81566 71 73 88
-5.75344 3.60314 -1.81368 73 72 88
-5.75298 3.62668 -1.8189 83 82 96
-5.45837 4.22581 -1.84022 99 98 116
-5.4416 4.2362 -1.83893 96 98 113
-5.43145 4.25329 -1.84084 100 99 115
-5.40661 4.26871 -1.83891 99 98 114
-5.24384 4.57245 -1.84454 92 95 110
-5.22129 4.57643 -1.84077 94 96 111
-5.20274 4.59949 -1.84265 94 96 111
-4.96195 5.09129 -1.8615 91 94 109
-4.94282 5.09989 -1.86029 92 93 111
-4.70522 5.4774 -1.86466 93 96 113
-4.44973 5.90937 -1.87087 121 122 132
-4.41916 5.92141 -1.86974 116 115 123
-4.11111 6.48154 -1.88326 92 95 110
-4.08993 6.49062 -1.88328 92 94 109
-3.91226 6.79633 -1.88836 92 95 110
-3.69174 7.13841 -1.89172 94 96 109
-3.52987 7.52623 -1.91214 94 97 112
-3.28732 7.89239 -1.91372 93 96 111
-7.94385 0.395169 -1.81851 89 100 118
-7.66025 0.759648 -1.81384 83 90 109
-7.65768 0.789511 -1.81436 86 95 112
-7.45332 1.03288 -1.80894 86 93 109
-7.44547 1.05123 -1.80767 86 93 111
-7.06928 1.50854 -1.79322 144 139 143
-7.07656 1.53002 -1.79758 142 140 143
-6.91654 1.6891 -1.7885 79 75 85
-6.92125 1.70977 -1.7923 128 112 102
-6.92951 1.7316 -1.79737 154 125 98
-6.91601 1.74675 -1.79477 154 121 87
-6.92314 1.77793 -1.80047 156 125 96
-6.91852 1.7959 -1.80107 157 128 100
-6.54714 2.18907 -1.78121 105 92 90
-6.54983 2.20983 -1.7851 147 125 104
-6.55937 2.23365 -1.79162 144 122 99
-6.53667 2.27284 -1.79022 154 128 103
-6.54593 2.29681 -1.79674 155 124 95
-6.52742 2.31808 -1.79407 147 115 80
-5.73944 3.65119 -1.82084 86 90 102
-5.72719 3.66509 -1.82082 78 80 95
-5.71776 3.68138 -1.82212 83 85 100
-5.68523 3.68989 -1.81555 85 84 98
-5.68432 3.71344 -1.82077 98 100 113
-5.66185 3.71855 -1.81618 90 92 105
-5.62531 3.74768 -1.81353 77 79 92
-5.39764 4.28708 -1.84146 98 100 115
-5.38334 4.29998 -1.84145 97 96 112
-5.37425 4.31832 -1.844 94 96 111
-5.19494 4.6206 -1.84641 93 95 110
-5.17357 4.6258 -1.84327 92 95 110
-5.14862 4.64143 -1.84201 93 96 111
-4.91788 5.11729 -1.86029 92 94 109
-4.90314 5.13192 -1.86151 93 96 111
-4.88503 5.14187 -1.8609 90 96 110
-4.68516 5.48518 -1.86349 96 99 116
-4.67015 5.50097 -1.86527 94 97 114
-4.64704 5.50378 -1.86231 92 96 112
-4.3988 5.92991 -1.86918 115 114 124
-4.38207 5.94507 -1.87091 114 112 123
-4.05623 6.49884 -1.88165 92 95 110
-3.89288 6.81197 -1.89053 90 96 110
-3.66786 7.14448 -1.89123 93 97 109
-3.5048 7.53183 -1.91166 91 97 111
-3.26772 7.92158 -1.91963 94 98 110
-3.00877 8.44776 -1.94138 95 98 113
-7.9618 0.34437 -1.82269 93 100 118
-7.94456 0.364196 -1.81803 81 90 107
-7.66086 0.719455 -1.81216 84 92 111
-7.66531 0.740127 -1.81449 82 90 109
-7.45351 0.983882 -1.80601 78 85 103
-7.44987 1.01266 -1.80655 85 92 109
-7.12473 1.4745 -1.80779 87 83 98
-6.95971 1.67326 -1.80071 82 86 103
-6.59488 2.09247 -1.78273 77 79 94
-6.59291 2.12066 -1.78594 77 80 96
-6.58022 2.13488 -1.78395 80 83 98
-6.56225 2.14686 -1.77999 82 83 98
-6.56685 2.16832 -1.78453 83 81 95
-6.61708 2.28861 -1.81774 153 127 102
-5.66221 3.74334 -1.82205 92 94 107
-5.63966 3.78492 -1.82594 79 80 98
-5.61001 3.78351 -1.81808 82 84 99
-5.59281 3.80502 -1.81872 83 82 98
-5.58566 3.82352 -1.82132 71 70 86
-5.35437 4.33893 -1.84463 95 97 112
-5.34121 4.35308 -1.84526 98 97 113
-5.32801 4.3672 -1.8459 96 98 113
-5.30015 4.37928 -1.84269 96 99 114
-5.14788 4.67119 -1.84953 91 94 109
-5.11796 4.66596 -1.842 91 94 109
-5.09526 4.68424 -1.842 90 93 108
-4.87021 5.15641 -1.86213 90 96 110
-4.8439 5.17193 -1.86152 90 93 108
-4.62429 5.52649 -1.8647 94 100 114
-4.36254 5.95514 -1.87093 115 115 127
-4.03501 6.50776 -1.88167 90 96 108
-3.85633 6.81565 -1.88787 90 95 109
-3.64897 7.16505 -1.89491 94 98 112
-3.47017 7.54838 -1.91322 94 97 112
-3.24052 7.92267 -1.91819 94 97 112
-2.98121 8.45369 -1.94142 95 99 111
-7.95602 0.323383 -1.82045 97 104 122
-7.67527 0.701028 -1.81579 79 87 106
-7.45936 0.945606 -1.8055 81 88 107
-7.46679 0.966363 -1.80912 89 96 114
-7.12819 1.40716 -1.80292 87 92 109
-7.12257 1.43487 -1.80348 84 89 108
-7.11909 1.45349 -1.80406 91 92 112
-7.18481 1.51974 -1.83099 145 139 144
-6.9802 1.61192 -1.80086 152 152 157
-6.97537 1.63929 -1.80208 67 75 84
-6.63594 2.00257 -1.78357 81 80 96
-6.63411 2.02114 -1.7855 78 80 96
-6.61816 2.0342 -1.78219 81 80 96
-6.62351 2.0652 -1.78803 79 81 96
-6.60046 2.07534 -1.7821 78 80 95
-5.58125 3.84456 -1.82523 68 71 86
-5.54284 3.84686 -1.81606 71 74 89
-5.52162 3.85251 -1.81213 77 80 95
-5.52534 3.88113 -1.81996 72 71 87
-5.51178 3.90616 -1.82256 93 93 105
-5.29197 4.39886 -1.84588 94 100 112
-5.27478 4.40865 -1.8446 96 98 111
-5.08701 4.70519 -1.84576 91 94 111
-5.06672 4.7114 -1.84325 90 93 110
-5.0488 4.72049 -1.84199 92 93 111
-4.82567 5.18169 -1.86091 93 96 112
-4.80745 5.19139 -1.86031 90 93 110
-4.60711 5.53887 -1.8653 94 100 114
-4.58791 5.54795 -1.86471 94 100 114
-4.33452 5.97182 -1.87151 113 113 123
-4.31131 5.97498 -1.86923 116 116 126
-4.01602 6.5219 -1.88334 92 98 110
-3.84104 6.84188 -1.89327 90 96 110
-3.81727 6.84657 -1.89222 93 96 111
-3.61007 7.1639 -1.89129 93 96 111
-3.44731 7.56117 -1.91477 95 98 113
-3.42102 7.56282 -1.91328 93 96 111
-3.21382 7.92554 -1.91724 92 95 110
-7.96002 0.271848 -1.8206 81 89 108
-7.96404 0.292702 -1.82227 85 93 112
-7.68032 0.651328 -1.81534 88 96 115
-7.69257 0.672819 -1.82005 81 89 107
-7.47012 0.898356 -1.80624 84 92 110
-7.46455 0.917099 -1.80558 84 93 110
-7.14171 1.35215 -1.80242 82 89 105
-7.14586 1.37258 -1.80552 82 90 104
-7.1389 1.39034 -1.80485 81 90 103
-6.99817 1.54988 -1.80037 146 141 144
-6.9973 1.5783 -1.80286 145 142 144
-6.9915 1.5959 -1.80282 144 140 142
-6.6706 1.94856 -1.78763 80 80 92
-6.64249 1.95718 -1.77974 83 84 98
-6.66549 1.98514 -1.79083 82 81 96
-5.50421 3.92455 -1.82516 86 88 103
-5.48423 3.93126 -1.82188 82 83 101
-5.47656 3.9496 -1.82449 78 81 96
-5.45444 3.96664 -1.82316 84 86 101
-5.41707 3.98216 -1.81792 73 75 90
-5.25697 4.43165 -1.8465 96 99 114
-5.24476 4.44694 -1.84778 94 97 112
-5.23123 4.4608 -1.84841 94 95 113
-5.21261 4.46897 -1.84649 94 97 114
-5.03532 4.75031 -1.84701 88 94 108
-5.01614 4.7578 -1.84513 89 95 109
-4.99694 4.76522 -1.84324 88 94 108
-4.78206 5.20818 -1.86031 90 96 112
-4.76374 5.21774 -1.85971 91 97 111
-4.56292 5.56717 -1.86591 93 101 112
-4.54265 5.57447 -1.86473 93 101 112
-4.29079 5.98314 -1.86868 117 114 127
-3.98596 6.5386 -1.88447 91 96 110
-3.96242 6.54199 -1.88284 91 95 110
-3.79557 6.85657 -1.89278 91 95 110
-3.58857 7.17703 -1.89288 93 99 111
-3.56459 7.18278 -1.89239 94 97 111
-3.18046 7.95407 -1.92218 94 97 112
-7.95019 0.250821 -1.81721 83 91 112
-7.67738 0.600852 -1.8125 91 98 116
-7.68316 0.631524 -1.81539 84 93 110
-7.48858 0.861853 -1.81001 79 88 103
-7.49067 0.881729 -1.81179 80 89 106
-7.13081 1.28204 -1.79315 82 87 108
-7.12781 1.30062 -1.79373 85 90 109
-7.14694 1.32439 -1.80186 77 84 100
-7.00444 1.46579 -1.79416 99 91 108
-7.00216 1.49364 -1.79602 146 140 146
-7.00759 1.51416 -1.79981 144 139 142
-7.0093 1.53375 -1.80233 144 139 144
-6.69229 1.88958 -1.7871 82 80 93
-6.68909 1.90756 -1.78838 84 82 96
-6.67927 1.93257 -1.78832 81 80 98
-5.45611 3.99412 -1.83035 92 91 105
-5.40693 4.01081 -1.82247 85 84 98
-5.39219 4.02238 -1.82181 81 80 96
-5.19321 4.49032 -1.84776 96 98 113
-5.1733 4.49691 -1.8452 92 94 109
-5.15461 4.50487 -1.84329 95 97 112
-4.98311 4.79492 -1.84826 92 95 110
-4.95803 4.79472 -1.84324 92 93 111
-4.74861 5.23197 -1.86093 91 97 109
-4.72622 5.25323 -1.86277 92 95 111
-4.53213 5.5981 -1.86949 93 99 113
-4.26351 6.0012 -1.86984 116 115 130
-4.24116 6.00581 -1.86813 111 110 123
-3.94472 6.55948 -1.88562 92 98 112
-3.76097 6.86516 -1.89173 92 95 110
-3.3845 7.57345 -1.91332 94 98 110
-3.3582 7.5749 -1.91183 92 96 108
-3.14848 7.93611 -1.91585 93 99 111
-7.95361 0.199352 -1.81736 86 94 113
-7.95594 0.220059 -1.81845 85 93 112
-7.69028 0.561981 -1.81499 87 96 113
-7.69145 0.582173 -1.81613 88 97 112
-7.49306 0.813634 -1.80892 80 87 103
-7.51036 0.835494 -1.81559 80 89 104
-7.14135 1.21717 -1.79143 85 91 107
-7.13571 1.25436 -1.79259 87 94 110
-7.00967 1.42915 -1.79233 82 85 108
-6.99883 1.44537 -1.79037 89 88 109
-6.73769 1.81982 -1.79316 149 117 93
-6.73293 1.83726 -1.79378 157 129 100
-6.71389 1.84967 -1.78916 149 129 102
-6.71855 1.87988 -1.79434 83 80 88
-5.38814 4.04456 -1.82638 86 83 102
-5.37894 4.07452 -1.83159 80 82 97
-5.34277 4.06454 -1.82047 91 95 107
-5.33583 4.08398 -1.82373 97 96 112
-5.3288 4.10342 -1.827 96 93 110
-5.13995 4.53171 -1.84711 93 95 108
-5.1249 4.54384 -1.84711 93 96 110
-4.94225 4.80643 -1.84324 89 91 110
-4.92465 4.83145 -1.84638 90 96 110
-4.90187 4.834 -1.84261 91 94 109
-4.70777 5.26261 -1.86216 91 94 109
-4.68406 5.264 -1.85851 92 95 110
-4.5001 5.60558 -1.86653 94 100 114
-4.48167 5.61597 -1.86654 95 98 113
-4.22057 6.01374 -1.86757 108 106 119
-3.90864 6.56166 -1.88233 91 97 111
-3.73851 6.87319 -1.89176 90 96 110
-3.53232 7.20133 -1.89451 93 96 111
-3.50887 7.20874 -1.89454 93 96 110
-3.33139 7.5744 -1.90983 92 98 109
-3.12694 7.95935 -1.92029 93 99 111
-7.96786 0.15841 -1.82094 84 95 113
-7.95119 0.178667 -1.81627 86 94 113
-7.69365 0.532241 -1.81508 84 91 109
-7.49903 0.765653 -1.80844 84 91 110
-7.49264 0.79406 -1.80775 79 85 104
-7.1597 1.17319 -1.79406 85 94 109
-7.15706 1.19183 -1.79464 84 91 107
-7.17377 1.24348 -1.80396 88 94 110
-7.02564 1.36693 -1.79184 81 90 105
-7.02785 1.38638 -1.79436 85 94 109
-7.02265 1.40405 -1.79432 91 98 114
-6.74446 1.70861 -1.78227 151 125 105
-6.73916 1.73504 -1.78352 155 122 91
-6.75078 1.75782 -1.79003 152 121 92
-6.75159 1.77709 -1.79261 150 124 100
-6.7434 1.79334 -1.79192 148 120 98
-5.31261 4.12648 -1.82894 90 92 105
-5.28446 4.12414 -1.82175 93 97 108
-5.25431 4.15951 -1.82369 98 100 115
-5.11962 4.56746 -1.85221 93 94 112
-5.08383 4.56964 -1.84518 92 95 112
-5.07231 4.58596 -1.8471 92 95 112
-4.8928 4.85463 -1.84638 92 95 110
-4.66873 5.27802 -1.85974 93 96 111
-4.46609 5.63124 -1.86833 96 98 113
-4.44569 5.63822 -1.86716 96 98 113
-4.19918 6.04345 -1.87275 93 95 109
-4.17416 6.04271 -1.86932 94 96 111
-3.88722 6.57013 -1.88235 93 96 111
-3.87078 6.59099 -1.88624 91 97 109
-3.71604 6.88116 -1.89178 94 97 112
-3.48305 7.20874 -1.89248 95 98 110
-3.31157 7.59793 -1.91442 96 100 112
-3.08214 7.94241 -1.91348 94 97 114
-7.95789 0.127272 -1.81758 79 90 109
-7.69282 0.492093 -1.8134 90 98 115
-7.69232 0.512079 -1.81394 91 98 116
-7.48903 0.744967 -1.80422 85 93 112
-7.16297 1.13556 -1.79227 89 96 113
-7.1623 1.15456 -1.79348 83 91 106
-7.03539 1.30332 -1.78944 90 97 113
-7.04335 1.32399 -1.79388 80 87 103
-7.02545 1.33868 -1.78935 83 90 106
-6.76029 1.67605 -1.78366 87 87 99
-6.75779 1.69408 -1.78493 88 80 83
-5.29288 4.15987 -1.83285 96 98 113
-5.25081 4.18296 -1.82891 94 97 112
-5.23689 4.19539 -1.82891 96 98 113
-5.06191 4.6037 -1.84965 91 97 112
-5.04541 4.61414 -1.84901 92 98 112
-5.02284 4.6319 -1.849 90 96 110
-4.87375 4.87797 -1.84889 94 95 113
-4.85658 4.8879 -1.84826 96 95 113
-4.83824 4.89626 -1.84701 94 96 111
-4.65436 5.31171 -1.86645 91 97 111
-4.62853 5.30969 -1.86158 90 96 110
-4.61713 5.32996 -1.86524 94 95 113
-4.41641 5.65021 -1.86598 97 99 114
-4.39224 5.65038 -1.86243 97 99 114
-4.15518 6.05386 -1.86991 90 92 107
-3.85068 6.6029 -1.88737 92 98 110
-3.68466 6.8984 -1.89343 92 98 111
-3.46076 7.21967 -1.89355 94 98 110
-3.06547 7.98617 -1.92331 95 97 111
-7.95334 0.1066 -1.81591 88 96 115
-7.69813 0.442518 -1.81355 85 92 110
-7.69135 0.471964 -1.81227 88 95 112
-7.53033 0.701067 -1.81535 82 90 109
-7.51292 0.728313 -1.81099 84 92 111
-7.18632 1.0924 -1.79679 86 93 109
-7.17834 1.10999 -1.79549 88 93 112
-7.0637 1.2627 -1.79532 83 90 108
-7.0458 1.28687 -1.79141 88 95 111
-6.79881 1.62237 -1.79034 72 76 88
-6.78748 1.63769 -1.78834 82 88 104
-5.23172 4.23059 -1.83674 97 101 113
-5.2023 4.22631 -1.82889 93 99 113
-5.19842 4.24974 -1.83411 95 98 113
-5.16903 4.24526 -1.82626 97 100 115
-5.00626 4.64222 -1.84837 91 94 111
-4.98608 4.64806 -1.84581 91 94 111
-4.9669 4.66998 -1.84772 95 98 115
-4.82548 4.9122 -1.84889 91 92 110
-4.79498 4.91994 -1.84513 91 94 109
-4.78101 4.93424 -1.84639 88 91 106
-4.58292 5.33305 -1.86038 92 95 112
-4.56935 5.35002 -1.86282 90 96 112
-4.37739 5.66709 -1.86481 96 98 113
-4.34617 5.67542 -1.86245 96 95 111
-4.13618 6.06495 -1.8705 93 95 110
-4.10672 6.07891 -1.87052 97 99 114
-3.81595 6.60817 -1.88518 93 96 111
-3.66146 6.9044 -1.89291 91 97 109
-3.63824 6.91032 -1.8924 93 96 111
-3.42476 7.22675 -1.89254 90 96 108
-3.27859 7.62106 -1.91801 92 95 110
-3.25014 7.61472 -1.91449 92 96 108
-3.03236 7.96213 -1.91551 94 98 110
-7.71553 0.423778 -1.81837 83 94 112
-7.51926 0.660873 -1.80996 80 86 108
-7.51823 0.680229 -1.81052 80 87 107
-7.19629 1.04656 -1.79692 83 90 108
-7.20171 1.07619 -1.80061 88 95 113
-7.06855 1.19809 -1.79164 88 94 112
-7.06943 1.22634 -1.79413 85 90 109
-7.06844 1.24492 -1.79536 85 91 109
-6.81327 1.56119 -1.78852 143 141 146
-6.8202 1.58198 -1.79307 143 141 144
-6.82163 1.60121 -1.79565 146 144 146
-5.92027 2.90112 -1.79357 77 79 94
-5.91667 2.91962 -1.79625 73 76 91
-5.90201 2.94138 -1.79621 80 83 98
-5.87003 2.99393 -1.79749 74 77 92
-5.15456 4.27055 -1.82952 96 99 114
-5.14538 4.28832 -1.83213 95 98 113
-5.13613 4.30609 -1.83474 94 97 112
-4.95139 4.6816 -1.84772 92 95 112
-4.93233 4.68871 -1.84581 93 96 111
-4.77139 4.95467 -1.85016 89 95 109
-4.73641 4.9559 -1.84388 89 95 109
-4.55166 5.36051 -1.86283 89 97 110
-4.33399 5.69703 -1.86662 96 98 113
-4.30796 5.69352 -1.86188 95 97 112
-4.09181 6.09848 -1.87398 95 98 113
-3.79508 6.61814 -1.88576 93 96 111
-3.60538 6.9236 -1.89297 92 95 110
-3.40067 7.23199 -1.89204 93 97 109
-3.22588 7.62317 -1.91503 92 96 108
-2.99796 7.98804 -1.91997 93 99 111
-7.70317 0.372943 -1.81315 82 93 111
-7.70813 0.403232 -1.81545 80 90 109
-7.51837 0.61223 -1.80765 83 91 110
-7.52214 0.641714 -1.81001 81 89 108
-7.19501 1.00818 -1.79387 81 86 106
-7.20408 1.02889 -1.79822 82 89 107
-7.09058 1.16512 -1.79621 91 98 116
-7.08979 1.18372 -1.79744 81 86 105
-6.82885 1.50044 -1.78736 143 138 144
-6.83783 1.52165 -1.79256 137 132 139
-6.83888 1.54993 -1.79577 143 141 144
-6.14651 2.54612 -1.79547 123 122 120
-6.14264 2.56392 -1.79747 132 132 134
-6.13538 2.57997 -1.79812 95 95 103
-6.11738 2.60002 -1.79606 77 78 96
-6.11165 2.6169 -1.79738 78 81 98
-6.10919 2.63557 -1.80006 80 83 101
-6.09095 2.65545 -1.798 79 80 98
-6.06202 2.65954 -1.78988 81 80 96
-6.06265 2.67997 -1.7939 81 83 98
-6.0845 2.7124 -1.80669 80 82 97
-6.07573 2.73769 -1.80868 81 84 101
-6.06626 2.75267 -1.80866 78 82 99
-6.0584 2.76856 -1.80931 72 78 92
-6.03796 2.78716 -1.80658 77 79 94
-6.02672 2.80108 -1.80588 78 77 95
-6.02192 2.81878 -1.80788 80 77 96
-5.99807 2.83522 -1.8038 79 81 96
-6.00601 2.86064 -1.8112 77 80 95
-5.98492 2.86859 -1.80646 76 82 96
-5.98307 2.88821 -1.80981 75 83 96
-5.97177 2.91224 -1.81112 77 78 96
-5.92838 2.97907 -1.8117 79 82 97
-5.915 2.99159 -1.81033 76 78 94
-5.88811 3.02679 -1.80961 76 79 94
-5.85889 3.02883 -1.8015 101 103 118
-5.86889 3.05666 -1.81025 94 93 109
-5.85204 3.07717 -1.80954 94 95 110
-5.81811 3.07575 -1.79941 101 101 117
-5.83248 3.10684 -1.81018 77 76 92
-5.81231 3.12505 -1.80813 86 85 100
-5.7815 3.1254 -1.79935 86 85 101
-5.80018 3.15986 -1.81214 93 94 112
-5.76131 3.16494 -1.802 97 96 114
-5.76433 3.18874 -1.80805 85 84 98
-5.74271 3.19519 -1.80331 87 89 102
-5.72495 3.23674 -1.80731 91 95 107
-5.11256 4.32138 -1.83343 95 98 113
-5.09197 4.3263 -1.83015 94 96 111
-5.07139 4.33115 -1.82688 95 97 112
-4.9094 4.70596 -1.8458 91 97 111
-4.89611 4.72039 -1.84708 91 97 111
-4.88508 4.73777 -1.84964 91 94 109
-4.72664 4.97625 -1.84765 90 93 110
-4.71462 4.99349 -1.85016 92 95 112
-4.52848 5.381 -1.86466 91 97 111
-4.51271 5.3946 -1.86589 92 98 114
-4.07015 6.10422 -1.87285 99 101 116
-3.77347 6.62626 -1.88578 93 96 111
-3.58019 6.9239 -1.89085 92 96 111
-3.37882 7.24453 -1.89364 92 98 110
-2.96901 7.98071 -1.91657 95 98 113
-7.70323 0.333027 -1.81208 77 88 106
-7.68041 0.351586 -1.80546 76 87 105
-7.52562 0.574096 -1.80837 82 94 110
-7.52296 0.593257 -1.80831 84 93 110
-7.20421 0.981304 -1.7952 85 92 110
-7.09933 1.1201 -1.79569 87 94 110
-7.09874 1.148 -1.79753 88 95 113
-6.86753 1.46467 -1.79664 78 75 91
-6.84887 1.4874 -1.79264 152 147 153
-6.23177 2.36412 -1.79106 84 84 94
-6.21672 2.37629 -1.78833 79 82 97
-6.21854 2.39658 -1.79235 83 83 99
-6.18273 2.40808 -1.78287 62 64 77
-6.18106 2.42668 -1.78554 136 135 144
-6.21294 2.46206 -1.8017 137 131 138
-6.17839 2.49364 -1.79624 128 123 130
-6.16802 2.50806 -1.79554 128 123 130
-6.16596 2.52675 -1.79821 125 123 126
-5.75629 3.22668 -1.81408 79 83 94
-5.73216 3.26395 -1.81539 89 90 108
-5.70133 3.2635 -1.80661 82 80 100
-5.7032 3.29771 -1.81467 91 90 106
-5.67537 3.29927 -1.80724 88 87 103
-5.6777 3.32321 -1.81329 82 84 99
-5.64764 3.33372 -1.8072 85 85 101
-5.65725 3.36337 -1.81662 91 93 108
-5.62941 3.36456 -1.80919 89 91 106
-5.59078 3.39059 -1.80444 95 97 110
-5.06006 4.36042 -1.8321 96 99 114
-5.0517 4.37945 -1.83537 96 98 113
-4.86707 4.74614 -1.84836 90 93 110
-4.84617 4.76611 -1.84964 91 97 111
-4.69041 5.00994 -1.85017 90 96 110
-4.66859 5.01303 -1.84703 90 96 110
-4.49388 5.4033 -1.86529 91 97 113
-4.46157 5.40892 -1.86164 95 98 115
-4.28937 5.72498 -1.86783 94 98 110
-4.26338 5.72128 -1.86309 95 97 112
-4.03639 6.10924 -1.87 98 99 117
-4.01634 6.11826 -1.87001 93 99 113
-3.74485 6.64729 -1.88857 92 98 112
-3.72045 6.64807 -1.88638 90 96 108
-3.56071 6.94047 -1.89356 92 100 113
-3.34551 7.26045 -1.89525 93 99 111
-3.18805 7.62919 -1.91406 94 98 110
-3.16122 7.62813 -1.91207 95 97 110
-2.94868 8.01104 -1.92297 93 99 111
-7.71507 0.303768 -1.81514 89 97 117
-7.54613 0.546812 -1.81395 81 90 107
-7.23058 0.928606 -1.80038 83 90 108
-7.2231 0.946421 -1.79907 73 81 100
-7.24548 0.969293 -1.80783 84 92 111
-7.10789 1.08433 -1.79578 77 84 100
-7.09806 1.10116 -1.79381 80 90 105
-6.85252 1.37722 -1.78307 83 89 103
-6.8543 1.40532 -1.78628 88 94 108
-6.86911 1.42781 -1.79344 90 97 116
-6.86744 1.44598 -1.79471 79 84 104
-6.28606 2.16943 -1.77722 74 70 84
-6.27142 2.22919 -1.78184 138 110 82
-6.28583 2.25474 -1.79058 139 113 89
-6.27961 2.2711 -1.79123 142 112 86
-6.26631 2.29365 -1.79051 147 113 84
-6.26677 2.31312 -1.79385 146 113 80
-6.25355 2.32626 -1.7918 149 118 89
-6.24708 2.34255 -1.79245 148 124 103
-5.63733 3.39315 -1.81794 91 90 108
-5.6074 3.42617 -1.81723 92 94 107
-5.5751 3.42349 -1.80778 95 97 111
-5.58601 3.46598 -1.82056 86 86 102
-5.55079 3.46073 -1.80977 81 84 99
-5.5332 3.46944 -1.80706 86 89 104
-5.52323 3.49545 -1.8104 81 84 99
-5.04326 4.39848 -1.83863 95 97 112
-5.02135 4.40165 -1.83471 95 98 113
-4.99862 4.41781 -1.83405 94 97 112
-4.83036 4.77736 -1.84964 90 98 111
-4.80885 4.781 -1.84645 90 96 110
-4.65851 5.03326 -1.8508 91 96 111
-4.64411 5.04721 -1.85206 90 93 110
-4.45253 5.43376 -1.86714 94 97 112
-4.43165 5.439 -1.86532 94 97 112
-4.24996 5.74105 -1.86667 92 97 113
-4.21943 5.7504 -1.8649 93 96 113
-3.99872 6.13242 -1.87175 95 98 115
-3.70009 6.65956 -1.88751 90 98 111
-3.52832 6.95523 -1.89467 92 98 112
-3.32187 7.26729 -1.89528 95 100 112
-3.13938 7.64564 -1.91514 92 98 110
-2.91718 7.99222 -1.91664 92 100 111
-7.70517 0.263385 -1.81109 82 93 113
-7.70921 0.283509 -1.81282 81 89 112
-7.54163 0.507589 -1.81101 88 95 114
-7.53349 0.526321 -1.80912 86 95 113
-7.23177 0.8813 -1.79799 79 88 105
-7.26379 0.905395 -1.8099 74 82 100
-7.11599 1.03922 -1.79526 82 89 107
-7.11933 1.05849 -1.79777 88 93 112
-6.86423 1.31579 -1.78126 80 87 103
-6.89011 1.34982 -1.79298 80 87 103
-6.89784 1.37033 -1.79753 90 96 112
-6.3358 2.05914 -1.77676 74 80 94
-6.34238 2.08056 -1.78213 79 82 97
-6.32806 2.09342 -1.7794 78 81 96
-6.3277 2.12132 -1.7834 77 80 97
-6.31498 2.13481 -1.78134 79 86 96
-6.31261 2.15268 -1.78334 82 85 97
-6.30077 2.19478 -1.78596 104 93 92
-6.31709 2.221 -1.79538 142 119 100
-6.29442 2.53247 -1.83943 130 125 131
-5.52449 3.51952 -1.81646 98 101 118
-5.50386 3.52571 -1.8124 91 94 109
-5.50349 3.54862 -1.81778 101 103 118
-5.46282 3.54924 -1.80698 100 102 117
-5.47811 3.58544 -1.81977 78 81 96
-5.44734 3.58286 -1.811 77 79 94
-4.98636 4.4324 -1.83535 95 98 113
-4.97405 4.44695 -1.83666 95 96 114
-4.94394 4.45413 -1.83208 90 93 110
-4.79339 4.80832 -1.85092 90 96 110
-4.77182 4.8118 -1.84773 93 96 111
-4.75701 4.82435 -1.84837 92 94 109
-4.61647 5.05862 -1.85018 89 95 109
-4.60615 5.07876 -1.85395 91 97 111
-4.41464 5.45071 -1.86594 94 97 112
-4.20938 5.77684 -1.87085 93 95 112
-3.96976 6.1475 -1.87235 96 99 116
-3.94959 6.15631 -1.87236 92 98 112
-3.66525 6.66408 -1.88533 90 98 111
-3.50619 6.96438 -1.89523 92 98 112
-3.29552 7.26482 -1.89269 95 99 111
-7.72585 0.244376 -1.81711 80 91 111
-7.54402 0.48838 -1.81106 85 92 114
-7.23822 0.834888 -1.79749 81 88 106
-7.24656 0.864568 -1.80182 88 97 114
-7.12935 0.995036 -1.79666 82 88 110
-7.13123 1.02326 -1.79915 84 91 109
-6.87893 1.25518 -1.78076 79 87 100
-6.89418 1.28627 -1.78855 81 89 102
-6.87647 1.3004 -1.78392 85 91 107
-6.36045 2.02255 -1.77954 78 81 93
-6.3483 2.04552 -1.77881 75 81 95
-5.44813 3.61844 -1.81974 85 84 102
-5.43446 3.63035 -1.81906 92 91 105
-5.408 3.63114 -1.81231 75 74 88
-5.40273 3.66179 -1.81835 83 85 98
-4.93391 4.4715 -1.83469 93 96 113
-4.92264 4.48739 -1.83665 93 96 111
-4.89598 4.49866 -1.83403 94 97 112
-4.73231 4.83928 -1.84773 90 93 110
-4.72182 4.85786 -1.85093 91 94 109
-4.5832 5.07993 -1.85019 92 95 112
-4.56376 5.10371 -1.85333 90 96 110
-4.38611 5.46245 -1.86473 95 98 113
-4.36998 5.47568 -1.86596 95 98 113
-4.18691 5.77957 -1.86849 92 95 112
-4.16183 5.77714 -1.86435 94 97 112
-3.92941 6.16507 -1.87238 94 100 114
-3.6481 6.68443 -1.88922 90 96 112
-3.48282 6.96982 -1.89472 92 97 110
-3.26365 7.28593 -1.89587 94 98 110
-3.10442 7.66246 -1.91721 93 99 111
-2.88283 8.01954 -1.92159 91 97 111
-2.85028 7.99479 -1.91379 92 98 112
-7.70109 0.213481 -1.80885 87 95 114
-7.54932 0.44033 -1.8112 78 84 108
-7.54139 0.459144 -1.80931 87 93 117
-7.27542 0.821301 -1.80887 88 94 110
-7.14085 0.959722 -1.79804 83 91 110
-7.13698 0.977703 -1.79799 79 87 106
-6.89567 1.22242 -1.78347 81 87 103
-6.8818 1.23754 -1.78015 81 88 104
-6.3953 1.93405 -1.77836 86 84 98
-6.41293 1.95931 -1.78778 89 89 102
-6.37962 1.96512 -1.77762 82 81 97
-6.39048 1.99707 -1.78567 82 81 97
-6.38859 2.01502 -1.78766 72 74 87
-5.39741 3.68101 -1.82171 71 73 88
-5.39482 3.70273 -1.82642 79 83 95
-5.34566 3.69461 -1.81157 80 79 93
-5.35833 3.73009 -1.8237 81 83 96
-5.32484 3.72402 -1.81358 77 80 95
-5.29377 3.75588 -1.81355 81 83 98
-4.88105 4.51004 -1.83403 94 96 111
-4.86727 4.52285 -1.83468 93 94 112
-4.85226 4.53413 -1.83468 94 95 113
-4.70464 4.8672 -1.85029 91 97 111
-4.694 4.88573 -1.85349 91 97 111
-4.53976 5.10311 -1.84895 92 98 112
-4.52816 5.12152 -1.85209 90 96 110
-4.34902 5.48063 -1.86414 92 98 112
-4.32511 5.50031 -1.86598 95 98 113
-4.13294 5.78946 -1.86377 94 97 112
-3.90263 6.18508 -1.87469 93 99 113
-3.62628 6.6921 -1.88925 94 97 114
-3.46003 6.97701 -1.89475 92 98 110
-3.23888 7.28881 -1.89485 95 99 111
-3.07999 7.67048 -1.91775 95 98 113
-7.6906 0.173395 -1.8048 88 97 114
-7.71968 0.194271 -1.81428 84 92 109
-7.53907 0.391328 -1.80645 81 89 108
-7.54203 0.420481 -1.8082 79 87 108
-7.28628 0.803785 -1.81143 90 96 112
-7.14609 0.914146 -1.79688 89 96 114
-7.15772 0.943838 -1.80257 80 87 106
-6.90396 1.20598 -1.78482 86 93 109
-6.44664 1.87002 -1.78661 80 76 82
-6.43815 1.88541 -1.7859 81 81 91
-6.42785 1.90012 -1.78452 100 100 112
-6.42102 1.9161 -1.78448 84 82 95
-5.33034 3.75327 -1.82233 99 101 116
-5.30041 3.78645 -1.82298 88 90 102
-5.27115 3.78377 -1.81488 97 99 111
-5.21995 3.82126 -1.81148 87 91 103
-4.82663 4.54651 -1.83272 94 96 111
-4.8208 4.56962 -1.83795 94 96 111
-4.66577 4.89572 -1.85094 92 95 110
-4.64848 4.90488 -1.8503 94 95 113
-4.50435 5.13872 -1.85272 93 96 113
-4.4885 5.15066 -1.85336 93 94 112
-4.30976 5.51503 -1.86782 95 98 113
-4.28594 5.5148 -1.86417 95 98 113
-4.11822 5.80724 -1.86675 94 98 114
-4.09405 5.80624 -1.8632 93 96 113
-3.8839 6.19719 -1.87586 95 98 113
-3.86282 6.204 -1.8753 97 100 113
-3.60383 6.6979 -1.88872 91 97 111
-3.42323 6.97852 -1.8921 92 98 112
-3.21568 7.29718 -1.8954 97 100 114
-3.05314 7.66906 -1.91576 93 99 112
-2.83036 8.02862 -1.92117 94 100 112
-7.73029 0.144784 -1.81681 82 90 109
-7.5449 0.372359 -1.80773 86 95 112
-7.24944 0.713535 -1.79468 86 95 111
-7.26141 0.733968 -1.79966 82 90 108
-7.28085 0.755491 -1.80716 83 91 110
-7.30086 0.786731 -1.81526 87 93 110
-7.16272 0.879535 -1.80018 88 97 114
-7.16097 0.897862 -1.80077 86 93 111
-6.95174 1.17074 -1.79804 81 87 105
-6.95459 1.18979 -1.80062 79 86 104
-6.48888 1.82058 -1.79415 149 120 96
-6.47169 1.83298 -1.79007 148 122 97
-6.45623 1.84593 -1.78666 158 138 118
-5.27706 3.82587 -1.827 100 102 117
-5.26144 3.83592 -1.82564 97 101 113
-5.22948 3.86731 -1.82562 90 92 107
-5.19351 3.85757 -1.81416 94 92 113
-5.18188 3.87127 -1.81482 76 75 93
-4.80565 4.58077 -1.83795 94 96 111
-4.78441 4.59891 -1.8386 93 96 111
-4.63224 4.91553 -1.85031 92 95 110
-4.61468 4.94078 -1.85414 91 94 109
-4.46857 5.15614 -1.85148 93 94 112
-4.44762 5.15995 -1.84898 93 95 110
-4.26181 5.53422 -1.86601 95 98 113
-4.0701 5.8285 -1.86619 100 102 117
-3.84248 6.2125 -1.87532 96 99 114
-3.56954 6.70376 -1.88709 90 98 111
-3.54955 6.71663 -1.88877 90 96 110
-3.40574 7.00201 -1.89696 93 96 111
-3.377 6.99064 -1.89161 93 96 111
-3.18097 7.30868 -1.89597 95 98 113
-3.01658 7.67989 -1.91631 91 97 111
-7.7251 0.1048 -1.81455 86 98 114
-7.72582 0.124732 -1.81508 82 90 109
-7.55256 0.353462 -1.80962 89 98 115
-7.15984 0.832805 -1.79647 82 91 108
-7.1545 0.85056 -1.79578 80 89 106
-6.93027 1.08398 -1.78383 83 89 105
-6.92602 1.10132 -1.78379 85 94 109
-6.92727 1.11981 -1.78571 82 90 105
-6.94882 1.15173 -1.79547 88 93 112
-6.47825 1.7074 -1.77613 145 126 108
-6.49425 1.7399 -1.78553 156 123 92
-6.49327 1.75787 -1.78752 154 123 93
-6.49223 1.77585 -1.78951 149 123 97
-6.48757 1.79263 -1.79015 151 126 104
-5.17958 3.89414 -1.82021 81 83 96
-5.15765 3.91 -1.81885 93 92 106
-5.14185 3.91962 -1.81749 91 93 106
-4.76577 4.60543 -1.83664 95 98 113
-4.76071 4.63 -1.84252 92 95 110
-4.59299 4.94353 -1.85095 94 94 110
-4.57557 4.95245 -1.85032 91 93 108
-4.42761 5.18324 -1.85212 92 95 112
-4.24353 5.54379 -1.86603 96 99 114
-4.22339 5.54996 -1.86482 96 98 113
-4.05265 5.841 -1.86739 96 98 112
-4.03015 5.84317 -1.86503 90 93 109
-3.81233 6.22512 -1.87535 95 98 113
-3.52953 6.72944 -1.89045 91 97 113
-3.15364 7.30201 -1.89234 96 97 115
-2.98975 7.67827 -1.91431 95 98 113
-7.5587 0.305477 -1.81038 83 92 109
-7.56636 0.325188 -1.81338 87 96 113
-7.3111 0.673798 -1.81306 86 95 110
-7.29874 0.691316 -1.80986 81 90 105
-7.15659 0.786197 -1.79275 85 92 108
-7.17075 0.815809 -1.79908 80 92 106
-6.93795 1.0583 -1.78456 83 86 103
-6.49947 1.678 -1.77958 109 101 109
-6.49691 1.69533 -1.78089 127 115 113
-5.14459 3.94782 -1.82557 92 94 106
-5.10525 3.94611 -1.81545 95 94 108
-5.10122 3.96762 -1.82016 88 86 100
-5.08525 3.97704 -1.81881 93 91 105
-4.73248 4.63886 -1.83925 92 96 111
-4.70815 4.6376 -1.83403 95 98 113
-4.69614 4.65298 -1.83599 92 95 112
-4.55245 4.96966 -1.85096 93 96 111
-4.53601 4.98003 -1.85097 90 96 110
-4.4106 5.19335 -1.85213 93 95 110
-4.39061 5.19855 -1.85026 93 96 111
-4.206 5.56109 -1.86544 96 97 115
-4.00595 5.86518 -1.86802 93 95 109
-3.78891 6.22643 -1.87307 95 99 112
-3.49577 6.73676 -1.88938 95 98 115
-3.34773 7.0156 -1.89595 94 98 110
-3.13239 7.31756 -1.89498 96 96 114
-2.9707 7.70845 -1.92093 95 99 111
-7.55644 0.26676 -1.80866 82 94 110
-7.57185 0.286731 -1.81411 82 94 110
-7.32154 0.655993 -1.81563 87 95 108
-7.1762 0.751824 -1.79733 73 82 99
-7.17861 0.770626 -1.7992 75 82 100
-6.98504 1.03096 -1.79841 83 88 107
-6.98837 1.04991 -1.80099 80 84 102
-6.53983 1.62736 -1.78713 61 67 82
-6.53386 1.64366 -1.78709 91 93 109
-6.53143 1.66107 -1.78841 86 89 104
-5.86826 2.66112 -1.79609 83 80 97
-5.85423 2.67262 -1.79398 83 83 97
-5.86329 2.70757 -1.80367 80 82 95
-5.80223 2.76011 -1.79524 77 80 96
-5.79115 2.77328 -1.79452 77 80 95
-5.77565 2.79348 -1.7938 77 79 94
-5.77713 2.81459 -1.79864 77 81 93
-5.77851 2.83574 -1.80348 77 83 95
-5.75143 2.8387 -1.79582 79 83 98
-5.75293 2.86993 -1.80273 75 78 94
-5.73681 2.87985 -1.79993 77 80 97
-5.73319 2.89795 -1.80269 74 76 91
-5.70934 2.91267 -1.7985 75 77 92
-5.69936 2.92657 -1.79848 85 86 102
-5.67619 2.96224 -1.79912 92 92 106
-5.65181 3.00783 -1.80185 90 92 107
-5.61881 3.03669 -1.79833 81 80 97
-5.07736 4.00728 -1.82486 85 84 100
-5.0561 4.01119 -1.82082 79 78 94
-5.02004 4.02555 -1.81609 103 102 116
-4.68739 4.6729 -1.83991 94 95 111
-4.6657 4.69053 -1.84057 95 94 110
-4.51849 4.98877 -1.85033 90 93 110
-4.49829 5.01048 -1.85289 91 94 111
-4.37817 5.23462 -1.85842 94 97 112
-4.35321 5.23157 -1.85341 93 96 111
-4.18247 5.58186 -1.86789 95 98 113
-4.16314 5.58951 -1.8673 94 97 112
-3.98343 5.86719 -1.86566 99 101 116
-3.96662 5.88118 -1.86745 114 113 125
-3.773 6.24527 -1.87653 97 100 113
-3.47562 6.74942 -1.89106 97 99 114
-3.32252 7.01503 -1.89383 93 97 109
-3.29846 7.01806 -1.89278 91 97 111
-3.10807 7.3219 -1.89449 97 98 116
-2.94202 7.69917 -1.91692 95 97 112
-7.57935 0.23866 -1.81548 90 99 118
-7.32057 0.608407 -1.81325 83 92 109
-7.3216 0.627515 -1.81445 82 89 105
-7.18732 0.707067 -1.79874 80 89 102
-7.17747 0.733512 -1.79674 80 87 105
-6.99086 0.986462 -1.79722 83 89 105
-6.99832 1.01518 -1.80174 80 89 104
-6.56987 1.54617 -1.78799 143 138 142
-6.5725 1.57395 -1.79198 144 142 143
-6.5595 1.58817 -1.78924 146 142 142
-6.55366 1.60453 -1.78921 150 149 153
-5.98086 2.41395 -1.78536 70 68 85
-6.01222 2.4496 -1.802 147 142 145
-5.99818 2.47088 -1.80127 126 123 130
-5.97435 2.49678 -1.79844 127 122 128
-5.97555 2.51683 -1.80258 125 123 128
-5.97106 2.54336 -1.80602 124 122 125
-5.95404 2.55348 -1.80252 121 119 123
-5.9452 2.56809 -1.8025 128 127 132
-5.93551 2.59181 -1.80385 96 99 105
-5.92328 2.60452 -1.80244 74 78 90
-5.9224 2.62371 -1.80589 83 85 100
-5.9027 2.64172 -1.80307 82 83 101
-5.85877 2.72483 -1.80573 79 82 97
-5.85258 2.74111 -1.80709 77 80 97
-5.84201 2.76454 -1.80845 77 78 96
-5.71885 2.96034 -1.81165 93 92 106
-5.69232 2.99405 -1.8109 86 88 103
-5.679 3.00578 -1.8095 88 90 105
-5.66901 3.05102 -1.81639 80 79 97
-5.65273 3.08182 -1.81844 89 88 102
-5.60997 3.08274 -1.80592 84 83 97
-5.59642 3.09415 -1.80451 74 73 89
-5.58285 3.10551 -1.80311 73 72 88
-5.56726 3.14708 -1.80793 91 94 111
-5.50526 3.21857 -1.80645 79 78 94
-5.0608 4.0422 -1.83025 100 99 113
-5.02078 4.06526 -1.82686 96 95 109
-4.99302 4.06202 -1.81944 96 95 109
-4.98195 4.07656 -1.82079 91 93 106
-4.64577 4.69508 -1.83795 94 95 113
-4.63788 4.71646 -1.84253 93 96 111
-4.48484 5.02544 -1.85481 92 95 112
-4.46821 5.0356 -1.85482 92 96 111
-4.33411 5.2382 -1.85216 93 96 111
-4.14292 5.59542 -1.86609 93 97 112
-3.95382 5.90376 -1.87222 116 118 129
-3.74345 6.25935 -1.87713 95 99 111
-3.72663 6.27632 -1.88001 94 98 110
-3.45119 6.74929 -1.88888 95 98 113
-3.07371 7.33477 -1.89558 96 100 114
-2.90575 7.71138 -1.91797 94 99 113
-7.57289 0.19978 -1.81253 78 87 106
-7.56002 0.218681 -1.8088 82 90 111
-7.32589 0.571005 -1.81335 84 93 109
-7.32892 0.590299 -1.81519 84 93 108
-7.1914 0.670633 -1.79821 78 84 100
-7.18658 0.688523 -1.79751 94 98 110
-7.01157 0.953673 -1.80191 87 94 111
-7.00217 0.97026 -1.79989 86 91 110
-6.57945 1.49489 -1.7854 143 141 144
-6.58293 1.51387 -1.78874 142 138 142
-6.57372 1.52925 -1.78735 144 139 143
-6.09381 2.20673 -1.78643 155 135 119
-6.09271 2.23405 -1.79056 145 121 99
-6.09554 2.27299 -1.79814 154 127 103
-6.08925 2.28883 -1.79881 152 126 101
-6.07594 2.31051 -1.79807 156 125 96
-6.07456 2.3288 -1.80082 148 115 85
-6.06976 2.34544 -1.80219 147 121 94
-6.04951 2.36363 -1.79867 81 72 68
-6.04292 2.37937 -1.79934 84 83 91
-6.03461 2.39424 -1.79932 87 85 100
-5.6036 3.15243 -1.81974 95 97 112
-5.5791 3.17735 -1.81832 95 97 111
-5.57428 3.19537 -1.82108 103 105 118
-5.54792 3.20771 -1.8162 81 85 97
-5.5415 3.22454 -1.81826 82 84 99
-5.51591 3.25916 -1.81892 86 87 100
-5.50486 3.27249 -1.8189 90 92 105
-5.47018 3.26729 -1.80779 95 97 110
-5.47743 3.30569 -1.81887 92 91 107
-5.43306 3.31451 -1.80843 86 89 101
-4.96439 4.09695 -1.82213 101 103 118
-4.93796 4.09477 -1.81538 95 97 112
-4.93306 4.11613 -1.8201 96 98 113
-4.60836 4.72309 -1.83861 91 94 110
-4.59164 4.73205 -1.83796 90 95 112
-4.44951 5.04254 -1.85355 92 95 110
-4.31162 5.25782 -1.85406 88 95 113
-4.29248 5.26431 -1.85281 92 97 113
-4.11296 5.60416 -1.86427 95 99 114
-3.92357 5.91337 -1.87105 118 120 129
-3.70386 6.27909 -1.87831 93 100 111
-3.41916 6.7617 -1.88947 92 95 110
-3.26724 7.03719 -1.8955 95 98 113
-3.04937 7.33892 -1.89509 93 99 112
-2.88066 7.71692 -1.91801 94 98 110
-7.5594 0.170493 -1.80773 78 85 106
-7.31986 0.542025 -1.81029 81 88 106
-7.19156 0.643052 -1.797 84 91 107
-7.01305 0.908417 -1.79941 84 92 106
-7.01122 0.926321 -1.80001 79 88 103
-6.13354 2.12302 -1.78589 80 79 95
-6.12946 2.13968 -1.78726 81 81 96
-6.12361 2.15557 -1.78792 79 81 96
-6.10579 2.17507 -1.7851 81 78 90
-6.10493 2.19327 -1.78785 80 70 75
-6.10853 2.26037 -1.80025 145 120 100
-6.06715 2.52729 -1.83388 124 119 125
-5.47209 3.32359 -1.82163 89 88 104
-5.44076 3.34291 -1.81744 96 100 112
-5.42999 3.3673 -1.82019 87 89 102
-5.40699 3.37087 -1.81463 87 86 100
-5.41724 3.40179 -1.82502 75 77 92
-4.91151 4.13213 -1.81942 100 102 115
-4.58137 4.75026 -1.84123 91 95 112
-4.55393 4.75967 -1.83862 91 94 111
-4.42593 5.0592 -1.8542 93 96 111
-4.40212 5.058 -1.84973 94 97 112
-4.27616 5.27564 -1.85345 94 97 112
-4.26265 5.29186 -1.85597 93 95 110
-4.09974 5.6234 -1.86795 96 98 113
-4.08119 5.63248 -1.86796 98 100 115
-3.90418 5.92201 -1.87107 116 116 128
-3.87686 5.91324 -1.86515 113 113 125
-3.67557 6.29641 -1.88006 95 99 111
-3.39592 6.76503 -1.88839 93 96 112
-3.24425 7.04372 -1.89553 97 99 114
-3.22232 7.05388 -1.89664 99 98 114
-3.0269 7.35046 -1.89669 93 99 111
-2.85426 7.71673 -1.91652 95 98 110
-7.5753 0.13228 -1.81213 83 91 112
-7.57214 0.15151 -1.81146 86 93 114
-7.32856 0.504984 -1.81166 84 91 109
-7.33746 0.524749 -1.81538 87 94 112
-7.19335 0.606436 -1.79583 82 91 108
-7.20001 0.625534 -1.79898 85 92 108
-7.0204 0.891434 -1.80077 76 83 101
-6.63083 1.40139 -1.79305 83 88 107
-6.63101 1.41939 -1.79504 88 91 110
-6.61619 1.44226 -1.79228 89 96 114
-6.62348 1.46225 -1.79697 79 78 94
-6.17872 2.01438 -1.78402 77 78 91
-6.17674 2.03183 -1.78607 79 81 95
-6.17147 2.05692 -1.78811 78 80 94
-6.16245 2.07141 -1.78739 78 80 95
-6.14997 2.08436 -1.78527 80 81 96
-6.14944 2.10256 -1.78802 82 83 98
-5.39894 3.42014 -1.82431 87 88 106
-5.3845 3.43073 -1.82291 88 88 106
-5.37146 3.44247 -1.8222 76 79 96
-5.33444 3.4448 -1.81247 77 80 94
-5.34696 3.47834 -1.82425 89 92 107
-5.3111 3.47036 -1.81244 94 97 112
-4.92271 4.17172 -1.83289 103 101 116
-4.90873 4.1833 -1.83289 98 96 112
-4.89099 4.19061 -1.83086 83 80 97
-4.54244 4.77624 -1.84124 92 93 111
-4.52664 4.78655 -1.84124 92 93 111
-4.50448 4.78744 -1.83733 94 96 111
-4.39244 5.07913 -1.85421 93 96 111
-4.36668 5.09233 -1.85358 92 95 112
-4.22859 5.29144 -1.85033 93 95 112
-4.05544 5.64938 -1.86919 95 98 113
-3.85366 5.93814 -1.86932 111 112 123
-3.65638 6.30789 -1.88123 95 99 113
-3.37504 6.77559 -1.88952 93 98 110
-3.19818 7.05659 -1.89559 96 98 111
-7.58049 0.103419 -1.81344 83 90 109
-7.32451 0.457417 -1.80865 79 90 108
-7.33356 0.477077 -1.81237 82 91 108
-7.21391 0.58091 -1.80167 84 93 108
-7.03838 0.867094 -1.80543 93 100 118
-6.65028 1.37056 -1.79651 84 92 105
-6.64149 1.38623 -1.79512 87 94 111
-6.69947 1.50137 -1.82731 159 152 160
-6.20993 1.9455 -1.78416 89 88 101
-6.22552 1.97005 -1.79316 80 81 93
-6.19599 1.97616 -1.7841 86 88 101
-6.21349 2.01066 -1.79516 97 96 110
-5.32625 3.50644 -1.82562 76 78 93
-5.30608 3.52312 -1.82421 82 84 99
-5.30121 3.54204 -1.82767 89 91 106
-5.26966 3.53732 -1.81794 75 77 90
-5.26888 3.57123 -1.82625 96 95 109
-5.23875 3.56752 -1.81722 89 88 102
-4.87033 4.20783 -1.83086 87 86 100
-4.84266 4.20364 -1.82344 90 89 103
-4.84334 4.23206 -1.83153 84 83 97
-4.81637 4.24192 -1.82815 79 78 92
-4.48849 4.81369 -1.8419 92 93 111
-4.35084 5.10375 -1.85422 93 95 112
-4.33397 5.11352 -1.85423 92 95 111
-4.22245 5.32073 -1.85787 93 96 113
-4.19572 5.3137 -1.8516 93 96 113
-4.03336 5.65154 -1.86677 97 99 114
-4.01986 5.67062 -1.87044 96 98 113
-3.83496 5.94831 -1.86993 111 114 123
-3.63002 6.30154 -1.87666 94 100 114
-3.61078 6.31289 -1.87783 95 98 113
-3.35178 6.77878 -1.88844 92 98 112
-2.99051 7.3555 -1.89568 95 99 112
-2.96613 7.35939 -1.89519 95 98 112
-2.81577 7.71912 -1.91505 97 99 112
-7.31728 0.437975 -1.80555 82 91 108
-6.6516 1.32627 -1.79255 83 91 104
-6.65204 1.34425 -1.79454 78 84 100
-6.26113 1.88437 -1.79263 86 84 95
-6.25279 1.91741 -1.79466 89 88 100
-6.24813 1.9427 -1.79669 88 85 102
-5.2406 3.59263 -1.82415 91 90 104
-5.23249 3.62026 -1.82899 90 89 103
-5.22167 3.63403 -1.82967 93 92 106
-5.16977 3.63335 -1.81578 95 94 110
-4.80825 4.26034 -1.83152 88 89 102
-4.79279 4.27015 -1.83084 96 98 111
-4.47778 4.83171 -1.84518 93 94 111
-4.45975 4.83867 -1.84388 93 95 110
-4.30708 5.12483 -1.85296 90 98 111
-4.29015 5.13446 -1.85297 91 98 111
-4.17185 5.3311 -1.85287 93 95 111
-4.15438 5.34044 -1.85288 92 93 111
-3.99774 5.67265 -1.86802 97 99 114
-3.81701 5.96016 -1.87114 114 114 126
-3.58156 6.32803 -1.879 94 97 112
-3.31787 6.78525 -1.88737 92 98 110
-3.16612 7.07345 -1.89778 94 97 112
-2.94399 7.37256 -1.89731 95 98 113
-2.7948 7.74325 -1.92015 94 98 112
-7.292 0.370422 -1.79504 78 87 104
-7.33918 0.392507 -1.81136 79 88 105
-7.35034 0.412222 -1.81571 75 84 101
-6.67566 1.26975 -1.7954 75 77 98
-6.67264 1.28687 -1.79603 84 87 106
-6.67299 1.31365 -1.79867 84 90 106
-6.28924 1.83198 -1.79483 154 124 100
-6.28439 1.84822 -1.79549 159 133 110
-6.2725 1.86177 -1.79338 139 124 111
-5.21218 3.64905 -1.83105 94 93 109
-5.17498 3.67366 -1.82756 91 90 106
-5.16805 3.69115 -1.83032 85 84 100
-5.15292 3.70087 -1.82893 87 86 102
-5.11845 3.70364 -1.82059 92 91 107
-4.77054 4.28548 -1.83017 98 100 114
-4.75501 4.29516 -1.82949 96 98 113
-4.74544 4.31205 -1.83219 100 102 117
-4.43513 4.85217 -1.84323 92 95 110
-4.42216 4.86691 -1.84519 93 95 110
-4.27222 5.14241 -1.85234 91 98 112
-4.25427 5.15031 -1.85171 91 96 110
-4.13687 5.34972 -1.85289 94 95 113
-3.97091 5.68749 -1.86864 97 99 114
-3.95049 5.69277 -1.86744 96 98 113
-3.78658 5.96912 -1.86997 115 113 126
-3.76852 5.98084 -1.87118 117 115 126
-3.56014 6.33389 -1.87845 97 99 114
-3.29858 6.80109 -1.89016 94 99 111
-3.14195 7.07598 -1.89674 94 98 110
-3.11623 7.07288 -1.89408 95 99 111
-2.76634 7.73335 -1.91613 93 99 111
-7.29824 0.324071 -1.79581 83 90 109
-7.31287 0.353067 -1.8014 77 85 104
-6.68811 1.21045 -1.79419 84 91 107
-6.68528 1.22758 -1.79482 82 89 107
-6.6841 1.25391 -1.79679 84 90 107
-6.29866 1.6926 -1.77912 91 82 83
-6.31195 1.71501 -1.78673 150 122 104
-6.3118 1.75068 -1.79153 157 130 106
-6.31327 1.77796 -1.79564 156 126 100
-6.30508 1.79296 -1.79492 150 123 96
-6.29861 1.80858 -1.79488 151 125 95
-5.12752 3.73668 -1.83168 82 84 99
-5.10692 3.74101 -1.82751 81 83 96
-5.06843 3.73946 -1.81709 84 86 99
-5.04458 3.76476 -1.81777 82 84 97
-4.72659 4.33152 -1.83353 96 97 115
-4.71328 4.34398 -1.8342 100 100 116
-4.39894 4.86575 -1.84062 92 95 112
-4.37522 4.88055 -1.84063 93 96 111
-4.23203 5.16939 -1.85364 91 97 111
-4.1137 5.36854 -1.85478 95 97 112
-4.09613 5.37769 -1.8548 94 96 111
-3.93503 5.70824 -1.86989 95 97 112
-3.75119 5.99427 -1.87298 119 117 128
-3.5387 6.33968 -1.87789 95 99 111
-3.2792 6.81688 -1.89295 94 97 114
-2.9093 7.38471 -1.8984 95 100 114
-2.72943 7.74289 -1.91669 92 98 110
-7.2868 0.304716 -1.79146 81 88 107
-6.71011 1.17979 -1.799 88 94 113
-6.69087 1.19333 -1.79355 82 88 104
-6.31802 1.67282 -1.78334 84 86 101
-5.82232 2.39757 -1.78469 81 83 98
-5.82164 2.42486 -1.78965 102 98 111
-5.80001 2.43186 -1.78392 143 140 147
-5.80035 2.47855 -1.79313 122 120 125
-5.8015 2.498 -1.79739 129 124 130
-5.79118 2.51113 -1.79665 132 127 133
-5.78405 2.52605 -1.79734 134 129 135
-5.77774 2.5507 -1.80016 128 124 130
-5.76077 2.56003 -1.79657 130 128 131
-5.76157 2.57954 -1.80083 114 113 119
-5.75496 2.60417 -1.80365 82 84 99
-5.73466 2.61146 -1.79863 77 79 98
-5.71755 2.62056 -1.79505 75 78 95
-5.7059 2.64219 -1.79573 77 83 97
-5.69515 2.65499 -1.79499 77 83 97
-5.67636 2.66291 -1.79069 79 81 94
-5.66132 2.68243 -1.78995 79 80 98
-5.67269 2.70879 -1.7992 80 82 97
-5.64428 2.71064 -1.79062 78 81 96
-5.6618 2.74103 -1.80273 75 81 95
-5.63224 2.7515 -1.79556 76 82 98
-5.61957 2.76304 -1.79412 77 80 95
-5.61317 2.77856 -1.79553 77 80 95
-5.61799 2.81095 -1.80405 79 82 97
-5.5864 2.81019 -1.79405 78 81 97
-5.57514 2.82258 -1.79332 76 77 95
-5.57495 2.85191 -1.79971 79 78 94
-5.55581 2.85907 -1.79541 78 80 95
-5.51004 2.91773 -1.79462 81 80 96
-5.47516 2.96376 -1.79456 84 86 101
-5.08513 3.7805 -1.83235 99 98 112
-5.03392 3.79063 -1.82192 79 81 94
-5.04225 3.82388 -1.83301 109 111 124
-5.0058 3.81173 -1.82052 104 106 121
-4.6905 4.34469 -1.82949 97 99 114
-4.68538 4.36732 -1.83488 97 99 114
-4.36717 4.90312 -1.84586 93 96 111
-4.34496 4.90331 -1.84195 93 96 111
-4.21496 5.1788 -1.85365 93 96 111
-4.19312 5.17996 -1.85046 92 98 112
-4.07672 5.38346 -1.85355 95 97 112
-3.9039 5.71424 -1.86747 93 98 112
-3.72781 5.99361 -1.87003 118 116 129
-3.51 6.3563 -1.87964 97 100 113
