-24.695 12.8467 -2.13683 97 98 102
-24.6102 12.8957 -2.13253 85 86 94
-24.6001 12.9861 -2.13578 82 86 98
-24.5534 13.1041 -2.13751 83 85 98
-24.5079 13.1748 -2.13725 87 89 102
-24.4276 13.2256 -2.13347 81 82 95
-24.3763 13.341 -2.13485 84 85 98
-24.3713 13.4352 -2.1388 82 88 102
-24.275 13.476 -2.13344 82 86 98
-24.2122 13.5848 -2.13376 80 84 97
-24.1874 13.6676 -2.13578 77 83 95
-24.1504 13.7433 -2.13657 78 84 96
-24.1063 13.8148 -2.13665 79 83 95
-24.0164 13.9071 -2.13433 83 86 94
-23.9617 13.9718 -2.13336 80 83 95
-23.7873 14.3077 -2.13674 84 84 94
-23.677 14.3862 -2.13248 85 87 99
-23.6343 14.4583 -2.13292 84 86 98
-23.5912 14.5303 -2.13335 88 88 99
-23.5434 14.6491 -2.13577 81 80 94
-23.5097 14.7274 -2.13726 67 67 77
-23.4724 14.8035 -2.13839 77 75 80
-23.4003 14.8561 -2.13584 67 64 71
-23.3506 14.9743 -2.13825 68 68 76
-23.3372 15.0669 -2.14202 73 75 88
-23.2594 15.1154 -2.13894 73 72 86
-23.1954 15.2241 -2.13994 74 76 88
-23.0587 15.2308 -2.13053 71 73 85
-22.9367 15.2471 -2.1227 76 75 89
-22.7327 15.2548 -2.10858 70 72 86
-22.5803 15.2475 -2.09741 73 75 88
-22.4444 15.2511 -2.08799 72 74 87
-22.2717 15.2269 -2.07452 71 73 86
-22.13 15.2745 -2.06708 72 74 89
-21.9675 15.2556 -2.05467 71 73 88
-21.8229 15.2489 -2.04419 75 78 93
-21.6371 15.2601 -2.03182 71 75 87
-21.1849 15.2659 -2.00077 70 74 86
-21.0621 15.2708 -1.99257 70 74 86
-20.905 15.2481 -1.98051 70 72 85
-20.7555 15.2797 -1.972 72 74 86
-20.6442 15.2911 -1.96503 67 67 79
-20.4739 15.2547 -1.95137 65 67 78
-20.2189 15.2966 -1.93641 70 70 79
-16.3741 15.2706 -1.68634 72 74 87
-16.247 15.2858 -1.67955 71 70 84
-16.1496 15.2826 -1.67343 74 72 85
-16.0234 15.2489 -1.66361 74 74 86
-15.9107 15.2762 -1.65857 74 72 86
-15.8276 15.2859 -1.65421 74 72 86
-15.6913 15.2387 -1.64298 74 73 87
-15.614 15.2532 -1.63932 72 75 84
-15.4938 15.2694 -1.63322 73 72 86
-15.3856 15.2494 -1.62551 72 71 85
-15.3099 15.2642 -1.62203 74 73 88
-15.1902 15.2784 -1.61593 73 71 85
-15.1041 15.2805 -1.61104 70 69 83
-15.0074 15.2704 -1.60473 79 77 91
-14.8922 15.2871 -1.59916 74 72 86
-14.7998 15.2805 -1.59338 82 80 94
-14.7103 15.2764 -1.58796 73 71 84
-14.6183 15.2689 -1.58218 82 81 94
-14.4999 15.2787 -1.57607 74 72 85
-14.4018 15.2626 -1.56941 78 76 86
-14.3362 15.284 -1.56715 83 81 92
-14.2171 15.2904 -1.56087 78 75 86
-11.1603 15.2545 -1.34812 79 78 89
-11.0877 15.2487 -1.34438 73 70 78
-11.0217 15.2526 -1.34167 76 71 80
-10.9462 15.2411 -1.33742 77 72 78
-10.848 15.2461 -1.33336 82 79 86
-10.7844 15.2524 -1.33099 78 75 85
-10.7135 15.2467 -1.32742 81 77 91
-10.6156 15.2503 -1.32336 85 85 95
-6.99256 15.2203 -1.077 144 62 76
-6.93689 15.2198 -1.07543 137 62 76
-6.88407 15.2265 -1.07448 102 67 80
-6.80736 15.2419 -1.07355 80 78 89
-32.3796 1.50717 -2.20209 93 105 127
-32.3997 1.6057 -2.20427 89 101 123
-29.9207 7.53698 -2.29556 91 99 120
-29.9283 7.68307 -2.29966 89 100 120
-29.932 7.78042 -2.30232 89 100 118
-29.9623 7.88528 -2.30736 88 99 117
-29.9642 8.03097 -2.31112 89 101 117
-29.9821 8.13311 -2.31514 88 100 116
-30.0072 8.23764 -2.31984 87 99 115
-29.9922 8.37953 -2.32224 86 98 114
-30.0088 8.48223 -2.32626 88 98 115
-30.0117 8.58115 -2.3291 90 97 115
-30.0067 8.67785 -2.33126 89 96 114
-29.9894 8.8201 -2.33366 89 96 114
-30.0083 8.9246 -2.33802 89 98 115
-26.6059 10.2828 -2.1857 111 119 132
-26.3775 10.2815 -2.16723 107 116 128
-26.1443 10.3223 -2.14987 101 108 124
-26.0779 10.3861 -2.14681 103 109 124
-26.0059 10.4472 -2.14324 102 109 122
-25.9593 10.5645 -2.14375 99 108 118
-25.9215 10.64 -2.1435 103 111 124
-25.8817 10.7146 -2.14308 106 109 124
-25.8362 10.7866 -2.14213 101 104 121
-25.7934 10.9057 -2.14317 103 107 125
-25.7491 10.9782 -2.14239 103 107 123
-14.1298 15.2852 -1.55562 76 74 87
-14.0248 15.2581 -1.5479 71 71 83
-13.9166 15.2749 -1.54302 73 71 83
-13.8412 15.2821 -1.53935 77 75 88
-13.7571 15.2782 -1.53445 76 74 88
-13.6443 15.2872 -1.52887 78 76 90
-13.5667 15.2901 -1.52484 81 76 91
-13.4769 15.2772 -1.51906 73 67 83
-13.3873 15.2639 -1.51327 76 72 86
-13.2936 15.2941 -1.51033 64 60 72
-13.2006 15.2752 -1.50401 64 61 75
-13.1067 15.2543 -1.49752 65 62 76
-13.0146 15.2844 -1.49475 62 62 74
-12.9452 15.2942 -1.49178 64 62 73
-10.5409 15.2371 -1.31911 75 74 88
-10.4735 15.2355 -1.31605 72 71 85
-10.3752 15.236 -1.31181 82 81 92
-10.3193 15.2526 -1.31063 80 78 86
-10.2482 15.2432 -1.30689 81 78 89
-10.1623 15.263 -1.3047 80 76 92
-10.0894 15.2495 -1.30062 82 77 92
-6.74504 15.2219 -1.0704 81 80 88
-6.69367 15.2318 -1.06977 78 78 88
-6.60843 15.2218 -1.06678 83 83 93
-6.55317 15.2199 -1.0652 83 83 89
-29.782 6.31869 -2.25719 91 101 119
-29.8155 6.41998 -2.26206 92 100 119
-29.8287 6.56395 -2.26616 90 101 120
-29.844 6.66174 -2.2695 90 101 119
-29.8608 6.76015 -2.27302 90 101 119
-29.8743 6.90531 -2.27728 89 100 119
-29.8652 6.99796 -2.27859 90 101 119
-29.8867 7.0983 -2.28262 91 103 119
-29.8791 7.2392 -2.28519 90 101 119
-29.8978 7.33945 -2.28904 91 100 119
-29.922 7.4414 -2.2934 91 99 120
-27.9662 10.3052 -2.29672 90 98 111
-27.6882 10.2926 -2.27371 80 88 101
-27.4383 10.2894 -2.25331 77 84 100
-27.1313 10.2618 -2.22749 85 91 107
-26.8862 10.3037 -2.20908 104 112 125
-12.8519 15.2721 -1.48528 63 61 72
-12.7468 15.2833 -1.48057 70 68 81
-12.673 15.2857 -1.4769 72 69 84
-12.3279 15.2725 -1.45816 75 73 86
-12.2524 15.2699 -1.45413 77 75 88
-12.1669 15.3035 -1.45223 74 72 86
-12.0812 15.2856 -1.44661 73 69 86
-10.0247 15.2496 -1.2979 79 77 91
-9.95712 15.2442 -1.29467 80 78 92
-9.86568 15.252 -1.29146 83 81 91
-9.79833 15.246 -1.28823 79 77 88
-9.73596 15.2484 -1.28585 75 71 85
-9.64774 15.2603 -1.28314 80 72 85
-9.575 15.2429 -1.27889 79 72 87
-6.49864 15.2197 -1.06379 84 83 89
-6.42093 15.2295 -1.06253 83 82 88
-6.36779 15.2326 -1.06143 83 82 88
-6.31277 15.2299 -1.05985 79 78 86
-29.7701 5.47885 -2.23992 94 106 122
-29.7461 5.5667 -2.23955 93 105 121
-29.7647 5.66299 -2.2429 93 105 121
-29.7428 5.79764 -2.24361 92 103 121
-29.7392 5.88977 -2.24509 94 102 121
-29.749 5.98482 -2.24776 93 101 120
-29.7469 6.12408 -2.25033 92 101 122
-29.7753 6.22363 -2.25469 91 102 120
-28.6477 8.97212 -2.31069 87 96 113
-28.6175 9.10478 -2.3121 88 96 114
-28.6088 9.19721 -2.31415 87 95 109
-28.6241 9.29807 -2.31847 88 95 111
-28.6184 9.39196 -2.32087 88 95 111
-28.5863 9.52467 -2.32228 90 96 112
-28.5929 9.62328 -2.3259 94 97 114
-28.5899 9.71869 -2.32865 90 93 108
-28.5524 9.85005 -2.32971 85 93 106
-28.5485 9.94554 -2.33245 78 86 99
-28.5499 10.0432 -2.33573 82 88 100
-28.4736 10.1604 -2.33328 94 98 109
-28.3979 10.2292 -2.32937 87 93 109
-28.2849 10.2832 -2.32195 96 102 116
-12.0049 15.2803 -1.4424 72 70 84
-11.9014 15.2865 -1.43769 75 73 87
-11.8288 15.2854 -1.43401 74 73 87
-11.7518 15.2774 -1.42962 74 71 88
-11.6533 15.2887 -1.42561 89 88 102
-11.5844 15.2914 -1.42245 78 77 91
-11.499 15.2692 -1.41666 77 74 91
-11.4119 15.2956 -1.4144 78 76 90
-11.3334 15.2824 -1.40966 75 74 89
-9.51193 15.2427 -1.27634 77 73 82
-9.42217 15.2498 -1.27329 80 75 82
-9.35743 15.2455 -1.2704 79 73 83
-9.29465 15.2445 -1.26785 79 73 85
-9.20614 15.2522 -1.26497 77 74 82
-9.13347 15.2312 -1.26054 80 78 81
-6.23767 15.2462 -1.05922 82 81 86
-6.17597 15.2222 -1.05591 83 82 85
-6.12547 15.2321 -1.05544 86 83 90
-6.07256 15.2342 -1.05433 84 81 90
-29.6859 4.59174 -2.21784 95 106 124
-29.7142 4.7333 -2.22244 95 106 124
-29.7396 4.82911 -2.22613 95 103 124
-29.7509 4.92274 -2.22863 94 102 123
-29.7658 5.01719 -2.23147 92 101 120
-29.7645 5.1549 -2.2337 92 103 121
-29.7728 5.24856 -2.23603 91 102 120
-29.7964 5.34526 -2.23972 93 104 122
-28.6592 7.57023 -2.27312 87 98 116
-28.632 7.70123 -2.27419 86 98 115
-28.649 7.79876 -2.27816 87 99 115
-28.6369 7.88815 -2.27951 87 99 115
-28.6445 8.02987 -2.2839 86 98 114
-28.6698 8.13076 -2.28875 87 98 116
-28.6529 8.21921 -2.28975 88 96 115
-28.6394 8.30881 -2.29109 88 96 115
-28.6524 8.45355 -2.29618 89 97 117
-28.642 8.54444 -2.29788 88 95 115
-28.6617 8.64501 -2.30238 87 95 114
-28.6293 8.77636 -2.30344 86 98 114
-28.6387 8.87417 -2.30707 87 96 113
-11.2661 15.2856 -1.40668 76 75 89
-11.1999 15.2902 -1.40388 81 81 93
-11.098 15.2916 -1.39916 74 72 79
-11.0277 15.2888 -1.39565 74 70 78
-10.9575 15.2857 -1.39214 77 73 79
-10.8603 15.2924 -1.38812 80 77 86
-10.7883 15.2853 -1.38425 77 76 88
-10.7258 15.2931 -1.38198 77 77 89
-9.07558 15.2381 -1.25884 80 74 84
-9.01954 15.2484 -1.25748 80 74 85
-8.92966 15.2511 -1.25426 81 76 83
-8.86744 15.2484 -1.25171 84 76 87
-8.80177 15.2384 -1.24847 81 73 83
-5.98977 15.2248 -1.05166 84 83 91
-5.93638 15.2245 -1.05039 83 80 89
-5.8813 15.2184 -1.04866 85 84 90
-29.5833 3.85119 -2.19833 101 109 122
-29.5978 3.94342 -2.20083 101 108 124
-29.5624 4.07378 -2.19969 100 109 124
-29.5919 4.16848 -2.20354 100 109 124
-29.5995 4.26015 -2.20554 100 109 124
-29.6274 4.40043 -2.20997 96 108 124
-29.6303 4.49176 -2.21163 96 108 124
-28.5703 6.40635 -2.23778 92 101 119
-28.5918 6.50182 -2.24176 91 101 119
-28.6026 6.64021 -2.2458 91 102 122
-28.6117 6.73324 -2.24872 90 101 119
-28.6321 6.82932 -2.2527 90 101 119
-28.6355 6.96688 -2.25621 89 100 118
-28.6396 7.05935 -2.25879 90 101 119
-28.6492 7.15345 -2.26188 90 100 119
-28.647 7.24459 -2.26393 89 100 119
-28.6444 7.38169 -2.2671 89 100 118
-28.651 7.47563 -2.27002 88 99 117
-10.6322 15.3035 -1.37849 81 82 92
-10.5595 15.2937 -1.37445 71 70 82
-10.4911 15.2904 -1.37111 77 77 89
-10.3957 15.2961 -1.36726 77 77 91
-10.3296 15.2956 -1.36428 81 80 93
-10.2636 15.2948 -1.36129 82 80 91
-10.1936 15.2869 -1.3576 78 76 87
-8.71582 15.247 -1.24593 78 74 81
-8.65305 15.2418 -1.2432 77 76 81
-8.59211 15.2399 -1.24082 84 75 83
-8.50817 15.2509 -1.23862 83 76 82
-8.44824 15.2503 -1.23641 92 81 89
-5.80183 15.2175 -1.04677 82 83 86
-29.5179 3.21461 -2.1847 92 101 117
-29.4898 3.34544 -2.1839 92 100 119
-29.5395 3.44098 -2.18927 87 95 114
-29.5494 3.53193 -2.19127 86 94 113
-29.5573 3.66766 -2.19367 100 107 125
-29.5803 3.76067 -2.19685 99 107 123
-28.5482 5.59507 -2.2188 92 103 123
-28.5101 5.67616 -2.21718 93 104 122
-28.5206 5.76746 -2.21993 91 102 120
-28.5365 5.86015 -2.2232 92 103 123
-28.535 5.99389 -2.22585 91 102 120
-28.5483 6.08646 -2.22894 93 102 121
-28.5515 6.17697 -2.23117 93 101 120
-28.5426 6.30971 -2.23329 92 100 121
-16.0655 11.1598 -1.58888 81 78 89
-16.0089 11.1905 -1.58642 78 77 86
-14.6479 11.5232 -1.50581 71 75 86
-14.5716 11.5677 -1.50316 69 73 84
-14.5524 11.625 -1.50553 70 74 86
-10.1018 15.2961 -1.35428 73 77 88
-10.0391 15.2996 -1.35183 78 81 93
-9.96656 15.2856 -1.34761 75 77 89
-9.88293 15.3073 -1.3457 80 80 91
-9.80974 15.2909 -1.3413 78 78 90
-9.74639 15.2916 -1.33867 74 73 87
-8.39179 15.2566 -1.23487 83 76 85
-8.3055 15.2612 -1.23216 86 81 90
-8.24414 15.2562 -1.2296 86 83 90
-8.18535 15.2564 -1.22756 83 78 86
-8.12419 15.2509 -1.225 90 78 85
-4.6853 11.5961 -0.8282 84 82 86
-4.64111 11.5841 -0.826145 83 82 87
-4.60492 11.5986 -0.826481 80 81 86
-28.4938 4.74516 -2.19834 93 104 122
-28.4897 4.83228 -2.19952 92 103 121
-28.5148 4.96877 -2.20409 90 102 120
-28.5159 5.05715 -2.20579 91 102 121
-28.5225 5.1467 -2.20801 91 102 120
-28.5343 5.2816 -2.21153 92 103 121
-28.5597 5.37527 -2.2155 93 104 124
-28.5672 5.46562 -2.2179 93 101 122
-9.81236 11.5023 -1.18678 75 72 86
-9.7623 11.5115 -1.18466 76 74 88
-9.73355 11.5494 -1.18604 78 76 89
-9.65817 15.3035 -1.33587 77 77 91
-9.58737 15.2896 -1.33182 78 76 89
-9.51959 15.2807 -1.32831 82 80 93
-9.4261 15.2808 -1.32445 77 76 87
-9.36141 15.2765 -1.32146 75 71 84
-9.29685 15.272 -1.31847 77 75 88
-8.03996 15.2577 -1.22263 87 80 87
-7.97494 15.2426 -1.21922 88 83 90
-7.91813 15.2455 -1.21751 88 78 84
-7.83579 15.2549 -1.21548 92 81 89
-4.55931 11.6489 -0.829554 83 80 88
-28.3898 4.03028 -2.17773 99 108 125
-28.3899 4.11708 -2.17909 99 108 125
-28.391 4.2475 -2.18121 95 107 123
-28.4278 4.34045 -2.18588 96 108 124
-28.4349 4.4288 -2.18793 94 105 123
-28.4541 4.56302 -2.1918 96 107 125
-28.478 4.65468 -2.19542 93 104 122
-9.24342 15.2883 -1.3176 77 75 88
-9.15044 15.2869 -1.31374 78 76 87
-9.08345 15.2762 -1.31023 78 76 88
-9.03013 15.2919 -1.30935 79 75 89
-8.94292 15.2999 -1.30655 78 74 88
-7.77592 15.2499 -1.21309 88 78 87
-7.71615 15.2448 -1.2107 90 80 90
-7.63562 15.2568 -1.20901 92 80 85
-7.57832 15.2566 -1.20713 95 80 86
-7.51958 15.2525 -1.20491 89 74 79
-29.1752 1.76981 -2.14164 91 102 124
-28.3445 3.41951 -2.16511 90 97 117
-28.3115 3.54419 -2.16392 85 93 114
-28.3422 3.7207 -2.16907 103 110 127
-28.3513 3.80831 -2.17112 103 110 126
-28.3874 3.94325 -2.17621 99 108 123
-19.8218 11.4957 -1.9056 101 100 98
-19.7211 11.5542 -1.90049 95 95 96
-19.7209 11.6352 -1.90481 93 91 96
-8.87895 15.2937 -1.30356 78 76 87
-8.81242 15.2819 -1.30004 78 75 86
-8.72559 15.2888 -1.29724 79 76 86
-8.66111 15.28 -1.29407 79 76 87
-8.59934 15.2763 -1.29143 78 76 87
-7.43392 15.2506 -1.20202 90 82 86
-7.37611 15.2479 -1.19997 99 85 92
-7.32063 15.2505 -1.19844 91 76 84
-7.26296 15.2473 -1.19639 86 74 82
-28.2986 3.32779 -2.15992 92 101 118
-22.462 11.0115 -2.10211 71 68 77
-22.4582 11.0944 -2.10567 62 56 66
-22.4136 11.156 -2.10478 61 53 66
-22.3075 11.2271 -2.09912 77 72 81
-22.3011 11.3089 -2.10248 78 76 84
-22.2856 11.386 -2.10488 79 77 85
-22.1804 11.4569 -2.0994 94 94 102
-22.1539 11.528 -2.10064 93 92 106
-22.1342 11.603 -2.10265 90 89 103
-22.0647 11.693 -2.10122 96 98 110
-22.0322 11.761 -2.10188 95 99 110
-22.022 11.8417 -2.10505 100 104 115
-21.9908 11.9106 -2.1059 94 96 109
-21.9578 12.0218 -2.10873 91 93 105
-21.9483 12.1036 -2.11209 92 91 103
-21.8837 12.1531 -2.10927 94 92 103
-21.81 12.2406 -2.10765 90 90 97
-21.7502 12.2926 -2.1054 90 90 97
-21.7073 12.3546 -2.10509 94 94 98
-21.6294 12.439 -2.10308 98 97 92
-21.5827 12.4985 -2.10238 99 98 95
-21.4126 12.7909 -2.10407 96 94 99
-21.3229 12.8229 -2.09853 94 93 98
-21.2515 12.9105 -2.09749 90 88 94
-21.1867 12.9578 -2.09485 90 87 94
-21.1534 13.0255 -2.09589 87 83 93
-21.0977 13.1232 -2.09677 90 89 94
-21.039 13.1742 -2.09491 72 69 80
-20.9406 13.1984 -2.0884 82 76 86
-20.8675 13.284 -2.08735 71 66 72
-20.8266 13.3464 -2.08761 87 86 91
-20.8001 13.4188 -2.08961 86 86 94
-20.7196 13.4991 -2.08779 85 84 94
-8.51711 15.291 -1.28951 79 78 89
-8.45638 15.2886 -1.28704 79 76 87
-8.40162 15.2985 -1.28582 79 76 90
-8.341 15.2957 -1.28335 77 73 87
-8.25401 15.2982 -1.28037 78 73 87
-7.17923 15.2478 -1.19384 87 76 85
-7.12248 15.246 -1.19196 87 72 84
-7.06794 15.2496 -1.19059 84 70 79
-6.9852 15.2509 -1.18821 75 60 69
-23.5886 10.2913 -2.16726 100 105 117
-23.3967 10.2873 -2.15036 102 104 117
-23.1996 10.2796 -2.13287 101 100 116
-23.0209 10.321 -2.1191 95 97 112
-22.9445 10.3684 -2.11455 95 98 111
-22.868 10.4155 -2.11 94 96 108
-22.8358 10.5255 -2.11207 91 97 107
-22.7323 10.5587 -2.10462 93 98 108
-22.716 10.6346 -2.10663 100 100 110
-22.6631 10.7343 -2.10657 106 104 114
-22.5966 10.785 -2.10317 106 101 113
-22.583 10.8625 -2.10557 90 86 100
-22.5409 10.9256 -2.10488 81 78 89
-20.7187 13.5896 -2.09288 85 83 95
-20.693 13.663 -2.09508 83 82 94
-20.6475 13.7226 -2.09495 84 84 93
-20.5771 13.8101 -2.09448 80 83 93
-20.5021 13.8484 -2.09087 82 83 93
-20.4481 13.9016 -2.08977 82 83 90
-20.3848 13.9939 -2.09026 83 84 91
-20.3527 14.0631 -2.09187 82 82 92
-20.3045 14.1205 -2.09155 78 78 90
-20.2704 14.2348 -2.09572 82 82 94
-20.0594 14.4976 -2.09543 85 85 94
-19.9862 14.5357 -2.0922 85 85 91
-19.9585 14.6089 -2.09458 87 86 92
-19.8653 14.6782 -2.09178 83 81 92
-19.8416 14.7549 -2.09474 79 79 88
-19.7602 14.7857 -2.09054 79 79 88
-19.7081 14.8875 -2.09296 69 67 79
-19.6342 14.9239 -2.08973 111 111 108
-19.5926 14.9864 -2.09057 98 92 87
-8.19936 15.3074 -1.27914 79 74 86
-8.13737 15.3002 -1.27632 81 82 86
-8.04988 15.2998 -1.27316 83 82 88
-7.99458 15.3066 -1.27175 84 80 90
-6.92867 15.2484 -1.18633 85 77 85
-6.87289 15.2476 -1.18462 81 80 86
-6.79182 15.2516 -1.18258 80 79 85
-4.6662 11.6395 -0.864382 81 80 86
-4.62436 11.6351 -0.862965 84 84 86
-4.59199 11.6629 -0.864547 83 81 87
-24.6894 10.2683 -2.26286 81 89 102
-24.4691 10.3023 -2.24486 93 99 113
-24.2544 10.2935 -2.22564 87 93 107
-24.0345 10.281 -2.20584 82 89 102
-23.8204 10.2697 -2.18663 80 88 101
-16.0995 11.1663 -1.6731 83 83 91
-15.983 11.1512 -1.66282 81 81 92
-19.5256 15.0761 -2.09124 75 71 76
-19.4728 15.1295 -2.09072 71 69 80
-19.4244 15.1865 -2.09078 68 66 79
-19.3423 15.2151 -2.08657 71 71 83
-14.5706 11.5419 -1.57835 73 73 85
-19.2196 15.2575 -2.08028 71 74 86
-14.5544 11.6018 -1.58122 70 74 86
-19.0937 15.2478 -2.07046 68 72 82
-18.5864 15.2456 -2.03353 73 75 90
-18.4392 15.2609 -2.02393 74 76 91
-18.3177 15.2497 -2.01449 73 72 86
-18.2024 15.2433 -2.00583 79 78 92
-18.0663 15.2653 -1.99758 74 74 86
-17.9425 15.2495 -1.98775 76 76 88
-17.8264 15.2398 -1.97889 73 75 87
-17.7236 15.2417 -1.97177 72 74 86
-17.5839 15.2565 -1.96295 72 75 84
-17.4728 15.249 -1.95466 70 69 80
-17.3691 15.2479 -1.94735 73 65 79
-17.2272 15.2575 -1.93813 75 69 81
-17.1253 15.2565 -1.93101 68 65 82
-17.0122 15.244 -1.92233 67 66 81
-16.881 15.261 -1.91447 70 72 84
-16.7825 15.2611 -1.90773 75 77 89
-16.6643 15.2412 -1.89828 75 77 89
-16.5381 15.2602 -1.89099 72 72 84
-16.4289 15.2474 -1.8827 72 74 87
-16.3325 15.2469 -1.87615 75 77 90
-16.2391 15.2487 -1.86999 75 74 90
-16.1066 15.2578 -1.86173 73 72 88
-16.0094 15.2542 -1.85499 75 74 88
-15.8875 15.2245 -1.84476 75 74 88
-15.764 15.2399 -1.83766 71 71 85
-15.6755 15.2435 -1.83207 72 71 85
-15.5804 15.2394 -1.82552 74 73 87
-15.4656 15.2615 -1.81958 74 73 87
-15.3735 15.2593 -1.81342 75 73 87
-15.2627 15.2362 -1.80454 72 70 84
-15.1457 15.2535 -1.79821 73 72 86
-15.0555 15.2513 -1.79223 76 75 89
-14.9561 15.2384 -1.7849 74 73 87
-7.93371 15.3004 -1.26911 82 80 91
-7.84422 15.2934 -1.26542 82 78 89
-7.78282 15.2848 -1.2626 79 74 86
-7.7231 15.2797 -1.26013 79 76 87
-6.73823 15.2559 -1.18138 81 80 86
-6.68062 15.2488 -1.17916 79 79 88
-6.5998 15.2518 -1.17712 78 79 86
-6.54503 15.2517 -1.17558 80 80 88
-4.54062 11.6941 -0.865957 81 80 88
-25.3426 9.05591 -2.27431 82 89 107
-25.3486 9.1446 -2.27808 83 90 108
-25.3356 9.22631 -2.27991 81 88 104
-25.28 9.33483 -2.27891 83 90 106
-25.2701 9.4179 -2.28113 83 90 107
-25.2599 9.50101 -2.28335 82 89 105
-25.2289 9.61944 -2.28505 87 91 107
-25.2272 9.70631 -2.28823 88 92 105
-25.2069 9.78574 -2.28949 83 90 105
-25.1973 9.86971 -2.2919 80 88 101
-25.1607 9.98652 -2.29321 78 84 98
-25.1504 10.0705 -2.29562 77 80 97
-25.0667 10.1234 -2.29031 75 77 92
-25.0654 10.2554 -2.29548 86 92 106
-24.9393 10.2894 -2.28573 86 96 109
-14.8676 15.2368 -1.77912 72 70 84
-14.75 15.2501 -1.77259 76 74 87
-14.6631 15.2491 -1.767 73 71 84
-14.5566 15.2253 -1.75851 73 71 85
-14.4552 15.2547 -1.7543 77 76 90
-14.3662 15.2493 -1.74832 75 74 88
-14.2734 15.239 -1.74177 72 71 85
-14.1659 15.2592 -1.73659 78 76 87
-14.0799 15.2555 -1.731 73 71 84
-13.9903 15.2469 -1.72482 70 68 82
-13.8794 15.2608 -1.71906 74 69 84
-13.7837 15.2436 -1.71192 73 69 84
-13.6997 15.2397 -1.70652 66 62 77
-13.622 15.2432 -1.70209 68 66 80
-9.84103 11.4907 -1.24982 76 76 88
-9.82653 11.5479 -1.25369 76 74 88
-9.73881 11.506 -1.24499 77 73 90
-9.69654 11.5634 -1.24725 76 75 89
-7.64412 15.2954 -1.25873 83 79 89
-7.58838 15.2989 -1.25715 78 75 86
-7.5304 15.2967 -1.25503 77 76 84
-7.46802 15.2832 -1.25186 79 79 84
-7.38329 15.2829 -1.24905 78 75 84
-6.49031 15.2515 -1.17404 82 80 91
-6.43822 15.2585 -1.17318 81 80 90
-6.35513 15.2528 -1.17045 81 79 90
-25.4781 7.70193 -2.24079 85 97 113
-25.4843 7.8295 -2.24538 84 96 111
-25.4588 7.9052 -2.24549 83 94 112
-25.4557 7.98831 -2.2479 82 93 113
-25.4321 8.10678 -2.2496 83 94 111
-25.4415 8.19445 -2.25337 84 95 113
-25.4355 8.27711 -2.25559 83 94 112
-25.4255 8.40088 -2.25884 84 92 113
-25.415 8.48234 -2.26067 85 93 112
-25.4193 8.56914 -2.26405 83 92 110
-25.4177 8.65405 -2.26685 83 92 109
-25.3945 8.77407 -2.26894 85 91 107
-25.3773 8.85361 -2.2702 82 91 108
-25.3802 8.94076 -2.27358 83 92 109
-13.5106 15.2533 -1.69613 60 57 70
-13.4232 15.2436 -1.69015 66 64 78
-13.3448 15.2444 -1.68552 62 61 75
-13.2314 15.2496 -1.67917 72 71 87
-13.1568 15.2542 -1.67513 74 73 86
-13.0763 15.2507 -1.67011 73 73 85
-12.9671 15.259 -1.66434 77 75 89
-12.8868 15.2546 -1.65932 78 78 91
-12.8115 15.2563 -1.65508 77 76 90
-12.6968 15.255 -1.64834 75 73 87
-7.3234 15.2745 -1.2464 81 79 89
-7.27095 15.2843 -1.24552 83 80 87
-7.18943 15.2903 -1.24341 80 79 85
-7.1241 15.2663 -1.23935 80 79 85
-6.30058 15.2519 -1.16891 85 84 91
-6.24547 15.2489 -1.1672 83 82 88
-6.16646 15.2535 -1.1655 80 77 88
-6.11271 15.2538 -1.16413 82 79 89
-25.512 6.67834 -2.21345 88 99 118
-25.5073 6.75893 -2.21529 90 100 119
-25.5184 6.88504 -2.21988 90 98 119
-25.513 6.96578 -2.22172 91 99 118
-25.5112 7.04767 -2.22395 91 99 118
-25.5094 7.17091 -2.22739 85 97 113
-25.5011 7.25125 -2.22903 87 95 114
-25.4908 7.33102 -2.23049 86 97 115
-25.4818 7.45277 -2.23335 85 97 113
-25.484 7.53673 -2.23615 84 95 113
-25.4898 7.62199 -2.23934 84 95 113
-21.3087 10.4894 -2.07915 97 100 108
-21.2925 10.5614 -2.08125 98 100 112
-21.2593 10.6646 -2.08339 99 100 112
-21.2057 10.7167 -2.08124 96 97 108
-21.1747 10.7809 -2.08172 95 96 107
-21.1247 10.8751 -2.08204 96 95 109
-21.0897 10.9371 -2.08212 97 96 110
-21.0181 10.9787 -2.07795 92 94 107
-20.9724 11.0346 -2.07681 91 93 105
-20.9108 11.122 -2.07592 91 95 104
-20.8888 11.1913 -2.07761 91 95 104
-20.8545 11.2536 -2.07788 94 97 106
-20.7817 11.3343 -2.07577 91 94 101
-20.7487 11.3973 -2.07625 92 95 103
-20.7069 11.4552 -2.07571 94 94 104
-20.6162 11.5248 -2.07158 94 94 106
-20.5792 11.5853 -2.07165 92 94 106
-20.5165 11.6301 -2.06869 93 94 106
-20.4184 11.6943 -2.06375 93 93 103
-20.3893 11.7594 -2.06483 94 94 104
-19.7936 11.4715 -1.99795 93 93 101
-19.7113 11.5009 -1.99256 92 92 100
-19.6696 11.5958 -1.99428 95 97 106
-20.3756 12.1278 -2.08415 93 92 102
-20.3834 12.2176 -2.08989 91 91 99
-20.2666 12.2693 -2.08292 90 88 98
-20.1292 12.2646 -2.07105 89 87 97
-20.0317 12.2853 -2.06403 92 89 95
-19.9647 12.3677 -2.06313 101 96 99
-19.8837 12.3985 -2.05814 77 72 81
-19.839 12.4533 -2.0576 83 78 85
-19.7778 12.5392 -2.0575 87 81 86
-19.7506 12.6061 -2.05918 92 86 87
-19.7183 12.6695 -2.06026 104 104 98
-19.694 12.7385 -2.06234 101 101 94
-19.6185 12.8146 -2.06063 99 94 97
-19.5757 12.8708 -2.06049 89 85 89
-19.5603 12.9464 -2.06379 88 86 91
-12.3558 15.2498 -1.62848 75 74 88
-12.279 15.246 -1.62385 72 71 87
-12.1965 15.2338 -1.61825 75 74 88
-12.1018 15.2545 -1.6146 77 75 89
-12.0276 15.2528 -1.61036 76 74 87
-11.9479 15.2427 -1.60514 79 77 90
-7.0668 15.2624 -1.23724 80 78 89
-6.99757 15.2991 -1.23813 79 76 87
-6.93824 15.2892 -1.23548 81 80 88
-6.05779 15.2502 -1.16241 84 81 88
-5.97839 15.2519 -1.16054 81 78 87
-5.92659 15.2573 -1.15968 81 79 90
-25.535 5.83281 -2.19324 91 102 120
-25.52 5.94986 -2.19476 90 101 119
-25.5235 6.03141 -2.19718 90 101 119
-25.5248 6.11256 -2.1994 89 100 120
-25.5238 6.23368 -2.20246 86 97 118
-25.5226 6.31449 -2.20449 87 98 118
-25.5325 6.39841 -2.20768 88 99 117
-25.5192 6.4763 -2.20855 87 99 116
-25.5106 6.59624 -2.21103 88 99 119
-22.3518 10.2891 -2.16329 89 93 107
-22.1585 10.2756 -2.14519 95 100 112
-21.9814 10.2691 -2.1289 97 102 112
-21.8081 10.2633 -2.11302 98 103 115
-21.6173 10.2874 -2.09698 95 98 113
-21.4834 10.2994 -2.08554 93 96 108
-21.4467 10.3607 -2.08522 91 95 102
-21.3846 10.4488 -2.08393 93 97 106
-19.521 13.0484 -2.06672 84 84 85
-19.4953 13.117 -2.06881 84 82 87
-19.4548 13.1752 -2.06907 85 81 87
-19.3966 13.2639 -2.06978 81 77 84
-19.3365 13.3076 -2.06761 82 80 90
-19.3003 13.3688 -2.06848 86 83 93
-19.2459 13.4605 -2.0698 87 81 92
-19.0336 13.6989 -2.06785 85 83 96
-19.0054 13.7667 -2.06993 86 82 96
-18.9722 13.8307 -2.0714 82 80 92
-18.8906 13.9014 -2.06947 84 82 93
-18.8678 13.9738 -2.07237 85 81 95
-18.8292 14.0338 -2.07323 85 82 96
-18.7375 14.0961 -2.07009 84 82 93
-18.717 14.1708 -2.07338 80 79 86
-18.6885 14.2392 -2.07567 103 102 97
-11.8467 15.2522 -1.60033 75 73 87
-11.7718 15.2479 -1.59589 78 76 90
-11.7016 15.2497 -1.59223 77 76 90
-11.6019 15.2594 -1.58761 78 78 88
-11.5252 15.2507 -1.58278 79 79 91
-11.4565 15.2532 -1.57931 74 73 87
-11.38 15.2439 -1.57447 78 77 91
-11.2853 15.2583 -1.57063 77 78 90
-6.8825 15.2884 -1.23371 82 81 89
-6.80554 15.3036 -1.23266 81 82 87
-6.74988 15.3024 -1.2309 78 78 86
-6.68829 15.2841 -1.22754 79 79 89
-5.86952 15.2454 -1.15728 81 82 87
-25.5411 5.11496 -2.17686 87 100 117
-25.5475 5.1958 -2.17927 89 102 121
-25.5593 5.27799 -2.18227 87 99 119
-25.5547 5.39658 -2.18456 89 100 118
-25.5698 5.47991 -2.18794 89 100 118
-25.5575 5.55718 -2.18862 91 102 120
-25.5515 5.67599 -2.19091 94 105 123
-25.5308 5.75141 -2.19082 92 103 121
-23.5157 10.2609 -2.26792 90 98 109
-23.3297 10.2588 -2.25084 88 94 108
-23.162 10.2642 -2.23578 79 85 98
-22.9496 10.2889 -2.21753 86 94 105
-22.7608 10.2816 -2.20004 86 94 106
-22.5597 10.2673 -2.18114 83 92 104
-18.6414 14.2924 -2.07552 91 83 81
-18.5656 14.3674 -2.0746 85 83 88
-18.515 14.4177 -2.07405 85 82 91
-18.4567 14.4613 -2.07248 84 81 92
-18.356 14.5148 -2.06832 86 84 95
-18.3185 14.576 -2.06958 85 84 97
-18.0989 14.8069 -2.06861 86 83 93
-18.0193 14.8778 -2.06749 81 79 90
-17.9732 14.9315 -2.06774 74 73 85
-17.924 14.9824 -2.06759 71 69 83
-17.879 15.0372 -2.06804 69 67 80
-17.7984 15.107 -2.06691 72 70 81
-11.207 15.2449 -1.56541 77 80 89
-11.1452 15.2562 -1.5631 78 77 83
-11.0411 15.2542 -1.55751 75 70 75
-10.9719 15.2531 -1.55384 78 73 75
-10.9007 15.2484 -1.54978 78 74 79
-10.8025 15.2534 -1.54516 85 83 95
-10.7357 15.2547 -1.54188 72 74 87
-6.63348 15.2843 -1.22595 78 78 88
-6.55408 15.2909 -1.22419 82 80 90
-6.4968 15.2831 -1.2219 82 80 90
-26.43 1.79625 -2.09667 97 109 131
-25.441 4.46455 -2.15364 91 102 120
-25.4494 4.54448 -2.15606 90 103 120
-25.4538 4.62376 -2.1581 90 103 120
-25.4719 4.74512 -2.16231 90 103 120
-25.5145 4.8324 -2.16819 89 102 119
-25.5159 4.91171 -2.17003 89 102 119
-25.5209 5.03139 -2.17309 89 102 119
-23.8774 8.50723 -2.22925 81 90 107
-23.8647 8.58356 -2.23095 81 91 108
-23.8628 8.6642 -2.23387 81 90 107
-23.8357 8.77589 -2.23563 83 90 106
-23.8147 8.84934 -2.23653 82 89 107
-23.8045 8.92716 -2.23864 82 89 105
-23.7958 9.00576 -2.24096 82 89 106
-23.7634 9.11584 -2.24231 81 88 106
-23.7578 9.19598 -2.24503 82 89 105
-23.7354 9.26931 -2.24593 81 88 104
-23.72 9.38694 -2.2493 82 88 103
-23.7208 9.47032 -2.25283 83 87 103
-23.7047 9.54675 -2.25453 83 89 105
-23.6533 9.64953 -2.25407 84 89 104
-23.6458 9.72985 -2.25678 84 90 104
-23.6271 9.80541 -2.25829 85 89 101
-23.6089 9.92317 -2.26166 88 92 101
-23.5896 9.99872 -2.26316 76 83 93
-23.5862 10.0816 -2.26648 74 80 95
-23.5482 10.1489 -2.26596 75 82 97
-17.7516 15.16 -2.06716 68 68 78
-17.7017 15.2102 -2.06701 67 67 77
-17.5668 15.2288 -2.05838 52 50 61
-17.469 15.2335 -2.05154 70 67 78
-17.3627 15.2294 -2.04348 76 71 81
-17.2326 15.2499 -2.03546 76 74 77
-17.1253 15.2433 -2.0272 76 75 82
-17.0081 15.2265 -2.01752 69 71 83
-16.8759 15.2419 -2.00908 70 72 84
-16.7664 15.2307 -2.00041 77 77 89
-16.6514 15.2134 -1.99093 71 71 83
-16.5592 15.218 -1.9847 76 75 88
-16.4418 15.2446 -1.97828 72 73 86
-16.3345 15.2326 -1.96982 75 78 90
-16.233 15.2258 -1.96216 65 67 77
-16.1036 15.2376 -1.95392 67 69 81
-16.0108 15.2382 -1.94747 64 66 79
-15.8988 15.2184 -1.93819 62 64 77
-15.7852 15.2438 -1.93218 70 72 82
-15.6778 15.227 -1.9235 63 66 75
-15.5816 15.2214 -1.91645 71 73 83
-15.4684 15.2449 -1.91043 75 74 88
-15.3712 15.2367 -1.90317 73 75 88
-15.2781 15.2326 -1.89652 65 67 80
-15.1746 15.2162 -1.88825 76 77 90
-10.6701 15.2575 -1.53879 76 78 91
-10.5765 15.2679 -1.53494 81 82 95
-10.5017 15.2547 -1.5301 79 80 93
-10.4313 15.2481 -1.52604 77 79 91
-10.3691 15.2548 -1.52353 80 79 93
-10.276 15.2635 -1.51968 75 75 87
-6.44539 15.2921 -1.22119 82 81 89
-6.36996 15.309 -1.22049 83 81 91
-6.31165 15.2968 -1.21784 84 83 90
-6.25592 15.2919 -1.21589 82 81 88
-25.4473 3.84232 -2.14255 90 98 117
-25.4598 3.92198 -2.14516 97 105 124
-25.4544 3.99885 -2.14604 95 103 122
-25.4677 4.11784 -2.14948 92 102 120
-25.4421 4.19139 -2.14844 91 102 120
-25.4221 4.26588 -2.14797 90 103 120
-25.4371 4.34661 -2.15097 93 102 120
-23.9874 7.34762 -2.19834 85 93 112
-23.9766 7.42297 -2.19985 85 93 112
-23.9825 7.50397 -2.20317 84 92 113
-23.9669 7.61742 -2.20554 84 92 112
-23.9627 7.69542 -2.20785 84 92 111
-23.9602 7.77412 -2.21037 84 93 111
-23.9432 7.88769 -2.21274 82 91 110
-23.9307 7.96319 -2.21425 83 91 111
-23.9272 8.04204 -2.21676 83 91 110
-23.9328 8.12432 -2.22029 83 91 110
-23.9085 8.23601 -2.22205 80 92 108
-23.8947 8.31159 -2.22356 81 92 110
-23.8938 8.39204 -2.22648 83 92 109
-15.062 15.2372 -1.88223 76 80 92
-14.9669 15.2286 -1.87517 75 78 91
-14.8746 15.2225 -1.86852 74 73 87
-14.7559 15.2342 -1.86148 76 74 87
-14.6614 15.2242 -1.85442 75 75 87
-14.5735 15.2212 -1.84837 72 74 87
-14.4632 15.24 -1.84255 70 68 82
-14.3744 15.2346 -1.8363 74 74 86
-14.2831 15.2257 -1.82964 74 74 86
-14.1708 15.2397 -1.82341 76 75 89
-14.0837 15.2344 -1.81736 64 66 79
-13.993 15.2242 -1.8107 76 77 90
-13.9076 15.2197 -1.80485 78 77 89
-13.7908 15.2253 -1.79781 74 72 80
-13.7133 15.2291 -1.79318 77 74 83
-10.2029 15.2508 -1.51504 77 76 90
-10.144 15.2617 -1.51311 75 74 88
-10.0412 15.252 -1.50732 79 78 92
-9.97748 15.2538 -1.50442 78 78 90
-9.91385 15.2553 -1.50152 75 74 88
-6.17814 15.3003 -1.21448 83 80 89
-6.11955 15.2856 -1.21166 81 80 87
-6.06952 15.2971 -1.2113 81 78 86
-25.3595 3.28921 -2.12503 88 96 115
-25.4017 3.44893 -2.1316 84 95 113
-25.4119 3.56606 -2.13446 84 96 112
-24.0571 6.35637 -2.17385 89 100 118
-24.0472 6.46917 -2.17623 87 98 116
-24.0488 6.54698 -2.17874 87 98 116
-24.0426 6.62264 -2.18045 86 97 115
-24.0332 6.73618 -2.18303 86 98 114
-24.0416 6.81649 -2.18635 87 99 115
-24.0307 6.89113 -2.18766 86 97 115
-24.0309 6.96929 -2.19018 83 95 113
-24.016 7.08191 -2.19235 83 96 113
-24.0024 7.15599 -2.19345 84 95 113
-24.0092 7.23675 -2.19677 85 95 115
-13.6246 15.2186 -1.78672 73 71 81
-13.5159 15.2317 -1.78089 75 73 87
-13.4226 15.2141 -1.77362 78 74 89
-13.3431 15.2133 -1.76857 76 74 89
-13.2386 15.2293 -1.76335 81 80 90
-13.1569 15.2245 -1.7579 71 69 76
-13.0936 15.2429 -1.7555 77 75 89
-12.9858 15.2526 -1.74966 76 74 88
-12.8913 15.2293 -1.74198 75 73 86
-12.8078 15.2198 -1.73613 74 72 85
-9.81655 15.2528 -1.4967 78 77 89
-9.75897 15.2641 -1.49496 76 76 88
-9.68496 15.2457 -1.48993 73 75 87
-9.59875 15.261 -1.48724 71 70 84
-9.53272 15.2559 -1.48375 74 73 87
-9.46966 15.2557 -1.48085 72 74 87
-5.98832 15.2932 -1.20883 85 85 90
-5.9336 15.2892 -1.20706 84 85 87
-5.87953 15.2868 -1.20547 84 85 89
-24.0926 5.60126 -2.15611 88 99 117
-24.0838 5.675 -2.15722 87 98 116
-24.0901 5.75264 -2.15994 89 100 118
-24.0634 5.82196 -2.15924 89 100 118
-24.0695 5.93786 -2.16302 87 100 117
-24.0787 6.01677 -2.16614 88 99 117
-24.0609 6.08856 -2.16644 88 99 117
-24.0599 6.20324 -2.16962 87 100 117
-24.0567 6.27925 -2.17154 88 101 118
-12.7341 15.2226 -1.73189 73 73 85
-12.2945 15.233 -1.7065 74 74 86
-12.2168 15.2273 -1.70145 75 75 87
-12.113 15.235 -1.69602 74 72 86
-12.0368 15.23 -1.69117 74 72 86
-9.40102 15.2448 -1.47679 71 73 86
-9.3189 15.2656 -1.47487 76 74 88
-9.25237 15.2576 -1.47119 75 74 88
-9.17766 15.2335 -1.46577 74 73 87
-9.08844 15.2391 -1.4623 76 74 88
-5.82207 15.2728 -1.20281 79 79 87
-24.0902 4.96012 -2.13972 86 102 118
-24.0988 5.07445 -2.1433 87 100 119
-24.0955 5.14887 -2.14482 87 100 117
-24.0842 5.22152 -2.14552 87 100 117
-24.0837 5.33435 -2.1483 88 99 117
-24.0989 5.4135 -2.15182 88 99 117
-24.106 5.49092 -2.15455 86 97 115
-16.0892 11.0915 -1.81033 93 91 94
-16.0218 11.1501 -1.80845 109 103 105
-16.008 11.213 -1.81155 110 104 104
-14.6314 11.5293 -1.71838 85 82 95
-14.5807 11.5958 -1.7191 87 87 97
-14.5627 11.6544 -1.72197 84 84 94
-11.9641 15.2296 -1.68693 78 78 90
-11.8642 15.2407 -1.6821 77 75 88
-11.7895 15.2363 -1.67746 75 74 88
-11.715 15.2316 -1.67281 73 73 85
-11.6394 15.225 -1.66796 73 73 85
-11.5412 15.2358 -1.66334 73 73 85
-11.4637 15.2251 -1.65808 74 74 86
-9.02692 15.239 -1.45959 76 74 88
-8.96549 15.2387 -1.45688 76 74 88
-8.8775 15.2449 -1.4536 76 76 88
-8.81713 15.2458 -1.45108 76 75 88
-8.75506 15.2429 -1.44818 77 75 88
-25.137 1.862 -2.08543 93 104 123
-25.0945 1.93365 -2.08209 92 103 126
-24.0444 4.28141 -2.11985 90 101 119
-24.0554 4.35746 -2.12257 89 102 120
-24.0494 4.4673 -2.12435 90 101 119
-24.0617 4.54396 -2.12727 89 102 119
-24.064 4.61874 -2.12918 89 102 119
-24.0607 4.72962 -2.13136 89 102 119
-24.0721 4.80662 -2.13428 87 101 119
-24.0793 4.8829 -2.1368 88 101 119
-11.393 15.224 -1.65404 74 72 85
-11.292 15.2284 -1.64881 75 73 86
-11.2237 15.2299 -1.64517 70 70 80
-11.1523 15.2261 -1.64093 80 78 86
-11.0549 15.2342 -1.6363 77 72 78
-10.987 15.2347 -1.63266 76 70 76
-10.9138 15.2266 -1.62801 78 71 78
-8.66563 15.2444 -1.44451 75 73 86
-8.6125 15.2588 -1.44355 75 75 87
-8.54377 15.2408 -1.43909 76 75 89
-8.45557 15.2429 -1.43561 75 73 86
-25.1882 1.5279 -2.08721 88 103 124
-25.1665 1.60153 -2.08579 89 100 121
-25.1566 1.67587 -2.08552 94 104 124
-25.1555 1.78834 -2.08647 92 103 121
-24.0478 3.76713 -2.10985 78 89 107
-24.0566 3.84195 -2.11217 83 94 112
-24.0687 3.95421 -2.11555 94 104 123
-24.073 4.02857 -2.11747 98 107 126
-24.0613 4.10015 -2.11778 93 104 120
-24.0332 4.20548 -2.11713 93 102 119
-19.8579 10.2917 -2.10423 101 102 114
-19.7052 10.2829 -2.0893 99 101 113
-19.5544 10.2742 -2.07458 94 96 108
-19.4533 10.3304 -2.06817 93 92 104
-19.4148 10.3842 -2.06758 94 92 106
-19.3504 10.423 -2.06373 94 92 105
-19.3123 10.5146 -2.06536 92 92 105
-19.2733 10.5679 -2.06478 96 94 107
-19.229 10.6181 -2.06354 96 94 106
-19.161 10.6919 -2.06147 97 95 108
-19.118 10.7427 -2.06045 94 94 106
-19.0868 10.8005 -2.06095 95 98 109
-19.0621 10.8623 -2.06232 94 97 109
-19.0117 10.9467 -2.06264 98 98 108
-18.9865 11.0084 -2.06401 98 96 107
-18.9528 11.0648 -2.06429 96 94 102
-18.9064 11.1518 -2.06526 105 104 111
-18.8521 11.1951 -2.06293 108 105 115
-18.8194 11.2522 -2.06343 108 105 117
-18.7587 11.33 -2.06266 108 107 115
-18.709 11.376 -2.06098 106 106 111
-18.6674 11.4272 -2.06039 102 102 109
-18.6143 11.5097 -2.06071 98 98 104
-18.569 11.5584 -2.05968 92 92 100
-18.5417 11.619 -2.06105 72 71 85
-18.5092 11.6763 -2.06176 77 76 84
-18.4549 11.7582 -2.06208 68 63 69
-18.4089 11.8062 -2.06105 93 87 89
-18.3775 11.8643 -2.06198 93 88 91
-18.3044 11.933 -2.0599 102 102 107
-18.2709 11.9896 -2.06061 94 97 106
-18.2372 12.0462 -2.06132 107 110 119
-18.1795 12.1257 -2.06142 112 115 123
-18.1293 12.1703 -2.05995 109 112 119
-18.0902 12.223 -2.06001 98 101 110
-18.0268 12.2983 -2.05945 86 86 95
-9.80491 11.5004 -1.35953 74 74 86
-9.75608 11.5112 -1.35737 75 74 85
-9.72961 11.5521 -1.35935 75 73 87
-9.71282 11.6448 -1.36658 75 73 86
-10.821 15.24 -1.62419 82 79 88
-10.7523 15.2379 -1.62035 76 76 87
-10.6816 15.2322 -1.61611 74 75 88
-10.6069 15.2194 -1.61105 79 83 94
-10.5167 15.2345 -1.60763 77 79 91
-10.4444 15.2244 -1.60298 76 77 89
-8.40253 15.2566 -1.43465 83 81 94
-8.33086 15.2306 -1.42941 80 78 91
-8.27119 15.2295 -1.42689 78 76 89
-8.19016 15.2446 -1.42497 75 75 87
-24.0216 3.50708 -2.10244 86 94 113
-24.0217 3.61651 -2.10441 84 95 113
-20.836 10.2785 -2.19676 86 90 104
-20.6836 10.2763 -2.18206 89 93 105
-20.4978 10.294 -2.16522 83 89 103
-20.3284 10.2804 -2.14833 84 89 103
-20.175 10.2744 -2.1334 87 89 102
-20.0096 10.2608 -2.11695 86 86 98
-17.9826 12.3471 -2.05885 93 93 101
-17.9509 12.4052 -2.06 84 81 90
-17.8007 12.6617 -2.06439 93 91 94
-17.7197 12.7233 -2.06165 101 100 97
-17.6929 12.7857 -2.06366 105 99 99
-17.6159 12.8088 -2.05871 108 103 100
-17.5313 12.8669 -2.05553 112 104 102
-17.4745 12.9053 -2.0534 106 98 93
-17.4377 12.9597 -2.05411 98 93 90
-17.3495 13.0142 -2.0505 96 88 95
-17.2801 13.0418 -2.04663 91 87 91
-17.2321 13.0868 -2.04581 107 104 105
-17.1978 13.143 -2.04695 107 102 100
-17.141 13.2227 -2.0479 91 85 90
-17.1229 13.2927 -2.05144 89 86 95
-17.0909 13.3512 -2.05301 88 85 94
-10.3784 15.2242 -1.59955 79 79 91
-10.2834 15.2295 -1.59511 74 73 87
-10.2185 15.2304 -1.59188 77 76 90
-10.1498 15.2242 -1.58783 76 75 89
-10.0602 15.2367 -1.58441 77 76 90
-9.98874 15.2247 -1.57976 79 78 92
-8.13065 15.2429 -1.42245 79 77 90
-8.07038 15.2393 -1.41973 85 85 95
-7.99194 15.2587 -1.41839 79 79 91
-7.9278 15.2455 -1.41471 76 76 88
-4.69691 11.5878 -0.97023 81 81 91
-4.65615 11.5875 -0.969059 83 82 89
-21.7657 9.2133 -2.2341 80 86 102
-21.763 9.28962 -2.23744 82 85 100
-21.7401 9.35692 -2.23839 80 86 102
-21.7023 9.45611 -2.23939 81 82 100
-21.6825 9.52496 -2.24077 80 82 97
-21.6732 9.59886 -2.24346 82 84 99
-21.6449 9.70295 -2.24576 84 85 99
-21.6296 9.77432 -2.2478 87 88 102
-21.5963 9.83704 -2.24766 84 87 100
-21.5614 9.93834 -2.24931 69 74 86
-21.5204 9.99731 -2.2483 72 76 88
-21.4988 10.0659 -2.24968 67 71 82
-21.4592 10.1255 -2.24889 70 78 89
-21.4423 10.2362 -2.25293 78 82 94
-21.3493 10.2684 -2.24562 84 88 99
-21.1892 10.2655 -2.23004 86 90 99
-21.0062 10.289 -2.21364 85 91 103
-17.0029 13.4047 -2.04961 89 86 95
-16.9463 13.4423 -2.0477 90 87 98
-16.768 13.6761 -2.05032 85 84 92
-16.7241 13.7246 -2.05037 85 85 92
-16.6541 13.793 -2.04979 85 85 94
-16.607 13.8384 -2.0494 90 87 98
-16.5714 13.8944 -2.05076 88 84 97
-16.4933 13.9553 -2.04909 87 85 97
-16.4413 13.9962 -2.04805 85 83 95
-16.3834 14.0314 -2.04613 83 81 92
-9.92333 15.2228 -1.57632 78 77 91
-9.83018 15.2272 -1.57208 76 75 89
-9.76885 15.2315 -1.56946 75 75 88
-9.69796 15.2183 -1.5648 76 77 90
-9.63488 15.2187 -1.56177 75 77 89
-7.8686 15.2429 -1.41218 80 78 92
-7.78712 15.2541 -1.41006 80 79 92
-7.72337 15.24 -1.40638 78 78 90
-7.66757 15.244 -1.40463 82 82 92
-4.60351 11.6133 -0.970029 84 83 89
-4.57179 11.6431 -0.971964 84 83 90
-23.8233 2.32811 -2.06431 94 106 128
-23.8506 2.40238 -2.06804 92 104 126
-23.8718 2.51194 -2.07162 93 105 127
-22.0657 7.74571 -2.19993 82 91 108
-22.0282 7.84306 -2.20007 81 91 107
-22.0268 7.91708 -2.20298 81 89 107
-22.0232 7.99045 -2.20567 81 90 107
-21.9772 8.08471 -2.20493 80 89 106
-21.9768 8.15956 -2.20806 81 90 107
-21.9631 8.22935 -2.20966 80 89 106
-21.9806 8.31173 -2.21496 79 88 105
-21.9239 8.40194 -2.21314 80 89 106
-21.937 8.48304 -2.218 80 89 104
-21.9003 8.54376 -2.217 79 88 103
-21.9139 8.66344 -2.22365 80 89 104
-21.8748 8.72324 -2.22243 77 86 101
-21.8739 8.79929 -2.22577 79 86 102
-21.8479 8.90286 -2.22786 80 88 101
-21.8154 8.96552 -2.2275 78 88 100
-21.8244 9.0465 -2.23215 79 85 102
-21.8024 9.11391 -2.2331 80 85 104
-16.3206 14.1063 -2.04686 87 86 91
-16.2683 14.1466 -2.04582 91 89 95
-16.2129 14.1839 -2.04434 71 63 77
-16.1565 14.2649 -2.04615 79 72 81
-16.1266 14.3266 -2.0486 92 87 94
-16.075 14.3675 -2.04777 85 83 91
-16.0205 14.4055 -2.0465 85 83 94
-15.9432 14.4662 -2.04527 86 84 95
-15.8814 14.4967 -2.04291 87 84 95
-15.8532 14.5607 -2.04579 88 85 93
-9.54607 15.2284 -1.55834 76 76 88
-9.48507 15.2317 -1.55572 76 75 89
-9.42036 15.2278 -1.55228 75 77 90
-9.33089 15.2346 -1.54865 74 76 89
-9.26642 15.2301 -1.5452 78 78 90
-7.58477 15.2505 -1.40212 84 81 96
-7.52526 15.2448 -1.39941 78 75 92
-7.46734 15.2426 -1.39708 80 78 92
-7.40799 15.2365 -1.39436 78 76 89
-23.7675 1.93185 -2.05386 91 104 123
-23.7743 2.00335 -2.05538 93 106 125
-23.771 2.074 -2.05589 93 105 127
-23.8169 2.14944 -2.06142 94 106 128
-22.168 6.79136 -2.17377 84 95 113
-22.1872 6.87023 -2.17863 85 94 111
-22.161 6.93427 -2.17829 84 92 111
-22.1668 7.04539 -2.18298 84 93 111
-22.1494 7.11254 -2.18372 83 93 110
-22.1599 7.18936 -2.18772 82 94 110
-22.142 7.25651 -2.18846 84 93 110
-22.1087 7.35488 -2.18881 82 94 110
-22.1053 7.42726 -2.19129 84 93 109
-22.109 7.50241 -2.19463 83 92 108
-22.0634 7.59654 -2.19368 82 91 108
-22.0703 7.67315 -2.19746 82 91 108
-16.09 11.109 -1.90054 107 106 114
-15.9753 11.1315 -1.89175 107 107 115
-14.5965 11.5124 -1.79879 91 86 90
-14.5428 11.5761 -1.79908 88 82 94
-15.7823 14.6276 -2.04564 87 86 92
-15.7466 14.6843 -2.04742 86 85 91
-15.6996 14.7296 -2.04746 90 89 95
-15.6168 14.7844 -2.04557 90 90 97
-15.557 14.8164 -2.04365 91 91 99
-15.5165 14.8682 -2.04478 87 86 93
-15.425 14.9134 -2.04158 84 84 90
-15.3664 14.9461 -2.03987 84 83 91
-9.19468 15.2112 -1.54014 77 77 89
-9.10291 15.2115 -1.5359 75 73 87
-9.04064 15.2096 -1.53286 76 75 89
-8.98208 15.2146 -1.53064 75 74 88
-7.32781 15.2471 -1.39243 77 76 84
-7.27087 15.246 -1.39029 76 75 83
-7.21326 15.2429 -1.38797 76 75 83
-23.8255 1.68856 -2.0571 89 101 117
-23.8212 1.75914 -2.05741 81 90 107
-23.7989 1.82824 -2.05591 96 103 122
-22.2665 5.99621 -2.15666 87 99 115
-22.2544 6.06394 -2.15762 87 98 116
-22.244 6.1322 -2.1588 88 99 117
-22.2371 6.2016 -2.16041 87 99 115
-22.2411 6.31004 -2.16445 88 98 115
-22.2109 6.37258 -2.16346 88 96 115
-22.2241 6.44847 -2.16745 88 99 119
-22.2116 6.55246 -2.16976 87 99 115
-22.1882 6.61722 -2.16964 85 97 113
-22.21 6.69643 -2.17471 85 96 113
-18.2976 10.2694 -2.05233 94 95 107
-18.1866 10.275 -2.04194 92 96 105
-18.1468 10.3236 -2.04109 95 98 106
-18.0854 10.3952 -2.0396 95 99 108
-18.0435 10.4424 -2.03853 92 95 104
-17.9981 10.4874 -2.037 92 92 100
-17.9328 10.5561 -2.03505 97 98 103
-17.8837 10.5984 -2.03306 107 107 110
-17.8363 10.6416 -2.03131 107 104 109
-17.7803 10.7159 -2.03072 103 100 104
-17.7325 10.7587 -2.02896 100 94 96
-17.6979 10.8101 -2.02902 95 89 91
-17.6663 10.8636 -2.02953 89 83 85
-17.6307 10.9514 -2.0319 91 86 90
-17.5938 11.0013 -2.03173 63 58 71
-17.5535 11.0489 -2.0311 61 55 68
-17.4956 11.1218 -2.03051 67 57 68
-17.4566 11.1701 -2.03012 65 56 59
-17.4255 11.2241 -2.03085 64 54 53
-17.3636 11.294 -2.02981 61 56 62
-16.2431 11.1507 -1.91732 97 95 106
-16.015 11.2353 -1.90272 94 94 104
-14.519 11.6293 -1.80117 95 88 96
-15.3145 14.9859 -2.03926 87 87 95
-15.2503 15.0124 -2.03668 80 77 88
-15.1692 15.0677 -2.03522 71 69 82
-15.1223 15.1126 -2.03547 69 69 79
-15.0325 15.1105 -2.02875 69 69 80
-14.9484 15.1617 -2.02685 68 66 79
-14.8906 15.1942 -2.02536 73 71 83
-14.8235 15.216 -2.02235 75 73 85
-14.7219 15.2468 -2.01761 70 68 82
-14.6286 15.2382 -2.01023 74 73 87
-8.89873 15.2297 -1.52822 75 76 88
-8.83404 15.2217 -1.52458 76 75 89
-8.76682 15.2081 -1.52032 77 76 90
-8.70501 15.205 -1.51729 75 74 88
-8.62029 15.215 -1.51446 76 76 88
-7.13543 15.2582 -1.38662 76 73 83
-7.07579 15.249 -1.3837 75 72 81
-7.01628 15.2396 -1.38079 79 78 87
-23.8546 1.3363 -2.05674 86 101 124
-23.8551 1.44258 -2.05772 91 103 123
-23.8615 1.51392 -2.05903 90 103 122
-23.8538 1.58431 -2.05894 90 103 121
-22.3252 5.3411 -2.14254 86 97 115
-22.3018 5.4053 -2.14199 86 97 115
-22.3002 5.51026 -2.14495 85 96 114
-22.282 5.57587 -2.14504 87 98 116
-22.2885 5.64814 -2.14795 85 96 114
-22.2571 5.74543 -2.14766 86 97 117
-22.261 5.81729 -2.15036 87 98 116
-22.2648 5.88923 -2.15305 88 100 116
-19.3091 10.273 -2.15128 92 96 107
-19.1644 10.2648 -2.13658 90 94 105
-19.0319 10.2628 -2.12348 85 89 100
-18.8629 10.2755 -2.10768 86 89 98
-18.7291 10.2707 -2.09435 96 99 108
-18.5785 10.2551 -2.07874 102 105 114
-18.4519 10.2529 -2.06631 106 108 120
-17.3354 11.3499 -2.031 100 99 104
-17.2747 11.3828 -2.02765 99 98 104
-17.233 11.467 -2.02956 99 98 104
-17.1994 11.5191 -2.03006 95 95 101
-17.1383 11.5513 -2.02671 95 94 106
-17.0884 11.5914 -2.02494 95 93 106
-17.0266 11.6607 -2.02412 94 92 104
-16.8299 11.9383 -2.02601 97 97 105
-16.7478 11.9916 -2.02246 97 96 107
-16.7077 12.0387 -2.02228 97 95 109
-16.6659 12.0844 -2.02188 95 94 102
-16.6034 12.1528 -2.02128 92 91 101
-16.5644 12.2006 -2.02133 94 94 102
-16.5221 12.2459 -2.02092 92 89 101
-16.4643 12.2785 -2.01824 93 90 96
-16.4102 12.3534 -2.01901 98 93 95
-16.3614 12.3931 -2.01769 104 101 101
-16.3247 12.4428 -2.01819 106 104 99
-14.5407 15.2351 -2.00373 77 77 89
-14.4446 15.2703 -1.99986 79 81 88
-14.3401 15.2467 -1.99052 77 77 85
-14.2553 15.2453 -1.98444 72 71 84
-14.159 15.2299 -1.97641 73 73 86
-14.0416 15.2371 -1.96883 77 76 89
-13.956 15.2329 -1.96254 77 75 89
-13.8794 15.2389 -1.95777 76 74 88
-13.7751 15.2597 -1.95238 79 77 90
-13.6824 15.245 -1.94478 81 79 92
-13.5986 15.2407 -1.9387 82 80 91
-9.78324 11.4669 -1.42328 75 71 85
-9.73578 11.4792 -1.42125 74 72 86
-8.56642 15.2274 -1.51325 75 77 90
-8.49971 15.2128 -1.50899 77 76 90
-8.41692 15.2253 -1.50658 78 76 90
-8.35388 15.2173 -1.50313 78 76 89
-6.94001 15.2576 -1.37983 76 75 85
-6.87929 15.2439 -1.37653 79 78 86
-6.82565 15.2487 -1.37517 75 73 84
-23.8964 1.01983 -2.05845 85 99 124
-23.9041 1.09106 -2.05977 92 104 129
-23.8932 1.26771 -2.06005 90 102 128
-22.2788 4.70371 -2.1198 88 99 119
-22.2863 4.77452 -2.12249 87 98 118
-22.3129 4.8499 -2.12735 89 100 122
-22.3006 4.95108 -2.1288 87 100 118
-22.3208 5.02546 -2.13301 88 99 117
-22.3041 5.09112 -2.13311 87 98 116
-22.3273 5.20146 -2.13867 86 97 115
-22.2946 5.26328 -2.13703 85 96 114
-20.4235 9.21983 -2.20483 81 83 98
-20.4116 9.28833 -2.20718 80 82 97
-20.3922 9.35334 -2.20861 81 85 97
-20.3596 9.44904 -2.21032 79 83 95
-20.3415 9.51486 -2.21198 80 84 96
-20.3196 9.57888 -2.21319 81 84 98
-20.2788 9.67076 -2.21399 84 85 98
-20.2599 9.73647 -2.21566 86 87 100
-20.2355 9.79941 -2.21664 84 86 98
-20.1849 9.88633 -2.2163 73 79 89
-20.1635 9.95096 -2.21774 64 68 80
-20.1349 10.0118 -2.21826 81 84 97
-20.0955 10.1048 -2.21951 79 82 93
-20.049 10.156 -2.21777 78 83 95
-19.9762 10.1927 -2.21262 79 86 96
-19.9468 10.253 -2.21314 85 88 103
-19.7695 10.2688 -2.19645 90 94 106
-19.6223 10.2623 -2.18153 93 97 109
-19.4736 10.254 -2.16639 94 98 110
-16.2727 12.5196 -2.01941 95 87 84
-16.2325 12.5664 -2.01946 107 101 101
-16.1998 12.6196 -2.02064 113 106 99
-16.153 12.7011 -2.02277 116 109 103
-16.1317 12.7644 -2.02577 116 111 107
-15.88 12.913 -2.01575 96 86 93
-15.8179 12.9401 -2.01261 91 84 90
-15.7649 13.0162 -2.01405 89 83 90
-15.6982 13.0388 -2.01023 91 83 94
-15.6388 13.0678 -2.00754 91 86 93
-13.4885 15.252 -1.93221 78 74 88
-13.41 15.253 -1.927 82 78 92
-13.3254 15.2459 -1.92071 73 70 84
-13.2171 15.2572 -1.91443 72 70 80
-13.1426 15.2617 -1.90988 72 70 81
-13.0585 15.2533 -1.90358 66 62 76
-12.9782 15.2493 -1.89794 69 66 77
-9.7012 11.5089 -1.42172 65 63 76
-12.8718 15.2601 -1.89188 65 63 76
-12.7858 15.2473 -1.88514 74 72 85
-9.6647 11.5741 -1.4254 75 73 86
-12.7083 15.2453 -1.87993 76 74 87
-8.29513 15.218 -1.5007 77 76 89
-8.20842 15.2204 -1.49727 79 79 91
-8.15559 15.2333 -1.49626 79 81 93
-8.08642 15.2097 -1.49118 82 82 94
-6.74739 15.2602 -1.37362 80 80 90
-6.68837 15.2496 -1.37071 77 77 89
-6.62881 15.2368 -1.3676 81 79 92
-6.5794 15.252 -1.3674 80 78 89
-23.9477 0.702966 -2.06157 92 107 130
-23.9703 0.774687 -2.06429 93 105 129
-23.9378 0.87987 -2.06165 89 104 127
-23.9123 0.949699 -2.05955 89 104 127
-22.2462 4.14814 -2.10234 93 101 120
-22.2692 4.22099 -2.10656 90 98 117
-22.2881 4.29325 -2.11033 91 99 120
-22.2873 4.36162 -2.11195 92 100 121
-22.287 4.46448 -2.11448 89 100 120
-22.3109 4.53841 -2.11891 88 101 118
-22.3093 4.60702 -2.12052 86 102 117
-20.804 7.72064 -2.17214 80 89 106
-20.7844 7.78382 -2.1729 79 88 105
-20.7444 7.83875 -2.17117 80 89 104
-20.734 7.94122 -2.1747 80 89 103
-20.7265 8.00957 -2.17704 79 89 101
-20.6932 8.06722 -2.17622 78 87 104
-20.6999 8.17751 -2.18201 80 87 105
-20.6624 8.23346 -2.18073 79 86 104
-20.6629 8.30578 -2.18421 79 88 103
-20.6229 8.39655 -2.18434 79 88 103
-20.6301 8.47216 -2.18872 79 88 103
-20.5936 8.52856 -2.18767 79 86 103
-20.6003 8.6043 -2.19206 78 85 103
-20.5552 8.69313 -2.19173 78 85 101
-20.5631 8.76985 -2.19634 76 83 99
-20.5239 8.82508 -2.19506 78 86 99
-20.5101 8.92865 -2.19881 79 84 100
-20.4955 8.99547 -2.2007 79 83 100
-20.4825 9.06314 -2.20282 80 82 100
-20.4478 9.15737 -2.20407 81 83 98
-15.588 13.1458 -2.00943 91 86 94
-15.5183 13.1649 -2.00515 91 87 97
-15.4587 13.1931 -2.00246 94 89 98
-15.4216 13.2841 -2.00663 90 86 99
-15.4092 13.3569 -2.01145 90 86 96
-15.3348 13.371 -2.00649 83 78 91
-15.312 13.4341 -2.00972 72 66 78
-15.2507 13.5026 -2.01024 71 68 77
-15.2187 13.5574 -2.0121 92 91 99
-15.1725 13.5982 -2.01169 86 84 95
-12.2612 15.2456 -1.8513 78 78 89
-12.1823 15.2381 -1.84565 79 79 91
-12.0842 15.2537 -1.8409 76 74 87
-8.01463 15.2437 -1.4914 80 80 92
-7.9506 15.2305 -1.48755 75 75 87
-7.88752 15.2188 -1.4839 77 75 89
-6.49736 15.251 -1.36469 82 80 91
-6.43941 15.2414 -1.36197 82 81 90
-6.38677 15.2465 -1.3608 81 82 88
-4.6925 11.5816 -1.02213 82 81 89
-23.9606 0.632454 -2.06246 90 105 128
-22.2994 3.75024 -2.09894 85 98 117
-22.2808 3.81476 -2.09839 77 88 110
