-8.62683 -2.97754 -1.79911 82 91 118
-9.17717 -2.11738 -1.78855 126 136 151
-9.17152 -2.08606 -1.78612 129 131 147
-9.6808 -1.36029 -1.78759 77 89 113
-9.67257 -1.32836 -1.78525 79 91 115
-3.58319 -8.7927 -1.6305 147 141 143
-4.00514 -8.1256 -1.62807 135 132 143
-4.04265 -8.10781 -1.62807 135 132 143
-4.48706 -7.52463 -1.63818 134 129 138
-4.50316 -7.49934 -1.63535 136 130 142
-5.0112 -6.82557 -1.64485 122 111 115
-5.03179 -6.8105 -1.64485 119 108 113
-5.0512 -6.79377 -1.64443 118 108 116
-5.93758 -6.16365 -1.72631 133 120 112
-5.9654 -6.15567 -1.72936 131 118 110
-5.99322 -6.14757 -1.73242 132 119 111
-6.0157 -6.13367 -1.73373 130 117 111
-6.05449 -6.11761 -1.73722 124 113 109
-6.07422 -6.10066 -1.73766 123 112 109
-6.09121 -6.08083 -1.73723 125 115 112
-7.85351 -3.8544 -1.77507 84 96 112
-7.86901 -3.81713 -1.77464 78 84 104
-7.89936 -3.80231 -1.77944 76 85 102
-7.90871 -3.77705 -1.77901 79 89 105
-7.89868 -3.74239 -1.77378 81 90 106
-8.64274 -2.90844 -1.79786 85 100 123
-8.6722 -2.85883 -1.80081 86 98 122
-9.2108 -2.01994 -1.7914 121 126 143
-9.18574 -1.98442 -1.78491 79 85 107
-9.68946 -1.29982 -1.78799 83 95 119
-3.51669 -8.82225 -1.63124 147 138 142
-3.53894 -8.79906 -1.62865 147 141 145
-3.958 -8.15438 -1.62924 136 133 142
-3.97954 -8.13558 -1.62768 135 132 141
-4.42842 -7.556 -1.63778 133 130 139
-4.44852 -7.53769 -1.63656 137 134 141
-4.93612 -6.87457 -1.644 128 117 113
-4.95464 -6.85653 -1.64316 124 114 112
-4.98429 -6.85445 -1.64653 121 110 114
-5.71001 -6.17962 -1.69401 119 109 107
-5.74543 -6.18132 -1.69969 125 114 108
-5.77831 -6.17995 -1.70449 131 120 115
-5.82746 -6.17688 -1.71147 131 120 115
-5.85653 -6.1708 -1.71496 129 118 112
-5.89086 -6.17035 -1.7202 120 106 96
-7.92769 -3.71166 -1.77684 84 94 111
-7.94026 -3.688 -1.77728 72 80 99
-7.95099 -3.66346 -1.77728 77 85 104
-7.97616 -3.63069 -1.77947 69 77 98
-7.98495 -3.60521 -1.77904 77 85 104
-7.99364 -3.5797 -1.77861 84 93 110
-8.67731 -2.81587 -1.79913 92 105 124
-8.70436 -2.7653 -1.80167 90 105 128
-8.73082 -2.74401 -1.80589 93 108 131
-9.19226 -1.94094 -1.78451 85 101 124
-9.2128 -1.91546 -1.78776 84 100 125
-9.67718 -1.25201 -1.78448 79 91 115
-9.6958 -1.22358 -1.78761 73 87 113
-3.45992 -8.83515 -1.62976 149 141 139
-3.48697 -8.82505 -1.62976 149 141 141
-3.9331 -8.16598 -1.62924 136 133 142
-4.36305 -7.57484 -1.63454 139 137 143
-4.40263 -7.56395 -1.63656 137 136 141
-4.86381 -6.92755 -1.64442 117 105 105
-4.87923 -6.90488 -1.64231 122 108 99
-4.91001 -6.90475 -1.6461 117 102 98
-5.48088 -6.22281 -1.66695 137 132 138
-5.50463 -6.21225 -1.6687 138 133 136
-5.53469 -6.20903 -1.67263 138 133 136
-5.57452 -6.1973 -1.67656 138 133 133
-5.61228 -6.20262 -1.6831 133 127 127
-5.63478 -6.1901 -1.68441 132 123 125
-5.67521 -6.19805 -1.69183 128 118 119
-8.00073 -3.53858 -1.77643 80 91 110
-8.02699 -3.52103 -1.78036 82 93 113
-8.03541 -3.4954 -1.77993 86 97 115
-8.058 -3.47605 -1.78299 82 93 111
-8.71681 -2.66564 -1.79831 88 100 125
-8.74489 -2.64467 -1.80295 85 99 125
-9.20647 -1.88427 -1.78533 83 95 121
-9.20769 -1.8547 -1.78453 81 95 119
-9.21361 -1.81113 -1.78412 85 97 121
-9.70266 -1.19363 -1.78839 72 86 112
-9.68804 -1.16113 -1.78489 72 86 112
-3.42213 -8.8594 -1.63162 149 140 138
-3.86878 -8.19106 -1.62846 135 132 142
-3.89613 -8.18503 -1.62963 134 131 142
-4.32244 -7.61091 -1.63697 137 134 143
-4.34277 -7.5929 -1.63575 138 135 143
-4.8163 -6.97188 -1.64652 115 109 112
-4.83302 -6.95094 -1.64484 134 125 127
-5.35124 -6.26209 -1.65473 133 128 135
-5.38484 -6.24395 -1.65648 131 125 132
-5.4148 -6.24127 -1.66041 132 127 133
-5.43858 -6.23097 -1.66216 136 131 138
-8.07169 -3.43786 -1.78255 84 95 113
-8.07447 -3.40978 -1.78081 82 93 113
-8.09148 -3.38786 -1.78256 86 97 115
-8.09219 -3.34419 -1.77908 84 95 112
-8.73394 -2.59708 -1.7979 88 103 126
-9.21651 -1.78195 -1.78372 79 93 119
-9.227 -1.75425 -1.78494 83 97 124
-9.6751 -1.11356 -1.78138 78 93 116
-9.67773 -1.0832 -1.78139 77 92 115
-3.84299 -8.20059 -1.62807 134 131 138
-4.25952 -7.63399 -1.63494 136 133 144
-4.29927 -7.62367 -1.63697 133 132 140
-4.73972 -7.01859 -1.64568 116 109 117
-4.7687 -6.99238 -1.64441 128 122 125
-4.79198 -6.98135 -1.64526 119 114 120
-5.26414 -6.33224 -1.65429 130 127 134
-5.2968 -6.31307 -1.6556 132 127 134
-5.31093 -6.29106 -1.65386 129 123 133
-5.33477 -6.28116 -1.6556 132 127 134
-8.10542 -3.32065 -1.77995 84 96 112
-8.12938 -3.30154 -1.78345 81 89 108
-8.13682 -3.2608 -1.78171 86 97 115
-8.14259 -3.23413 -1.78084 79 90 108
-8.76909 -2.54856 -1.80254 84 97 120
-8.80036 -2.48382 -1.8055 85 98 122
-9.23436 -1.71096 -1.78495 87 99 122
-9.24463 -1.68316 -1.78617 84 96 119
-9.69195 -1.05407 -1.78373 79 94 118
-9.68431 -1.00726 -1.78139 81 95 122
-3.77998 -8.22852 -1.62807 133 130 139
-3.8121 -8.23358 -1.63158 133 129 143
-4.20946 -7.65206 -1.63332 136 133 144
-4.2372 -7.64828 -1.63534 135 133 143
-4.69928 -7.05006 -1.64652 139 136 143
-4.72165 -7.03765 -1.64694 134 128 138
-5.19777 -6.38865 -1.65472 134 129 136
-5.22944 -6.3683 -1.6556 131 126 134
-5.24622 -6.34953 -1.65473 129 126 135
-8.16995 -3.2162 -1.78521 90 101 119
-8.18463 -3.19306 -1.78652 90 101 119
-8.19151 -3.15214 -1.78478 86 98 116
-8.20238 -3.12747 -1.78522 79 90 110
-8.78658 -2.45061 -1.80087 97 109 133
-8.81792 -2.42991 -1.80635 97 109 133
-8.80204 -2.38151 -1.80046 83 95 119
-9.24713 -1.65389 -1.78577 84 95 119
-9.24824 -1.60947 -1.78456 89 101 125
-9.69245 -0.977437 -1.78257 77 91 118
-9.6966 -0.947201 -1.78296 78 92 118
-3.7397 -8.27395 -1.63314 134 131 140
-3.76104 -8.25396 -1.63119 137 134 141
-4.15516 -7.69164 -1.63534 134 131 140
-4.18119 -7.68458 -1.63656 136 133 140
-4.62293 -7.09706 -1.64609 132 129 135
-4.64024 -7.07663 -1.64441 132 130 135
-4.66371 -7.06606 -1.64525 135 133 138
-5.12839 -6.4412 -1.65428 134 128 137
-5.16265 -6.42431 -1.65603 134 129 136
-5.18082 -6.40728 -1.65559 133 128 137
-6.53938 -5.2486 -1.75814 104 102 116
-6.57527 -5.2284 -1.76176 97 95 108
-6.58022 -5.19972 -1.7586 99 97 111
-6.60176 -5.18446 -1.76041 93 91 104
-6.61 -5.14203 -1.7559 102 100 111
-6.63906 -5.13265 -1.75996 100 98 111
-6.6497 -5.10871 -1.75861 96 94 107
-6.66487 -5.08835 -1.75862 100 98 111
-6.69565 -5.06366 -1.76088 103 99 113
-6.70604 -5.03959 -1.75952 103 101 114
-6.72099 -5.01904 -1.75953 96 94 108
-6.74528 -4.9893 -1.75998 96 94 108
-6.76319 -4.97096 -1.76089 97 95 108
-6.78107 -4.95255 -1.76179 95 93 106
-6.80035 -4.91903 -1.76089 91 90 103
-6.82279 -4.90392 -1.76316 88 86 100
-6.83889 -4.88413 -1.76361 101 99 113
-6.866 -4.87227 -1.76722 102 98 112
-6.87694 -4.83271 -1.76407 99 95 109
-6.90236 -4.8195 -1.76723 99 95 109
-6.91027 -4.79382 -1.76543 102 100 114
-6.93511 -4.7642 -1.76634 103 102 116
-6.946 -4.74068 -1.76544 97 96 110
-6.96003 -4.71935 -1.76544 101 99 113
-6.96594 -4.69246 -1.76319 98 96 110
-6.99357 -4.66471 -1.765 97 97 109
-7.01221 -4.64648 -1.76635 97 97 109
-7.02107 -4.62168 -1.765 99 97 111
-7.04517 -4.59143 -1.76591 100 97 114
-7.07176 -4.57833 -1.76952 98 97 111
-7.06732 -4.54487 -1.76456 99 98 112
-7.10907 -4.52598 -1.77043 93 95 110
-7.10603 -4.4936 -1.76592 96 95 109
-8.21498 -3.10345 -1.7861 86 94 115
-8.21776 -3.06108 -1.78348 97 107 127
-8.2575 -3.04732 -1.79091 92 105 124
-8.25345 -3.01693 -1.78785 81 94 113
-8.80865 -2.35404 -1.80046 85 97 122
-8.83029 -2.33051 -1.80384 87 101 128
-9.25628 -1.58122 -1.78537 75 87 111
-9.25075 -1.55061 -1.78335 76 88 110
-9.6904 -0.900655 -1.78102 83 95 117
-3.70217 -8.29208 -1.63353 137 134 146
-4.10917 -7.71775 -1.63575 135 134 142
-4.13351 -7.70736 -1.63615 130 129 137
-4.56056 -7.11795 -1.64272 134 131 141
-4.58412 -7.10767 -1.64357 134 131 140
-5.03309 -6.50016 -1.65166 131 129 134
-5.0652 -6.48067 -1.65253 131 126 133
-5.09058 -6.47332 -1.65472 134 128 138
-5.10542 -6.45183 -1.65297 132 124 135
-6.30384 -5.49789 -1.75269 138 135 144
-6.32752 -5.48512 -1.75495 149 143 153
-6.35119 -5.47226 -1.75721 131 125 135
-6.36431 -5.43291 -1.7536 100 93 103
-6.38344 -5.41604 -1.75451 110 107 114
-6.40402 -5.40036 -1.75586 113 107 117
-6.42557 -5.36848 -1.75496 108 104 118
-6.44898 -5.35515 -1.75722 105 103 117
-6.46941 -5.33921 -1.75858 105 103 117
-6.4853 -5.31944 -1.75858 106 104 118
-6.50196 -5.28347 -1.75633 103 101 114
-6.5237 -5.26855 -1.75814 102 100 113
-7.13077 -4.47905 -1.76909 99 97 111
-7.13738 -4.45295 -1.76728 98 98 110
-7.18055 -4.43444 -1.77361 101 101 113
-7.17872 -4.40308 -1.76955 103 101 114
-7.19499 -4.38302 -1.77046 101 99 113
-7.21472 -4.34977 -1.77046 90 89 105
-7.22751 -4.32755 -1.77046 86 85 101
-7.24189 -4.30629 -1.77092 82 81 97
-7.26461 -4.2748 -1.77183 78 76 95
-7.28219 -4.25539 -1.77318 81 78 97
-7.28965 -4.22998 -1.77183 73 75 93
-8.2584 -2.98998 -1.78699 89 100 119
-8.26534 -2.9206 -1.7835 84 94 114
-8.84225 -2.28964 -1.80426 89 101 127
-8.82396 -2.25577 -1.79879 82 96 123
-8.84533 -2.23203 -1.80217 82 100 124
-9.26055 -1.52264 -1.78457 85 96 118
-9.25717 -1.47759 -1.78255 77 89 115
-9.69237 -0.870234 -1.78102 83 95 119
-9.69813 -0.840131 -1.7818 77 89 112
-3.64928 -8.30812 -1.63236 136 134 145
-3.67535 -8.29924 -1.63275 136 134 147
-4.05083 -7.74954 -1.63615 136 133 144
-4.07351 -7.73583 -1.63575 136 133 142
-4.52242 -7.15333 -1.64483 132 129 138
-4.54609 -7.14318 -1.64567 132 129 138
-4.958 -6.54446 -1.64948 135 132 137
-4.99829 -6.53642 -1.6534 135 130 137
-5.01573 -6.51831 -1.65253 130 125 131
-6.11835 -5.68843 -1.74996 120 115 123
-6.13394 -5.66846 -1.74951 118 115 123
-6.16541 -5.64576 -1.75132 113 106 117
-6.17657 -5.62167 -1.74951 129 121 132
-6.19765 -5.60683 -1.75087 143 136 144
-6.2332 -5.5877 -1.75403 141 136 142
-6.24412 -5.56346 -1.75223 134 129 133
-6.26072 -5.54442 -1.75223 133 128 134
-6.29319 -5.53967 -1.7572 139 134 144
-7.31217 -4.2134 -1.77455 71 77 92
-7.33109 -4.17957 -1.77455 68 74 89
-7.33489 -4.15212 -1.7723 70 77 93
-7.35554 -4.13431 -1.77456 71 78 95
-7.3673 -4.09645 -1.77275 71 78 94
-7.4133 -4.0927 -1.78179 72 81 96
-7.43722 -4.07644 -1.78495 70 79 96
-7.44695 -4.03732 -1.7827 70 78 96
-8.30116 -2.90482 -1.79005 87 98 120
-8.30657 -2.86359 -1.78831 87 98 120
-8.31472 -2.83781 -1.78832 86 98 120
-8.91976 -2.22131 -1.81733 80 95 121
-8.81348 -2.15141 -1.79165 106 121 141
-9.26288 -1.44893 -1.78296 77 92 115
-9.27623 -1.42146 -1.78499 75 89 112
-3.61452 -8.33308 -1.63431 134 132 143
-4.02637 -7.75966 -1.63575 132 130 140
-4.44301 -7.19492 -1.64356 134 131 140
-4.47273 -7.19514 -1.64693 132 129 136
-4.48749 -7.17007 -1.64398 135 132 139
-4.92286 -6.58028 -1.65122 132 127 134
-4.94612 -6.57034 -1.65253 132 128 134
-6.00107 -5.82133 -1.7513 114 108 118
-6.02342 -5.78984 -1.74994 114 108 118
-6.04213 -5.7729 -1.7504 117 114 123
-6.0566 -5.7518 -1.7495 116 113 120
-6.08698 -5.72821 -1.75086 122 117 123
-6.09849 -5.70429 -1.74905 122 113 123
-7.46903 -4.01991 -1.78541 73 82 99
-7.47051 -3.9913 -1.78271 70 79 96
-7.47702 -3.96548 -1.78136 74 83 98
-7.50854 -3.93812 -1.78497 74 81 99
-7.5166 -3.91312 -1.78407 74 81 99
-7.51592 -3.8836 -1.78092 78 85 103
-7.55235 -3.85858 -1.78589 81 88 104
-8.33566 -2.81647 -1.79138 84 96 120
-8.33694 -2.77389 -1.78876 91 103 123
-8.35219 -2.7505 -1.79051 90 102 126
-8.82887 -2.12616 -1.79376 129 136 152
-8.83659 -2.09903 -1.79418 124 131 147
-8.83794 -2.05586 -1.7925 126 131 148
-9.27041 -1.37614 -1.78256 76 90 116
-9.28354 -1.34856 -1.78459 80 95 118
-3.55852 -8.34125 -1.63158 136 134 145
-3.58468 -8.33267 -1.63197 135 133 144
-3.96433 -7.78371 -1.63453 137 134 143
-3.99052 -7.77733 -1.63575 136 131 143
-4.3841 -7.22092 -1.64188 132 129 137
-4.41677 -7.22645 -1.64651 133 130 139
-4.82698 -6.63762 -1.64903 127 122 130
-4.85146 -6.62964 -1.65078 126 120 127
-4.87038 -6.61356 -1.65034 131 126 132
-4.89146 -6.60062 -1.65078 134 129 135
-5.88336 -5.93567 -1.75038 118 113 118
-5.89301 -5.90943 -1.74767 116 113 117
-5.90528 -5.88596 -1.74587 114 108 114
-5.92425 -5.86943 -1.74632 114 107 113
-5.94961 -5.84104 -1.74588 119 112 119
-5.98085 -5.83675 -1.75039 117 111 123
-7.56881 -3.8379 -1.78724 74 81 98
-7.56783 -3.80834 -1.78409 74 82 99
-7.59702 -3.77936 -1.78725 73 83 99
-7.60803 -3.75588 -1.78726 75 84 102
-7.61022 -3.72804 -1.785 74 82 101
-7.6333 -3.71051 -1.78817 72 81 100
-8.37475 -2.72951 -1.79401 86 99 118
-8.38062 -2.7029 -1.79358 89 100 120
-8.40171 -2.66687 -1.79576 86 98 120
-8.87192 -2.00575 -1.79756 80 84 105
-9.29273 -1.32035 -1.78581 81 92 114
-3.52494 -8.36946 -1.63431 136 133 145
-3.90871 -7.82144 -1.63656 134 132 143
-3.94727 -7.80948 -1.63778 139 134 143
-4.34804 -7.26036 -1.64524 136 131 144
-4.36514 -7.23897 -1.64314 137 134 143
-4.77843 -6.67656 -1.6499 140 137 142
-4.79971 -6.66394 -1.65034 138 133 141
-5.76148 -6.02728 -1.74586 97 88 90
-5.77955 -6.00983 -1.74586 112 104 102
-5.80695 -5.98353 -1.74586 124 115 116
-5.81817 -5.95885 -1.74361 118 112 116
-5.84947 -5.9553 -1.74812 112 107 113
-7.65162 -3.67594 -1.78862 73 81 99
-7.66404 -3.65312 -1.78908 82 90 109
-7.66585 -3.62522 -1.78682 79 87 106
-7.7014 -3.59876 -1.7918 77 85 104
-7.69947 -3.56916 -1.78864 72 80 99
-8.39438 -2.63601 -1.79227 90 103 120
-8.3888 -2.60581 -1.78922 88 101 120
-8.41877 -2.57253 -1.79359 90 101 127
-8.90144 -1.96876 -1.8022 78 91 116
-8.90868 -1.94135 -1.80263 87 98 121
-9.37822 -1.2849 -1.80073 89 101 125
-9.28568 -1.24546 -1.78257 74 89 112
-9.37574 -1.24639 -1.79887 73 87 113
-3.47167 -8.38431 -1.63314 136 132 146
-3.49153 -8.35958 -1.63003 136 132 146
-3.85615 -7.83353 -1.63413 137 135 146
-3.88488 -7.83287 -1.63656 136 134 145
-4.28491 -7.27871 -1.64188 136 130 140
-4.31172 -7.2745 -1.64398 133 127 139
-4.71137 -6.7324 -1.65165 140 134 143
-4.72957 -6.71513 -1.65077 133 127 137
-4.76039 -6.69398 -1.65077 132 129 135
-5.66206 -6.12369 -1.7463 119 110 103
-5.6739 -6.09932 -1.74404 119 110 104
-5.68957 -6.07926 -1.74314 118 109 104
-5.72094 -6.07642 -1.74766 112 102 99
-5.74205 -6.04325 -1.7454 102 91 93
-7.71865 -3.54943 -1.7909 84 92 111
-7.72539 -3.52391 -1.79 82 94 110
-7.74284 -3.48883 -1.79046 82 90 112
-7.75826 -3.46726 -1.79182 80 88 110
-8.41295 -2.54235 -1.79054 93 107 134
-8.4387 -2.52191 -1.79491 82 98 124
-8.44035 -2.47977 -1.79273 84 96 123
-8.91201 -1.9131 -1.80221 78 93 116
-8.9248 -1.88685 -1.8039 83 96 120
-9.38267 -1.22215 -1.79983 76 90 116
-9.3876 -1.19759 -1.80031 80 92 116
-9.34244 -1.15278 -1.78811 82 94 118
-3.44678 -8.39618 -1.63353 134 130 144
-3.8331 -7.84656 -1.63453 135 133 144
-4.23302 -7.31704 -1.64356 136 133 144
-4.27233 -7.30844 -1.64608 131 128 139
-4.67374 -6.76516 -1.65295 134 131 140
-4.68778 -6.74146 -1.65034 136 133 142
-5.55584 -6.19373 -1.74178 130 120 111
-5.59053 -6.17585 -1.74403 121 112 107
-5.60906 -6.15895 -1.74404 125 115 114
-5.62624 -6.14053 -1.74359 121 111 109
-7.77185 -3.44482 -1.79272 81 93 109
-7.80141 -3.41499 -1.79634 79 92 109
-7.80234 -3.38693 -1.79409 79 90 110
-7.80496 -3.35967 -1.79228 83 94 112
-8.44167 -2.45188 -1.79143 81 93 117
-8.46533 -2.43059 -1.79536 83 95 119
-8.9251 -1.84342 -1.80222 76 88 114
-8.92813 -1.81513 -1.8018 87 101 124
-9.31964 -1.14658 -1.78745 77 89 113
-9.39519 -1.13537 -1.80034 73 88 111
-9.30299 -1.115 -1.7834 77 92 116
-9.39601 -1.11019 -1.79989 76 90 114
-3.37947 -8.41357 -1.63198 136 134 147
-3.40374 -8.40008 -1.6312 133 129 144
-3.77684 -7.88331 -1.63656 137 135 146
-3.80242 -7.87581 -1.63737 136 134 145
-4.18769 -7.3402 -1.64314 136 133 144
-4.21645 -7.33981 -1.64608 135 132 143
-4.59828 -6.80834 -1.65164 137 134 142
-4.62096 -6.79797 -1.65251 134 131 142
-4.63835 -6.77932 -1.65121 128 122 134
-5.42224 -6.24915 -1.73093 133 119 116
-5.45355 -6.24768 -1.73545 134 121 115
-5.46979 -6.22826 -1.73455 132 120 114
-5.51977 -6.22861 -1.74222 132 119 111
-5.52574 -6.19719 -1.73771 132 121 113
-7.82882 -3.32721 -1.79455 83 91 110
-7.84377 -3.30524 -1.7959 85 93 112
-7.86766 -3.28696 -1.79952 90 101 119
-7.86812 -3.25884 -1.79727 86 96 114
-7.86993 -3.21706 -1.79411 85 97 113
-8.47024 -2.40373 -1.79493 85 96 117
-8.46941 -2.36102 -1.79231 82 94 118
-8.47408 -2.33416 -1.79188 79 94 119
-8.94062 -1.78874 -1.80349 86 100 126
-8.93086 -1.74346 -1.7997 82 96 122
-9.29592 -1.0847 -1.78138 78 92 118
-9.38328 -1.08312 -1.79614 78 94 120
-9.38945 -1.04606 -1.79663 79 93 117
-3.35515 -8.42699 -1.63276 135 133 146
-3.75518 -7.89968 -1.63778 136 134 145
-4.13063 -7.36916 -1.64272 135 133 144
-4.15756 -7.36556 -1.64482 135 133 144
-4.54828 -6.8455 -1.65251 130 127 136
-4.57105 -6.83531 -1.65339 135 132 139
-5.29496 -6.27065 -1.71558 110 102 104
-5.33108 -6.27579 -1.7219 125 114 114
-5.35116 -6.26123 -1.72236 122 112 112
-5.39719 -6.25797 -1.72868 133 122 117
-7.86835 -3.18826 -1.79141 82 94 108
-7.89736 -3.17189 -1.79638 83 95 111
-7.90775 -3.1337 -1.79548 83 94 112
-8.48244 -2.30834 -1.79232 74 88 114
-8.47924 -2.26517 -1.78927 75 90 114
-8.49303 -2.24084 -1.79102 78 91 115
-8.94508 -1.71735 -1.80181 80 94 118
-8.95537 -1.69045 -1.80308 86 98 121
-9.30593 -1.04169 -1.7826 80 94 120
-9.38613 -1.0204 -1.79524 78 91 115
-9.4039 -0.997504 -1.79901 77 92 115
-3.31881 -8.44881 -1.63432 131 131 143
-3.69917 -7.93763 -1.64021 139 137 148
-3.72256 -7.92501 -1.63981 135 133 144
-4.09041 -7.40204 -1.64482 134 131 140
-4.11466 -7.39341 -1.64566 135 132 143
-4.48982 -6.86895 -1.64989 135 132 139
-4.52549 -6.8556 -1.65164 133 130 136
-5.16308 -6.30357 -1.70204 136 134 139
-5.20642 -6.29855 -1.70745 142 136 142
-5.23509 -6.29505 -1.71107 127 122 129
-5.25644 -6.28233 -1.71197 104 97 103
-7.92217 -3.11132 -1.79684 78 89 107
-7.93651 -3.08888 -1.79819 86 97 115
-7.95196 -3.05264 -1.79865 81 93 112
-7.96797 -3.03075 -1.80046 78 89 109
-8.49168 -2.21242 -1.78928 86 96 120
-8.52757 -2.17969 -1.79539 75 87 111
-8.95087 -1.64633 -1.80056 86 98 121
-8.96096 -1.61936 -1.80183 83 96 115
-9.29708 -0.981884 -1.77977 77 91 115
-9.3981 -0.958886 -1.79668 78 93 116
-9.29884 -0.937979 -1.77937 79 94 117
-9.39449 -0.933259 -1.79528 80 94 118
-3.2652 -8.46228 -1.63315 131 130 144
-3.29101 -8.45283 -1.63315 130 132 144
-3.67269 -7.94298 -1.639 138 136 149
-4.03649 -7.43715 -1.64608 133 131 142
-4.05542 -7.4183 -1.6444 135 132 141
-4.42622 -6.90679 -1.64946 135 132 139
-4.44108 -6.88367 -1.64684 134 131 138
-4.46697 -6.87886 -1.64902 133 130 139
-5.05318 -6.34173 -1.693 135 130 137
-5.08096 -6.31741 -1.69255 136 131 138
-5.1143 -6.3206 -1.69797 134 130 138
-5.1441 -6.31903 -1.70203 136 133 140
-7.9839 -3.00878 -1.80227 80 91 110
-7.97424 -2.97717 -1.79776 78 90 109
-7.991 -2.94139 -1.79867 85 95 118
-8.53355 -2.15317 -1.7954 123 132 149
-8.54135 -2.1271 -1.79584 129 135 149
-8.50561 -2.09006 -1.78624 127 130 145
-8.95556 -1.58964 -1.79972 79 91 113
-8.96931 -1.56328 -1.80184 80 92 114
-9.29121 -0.907859 -1.77734 76 90 116
-9.39273 -0.907883 -1.79436 75 89 115
-9.38649 -0.869418 -1.79203 83 97 124
-3.61472 -7.9767 -1.64062 137 135 146
-3.63673 -7.96074 -1.6394 131 129 140
-4.02012 -7.46118 -1.64903 135 133 144
-4.36944 -6.93252 -1.64771 134 131 138
-4.39042 -6.9196 -1.64771 135 132 141
-4.92693 -6.35607 -1.67765 132 125 132
-4.96237 -6.36313 -1.68397 131 125 131
-4.98909 -6.3377 -1.68307 131 126 132
-5.01992 -6.33823 -1.68759 134 129 136
-8.01583 -2.92261 -1.80273 81 91 116
-8.01498 -2.89441 -1.80048 90 101 123
-8.0222 -2.85511 -1.79913 90 101 119
-8.53912 -2.05642 -1.79192 128 128 146
-8.50688 -2.02063 -1.7832 139 139 154
-8.97962 -1.52182 -1.80268 80 92 114
-8.98932 -1.49467 -1.80395 75 88 107
-9.30098 -0.879501 -1.77897 74 88 114
-9.29899 -0.849983 -1.77816 82 96 123
-9.37873 -0.843457 -1.78969 78 92 118
-9.41143 -0.82188 -1.79723 80 92 118
-3.56459 -7.99394 -1.63981 137 135 146
-3.59041 -7.98717 -1.64062 137 134 145
-3.96044 -7.48526 -1.64777 136 134 145
-3.97785 -7.46312 -1.64524 136 134 147
-4.30957 -6.95269 -1.64466 130 126 135
-4.34447 -6.93863 -1.64597 133 130 137
-4.89436 -6.39325 -1.67991 129 125 134
-4.902 -6.36293 -1.6754 134 128 135
-8.05233 -2.83798 -1.80455 86 97 115
-8.03463 -2.80398 -1.79824 84 96 116
-8.04508 -2.76591 -1.79779 88 100 124
-8.05659 -2.74217 -1.7987 88 100 124
-8.53698 -2.00007 -1.78887 79 85 105
-8.55497 -1.96243 -1.79106 82 98 123
-8.97387 -1.46343 -1.79974 79 91 113
-9.00109 -1.42461 -1.80438 83 95 119
-9.28845 -0.805032 -1.77533 82 94 119
-9.3958 -0.795099 -1.79301 86 98 123
-9.28232 -0.775239 -1.77371 81 93 119
-9.39673 -0.757504 -1.79257 76 90 116
-3.52835 -8.01119 -1.64022 135 133 144
-3.90404 -7.51586 -1.64819 136 133 144
-3.93772 -7.49685 -1.64777 136 134 145
-4.27507 -6.99149 -1.64815 133 130 139
-4.29431 -6.97549 -1.64727 137 131 141
-4.77084 -6.42903 -1.66952 130 127 134
-4.80704 -6.41713 -1.67223 135 130 142
-4.82633 -6.40276 -1.67223 135 128 135
-4.85931 -6.40723 -1.67765 135 128 137
-8.07171 -2.71964 -1.80051 81 95 119
-8.08494 -2.69641 -1.80187 80 95 118
-8.5451 -1.93228 -1.78757 85 97 122
-8.5617 -1.90828 -1.7902 86 99 123
-8.97958 -1.39259 -1.79891 78 90 114
-8.99662 -1.36651 -1.80186 74 86 108
-9.28195 -0.745975 -1.77331 78 92 118
-9.3944 -0.732198 -1.79164 78 92 118
-9.39781 -0.707445 -1.79213 81 96 119
-3.47731 -8.02604 -1.639 134 132 145
-3.50466 -8.0232 -1.64062 134 132 145
-3.85922 -7.54036 -1.64861 137 135 146
-3.88294 -7.53078 -1.64903 136 134 145
-4.21967 -7.01931 -1.64727 135 133 143
-4.2371 -7.00008 -1.64553 131 129 142
-4.73429 -6.46054 -1.67042 132 127 134
-4.74922 -6.44004 -1.66862 128 125 132
-8.11336 -2.66419 -1.80593 88 101 125
-8.10605 -2.63416 -1.80233 87 98 120
-8.13016 -2.61433 -1.80639 88 99 119
-8.56302 -1.88077 -1.78933 77 92 113
-8.57288 -1.84118 -1.78977 79 91 115
-8.98846 -1.33664 -1.79934 82 96 120
-9.0035 -1.29579 -1.80145 81 95 121
-9.3021 -0.703701 -1.77696 83 98 121
-9.2859 -0.673209 -1.77331 75 90 113
-9.3964 -0.669684 -1.79121 75 90 113
-3.44161 -8.0447 -1.63981 133 131 144
-3.83381 -7.54634 -1.64735 137 134 145
-4.17515 -7.04055 -1.6464 137 134 141
-4.19647 -7.02826 -1.6464 137 134 145
-4.66442 -6.50789 -1.66997 129 126 133
-4.67516 -6.48116 -1.66636 129 126 135
-4.69688 -6.47042 -1.66726 130 124 134
-6.18721 -5.01987 -1.76276 99 97 111
-6.20672 -5.00465 -1.76418 105 103 117
-6.21872 -4.98315 -1.76324 100 98 111
-6.25049 -4.96195 -1.76607 102 98 115
-6.26684 -4.94402 -1.76655 100 98 112
-6.27561 -4.9199 -1.76467 95 94 108
-6.30717 -4.89832 -1.7675 100 100 112
-6.3203 -4.87776 -1.76703 101 99 113
-6.33033 -4.85475 -1.76562 92 90 104
-6.35247 -4.84135 -1.76798 87 85 100
-6.36996 -4.8085 -1.76657 106 104 117
-6.38741 -4.79133 -1.76752 103 101 114
-6.40018 -4.77054 -1.76705 100 98 111
-6.42501 -4.74341 -1.76799 99 98 114
-6.44847 -4.73072 -1.77083 100 99 113
-6.45173 -4.70273 -1.76753 99 97 111
-6.4825 -4.67996 -1.77036 100 98 112
-6.49178 -4.65658 -1.76895 100 98 112
-6.51036 -4.64009 -1.77037 101 99 113
-6.52105 -4.61779 -1.76943 99 98 114
-6.54524 -4.58998 -1.77038 100 99 113
-6.55892 -4.56986 -1.77038 99 98 112
-6.57569 -4.55196 -1.77133 99 98 114
-6.60117 -4.52498 -1.77274 99 98 114
-6.60986 -4.50133 -1.77133 97 96 112
-6.62644 -4.48322 -1.77228 98 97 113
-6.64138 -4.46394 -1.77275 99 98 114
-6.65847 -4.43108 -1.77181 98 97 111
-6.67324 -4.41168 -1.77229 99 98 112
-6.69601 -4.39768 -1.77512 98 98 110
-6.71437 -4.36567 -1.77466 93 91 105
-6.7144 -4.33638 -1.77088 95 93 107
-6.74348 -4.32643 -1.77561 96 95 109
-6.76312 -4.29526 -1.77561 89 89 101
-6.784 -4.27973 -1.77797 80 80 92
-6.79181 -4.25567 -1.77656 86 85 99
-6.79789 -4.23055 -1.77468 65 68 83
-8.11926 -2.56936 -1.80098 86 98 124
-8.14319 -2.54936 -1.80505 80 92 117
-8.1522 -2.52462 -1.8055 87 99 121
-8.15739 -2.4987 -1.80506 81 93 117
-8.5797 -1.81489 -1.79021 83 95 119
-8.57884 -1.78695 -1.7889 76 88 112
-8.98155 -1.26412 -1.79598 81 94 120
-9.01178 -1.23965 -1.80188 73 87 113
-9.29105 -0.644369 -1.77413 78 93 116
-9.39766 -0.644741 -1.79122 78 93 116
-9.39692 -0.619636 -1.79077 78 93 117
-3.39464 -8.06993 -1.64103 134 132 145
-3.41497 -8.04914 -1.6386 133 131 144
-3.78187 -7.58654 -1.6503 137 136 142
-3.80905 -7.58428 -1.6524 137 134 141
-4.12404 -7.07611 -1.64771 135 132 141
-4.14176 -7.05713 -1.64597 136 133 140
-4.59407 -6.55444 -1.66952 126 123 132
-4.61053 -6.53591 -1.66816 137 134 141
-4.64041 -6.51529 -1.66816 134 131 138
-5.99582 -5.22254 -1.75849 102 101 115
-6.01151 -5.2042 -1.75849 104 102 115
-6.02712 -5.18581 -1.75849 100 98 112
-6.05668 -5.16329 -1.76038 104 100 114
-6.07071 -5.14347 -1.75991 102 98 112
-6.09199 -5.13001 -1.7618 101 99 112
-6.12134 -5.10711 -1.76369 99 99 111
-6.13075 -5.08329 -1.76181 101 99 113
-6.14599 -5.06452 -1.76181 99 97 110
-6.1597 -5.04444 -1.76134 100 98 111
-6.81707 -4.19912 -1.77468 71 74 91
-6.83281 -4.18018 -1.77563 72 75 92
-6.85506 -4.16531 -1.77846 70 76 92
-6.86402 -4.12746 -1.77563 69 74 93
-6.89609 -4.11852 -1.7813 69 76 94
-6.9033 -4.09422 -1.77989 68 75 91
-6.91352 -4.05724 -1.77753 68 73 92
-6.92718 -4.03692 -1.77801 71 78 94
-6.94744 -4.02053 -1.78037 69 78 94
-6.95764 -3.99811 -1.7799 68 77 94
-6.9707 -3.96295 -1.77849 71 79 98
-8.16637 -2.46008 -1.80461 81 93 118
-8.17137 -2.43413 -1.80416 83 98 123
-8.59207 -1.74805 -1.79022 92 103 124
-8.58906 -1.71972 -1.78848 84 95 117
-8.59742 -1.69373 -1.78935 83 94 116
-9.00119 -1.19529 -1.79851 69 83 109
-9.28928 -0.600398 -1.77332 77 92 117
-9.40862 -0.58295 -1.79314 79 93 119
-9.27469 -0.570255 -1.77008 80 94 120
-9.38637 -0.556258 -1.78751 80 94 120
-3.35661 -8.08271 -1.64063 136 134 147
-3.75718 -7.59401 -1.64945 137 135 146
-4.06439 -7.09577 -1.64509 135 133 144
-4.10071 -7.08472 -1.64684 137 136 144
-4.54202 -6.58509 -1.66861 131 128 137
-4.56998 -6.56156 -1.66771 126 123 132
-5.83716 -5.38875 -1.75658 106 104 118
-5.86045 -5.36066 -1.75611 99 97 112
-5.88505 -5.35078 -1.75894 102 100 114
-5.89688 -5.3288 -1.75753 103 101 114
-5.92271 -5.30309 -1.758 103 101 115
-5.93722 -5.28367 -1.75753 103 101 115
-5.96168 -5.27341 -1.76037 103 101 115
-5.97178 -5.24994 -1.75848 101 99 113
-6.99246 -3.9473 -1.78132 70 77 95
-6.99064 -3.91795 -1.77755 71 78 96
-7.00835 -3.88558 -1.77756 70 77 93
-7.03163 -3.87065 -1.78086 71 79 97
-7.05318 -3.85465 -1.7837 74 80 98
-7.05532 -3.81347 -1.77945 75 81 99
-7.11244 -3.81704 -1.7922 76 83 101
-8.17628 -2.40816 -1.80371 77 91 117
-8.19792 -2.37325 -1.80643 83 98 121
-8.20077 -2.34667 -1.80553 84 99 122
-8.62169 -1.65693 -1.79328 91 103 125
-8.97695 -1.16364 -1.79262 73 87 113
-9.01853 -1.14033 -1.80105 74 88 114
-9.29318 -0.542241 -1.77373 74 88 114
-9.40278 -0.532425 -1.79129 75 89 115
-9.39779 -0.507064 -1.7899 77 92 115
-3.33197 -8.09235 -1.64063 136 134 145
-3.70473 -7.63365 -1.6524 131 128 142
-3.72544 -7.61748 -1.65114 132 129 142
-4.02668 -7.12979 -1.64771 135 133 144
-4.04466 -7.11108 -1.64597 135 133 144
-4.50119 -6.61028 -1.66816 136 131 138
-4.52855 -6.60832 -1.67132 134 131 136
-5.73554 -5.5088 -1.75845 156 153 160
-5.74799 -5.4872 -1.75704 150 147 156
-5.75899 -5.46419 -1.75515 94 91 102
-5.78543 -5.43918 -1.75563 94 92 103
-5.80318 -5.42288 -1.7561 107 104 121
-5.8237 -5.40922 -1.75752 105 102 119
-7.10322 -3.78387 -1.78654 75 84 101
-7.11947 -3.76471 -1.78796 72 80 99
-7.13815 -3.73263 -1.78843 73 82 99
-7.15938 -3.71606 -1.79127 76 85 100
-7.17545 -3.69666 -1.79269 77 86 101
-7.19725 -3.66609 -1.79411 80 87 105
-8.20165 -2.31957 -1.80418 81 93 117
-8.20414 -2.27919 -1.80238 83 97 123
-8.605 -1.62598 -1.78849 77 90 112
-8.61307 -1.5999 -1.78936 75 90 113
-8.62107 -1.57376 -1.79024 77 89 115
-9.02104 -1.09771 -1.80063 74 88 114
-9.30575 -0.513769 -1.77617 75 90 113
-9.39154 -0.469139 -1.78804 76 88 112
-9.39217 -0.444195 -1.78805 78 90 113
-3.28596 -8.12057 -1.64265 138 136 150
-3.30662 -8.10007 -1.64022 137 135 148
-3.63837 -7.64256 -1.6482 133 131 145
-3.67433 -7.62838 -1.64861 132 130 143
-3.97475 -7.16421 -1.64902 136 134 147
-4.00006 -7.1595 -1.65076 135 133 146
-4.42664 -6.64999 -1.66635 134 133 139
-4.45399 -6.64836 -1.66951 136 133 140
-4.47191 -6.63186 -1.66861 132 129 138
-5.60229 -5.61425 -1.75324 131 126 132
-5.6219 -5.59999 -1.75419 147 142 149
-5.64149 -5.58566 -1.75514 144 139 146
-5.66848 -5.56125 -1.75561 141 139 143
-5.68387 -5.54259 -1.75514 147 143 149
-5.70331 -5.52803 -1.75609 154 149 160
-7.19766 -3.63847 -1.79128 75 84 101
-7.21005 -3.61711 -1.79176 73 81 99
-7.22237 -3.59571 -1.79223 80 86 105
-7.24547 -3.5657 -1.79412 67 75 94
-7.26285 -3.54678 -1.79601 77 87 105
-7.26454 -3.51999 -1.79366 75 86 102
-8.21044 -2.25366 -1.80238 80 92 114
-8.21289 -2.22709 -1.80148 82 94 116
-8.22279 -2.20252 -1.80239 77 91 115
-8.62373 -1.53275 -1.78937 73 87 114
-9.0178 -1.06877 -1.79937 81 96 119
-9.01642 -1.04008 -1.79853 79 91 113
-9.28969 -0.469034 -1.77253 77 89 113
-9.29811 -0.440282 -1.77415 80 92 116
-9.40047 -0.419686 -1.78995 80 92 116
-3.24773 -8.13281 -1.64225 135 135 147
-3.61594 -7.6549 -1.64862 138 136 147
-3.93561 -7.19598 -1.6512 135 133 145
-3.95212 -7.17404 -1.64858 137 135 147
-4.38833 -6.70238 -1.67177 132 129 140
-4.40968 -6.66801 -1.66771 135 133 142
-5.4896 -5.70544 -1.74993 126 119 127
-5.51714 -5.6818 -1.7504 123 118 125
-5.53294 -5.66359 -1.74993 120 113 121
-5.55135 -5.64817 -1.75041 118 111 119
-5.57996 -5.62562 -1.75135 138 130 140
-7.28383 -3.48799 -1.79461 80 89 104
-7.29926 -3.46802 -1.79602 81 88 104
-7.30763 -3.44459 -1.79556 79 86 102
-7.31957 -3.40898 -1.79462 79 88 103
-7.33829 -3.3905 -1.79698 77 86 101
-8.2266 -2.16264 -1.80104 84 94 113
-8.24007 -2.13898 -1.80285 129 135 151
-8.62002 -1.50449 -1.78763 75 89 116
-8.64116 -1.48065 -1.79156 76 90 116
-9.00717 -1.01055 -1.79601 74 87 113
-9.01296 -0.968404 -1.79643 78 92 118
-9.29865 -0.411106 -1.77415 79 92 116
-9.40931 -0.382621 -1.79185 82 94 117
-9.39804 -0.357057 -1.78905 83 96 117
-3.19744 -8.14947 -1.64185 136 134 147
-3.22227 -8.14026 -1.64185 131 131 143
-3.57098 -7.67936 -1.64946 136 134 147
-3.59819 -7.67791 -1.65156 137 135 148
-3.90239 -7.21311 -1.6512 135 133 146
-4.34577 -6.72488 -1.67087 133 131 140
-4.36298 -6.70704 -1.66951 129 125 136
-5.41498 -5.78423 -1.75134 127 120 128
-5.43504 -5.77066 -1.75228 127 120 128
-5.46549 -5.75018 -1.7537 127 120 128
-5.46972 -5.71921 -1.74898 124 118 127
-7.34992 -3.36862 -1.79746 80 89 106
-7.37028 -3.3508 -1.80029 80 92 108
-7.37295 -3.31087 -1.79699 74 83 100
-7.36667 -3.28078 -1.79275 78 85 103
-7.39035 -3.26439 -1.79653 78 86 105
-8.23459 -2.11043 -1.80014 130 131 149
-8.25118 -2.07384 -1.80195 121 127 143
-8.63953 -1.43891 -1.78982 80 92 116
-8.65471 -1.41391 -1.79244 80 92 116
-9.01127 -0.939759 -1.79559 66 82 107
-9.00947 -0.911131 -1.79476 73 89 114
-9.29771 -0.367252 -1.77375 80 92 114
-9.29018 -0.337765 -1.77213 75 90 112
-9.39443 -0.331912 -1.78812 73 88 111
-9.3985 -0.307114 -1.78908 75 89 115
-3.15651 -8.15389 -1.63982 135 135 147
-3.5348 -7.69303 -1.64904 136 134 147
-3.85941 -7.23746 -1.65164 136 134 147
-3.87962 -7.2227 -1.65076 133 131 144
-4.26015 -6.746 -1.66455 131 129 140
-4.28851 -6.74675 -1.66816 134 131 142
-4.31289 -6.74072 -1.66996 135 132 143
-5.30743 -5.86194 -1.74755 127 117 126
-5.33025 -5.8517 -1.74944 124 119 124
-5.35176 -5.83991 -1.75086 125 118 125
-5.37989 -5.81697 -1.75133 127 121 125
-5.39359 -5.79627 -1.74992 128 121 129
-7.41736 -3.23561 -1.79983 79 91 107
-7.42851 -3.21343 -1.80031 71 83 97
-7.42716 -3.18572 -1.79748 77 86 102
-8.26061 -2.04908 -1.80286 130 133 148
-8.26996 -2.02427 -1.80377 108 110 131
-8.64101 -1.38406 -1.78852 77 89 113
-8.66392 -1.3464 -1.79245 83 94 117
-9.01478 -0.868943 -1.79518 83 98 121
-8.98532 -0.849544 -1.78674 84 96 122
-9.29821 -0.30889 -1.77376 74 88 114
-9.39518 -0.269504 -1.78816 73 86 111
-3.13357 -8.16843 -1.64104 132 132 144
-3.48653 -7.70978 -1.6482 136 134 147
-3.51984 -7.72303 -1.65367 136 134 147
-3.8277 -7.25773 -1.65251 135 133 147
-4.23414 -6.77314 -1.6668 132 129 140
-5.24967 -5.9238 -1.74943 122 117 123
-5.26632 -5.9064 -1.74896 127 120 123
-5.28543 -5.8919 -1.74943 125 119 122
-7.44495 -3.15275 -1.79843 75 86 101
-7.46122 -3.13276 -1.80032 77 86 103
-7.47206 -3.11041 -1.8008 79 90 105
-7.47927 -3.08651 -1.80033 80 90 106
-8.2729 -1.98426 -1.80242 82 94 118
-8.29343 -1.96206 -1.80603 76 88 111
-8.27975 -1.93181 -1.80152 87 99 123
-8.6519 -1.31696 -1.78896 80 94 120
-8.66096 -1.29085 -1.79028 82 94 118
-8.99915 -0.839096 -1.79139 79 91 117
-8.99611 -0.814528 -1.78873 81 93 117
-8.97276 -0.788104 -1.78233 79 93 119
-9.29289 -0.264924 -1.77255 74 89 113
-9.38742 -0.244274 -1.7863 78 90 115
-9.39704 -0.219628 -1.78867 82 94 118
-3.45547 -7.73567 -1.65073 137 134 147
-3.78441 -7.28161 -1.65295 137 135 147
-3.8065 -7.27058 -1.65295 137 135 148
-4.16973 -6.8052 -1.66545 132 130 140
-4.19024 -6.79291 -1.66545 135 132 141
-4.21072 -6.78054 -1.66545 136 133 142
-5.1582 -5.9827 -1.74565 129 120 119
-5.17753 -5.96857 -1.74612 123 114 121
-5.19683 -5.95438 -1.7466 123 113 120
-5.21607 -5.94012 -1.74707 122 112 120
-7.50735 -3.05772 -1.80411 77 88 106
-7.52335 -3.03743 -1.806 75 86 104
-7.52852 -3.01263 -1.80506 84 93 110
-7.54192 -2.97762 -1.80506 75 86 104
-8.28306 -1.90558 -1.80108 80 92 116
-8.28921 -1.86642 -1.80063 77 88 115
-8.65067 -1.2618 -1.78723 80 92 117
-9.00577 -0.768702 -1.79182 69 84 109
-8.97244 -0.764079 -1.78185 67 83 108
-9.29677 -0.235864 -1.77336 80 92 117
-9.29275 -0.206579 -1.77255 81 93 117
-9.403 -0.182311 -1.7901 71 86 110
-3.41361 -7.76817 -1.65367 134 132 144
-3.43048 -7.74201 -1.64989 136 133 146
-3.72943 -7.31062 -1.65339 135 133 146
-3.7483 -7.29272 -1.65164 136 134 145
-4.11979 -6.83904 -1.66635 136 133 144
-4.14331 -6.83197 -1.66771 136 134 145
-5.09287 -6.0354 -1.74517 123 112 110
-5.11357 -6.02301 -1.74612 126 116 117
-5.12566 -5.99999 -1.74376 130 119 123
-7.55408 -2.95569 -1.80601 81 93 110
-7.55899 -2.93083 -1.80507 84 96 112
-7.57561 -2.89708 -1.80602 85 96 114
-8.28089 -1.83765 -1.79747 82 95 120
-8.32007 -1.81928 -1.8056 79 92 118
-8.66919 -1.22327 -1.79029 81 93 117
-8.66061 -1.19457 -1.78767 74 86 110
-9.00538 -0.740304 -1.7914 77 92 117
-8.98862 -0.729561 -1.78533 80 94 120
-9.00879 -0.712211 -1.79183 78 93 116
-8.98234 -0.704979 -1.78337 78 92 118
-8.9702 -0.679938 -1.77993 72 87 110
-9.39302 -0.157092 -1.78776 77 91 117
-9.40042 -0.132274 -1.78966 77 91 117
-3.37559 -7.77743 -1.65241 137 135 146
-3.68496 -7.33209 -1.65339 140 138 151
-3.70968 -7.3267 -1.65469 138 136 150
-4.10105 -6.8545 -1.66725 134 131 142
-5.02696 -6.08735 -1.74469 107 95 95
-5.04779 -6.0752 -1.74564 109 99 98
-5.06135 -6.05385 -1.74375 101 91 90
-7.57306 -2.86937 -1.80319 87 98 116
-7.6121 -2.85774 -1.81121 88 99 119
-7.5967 -2.82513 -1.80508 84 95 113
-7.61466 -2.79183 -1.8065 82 94 116
-8.32771 -1.78036 -1.80561 76 88 112
-8.31148 -1.75002 -1.80064 80 88 114
-8.65579 -1.16647 -1.78593 75 87 111
-8.66229 -1.1262 -1.78637 76 90 113
-9.00237 -0.683382 -1.79015 72 87 110
-8.97341 -0.656255 -1.78044 83 98 121
-9.40985 -0.0949316 -1.79204 84 96 118
-3.34833 -7.77805 -1.65031 136 134 146
-3.6487 -7.34268 -1.65208 136 134 147
-4.05258 -6.8912 -1.66906 137 134 145
-4.07051 -6.87418 -1.66771 132 130 143
-4.94071 -6.15192 -1.74374 121 110 104
-4.95696 -6.13391 -1.7428 125 112 106
-4.98504 -6.13125 -1.74658 130 119 115
-5.00003 -6.11158 -1.74516 118 108 107
-7.61355 -2.76482 -1.80415 85 96 116
-7.62692 -2.74321 -1.80557 71 82 100
-7.63721 -2.70704 -1.8051 74 86 108
-8.31803 -1.72449 -1.8011 85 92 118
-8.33096 -1.68672 -1.80246 76 88 111
-8.66884 -1.09966 -1.78725 76 91 114
-9.00469 -0.641021 -1.79015 78 92 117
-8.98909 -0.621527 -1.78391 83 95 121
-9.00584 -0.612772 -1.79016 84 96 122
-8.98052 -0.596897 -1.78146 76 89 116
-9.41123 -0.0699287 -1.79252 82 94 116
-9.39118 -0.0447247 -1.78784 80 92 114
-3.30673 -7.81175 -1.65368 136 134 147
-3.32757 -7.79493 -1.65199 135 133 144
-3.60402 -7.36364 -1.65208 137 135 148
-3.63118 -7.36386 -1.6547 137 135 148
-3.99074 -6.90359 -1.66455 136 133 144
-4.03363 -6.90646 -1.66996 138 135 144
-4.87706 -6.20679 -1.74468 129 119 110
-4.88652 -6.17963 -1.74091 127 118 109
-4.91226 -6.17419 -1.74374 126 117 108
-7.65772 -2.68795 -1.8084 80 95 116
-7.67452 -2.66744 -1.81077 87 99 123
-7.68942 -2.6462 -1.81266 82 94 118
-8.3373 -1.66112 -1.80291 75 87 111
-8.33593 -1.634 -1.80156 76 88 114
-8.66564 -1.07186 -1.78594 72 84 108
-8.68137 -1.03269 -1.78856 75 89 115
-9.0069 -0.584516 -1.79016 71 85 111
-8.98154 -0.573012 -1.78147 72 86 112
-9.40018 -0.0198079 -1.79021 75 87 113
-3.25944 -7.79677 -1.64695 136 134 147
-3.57081 -7.38095 -1.65252 136 134 147
-3.95357 -6.9354 -1.6668 135 134 141
-3.97541 -6.92552 -1.66725 133 130 139
-4.80017 -6.24367 -1.74043 129 118 111
-4.82713 -6.24018 -1.74373 129 119 110
-4.84719 -6.22719 -1.74421 125 115 106
-5.82545 -4.86679 -1.75444 100 100 112
-5.85465 -4.86135 -1.7594 90 89 103
-5.87646 -4.84956 -1.76187 87 86 100
-5.90882 -4.83107 -1.76534 97 95 109
-5.91862 -4.8092 -1.76386 95 97 112
-5.93285 -4.79099 -1.76386 102 101 117
-5.94853 -4.77395 -1.76436 104 102 116
-5.96857 -4.74525 -1.76387 102 100 114
-5.98563 -4.72929 -1.76486 100 98 112
-6.00264 -4.71327 -1.76585 102 100 114
-6.02239 -4.68432 -1.76536 100 98 112
-6.03317 -4.66338 -1.76437 102 100 114
-6.05458 -4.65073 -1.76685 100 99 113
-6.07249 -4.62036 -1.76587 98 97 111
-6.08919 -4.60399 -1.76686 99 96 113
-6.10124 -4.58404 -1.76637 98 95 112
-6.12247 -4.57105 -1.76884 99 96 113
-6.14462 -4.54387 -1.76934 100 97 114
-6.1518 -4.52029 -1.76737 98 95 112
-6.16823 -4.50361 -1.76836 98 97 111
-6.18695 -4.47389 -1.76787 100 99 113
-6.20483 -4.45821 -1.76935 98 97 113
-6.21637 -4.43791 -1.76886 101 99 113
-6.24265 -4.4136 -1.77085 99 97 111
-6.25407 -4.3932 -1.77035 100 98 112
-6.26698 -4.37388 -1.77036 101 98 115
-6.283 -4.35673 -1.77135 99 96 113
-6.3026 -4.32759 -1.77135 91 93 108
-6.32009 -4.3114 -1.77284 90 92 107
-6.32955 -4.28968 -1.77185 83 82 98
-6.35525 -4.26464 -1.77384 80 79 95
-6.36294 -4.24174 -1.77236 74 76 91
-6.3802 -4.22529 -1.77384 75 74 92
-6.38303 -4.18499 -1.7689 70 72 87
-6.41309 -4.17692 -1.77434 78 77 95
-6.4156 -4.15073 -1.77138 79 81 96
-6.42451 -4.12877 -1.77039 72 74 89
-6.44791 -4.10205 -1.77188 68 75 91
-6.46808 -4.08728 -1.77436 70 73 88
-6.48169 -4.06828 -1.77486 71 73 88
-6.49335 -4.03405 -1.77288 70 73 90
-7.68642 -2.60529 -1.80889 79 91 115
-7.69564 -2.58206 -1.80936 72 84 108
-7.68825 -2.55316 -1.80559 88 100 123
-8.33637 -1.60726 -1.80066 77 89 113
-8.36599 -1.57252 -1.80609 79 91 115
-8.67796 -1.00489 -1.78726 83 95 119
-8.67252 -0.976886 -1.78552 77 89 113
-9.01655 -0.542573 -1.79185 77 91 114
-8.98912 -0.537566 -1.78297 78 90 114
-8.98028 -0.513034 -1.78052 76 88 111
-3.21826 -7.83178 -1.65074 137 135 148
-3.23785 -7.81157 -1.64821 135 135 147
-3.52589 -7.4014 -1.65252 136 134 147
-3.55072 -7.39657 -1.65383 136 134 147
-3.89797 -6.95892 -1.66545 137 134 145
-3.92986 -6.94177 -1.66545 138 137 145
-4.75566 -6.28431 -1.74184 128 119 114
-4.79031 -6.27068 -1.7442 130 120 113
-5.68105 -5.06229 -1.75838 94 93 107
-5.69607 -5.04486 -1.75838 94 92 106
-5.71602 -5.01604 -1.7574 99 97 111
-5.73526 -5.00235 -1.75888 104 102 115
-5.7559 -4.98985 -1.76087 102 99 113
-5.74492 -4.93406 -1.74948 93 89 106
-5.7888 -4.94177 -1.75939 93 91 106
-5.78437 -4.90756 -1.75295 100 99 113
-5.81949 -4.90741 -1.75989 96 95 109
-6.51993 -4.02312 -1.77734 70 76 90
-6.52181 -3.99682 -1.77437 71 77 93
-6.54503 -3.98368 -1.77784 69 75 91
-6.56782 -3.95625 -1.77933 68 75 91
-6.57772 -3.93489 -1.77884 71 77 93
-6.58919 -3.91449 -1.77884 72 75 94
-6.60502 -3.88284 -1.77835 72 78 94
-6.61635 -3.86235 -1.77835 72 78 94
-6.62927 -3.8428 -1.77885 72 79 95
-7.71053 -2.52105 -1.80843 83 95 119
-7.7287 -2.50077 -1.81126 82 94 118
-8.35475 -1.54361 -1.80248 80 92 116
-8.35298 -1.51651 -1.80113 77 89 113
-8.6844 -0.950899 -1.7877 79 93 117
-9.00178 -0.51343 -1.78848 76 88 112
-8.98684 -0.489494 -1.78202 73 85 108
-8.99864 -0.484982 -1.78764 72 85 110
-8.99016 -0.453732 -1.78253 79 93 119
-3.1753 -7.82724 -1.64653 139 137 150
-3.50493 -7.4151 -1.65339 134 132 143
-3.85407 -6.97808 -1.66455 132 131 140
-3.87784 -6.97199 -1.6659 134 131 141
-4.68486 -6.32918 -1.74042 118 108 110
-4.7174 -6.31278 -1.74184 120 108 109
-4.73655 -6.29858 -1.74184 124 115 110
-5.53281 -5.20752 -1.7549 98 97 111
-5.55249 -5.19458 -1.75638 101 99 113
-5.56934 -5.17891 -1.75688 100 99 113
-5.57022 -5.13211 -1.74896 101 100 114
-5.60386 -5.13219 -1.7554 102 99 114
-5.61628 -5.11238 -1.75441 102 100 114
-5.64142 -5.10434 -1.75788 100 99 113
-5.66453 -5.07837 -1.75788 101 100 114
-6.66152 -3.82063 -1.78331 72 81 97
-6.67433 -3.80091 -1.78381 71 80 95
-6.67696 -3.77542 -1.78133 70 79 94
-6.69638 -3.75944 -1.78381 72 80 97
-6.69288 -3.71694 -1.77787 73 82 97
-6.71721 -3.70365 -1.78184 69 76 92
-6.72457 -3.68092 -1.78085 79 87 102
-7.74683 -2.48041 -1.8141 78 90 114
-7.75217 -2.44252 -1.81268 92 104 126
-7.75349 -2.41666 -1.81127 88 102 126
-8.36112 -1.47774 -1.80158 71 83 109
-8.35915 -1.45065 -1.80023 84 96 120
-8.66861 -0.908101 -1.78334 76 91 114
-8.66673 -0.880616 -1.78247 77 89 113
-9.00198 -0.442705 -1.78807 82 96 122
-8.97525 -0.428983 -1.7786 85 100 123
-8.99315 -0.405968 -1.78306 75 90 113
-3.15559 -7.84728 -1.64906 137 135 148
-3.44431 -7.43109 -1.65121 133 133 145
-3.46917 -7.42655 -1.65252 129 127 140
-3.82556 -7.00179 -1.66635 136 135 143
-4.65408 -6.36839 -1.74372 110 102 107
-4.66785 -6.34641 -1.74136 120 110 111
-5.41804 -5.32057 -1.7534 105 102 116
-5.44075 -5.31083 -1.75587 104 102 115
-5.45381 -5.29146 -1.75489 105 103 116
-5.47504 -5.26371 -1.7539 102 100 114
-5.49208 -5.2483 -1.7544 101 100 114
-5.51187 -5.23553 -1.75588 101 101 113
-6.75459 -3.65697 -1.78482 73 80 98
-6.76178 -3.63415 -1.78383 67 74 92
-6.77743 -3.61588 -1.78532 66 75 90
-6.79867 -3.58698 -1.78681 76 84 103
-6.81076 -3.56675 -1.7873 72 80 99
-6.81936 -3.54468 -1.78681 78 85 103
-6.82618 -3.52171 -1.78583 76 83 101
-7.75843 -2.39199 -1.8108 86 98 122
-7.76145 -2.36673 -1.80986 70 81 101
-7.74767 -2.32313 -1.80373 83 96 118
-8.36476 -1.42488 -1.80069 79 90 112
-8.36645 -1.39845 -1.80024 84 92 113
-8.66477 -0.853143 -1.7816 77 89 113
-8.99079 -0.413945 -1.78554 74 89 112
-8.99514 -0.385878 -1.78639 77 92 115
-8.98583 -0.381665 -1.7811 78 93 116
-3.10918 -7.86885 -1.6499 136 134 148
-3.13442 -7.8636 -1.65074 135 133 147
-3.42246 -7.44274 -1.65165 136 136 148
-3.78756 -7.03264 -1.66861 134 131 140
-3.81321 -7.03027 -1.67087 134 131 140
-4.57702 -6.40399 -1.73994 94 87 105
-4.60738 -6.40633 -1.74466 89 82 97
-4.62023 -6.38285 -1.74183 94 91 95
-5.3171 -5.41467 -1.7519 98 95 109
-5.34709 -5.39585 -1.75388 108 106 119
-5.34017 -5.35598 -1.74547 102 100 114
-5.37375 -5.35761 -1.75191 100 98 113
-5.40216 -5.33708 -1.75339 108 105 117
-6.84528 -3.49161 -1.78682 77 86 103
-6.83983 -3.46245 -1.78237 77 86 103
-6.86712 -3.44987 -1.78732 83 92 109
-6.88763 -3.4204 -1.78881 78 85 103
-6.90097 -3.40068 -1.7898 76 85 102
-7.77088 -2.30414 -1.80798 87 99 122
-7.76617 -2.27664 -1.80515 90 101 123
-8.3779 -1.36019 -1.8016 72 83 105
-8.67177 -0.81291 -1.78248 78 90 112
-8.6754 -0.785996 -1.78292 74 89 112
-9.00721 -0.358072 -1.78892 74 89 112
-8.98091 -0.345536 -1.77964 79 94 117
-8.98694 -0.321853 -1.78113 76 91 114
-3.06895 -7.87104 -1.64738 137 135 146
-3.3654 -7.46706 -1.65165 137 135 148
-3.38958 -7.46099 -1.65252 135 133 146
-3.73739 -7.06696 -1.67042 135 132 141
-3.7724 -7.05582 -1.67177 136 133 143
-4.52786 -6.43808 -1.73994 128 123 128
-4.56513 -6.42898 -1.74324 98 95 106
-5.2218 -5.49734 -1.74991 146 143 151
-5.23819 -5.48142 -1.74991 151 148 158
-5.26248 -5.4739 -1.75288 140 137 148
-5.28869 -5.4512 -1.75338 92 88 103
-5.30092 -5.43086 -1.7519 100 96 111
-6.89166 -3.36984 -1.78436 80 89 106
-6.93098 -3.34945 -1.79129 72 81 98
-6.92142 -3.31867 -1.78585 83 92 109
-6.94496 -3.30378 -1.78982 86 95 112
-6.95095 -3.2805 -1.78883 85 97 113
-7.79283 -2.24538 -1.80941 79 90 112
-7.80094 -2.2217 -1.80988 80 94 115
-7.79221 -2.19315 -1.80611 79 96 116
-8.37938 -1.33373 -1.80115 77 89 111
-8.38464 -1.30786 -1.80161 82 94 118
-8.67312 -0.758533 -1.78205 80 92 116
-8.99627 -0.315272 -1.7864 77 92 115
-8.98903 -0.297993 -1.78164 78 92 115
-3.04827 -7.88895 -1.64948 136 136 148
-3.34487 -7.48208 -1.65296 135 133 146
-3.68609 -7.07103 -1.66591 135 130 141
-3.71172 -7.06904 -1.66816 136 132 140
-4.48013 -6.45205 -1.73616 126 119 126
-4.50185 -6.44186 -1.73711 125 116 121
-5.13793 -5.55827 -1.74644 152 147 153
-5.17274 -5.56267 -1.75337 149 143 152
-5.1815 -5.53834 -1.7504 147 141 150
-5.20666 -5.51463 -1.7504 146 143 152
-6.96195 -3.24638 -1.78784 77 87 105
-6.98533 -3.23119 -1.79181 72 82 99
-6.98404 -3.20459 -1.78884 76 85 102
-6.9982 -3.17194 -1.78884 83 92 109
-7.79611 -2.15522 -1.8047 106 116 136
-7.81516 -2.13465 -1.808 133 139 158
-8.38026 -1.26714 -1.79935 72 83 105
-8.68048 -0.731936 -1.78337 80 92 116
-8.66554 -0.689782 -1.77944 70 86 112
-8.99054 -0.286853 -1.78514 76 88 112
-8.98953 -0.26208 -1.78167 78 90 112
-8.98177 -0.23792 -1.77971 80 92 114
-3.02171 -7.89021 -1.6478 136 135 149
-3.30959 -7.49454 -1.65253 135 135 147
-3.66118 -7.10278 -1.66997 135 133 144
-4.40667 -6.49201 -1.73427 134 130 142
-4.42848 -6.48208 -1.73522 136 130 142
-4.44711 -6.46718 -1.73475 135 129 138
-5.04835 -5.62986 -1.74445 122 115 123
-5.08291 -5.61696 -1.74792 131 124 132
-5.09712 -5.5986 -1.74693 145 138 146
-5.11899 -5.58885 -1.74891 153 148 155
-7.00729 -3.15014 -1.78885 74 83 98
-7.00216 -3.122 -1.78489 82 91 108
-7.03763 -3.11191 -1.79232 78 89 107
-7.01943 -3.06506 -1.78341 74 86 102
-7.79675 -2.10362 -1.80187 127 129 146
-7.82502 -2.08551 -1.80754 126 128 147
-8.40458 -1.24405 -1.80433 78 90 112
-8.38641 -1.21478 -1.79936 73 87 111
-8.66879 -0.662851 -1.77988 72 86 112
-8.96617 -0.213618 -1.77578 83 95 118
-3.26396 -7.5133 -1.65253 135 135 147
-3.28535 -7.50033 -1.65166 135 137 149
-3.61566 -7.11858 -1.66862 140 137 146
-3.63801 -7.10984 -1.66907 138 137 145
-4.35058 -6.51484 -1.73144 140 134 144
-4.36933 -6.50018 -1.73097 136 130 142
-4.99637 -5.67413 -1.74395 125 122 131
-5.01458 -5.66041 -1.74445 126 119 128
-5.03657 -5.65101 -1.74643 123 116 124
-7.04932 -3.0266 -1.78688 77 86 101
-7.04483 -2.98607 -1.78194 76 88 104
-7.81901 -2.04498 -1.80377 139 143 155
-7.82089 -2.01967 -1.80283 86 87 107
-7.83769 -1.99829 -1.80566 74 80 106
-8.3893 -1.17521 -1.79891 74 89 112
-8.3844 -1.14796 -1.79711 70 84 110
-8.66226 -0.635151 -1.77814 78 93 116
-9.00847 -0.216639 -1.78894 83 95 119
-8.99266 -0.188065 -1.78557 80 95 118
-8.99142 -0.178301 -1.78221 77 92 115
-8.98339 -0.154214 -1.78025 81 97 122
-3.2411 -7.52257 -1.65253 134 132 146
-3.58706 -7.14302 -1.67087 137 134 146
-4.31192 -6.54234 -1.73191 133 131 141
-4.33693 -6.5377 -1.73427 138 135 144
-4.91628 -5.75666 -1.74642 119 116 126
-4.94124 -5.73277 -1.74592 121 115 127
-4.95337 -5.71185 -1.74394 120 114 126
-4.97045 -5.69681 -1.74395 121 118 127
-7.09392 -2.95547 -1.79085 80 88 107
-7.11228 -2.92446 -1.79234 78 89 107
-7.13134 -2.90664 -1.79532 82 93 111
-7.84815 -1.9622 -1.80614 81 93 115
-7.84788 -1.93636 -1.80472 84 96 119
-8.3968 -1.12303 -1.79937 74 86 110
-8.40141 -1.09703 -1.79983 76 90 116
-8.67016 -0.594947 -1.77945 80 92 114
-8.68283 -0.568638 -1.78207 80 94 119
-9.01194 -0.160106 -1.78979 78 93 119
-8.98689 -0.130328 -1.78126 79 94 115
-8.96902 -0.106198 -1.77683 76 91 113
-3.20704 -7.53815 -1.65297 135 133 147
-3.54218 -7.16008 -1.66997 137 135 147
-3.5638 -7.14982 -1.66997 139 135 148
-4.22959 -6.56698 -1.72625 128 125 136
-4.25559 -6.56432 -1.72908 130 127 134
-4.27553 -6.55161 -1.72908 136 133 141
-4.85826 -5.79359 -1.74394 114 108 119
-4.87558 -5.77886 -1.74394 114 110 118
-4.89532 -5.76705 -1.74493 116 113 123
-5.78092 -4.59457 -1.76442 99 98 112
-5.80464 -4.57041 -1.76545 99 98 114
-5.81662 -4.5514 -1.76494 100 97 114
-5.82704 -4.53115 -1.76392 98 97 113
-5.85504 -4.51033 -1.76648 100 96 113
-5.87136 -4.49476 -1.76751 101 97 112
-5.8831 -4.47555 -1.767 100 98 112
-5.90784 -4.452 -1.76854 101 98 115
-5.924 -4.43623 -1.76957 101 98 115
-5.92942 -4.41216 -1.76701 100 97 114
-5.95161 -4.40097 -1.77008 100 98 112
-5.96988 -4.37237 -1.76957 98 96 110
-5.99511 -4.36329 -1.77367 88 86 100
-6.00175 -4.34025 -1.77163 90 87 104
-6.01506 -4.30798 -1.76958 99 97 111
-6.03084 -4.29177 -1.77061 84 86 99
-6.04969 -4.27777 -1.77266 97 99 112
-6.06538 -4.26143 -1.77369 105 103 116
-6.07826 -4.22893 -1.77164 97 95 108
-6.10169 -4.21806 -1.77523 87 85 96
-6.09672 -4.18703 -1.7696 94 94 106
-6.11554 -4.15887 -1.7696 78 77 93
-6.13089 -4.14224 -1.77063 77 80 95
-6.15097 -4.12885 -1.77319 78 81 96
-6.1727 -4.1026 -1.77422 77 78 96
-6.18471 -4.08358 -1.77422 67 68 88
-6.20626 -4.071 -1.7773 71 72 92
-6.21177 -4.04758 -1.77525 72 71 89
-7.14239 -2.85995 -1.79384 82 91 109
