-4.91185 5.18342 -1.85558 93 96 111
-4.88263 5.17802 -1.84895 92 95 110
-4.63309 5.63921 -1.85939 92 95 112
-4.60364 5.65227 -1.85822 92 96 111
-4.26521 6.2168 -1.86594 93 95 110
-4.25074 6.23848 -1.86985 94 97 112
-4.06236 6.54297 -1.87195 92 96 110
-3.85983 6.88648 -1.87624 91 93 108
-3.8374 6.89495 -1.87622 93 92 108
-3.65166 7.28062 -1.89391 91 95 107
-3.44296 7.65869 -1.90076 93 92 106
-3.41975 7.67155 -1.90224 90 92 105
-3.17686 8.17102 -1.91934 91 95 106
-7.84187 0.64501 -1.82425 83 94 109
-7.53926 1.05517 -1.82166 88 95 113
-7.53322 1.07431 -1.82107 80 87 106
-7.28593 1.39608 -1.81341 86 89 106
-7.30287 1.41988 -1.82082 86 89 104
-7.31971 1.44381 -1.82823 70 66 80
-6.85297 1.94736 -1.80317 96 98 110
-6.85319 1.96736 -1.80572 87 86 100
-6.83956 1.99222 -1.80446 79 81 96
-6.83251 2.00962 -1.80446 74 79 96
-6.83784 2.03162 -1.80891 84 87 102
-6.62356 2.35299 -1.81423 130 116 101
-6.62371 2.38326 -1.81876 82 79 85
-6.60161 2.39365 -1.8136 82 85 96
-6.57433 2.4016 -1.80649 83 85 100
-6.56576 2.46865 -1.81426 139 136 146
-6.57086 2.49151 -1.81943 127 122 129
-5.86922 3.62204 -1.83435 78 76 97
-5.85851 3.63759 -1.835 84 81 100
-5.83609 3.65556 -1.83306 79 81 96
-5.82525 3.67102 -1.8337 75 77 92
-5.80997 3.6829 -1.83241 86 87 105
-5.7991 3.71015 -1.83564 77 79 94
-5.78808 3.72552 -1.83628 87 89 104
-5.77119 3.73604 -1.83434 95 97 112
-5.72273 3.75662 -1.82658 88 90 105
-5.51302 4.17467 -1.84014 94 97 112
-5.4832 4.18553 -1.83569 96 97 115
-5.46932 4.19889 -1.83568 95 96 114
-5.45673 4.21356 -1.83631 95 96 114
-5.16397 4.78664 -1.85431 93 92 110
-5.14564 4.79606 -1.85307 90 93 110
-5.12573 4.81888 -1.85492 87 95 108
-4.86507 5.20632 -1.85316 95 97 112
-4.85119 5.22255 -1.85495 95 97 112
-4.58603 5.6647 -1.85879 95 98 113
-4.57138 5.68199 -1.8611 96 95 113
-4.22785 6.24287 -1.86816 95 99 111
-4.04325 6.55726 -1.87357 92 95 110
-4.02563 6.57502 -1.87629 93 95 110
-3.8163 6.90694 -1.87727 95 97 112
-3.6292 7.29214 -1.89492 91 94 107
-3.3735 7.65082 -1.89378 94 96 108
-3.13819 8.18452 -1.92027 91 95 106
-7.85505 0.604937 -1.82655 86 93 109
-7.85421 0.625518 -1.82714 89 98 113
-7.54145 1.00517 -1.81924 86 95 110
-7.55462 1.03761 -1.82526 79 86 102
-7.32564 1.33585 -1.82079 82 88 102
-7.31133 1.35247 -1.81771 80 86 101
-7.31548 1.37323 -1.8208 76 83 99
-6.89962 1.89418 -1.81141 87 86 99
-6.86662 1.91243 -1.80316 82 82 94
-6.87234 1.93431 -1.80761 92 92 103
-6.66812 2.19192 -1.80451 73 68 78
-6.67182 2.24311 -1.81292 130 113 89
-6.67441 2.26423 -1.8168 129 109 85
-6.6682 2.28171 -1.81745 130 106 84
-6.65498 2.29621 -1.81551 138 118 93
-6.65026 2.32423 -1.81811 141 113 91
-6.63866 2.33939 -1.81682 138 110 89
-5.75711 3.76079 -1.83628 82 84 97
-5.74625 3.80102 -1.84274 96 98 113
-5.7306 3.81259 -1.84144 82 84 99
-5.67303 3.80033 -1.82399 80 81 99
-5.68748 3.83756 -1.83627 85 84 100
-5.43349 4.23078 -1.83504 94 96 111
-5.42346 4.24805 -1.83694 94 97 112
-5.40806 4.25989 -1.8363 94 97 112
-5.3913 4.27031 -1.83503 94 97 112
-5.10614 4.82668 -1.85306 88 96 109
-5.09129 4.84033 -1.85367 91 97 111
-4.83723 5.23876 -1.85675 93 96 113
-4.81564 5.24395 -1.85434 94 97 114
-4.55268 5.69269 -1.86109 96 95 112
-4.52302 5.70536 -1.85992 95 96 111
-4.19927 6.26056 -1.86927 96 99 113
-4.17716 6.26651 -1.86814 98 101 116
-3.98841 6.57599 -1.87246 94 94 110
-3.78566 6.92663 -1.87938 92 95 110
-3.60482 7.29812 -1.8944 92 96 108
-3.3578 7.68948 -1.90221 94 98 110
-3.11289 8.19658 -1.92167 91 95 107
-7.86317 0.554053 -1.8271 83 90 109
-7.87108 0.585675 -1.8306 84 90 108
-7.54927 0.966183 -1.81922 76 83 102
-7.55103 0.986607 -1.82103 89 97 115
-7.31829 1.26525 -1.81275 86 90 107
-7.30974 1.28313 -1.81152 81 88 104
-7.32156 1.30537 -1.81708 85 91 107
-6.91268 1.80954 -1.80567 152 128 106
-6.90979 1.82834 -1.80695 149 131 120
-6.90273 1.87536 -1.81014 86 85 98
-6.70353 2.11712 -1.80514 85 88 103
-6.70485 2.1374 -1.80837 82 85 101
-6.69028 2.15143 -1.80579 82 85 100
-6.69681 2.18366 -1.81226 82 84 101
-6.68138 2.21725 -1.81227 117 102 97
-5.67745 3.85388 -1.83756 88 91 106
-5.64992 3.8671 -1.83368 83 85 100
-5.64121 3.88457 -1.83561 93 92 108
-5.62535 3.89576 -1.83432 90 92 105
-5.6146 3.92379 -1.8382 95 97 110
-5.5818 3.91969 -1.82914 95 97 110
-5.37048 4.28993 -1.83502 94 95 113
-5.35103 4.29748 -1.83248 94 95 113
-5.34853 4.32281 -1.83819 93 94 112
-5.32357 4.3381 -1.83628 94 97 112
-5.06756 4.8585 -1.85366 89 95 109
-5.05618 4.87651 -1.85612 90 91 109
-5.03645 4.88405 -1.85427 92 95 110
-4.79013 5.26104 -1.85433 93 96 113
-4.77813 5.28024 -1.85733 92 95 112
-4.50914 5.72414 -1.86282 94 96 111
-4.48449 5.72476 -1.85932 93 96 111
-4.16074 6.28453 -1.87092 95 98 113
-3.96686 6.58478 -1.87245 91 93 108
-3.75905 6.92406 -1.87618 92 96 108
-3.73715 6.93403 -1.8767 92 96 108
-3.56771 7.30421 -1.89284 91 95 107
-3.32324 7.66306 -1.89325 92 96 108
-3.08287 8.18966 -1.91834 91 95 107
-7.87005 0.513327 -1.82767 80 89 106
-7.87141 0.534071 -1.82884 83 90 109
-7.56393 0.91825 -1.821 78 83 103
-7.5602 0.937791 -1.82101 83 86 108
-7.33059 1.19907 -1.81149 81 87 103
-7.34457 1.22151 -1.81766 81 89 104
-7.33978 1.25001 -1.81829 90 95 112
-6.94254 1.73063 -1.80628 143 122 103
-6.92909 1.74605 -1.80375 145 124 104
-6.93907 1.76889 -1.80947 149 126 105
-6.92451 1.79366 -1.80757 148 129 104
-6.75004 1.99751 -1.80382 77 79 97
-6.74321 2.04382 -1.80771 83 86 103
-6.72358 2.05608 -1.80319 80 83 99
-6.71983 2.07431 -1.80448 84 85 104
-6.73894 2.10136 -1.81418 79 82 101
-5.57986 3.94337 -1.83431 94 93 107
-5.55548 3.94669 -1.82913 83 82 96
-5.55412 3.98348 -1.83754 76 75 91
-5.52278 3.98022 -1.82913 75 74 90
-5.31826 4.36066 -1.84072 94 97 112
-5.2948 4.36383 -1.83627 94 97 112
-5.27353 4.38301 -1.83627 93 96 111
-5.01906 4.89451 -1.85364 92 95 110
-4.99626 4.91386 -1.85425 91 96 111
-4.75648 5.28521 -1.85491 93 99 115
-4.73183 5.30361 -1.85551 90 96 110
-4.45857 5.74371 -1.86048 93 94 112
-4.13777 6.28862 -1.86923 95 98 110
-4.10572 6.29896 -1.8681 96 99 112
-3.94379 6.58997 -1.87134 94 96 111
-3.54636 7.31915 -1.89488 92 96 108
-3.52009 7.31938 -1.89281 92 94 106
-3.04406 8.20275 -1.91927 91 93 105
-7.87705 0.482924 -1.82881 78 90 106
-7.57308 0.879411 -1.82159 82 91 108
-7.56572 0.898417 -1.82039 85 92 110
-7.34071 1.18145 -1.81333 88 94 110
-6.95808 1.66692 -1.80436 84 81 93
-6.94661 1.68301 -1.80246 115 104 103
-6.9433 1.71124 -1.80437 138 120 106
-6.79012 1.94368 -1.80962 87 90 102
-6.77251 1.95694 -1.80574 83 85 98
-6.77842 1.98825 -1.81157 83 84 102
-6.77131 2.02493 -1.81416 84 86 103
-6.25501 2.65516 -1.79799 82 81 99
-6.11484 2.98017 -1.81654 78 81 96
-6.10158 3.00379 -1.8172 85 89 101
-6.01104 3.0854 -1.80728 77 81 93
-5.99727 3.10859 -1.80795 81 83 98
-5.98828 3.12437 -1.80861 81 84 99
-5.9529 3.17675 -1.80927 71 73 86
-5.94986 3.19673 -1.81258 84 86 101
-5.9232 3.21102 -1.80795 82 81 99
-5.53156 4.01419 -1.83947 84 83 101
-5.51319 4.03553 -1.84011 95 97 110
-5.47362 4.02414 -1.82783 88 90 103
-5.48614 4.06212 -1.8401 95 94 108
-5.46072 4.07672 -1.83752 93 92 108
-5.26287 4.39994 -1.83817 94 96 111
-5.2534 4.41824 -1.84071 92 95 110
-5.22555 4.43021 -1.83753 92 96 113
-4.98458 4.93172 -1.85672 89 95 109
-4.96359 4.93749 -1.85424 91 97 111
-4.93827 4.95356 -1.85362 89 96 112
-4.71961 5.3227 -1.85851 92 98 112
-4.6979 5.32745 -1.85609 91 99 112
-4.4416 5.75738 -1.86163 92 95 112
-4.41887 5.76106 -1.8593 95 98 113
-4.08911 6.31681 -1.87089 93 98 110
-3.91999 6.62242 -1.87732 93 96 111
-3.89462 6.62213 -1.87459 92 96 108
-3.70563 6.95157 -1.87828 90 93 108
-3.68299 6.95957 -1.87826 92 95 110
-3.49686 7.32869 -1.89331 92 96 108
-3.29521 7.70508 -1.90168 92 96 108
-3.26188 7.68212 -1.89372 95 94 108
-3.01729 8.20885 -1.91926 93 97 108
-7.87396 0.441494 -1.82647 83 91 110
-7.8927 0.463354 -1.83286 86 94 113
-7.58897 0.831497 -1.82397 85 93 108
-7.56477 0.848183 -1.81737 80 87 105
-7.35768 1.11614 -1.81392 84 89 107
-7.372 1.13839 -1.82009 79 86 103
-7.36756 1.15722 -1.8201 80 87 104
-6.96889 1.62144 -1.80307 89 88 106
-6.96952 1.65078 -1.80626 82 85 98
-6.82028 1.86662 -1.8096 85 86 100
-6.81179 1.88317 -1.80895 80 79 94
-6.81755 1.9046 -1.81348 84 84 94
-6.8095 1.93095 -1.81414 89 92 102
-6.34572 2.54066 -1.80591 133 129 136
-6.34195 2.55901 -1.8079 134 132 140
-6.32742 2.58174 -1.80724 144 142 154
-6.32018 2.59832 -1.80791 67 67 84
-6.31287 2.61489 -1.80857 73 76 93
-6.29065 2.65399 -1.80857 85 84 102
-6.27893 2.68877 -1.81122 79 82 97
-6.26215 2.71027 -1.8099 81 84 97
-6.25776 2.72854 -1.81189 77 80 93
-6.25333 2.74681 -1.81388 80 83 98
-6.22646 2.76258 -1.80859 77 80 95
-6.23169 2.78642 -1.81454 78 81 96
-6.23194 2.80749 -1.81851 78 81 96
-6.20324 2.82207 -1.81256 79 82 97
-6.20332 2.84314 -1.81653 79 80 96
-6.19035 2.85656 -1.81521 82 82 98
-6.18544 2.87476 -1.81719 79 78 94
-6.17108 2.89768 -1.8172 77 80 95
-6.16119 2.91293 -1.8172 80 81 97
-6.15284 2.92913 -1.81786 82 81 99
-6.15426 2.96181 -1.82448 78 79 97
-6.12656 2.96606 -1.8172 79 80 98
-6.09453 3.02085 -1.81853 78 79 94
-6.09375 3.04198 -1.8225 78 79 94
-6.07706 3.05291 -1.81985 81 83 98
-6.06188 3.07535 -1.81985 81 83 96
-6.05772 3.09442 -1.8225 82 86 97
-6.00575 3.15811 -1.82051 82 82 96
-5.98852 3.17917 -1.81986 82 84 98
-5.92617 3.23531 -1.8139 82 81 99
-5.91367 3.24874 -1.81324 84 86 99
-5.90114 3.26212 -1.81257 81 83 98
-5.88496 3.28378 -1.81258 79 80 98
-5.88909 3.30926 -1.81919 71 74 89
-5.86422 3.31365 -1.81323 72 74 89
-5.86751 3.3497 -1.82184 90 94 106
-5.8403 3.37497 -1.81985 84 86 100
-5.8221 3.39522 -1.81919 79 78 94
-5.78568 3.41329 -1.81323 83 85 101
-5.44709 4.08988 -1.83751 92 94 109
-5.43748 4.10695 -1.83945 97 100 115
-5.41999 4.12922 -1.84074 94 97 112
-5.39813 4.13428 -1.83686 91 93 108
-5.21721 4.44985 -1.8407 91 92 112
-5.20124 4.461 -1.84006 90 96 110
-5.18149 4.46784 -1.83751 93 99 113
-5.16223 4.48936 -1.83878 86 89 106
-4.92069 4.96371 -1.85299 86 98 110
-4.90991 4.98293 -1.85607 89 96 112
-4.67614 5.35039 -1.85849 91 97 111
-4.65749 5.35977 -1.85788 92 97 112
-4.39746 5.78805 -1.86335 94 99 111
-4.0653 6.3189 -1.86864 95 97 112
-3.87439 6.63419 -1.87567 91 96 109
-3.66225 6.97294 -1.87984 91 93 108
-3.46265 7.34344 -1.89432 94 98 111
-3.24463 7.71684 -1.90115 93 91 105
-2.99271 8.22435 -1.92161 94 96 109
-7.89016 0.411608 -1.83051 83 91 110
-7.59423 0.812128 -1.82456 86 93 109
-7.37727 1.07078 -1.81698 88 95 113
-7.38613 1.09195 -1.82131 75 82 100
-7.01242 1.56575 -1.81131 125 125 133
-6.98781 1.58793 -1.8056 110 113 124
-6.85187 1.80934 -1.81281 150 126 103
-6.83996 1.82482 -1.81088 155 135 116
-6.84306 1.85483 -1.81541 72 69 72
-6.40818 2.36169 -1.79596 84 82 92
-6.40984 2.39207 -1.80126 84 84 101
-6.38963 2.40229 -1.79663 80 81 99
-6.41011 2.43215 -1.80788 66 68 83
-6.40798 2.46103 -1.81186 140 138 145
-6.3723 2.48364 -1.80458 127 122 128
-6.37043 2.50285 -1.80723 132 127 132
-6.3511 2.52317 -1.80459 130 128 134
-5.86374 3.36967 -1.82514 85 87 100
-5.81814 3.41514 -1.82249 71 73 86
-5.77863 3.43085 -1.81521 86 89 104
-5.77802 3.46469 -1.82249 84 88 100
-5.753 3.46831 -1.81653 83 86 102
-5.75019 3.48932 -1.8205 74 76 90
-5.73589 3.51265 -1.82183 74 75 93
-5.70936 3.51482 -1.81521 69 73 91
-5.71073 3.53934 -1.82116 72 77 96
-5.66816 3.56322 -1.8152 77 78 93
-5.38566 4.14859 -1.8375 95 94 110
-5.37315 4.16286 -1.83814 92 94 109
-5.35136 4.18085 -1.83749 90 89 107
-5.15237 4.50748 -1.84131 89 90 108
-5.13253 4.51412 -1.83876 92 95 112
-4.881 4.99417 -1.8536 92 95 110
-4.86781 5.01026 -1.85544 92 95 110
-4.85007 5.02018 -1.85482 89 94 110
-4.63778 5.36748 -1.85667 93 94 112
-4.62423 5.38477 -1.85907 92 95 112
-4.38032 5.80156 -1.8645 91 97 111
-4.35565 5.80166 -1.86101 93 96 111
-4.03393 6.33064 -1.86807 92 93 111
-4.01558 6.34481 -1.86973 93 96 113
-3.84077 6.64327 -1.87456 92 96 108
-3.63309 6.96267 -1.87453 93 92 106
-3.4399 7.35441 -1.89533 92 96 108
-3.20088 7.70258 -1.89468 91 93 106
-2.95109 8.22565 -1.91969 92 94 107
-7.88285 0.349424 -1.82642 89 97 114
-7.89044 0.370398 -1.82933 85 94 111
-7.89033 0.390997 -1.82992 84 93 110
-7.61717 0.764938 -1.82935 80 86 105
-7.59692 0.782429 -1.82395 87 92 111
-7.38927 1.03371 -1.8182 81 88 104
-7.38142 1.05194 -1.81698 82 89 107
-7.01461 1.50801 -1.80621 143 141 146
-7.0182 1.5284 -1.80939 136 133 140
-7.00711 1.54481 -1.80749 131 130 136
-6.86481 1.746 -1.80956 140 120 98
-6.8675 1.76614 -1.8128 148 125 102
-6.86192 1.79323 -1.8141 151 126 102
-6.48259 2.21877 -1.79726 144 122 102
-6.48583 2.26909 -1.80587 144 122 99
-6.48477 2.28835 -1.80852 148 124 101
-6.45961 2.29672 -1.8019 152 127 104
-6.45503 2.31438 -1.80323 139 113 86
-6.44158 2.33768 -1.80257 144 124 108
-6.43686 2.35531 -1.8039 93 84 80
-6.47718 2.5154 -1.84229 121 119 125
-5.69763 3.56372 -1.82315 82 87 103
-5.66199 3.58177 -1.81785 81 78 95
-5.64414 3.59069 -1.8152 89 90 108
-5.62932 3.61361 -1.81652 85 86 104
-5.63735 3.64426 -1.82578 85 87 102
-5.60643 3.64207 -1.81718 74 76 91
-5.34402 4.20042 -1.84072 91 92 110
-5.32473 4.20782 -1.83813 92 95 110
-5.30933 4.23237 -1.84071 94 97 114
-5.29128 4.24099 -1.83877 95 96 114
-5.11671 4.53976 -1.84194 91 94 109
-5.1054 4.55635 -1.84384 89 92 109
-5.08303 4.5599 -1.84002 95 96 114
-4.83232 5.03004 -1.85419 92 98 114
-4.81102 5.05167 -1.85604 91 92 110
-4.5889 5.38649 -1.85365 93 96 111
-4.58228 5.41496 -1.86025 93 96 113
-4.33206 5.82509 -1.8639 96 98 113
-4.3065 5.82333 -1.85983 95 97 112
-3.99406 6.35191 -1.86916 94 97 112
-3.82404 6.66409 -1.87836 92 96 108
-3.79937 6.66524 -1.87617 91 95 107
-3.60137 6.97977 -1.8761 93 92 106
-3.41596 7.36164 -1.89532 91 95 107
-3.17835 7.71849 -1.89714 92 91 105
-2.92468 8.23337 -1.92015 90 92 105
-7.87188 0.318113 -1.82234 93 100 118
-7.60569 0.713425 -1.82331 88 95 111
-7.60333 0.743137 -1.82393 87 94 112
-7.39322 0.9856 -1.81633 86 92 110
-7.40427 1.00693 -1.82127 89 95 111
-7.02597 1.46271 -1.80556 145 138 146
-7.0279 1.48258 -1.80811 142 137 141
-6.87642 1.64424 -1.80178 83 85 100
-6.87406 1.66263 -1.80308 80 78 94
-6.87815 1.70217 -1.8089 136 116 105
-6.8765 1.73038 -1.81149 135 114 97
-6.51869 2.11781 -1.79393 85 84 100
-6.50614 2.14145 -1.79328 82 81 97
-6.50728 2.16134 -1.79659 84 83 98
-6.52221 2.1872 -1.80519 77 71 79
-6.5007 2.2071 -1.80123 136 117 107
-6.49896 2.24557 -1.80652 141 121 102
-5.60708 3.67835 -1.82578 74 77 94
-5.58331 3.68208 -1.82048 69 71 86
-5.57806 3.70175 -1.82379 71 73 86
-5.56409 3.72569 -1.82577 94 97 112
-5.55017 3.73789 -1.82511 91 92 110
-5.53482 3.74879 -1.82378 83 84 102
-5.50961 3.75085 -1.81782 90 92 107
-5.27976 4.25637 -1.84005 96 99 114
-5.26145 4.27803 -1.84134 94 97 112
-5.24589 4.28922 -1.84069 94 96 111
-5.06327 4.58103 -1.84129 95 94 112
-5.0542 4.6004 -1.84446 95 98 113
-5.03058 4.60226 -1.84 91 97 111
-4.79096 5.05831 -1.85418 91 94 109
-4.77862 5.07573 -1.85664 92 95 110
-4.56347 5.42404 -1.85964 90 96 110
-4.28918 5.83659 -1.86098 95 97 112
-4.26818 5.84307 -1.85981 94 96 111
-3.96484 6.3686 -1.87027 94 96 111
-3.5824 6.99836 -1.87927 92 94 107
-3.55835 7.00235 -1.87819 90 94 106
-3.38268 7.37972 -1.89736 91 95 107
-3.15625 7.73621 -1.90011 94 93 107
-2.89948 8.24671 -1.92203 91 95 107
-7.8926 0.277913 -1.82755 81 89 107
-7.88131 0.298 -1.82465 86 94 112
-7.60978 0.673881 -1.8227 87 94 112
-7.60872 0.693762 -1.8233 85 92 108
-7.39493 0.937228 -1.81384 82 91 107
-7.40462 0.967894 -1.81879 87 94 113
-7.05286 1.38273 -1.8068 88 95 110
-7.04218 1.39937 -1.8049 83 89 105
-7.03697 1.41735 -1.80491 89 91 107
-7.07353 1.45563 -1.82016 149 142 153
-6.88673 1.61877 -1.80241 82 88 105
-6.95124 1.70497 -1.8328 115 104 101
-6.55667 2.02736 -1.79325 81 82 100
-6.56874 2.05139 -1.80053 81 85 99
-6.53728 2.06751 -1.7926 76 82 96
-6.5387 2.08738 -1.79591 79 84 99
-6.5505 2.11157 -1.80319 79 81 96
-5.49813 3.77706 -1.82113 75 73 94
-5.47849 3.78397 -1.81782 73 75 90
-5.46722 3.79843 -1.81848 87 89 104
-5.45545 3.82453 -1.82178 75 77 92
-5.43711 3.83252 -1.81913 89 91 106
-5.23547 4.30588 -1.84263 92 95 110
-5.22369 4.32113 -1.84391 92 95 110
-5.19737 4.33423 -1.84132 98 97 113
-5.18167 4.3452 -1.84067 93 94 112
-5.019 4.61865 -1.8419 93 94 112
-5.00251 4.64393 -1.84507 90 93 110
-4.97887 4.64554 -1.84062 90 93 110
-4.74832 5.08472 -1.85355 92 95 110
-4.73472 5.10049 -1.85539 92 98 112
-4.5361 5.43836 -1.85903 93 96 111
-4.52217 5.45542 -1.86143 92 95 110
-4.4993 5.45779 -1.85842 93 96 113
-4.2479 5.87291 -1.86502 95 97 112
-3.9433 6.37554 -1.8697 94 96 111
-3.92246 6.38418 -1.86969 94 96 111
-3.76846 6.68112 -1.87725 92 96 108
-3.75007 6.69819 -1.87996 93 97 111
-3.52393 7.01183 -1.87765 91 95 107
-3.35808 7.38493 -1.89683 92 95 107
-3.11509 7.73084 -1.89612 93 94 107
-7.88128 0.246713 -1.82347 86 94 113
-7.62031 0.625089 -1.82387 80 87 105
-7.62216 0.655243 -1.82569 89 96 114
-7.42113 0.902185 -1.82 89 96 112
-7.40617 0.919462 -1.8163 88 95 111
-7.06451 1.31829 -1.80487 77 83 97
-7.06508 1.33764 -1.80678 80 86 98
-7.06006 1.35569 -1.80679 89 95 109
-6.93599 1.54702 -1.81079 131 130 135
-6.93394 1.56552 -1.81209 126 126 133
-6.91841 1.58968 -1.80951 114 121 133
-6.58793 1.95349 -1.79323 91 93 105
-6.57746 1.96859 -1.79191 78 82 94
-6.58101 1.98908 -1.79588 79 85 97
-6.57081 2.01372 -1.79589 77 81 95
-5.43118 3.85201 -1.82244 87 90 105
-5.40264 3.86252 -1.8178 77 79 92
-5.39518 3.88066 -1.82045 70 74 86
-5.37676 3.8884 -1.8178 75 79 91
-5.16846 4.35893 -1.84131 95 96 114
-5.14708 4.37734 -1.84131 92 93 111
-5.13503 4.39238 -1.8426 91 96 111
-4.96592 4.66034 -1.84189 92 95 110
-4.94679 4.68248 -1.84379 96 99 116
-4.92314 4.68383 -1.83933 94 97 114
-4.72 5.11466 -1.85662 91 97 113
-4.69713 5.13429 -1.85784 93 96 111
-4.47668 5.47997 -1.86081 93 96 113
-4.22323 5.8725 -1.86153 94 96 111
-4.20393 5.88215 -1.86152 94 96 111
-3.89305 6.40055 -1.87079 96 100 112
-3.72399 6.6955 -1.87668 92 96 108
-3.49925 7.01381 -1.87605 92 94 109
-3.33404 7.39192 -1.89682 93 97 108
-3.09237 7.74651 -1.89858 95 94 108
-7.88818 0.205908 -1.82461 75 84 99
-7.89814 0.226734 -1.8281 86 95 112
-7.63332 0.586428 -1.82626 80 88 109
-7.62115 0.605198 -1.82326 89 96 115
-7.43342 0.85528 -1.82121 89 97 113
-7.41862 0.872678 -1.81751 89 96 112
-7.06619 1.25174 -1.79977 79 85 99
-7.08178 1.27438 -1.80676 74 81 95
-7.07863 1.30237 -1.80804 84 92 105
-6.95141 1.50372 -1.81142 145 143 149
-6.94527 1.5305 -1.81208 146 144 149
-6.63942 1.88692 -1.80115 78 80 92
-6.61145 1.89575 -1.79322 86 86 98
-6.62412 1.91946 -1.8005 83 83 93
-6.61021 1.93339 -1.79785 75 77 86
-5.37734 3.91433 -1.82441 90 89 105
-5.36081 3.93627 -1.82573 82 79 98
-5.33552 3.93726 -1.81977 81 79 93
-5.33715 3.96454 -1.82705 84 85 103
-5.30562 3.97173 -1.82109 87 90 107
-5.11539 4.39891 -1.84001 92 98 112
-5.09756 4.42134 -1.84194 94 97 112
-5.08286 4.43341 -1.84194 94 96 111
-4.91122 4.69997 -1.84123 93 96 111
-4.67798 5.14209 -1.8566 91 94 111
-4.66095 5.15298 -1.85659 92 95 112
-4.45573 5.48545 -1.859 93 96 113
-4.43092 5.48428 -1.85478 93 96 113
-4.17183 5.88973 -1.85919 93 96 111
-3.87067 6.4055 -1.86966 94 98 110
-3.7014 6.7017 -1.87612 92 96 108
-3.48002 7.03214 -1.87921 89 91 106
-3.29502 7.39116 -1.89372 91 93 108
-3.07052 7.76586 -1.90205 93 95 108
-7.89755 0.175375 -1.82691 88 97 114
-7.63494 0.556647 -1.82564 83 90 108
-7.44033 0.817277 -1.82119 89 96 112
-7.42562 0.834763 -1.8175 88 95 113
-6.94755 1.39889 -1.79976 85 90 109
-6.94966 1.41823 -1.80235 79 78 97
-6.96225 1.44964 -1.80947 156 150 158
-6.96051 1.46814 -1.81076 147 141 145
-6.96421 1.48809 -1.814 139 137 140
-6.67288 1.8324 -1.8051 113 103 96
-6.63966 1.83968 -1.79518 72 70 80
-6.62951 1.85501 -1.79386 84 83 95
-5.30304 3.99505 -1.82638 88 90 105
-5.28305 4.00104 -1.82306 69 71 86
-5.06564 4.44258 -1.84064 92 93 111
-5.05703 4.46172 -1.84386 92 95 110
-5.02903 4.47244 -1.84063 91 97 111
-4.90116 4.73385 -1.84821 92 95 110
-4.87863 4.73648 -1.8444 91 94 111
-4.85725 4.74051 -1.84121 92 95 112
-4.84508 4.75651 -1.84311 91 97 113
-4.64813 5.17011 -1.85905 92 98 112
-4.61336 5.17205 -1.85349 92 98 110
-4.41002 5.50948 -1.85838 93 94 112
-4.38999 5.51637 -1.85717 94 97 112
-4.1551 5.90432 -1.86092 95 97 112
-4.1331 5.90866 -1.85917 97 96 112
-3.8512 6.41746 -1.87077 95 100 112
-3.83024 6.42581 -1.87076 95 99 111
-3.67092 6.71894 -1.87774 91 94 109
-3.64625 6.71957 -1.87555 92 95 110
-3.44488 7.03943 -1.87814 91 95 106
-3.2715 7.3998 -1.89422 92 94 109
-3.03925 7.74763 -1.89557 91 94 107
-7.89315 0.154763 -1.82516 84 91 110
-7.64184 0.517332 -1.82623 84 92 107
-7.64506 0.537593 -1.82804 87 94 110
-7.4369 0.768336 -1.81747 86 91 111
-7.42422 0.786135 -1.81439 83 89 108
-7.12089 1.19673 -1.81308 84 90 106
-7.08481 1.20818 -1.80229 87 92 110
-7.119 1.24425 -1.81627 89 94 106
-6.97837 1.35945 -1.8062 86 92 104
-6.95824 1.38271 -1.80169 87 94 109
-6.68971 1.77198 -1.8031 153 127 104
-6.68333 1.78873 -1.8031 151 126 104
-6.67689 1.80547 -1.80311 148 124 100
-5.27399 4.03065 -1.82836 97 99 114
-5.25659 4.03919 -1.82637 97 99 112
-5.226 4.03417 -1.81776 97 99 114
-5.23221 4.06691 -1.82768 97 99 114
-5.01416 4.48431 -1.84062 89 95 110
-5.0029 4.50046 -1.84255 91 92 110
-4.97844 4.51523 -1.84126 90 91 109
-4.82084 4.77214 -1.84247 91 94 109
-4.80625 4.78502 -1.8431 92 95 110
-4.60253 5.19225 -1.85719 91 97 111
-4.58221 5.19814 -1.85533 91 94 109
-4.37853 5.53803 -1.86137 94 100 114
-4.35653 5.5415 -1.85895 92 98 110
-4.10526 5.92441 -1.85974 94 97 112
-3.79844 6.43646 -1.87018 93 96 111
-3.6256 6.73093 -1.87662 94 97 112
-3.42312 7.0503 -1.87918 90 94 106
-3.24795 7.40837 -1.89472 92 94 109
-7.91093 0.114005 -1.82978 85 94 111
-7.90208 0.134407 -1.82747 81 90 107
-7.62795 0.486296 -1.8208 84 91 109
-7.44628 0.721047 -1.81806 80 87 106
-7.43635 0.748885 -1.81623 84 93 110
-7.14025 1.1816 -1.81815 90 97 110
-6.98251 1.29481 -1.80165 92 98 112
-6.97738 1.32165 -1.80231 83 85 98
-6.97606 1.3401 -1.80361 88 89 107
-6.70405 1.71089 -1.80044 143 118 99
-6.69249 1.72591 -1.79846 145 119 96
-6.70594 1.7492 -1.80574 147 121 96
-5.22009 4.09373 -1.83165 90 92 107
-5.20905 4.10887 -1.83297 99 102 117
-5.19017 4.11578 -1.83032 96 98 113
-5.16741 4.13151 -1.82899 98 97 113
-4.96705 4.5313 -1.84319 95 96 114
-4.95199 4.54298 -1.84318 91 92 110
-4.78823 4.79331 -1.84182 91 94 111
-4.77058 4.81781 -1.84499 93 96 113
-4.5599 5.21879 -1.85717 91 94 109
-4.5416 5.22772 -1.85654 93 96 113
-4.33054 5.55816 -1.85955 96 99 114
-4.08408 5.93028 -1.85856 94 97 112
-4.06718 5.94464 -1.8603 95 98 113
-3.77883 6.44821 -1.87129 94 97 110
-3.59624 6.75146 -1.87933 94 98 110
-3.399 7.05377 -1.87811 90 92 105
-3.21482 7.42758 -1.89727 94 95 108
-3.00464 7.76798 -1.89854 91 95 107
-7.65339 0.448455 -1.82739 85 90 109
-7.64353 0.467637 -1.825 86 91 110
-7.45613 0.683405 -1.81928 77 86 105
-7.44746 0.701811 -1.81744 83 91 110
-7.15523 1.11757 -1.81813 83 90 106
-7.14905 1.13551 -1.8175 82 89 105
-7.15953 1.15682 -1.82258 82 88 104
-6.99769 1.26078 -1.80358 87 90 107
-6.98735 1.27719 -1.80165 82 88 104
-6.70206 1.6262 -1.78983 83 86 100
-6.75008 1.65989 -1.80968 83 84 105
-6.74046 1.67567 -1.80836 86 80 93
-5.16007 4.15065 -1.83229 96 99 114
-5.13983 4.15598 -1.82898 92 98 112
-5.12839 4.18394 -1.83361 96 97 115
-4.92736 4.55749 -1.84189 93 96 111
-4.91579 4.57346 -1.84382 93 96 111
-4.90059 4.58498 -1.84381 93 96 111
-4.75472 4.82902 -1.84499 92 95 110
-4.73993 4.84172 -1.84561 92 95 110
-4.70979 4.84918 -1.8418 91 97 111
-4.52225 5.235 -1.8553 98 101 118
-4.4936 5.24579 -1.85344 96 99 116
-4.3067 5.55813 -1.85593 93 95 110
-4.29492 5.57964 -1.86013 93 94 112
-4.04852 5.95554 -1.86087 96 99 114
-3.75989 6.4617 -1.87296 94 98 110
-3.57088 6.75003 -1.8766 93 95 110
-3.37372 7.0535 -1.87598 91 93 106
-3.188 7.42485 -1.89468 93 95 108
-2.98078 7.77959 -1.90001 90 94 106
-2.95284 7.77419 -1.89701 92 94 107
-7.64419 0.427845 -1.82378 85 92 110
-7.46198 0.655026 -1.81988 84 93 110
-7.13224 1.04651 -1.8054 82 86 105
-7.15236 1.0693 -1.81366 93 99 114
-7.1502 1.09746 -1.81495 82 89 103
-7.01364 1.19891 -1.80356 83 86 104
-7.00534 1.21582 -1.80227 90 93 108
-7.00059 1.24272 -1.80293 75 81 97
-6.75631 1.57759 -1.80238 129 133 144
-6.73609 1.59018 -1.79709 69 72 88
-6.81784 1.72875 -1.84012 123 104 89
-5.12081 4.20304 -1.83691 94 97 114
-5.09035 4.19701 -1.8283 94 95 113
-5.06601 4.21083 -1.82631 94 95 113
-5.05701 4.2284 -1.82896 94 95 115
-4.88052 4.60514 -1.8451 91 94 111
-4.86052 4.61064 -1.84251 87 88 106
-4.70376 4.87406 -1.84751 93 96 111
-4.68772 4.88507 -1.8475 91 93 108
-4.48234 5.26576 -1.85714 93 96 111
-4.46189 5.27122 -1.85528 95 98 115
-4.26137 5.58269 -1.85591 94 97 112
-4.01538 5.9606 -1.85795 95 98 113
-3.99831 5.97479 -1.85968 96 99 114
-3.72794 6.47201 -1.87239 94 98 110
-3.70679 6.47999 -1.87237 95 99 111
-3.5488 6.75755 -1.87658 93 95 110
-3.34364 7.07683 -1.87967 90 92 105
-3.1654 7.43688 -1.89621 92 94 107
-7.63759 0.37772 -1.82015 87 96 113
-7.65835 0.39899 -1.82737 89 98 114
-7.46469 0.597277 -1.81801 79 88 105
-7.4733 0.617446 -1.82171 83 92 109
-7.46106 0.63558 -1.81864 81 90 107
-7.17173 1.03472 -1.81746 85 87 106
-7.02264 1.15425 -1.80289 86 92 106
-7.01818 1.1812 -1.80355 86 93 109
-6.78838 1.52181 -1.80699 141 139 142
-6.7864 1.53989 -1.80832 133 132 138
-6.76628 1.55268 -1.80303 132 131 137
-6.06645 2.5639 -1.80429 128 126 137
-6.04781 2.60317 -1.80566 56 59 74
-6.03218 2.61453 -1.80293 77 83 101
-6.02313 2.62944 -1.80293 78 84 102
-5.99343 2.64265 -1.79612 78 81 98
-5.98919 2.66019 -1.79817 79 81 96
-6.01105 2.69248 -1.81111 76 78 93
-6.00563 2.7194 -1.81452 78 81 96
-6.00274 2.73797 -1.81725 77 83 99
-5.98679 2.74905 -1.81452 77 80 97
-5.9773 2.76383 -1.81452 83 84 102
-5.96338 2.78596 -1.81453 80 79 97
-5.95379 2.80068 -1.81452 74 76 91
-5.94413 2.81537 -1.81452 76 79 94
-5.93802 2.84219 -1.81793 76 82 94
-5.91702 2.85001 -1.81316 77 83 97
-5.91681 2.87047 -1.81725 78 81 96
-5.90239 2.89234 -1.81725 74 77 92
-5.89405 2.90787 -1.81793 80 83 98
-5.87452 2.9164 -1.81384 77 80 95
-5.87719 2.93887 -1.81929 76 82 96
-5.86563 2.96258 -1.82066 77 80 95
-5.85072 2.97397 -1.81861 79 82 99
-5.84367 2.9904 -1.81998 81 84 101
-5.82556 3.00989 -1.81862 83 84 102
-5.77291 2.99633 -1.80022 79 81 96
-5.77672 3.01982 -1.80635 78 80 95
-5.76005 3.04001 -1.80567 73 75 90
-5.74186 3.04888 -1.80226 76 77 95
-5.74696 3.07348 -1.80907 79 81 96
-5.73336 3.08544 -1.80771 83 85 100
-5.7102 3.10116 -1.8043 70 73 90
-5.71039 3.12263 -1.80907 72 73 91
-5.6982 3.13552 -1.80839 80 82 97
-5.69019 3.16183 -1.81179 101 103 118
-5.67022 3.16921 -1.8077 92 94 109
-5.65941 3.18307 -1.8077 85 87 102
-5.64352 3.20379 -1.8077 73 74 92
-5.04544 4.24315 -1.83027 94 97 114
-5.03009 4.25362 -1.82961 93 96 113
-4.85106 4.62942 -1.84573 87 90 105
-4.83104 4.6348 -1.84314 93 96 111
-4.65529 4.88912 -1.84241 93 96 113
-4.64139 4.90309 -1.84367 90 96 112
-4.44112 5.29463 -1.85835 93 96 113
-4.25219 5.60911 -1.86191 95 98 113
-4.22466 5.60208 -1.85589 92 98 112
-3.97871 5.98376 -1.85967 96 99 114
-3.68494 6.48612 -1.8718 94 98 110
-3.51922 6.77777 -1.87929 95 97 110
-3.32058 7.08373 -1.87965 92 96 108
-3.14118 7.44328 -1.89619 93 95 108
-2.91843 7.79605 -1.90047 93 96 108
-7.6515 0.328937 -1.82312 80 87 106
-7.65287 0.358811 -1.82434 87 96 113
-7.47583 0.569359 -1.82046 85 91 106
-7.14962 0.964356 -1.80537 86 93 110
-7.18685 0.989769 -1.81934 86 93 110
-7.16986 1.00585 -1.81491 86 91 106
-7.03883 1.12022 -1.80547 86 92 108
-7.0289 1.13689 -1.80353 84 90 106
-6.79263 1.45809 -1.80168 143 136 143
-6.79448 1.47715 -1.80433 141 138 143
-6.78668 1.50271 -1.80434 151 149 152
-6.15901 2.36764 -1.79882 87 86 99
-6.14903 2.3821 -1.79814 82 85 100
-6.15879 2.43516 -1.81041 67 66 81
-6.14692 2.44877 -1.80905 134 132 145
-6.1367 2.46317 -1.80837 134 131 138
-6.11919 2.48344 -1.80633 122 120 125
-6.10887 2.49775 -1.80565 126 124 129
-6.10016 2.51288 -1.80565 129 124 131
-6.10141 2.53319 -1.80974 133 127 136
-6.08028 2.55149 -1.80634 130 124 134
-6.06583 2.58334 -1.8077 137 134 145
-5.63411 3.21866 -1.80838 78 77 93
-5.62769 3.23574 -1.81042 87 86 102
-5.61305 3.25744 -1.81111 106 108 124
-5.61551 3.28122 -1.81724 89 92 107
-5.58933 3.28365 -1.81042 85 87 102
-5.57516 3.295 -1.80906 80 79 95
-5.56024 3.31649 -1.80974 85 86 102
-5.55046 3.33116 -1.81042 83 84 97
-5.01669 4.27989 -1.83357 94 97 112
-5.00245 4.2917 -1.83357 89 95 109
-4.97957 4.29347 -1.82893 92 96 111
-4.95856 4.31099 -1.82893 95 97 112
-4.81649 4.66215 -1.84766 89 95 111
-4.79986 4.67188 -1.84701 89 95 111
-4.77977 4.67706 -1.84442 93 96 113
-4.63391 4.92635 -1.84875 93 99 115
-4.61126 4.9278 -1.84493 92 98 114
-4.42063 5.29995 -1.85649 93 96 111
-4.40607 5.31492 -1.85833 89 92 108
-4.20646 5.63326 -1.86189 93 98 112
-4.18169 5.63106 -1.85767 93 96 111
-3.94964 5.9971 -1.85966 96 99 114
-3.65493 6.50146 -1.87291 93 97 109
-3.49324 6.77425 -1.87601 94 96 109
-3.29752 7.09056 -1.87964 91 95 107
-3.10674 7.45832 -1.89772 92 94 107
-2.88796 7.77913 -1.8945 91 95 107
-7.66094 0.309577 -1.82552 84 90 114
-7.47086 0.549605 -1.81798 93 99 113
-7.17917 0.921968 -1.81233 90 98 112
-7.16611 0.938783 -1.80916 87 94 109
-7.04536 1.07507 -1.80415 88 96 107
-7.03556 1.0918 -1.80222 86 92 106
-6.79793 1.39499 -1.79703 78 82 101
-6.78908 1.41107 -1.79571 87 88 107
-6.22472 2.19827 -1.79199 142 121 106
-6.22225 2.28253 -1.80494 134 108 84
-6.20891 2.30493 -1.80427 135 107 86
-6.19913 2.31956 -1.80359 133 106 82
-6.17911 2.32935 -1.79882 141 115 92
-6.17941 2.34871 -1.80223 115 96 87
-6.1744 2.41384 -1.81177 84 87 104
-5.56439 3.36417 -1.822 88 86 106
-5.52395 3.366 -1.81109 90 93 108
-5.53616 3.39797 -1.82199 78 81 96
-5.49958 3.39165 -1.81041 89 91 106
-5.46966 3.42379 -1.80972 80 84 96
-5.45367 3.4562 -1.81312 94 91 108
-4.94667 4.3255 -1.83024 96 95 111
-4.93473 4.33997 -1.83156 92 95 110
-4.75689 4.69372 -1.84441 94 97 116
-4.74359 4.70779 -1.84569 91 94 111
-4.58842 4.94545 -1.84556 92 95 112
-4.57641 4.96238 -1.84809 92 95 111
-4.38751 5.32336 -1.85771 93 94 112
-4.35955 5.3351 -1.85647 92 97 113
-4.16319 5.64054 -1.85766 95 98 113
-3.93484 6.0163 -1.86313 95 98 113
-3.90944 6.01295 -1.85906 96 100 112
-3.63303 6.50743 -1.87233 95 97 112
-3.47422 6.79062 -1.87872 93 97 109
-3.45262 6.79967 -1.87925 93 97 109
-3.26273 7.09883 -1.87909 90 92 105
-3.07997 7.45522 -1.89513 92 94 107
-2.86863 7.81115 -1.90143 95 99 110
-7.64198 0.259045 -1.81828 81 88 106
-7.6608 0.289689 -1.82491 78 86 109
-7.47332 0.482375 -1.8161 85 93 111
-7.48608 0.502641 -1.82104 84 92 107
-7.49605 0.53242 -1.82537 78 85 99
-7.19394 0.886379 -1.81486 85 92 109
-7.17161 0.901807 -1.80851 84 91 109
-7.05548 1.03982 -1.80479 78 84 103
-7.05138 1.05762 -1.80479 91 98 113
-6.83953 1.35973 -1.80759 82 86 102
-6.82681 1.38407 -1.80562 89 92 108
-6.89803 1.46813 -1.83805 155 147 157
-6.2803 2.09087 -1.79333 76 80 99
-6.27966 2.17515 -1.80629 81 83 93
-6.27712 2.20234 -1.8097 98 82 82
-6.25639 2.23128 -1.80766 132 107 83
-6.23643 2.25076 -1.80426 134 111 88
-6.24048 2.2717 -1.80903 136 110 90
-5.51058 3.43391 -1.82335 89 93 104
-5.49163 3.46418 -1.82539 81 78 95
-5.45391 3.4903 -1.8213 90 92 105
-5.41603 3.482 -1.80903 84 86 99
-5.41144 3.50111 -1.81244 72 74 87
-5.36303 3.54069 -1.80902 91 95 107
-4.9159 4.36019 -1.83288 94 98 112
-4.90382 4.37459 -1.8342 95 95 111
-4.88331 4.37879 -1.83088 95 93 109
-4.72912 4.72031 -1.84633 92 95 110
-4.70378 4.73371 -1.84504 90 96 108
-4.68808 4.7446 -1.84503 90 96 112
-4.558 4.96987 -1.84681 92 95 110
-4.53073 4.98098 -1.8449 91 94 109
-4.33899 5.34012 -1.85461 93 99 115
-4.32133 5.34999 -1.8546 96 101 116
-4.14554 5.65166 -1.85826 97 96 112
-4.11899 5.66739 -1.85885 97 99 112
-3.88424 6.03466 -1.86195 96 98 114
-3.61177 6.51513 -1.87232 94 96 110
-3.24015 7.10733 -1.87961 92 94 107
-3.05768 7.46881 -1.89717 93 95 108
-2.83099 7.81945 -1.90141 94 96 109
-7.65466 0.219961 -1.82127 86 93 111
-7.66262 0.240126 -1.82428 79 86 102
-7.49076 0.46439 -1.82102 84 91 109
-7.22694 0.863005 -1.82437 78 85 101
-7.0746 0.978347 -1.8067 84 92 105
-7.07442 0.996845 -1.808 88 94 106
-7.06672 1.01406 -1.80671 83 89 103
-6.84592 1.32443 -1.80626 77 85 100
-6.85189 1.34437 -1.81023 80 87 103
-6.31631 2.00319 -1.79196 78 79 97
-6.30743 2.01822 -1.79128 84 86 102
-6.29672 2.06027 -1.79401 77 78 96
-6.2946 2.07808 -1.79606 75 81 97
-6.30415 2.12885 -1.80696 81 82 100
-6.30869 2.14969 -1.81174 82 85 100
-6.29765 2.16393 -1.81037 83 87 99
-5.41562 3.53884 -1.82266 82 79 98
-5.40508 3.55315 -1.82333 80 82 95
-5.35543 3.56866 -1.81379 91 93 106
-5.35756 3.59385 -1.8206 101 100 116
-5.35107 3.61172 -1.82332 94 96 111
-5.31909 3.60732 -1.81378 85 86 104
-5.29556 3.62157 -1.81105 83 82 100
-5.28051 3.63182 -1.80969 81 80 96
-4.86757 4.38873 -1.83022 91 94 110
-4.84966 4.41014 -1.8322 92 95 110
-4.83147 4.41704 -1.8302 91 97 111
-4.67794 4.76306 -1.84825 92 95 110
-4.6577 4.76776 -1.84566 92 94 109
-4.52273 5.00409 -1.84997 93 94 112
-4.49692 5.00033 -1.84425 92 93 111
-4.2952 5.36468 -1.85459 92 98 110
-4.10299 5.68176 -1.86064 95 97 110
-3.86443 6.04328 -1.86194 97 99 112
-3.84066 6.04314 -1.85902 98 100 113
-3.59185 6.52636 -1.87343 94 97 112
-3.41781 6.80493 -1.8776 91 96 108
-3.39434 6.80834 -1.8765 91 95 107
-3.21809 7.11761 -1.88066 94 96 108
-3.02112 7.47602 -1.89664 93 95 108
-2.80275 7.81165 -1.89792 93 95 108
-7.66184 0.200402 -1.82306 83 91 110
-7.4902 0.416185 -1.81915 89 95 113
-7.4975 0.435946 -1.82224 83 88 107
-7.23009 0.825418 -1.82308 96 102 124
-7.22293 0.843378 -1.82182 80 89 104
-7.08002 0.933055 -1.80539 82 90 104
-7.0781 0.951232 -1.80604 85 91 107
-6.86254 1.26415 -1.80624 87 95 110
-6.8559 1.28095 -1.80558 77 86 100
-6.86366 1.31035 -1.81088 85 92 107
-6.35095 1.93352 -1.79331 94 96 109
-6.33525 1.94599 -1.7899 87 90 103
-6.33704 1.96515 -1.79331 85 86 102
-6.32828 1.98025 -1.79263 76 77 95
-6.33506 2.04794 -1.8049 82 83 99
-5.27804 3.65328 -1.81445 83 82 100
-5.26132 3.67357 -1.81513 74 76 91
-5.2503 3.68748 -1.81581 81 80 94
-5.24063 3.70263 -1.81717 85 84 100
-4.82388 4.43711 -1.83417 91 96 115
-4.80335 4.45541 -1.83483 92 97 115
-4.63439 4.78387 -1.84565 93 94 112
-4.62075 4.79763 -1.84694 91 94 111
-4.46957 5.01113 -1.84233 94 97 112
-4.46339 5.03733 -1.84868 92 95 110
-4.28319 5.38427 -1.85828 92 98 111
-4.26634 5.39561 -1.85889 98 104 119
-4.08433 5.69101 -1.86063 93 95 109
-4.05499 5.70138 -1.85942 92 96 110
-3.56028 6.53769 -1.87341 93 96 111
-3.53699 6.53975 -1.87172 93 96 110
-3.37206 6.81533 -1.87649 92 96 108
-3.18108 7.11811 -1.87799 92 96 108
-2.99632 7.48011 -1.89611 94 96 109
-2.77698 7.81511 -1.89741 92 93 106
-7.67306 0.171028 -1.82605 83 90 110
-7.49419 0.397174 -1.81976 87 93 111
-7.21544 0.776016 -1.81544 82 91 106
-7.23657 0.797895 -1.8237 78 87 102
-7.08186 0.914881 -1.80473 96 103 119
-6.87298 1.20248 -1.80423 84 90 106
-6.87021 1.22016 -1.8049 91 94 111
-6.87645 1.24903 -1.80954 81 87 101
-6.38847 1.88315 -1.79874 78 76 90
-6.36762 1.89388 -1.7933 83 81 94
-6.37488 1.915 -1.79875 97 103 115
-5.21952 3.71895 -1.8158 79 81 94
-5.19322 3.71869 -1.80898 77 79 94
-5.19577 3.74524 -1.81648 79 78 94
-5.17858 3.76519 -1.81716 86 83 100
-5.15773 3.76983 -1.81306 91 90 106
-4.78741 4.4651 -1.83416 90 96 112
-4.76794 4.47028 -1.8315 90 96 112
-4.7484 4.48983 -1.83282 91 92 110
-4.60704 4.81135 -1.84822 92 96 113
-4.58135 4.82414 -1.84692 91 97 113
-4.44276 5.04124 -1.84613 92 95 112
-4.42416 5.04828 -1.84485 91 94 111
-4.23717 5.40511 -1.85703 96 99 117
-4.22117 5.41797 -1.85825 93 96 113
-4.03797 5.71388 -1.86061 90 96 110
-4.01242 5.70929 -1.85579 90 97 110
-3.81601 6.06632 -1.8625 97 99 112
-3.79921 6.08173 -1.86481 98 101 116
-3.51565 6.54715 -1.87171 93 95 108
-3.33901 6.82569 -1.87647 93 95 110
-3.15789 7.12452 -1.87798 93 95 108
-2.97385 7.49347 -1.89815 94 96 109
-2.75598 7.84119 -1.90286 92 94 107
-7.6566 0.13091 -1.82002 77 86 103
-7.66297 0.150886 -1.82243 78 86 105
-7.48741 0.348719 -1.81603 78 85 103
-7.49813 0.378149 -1.82036 83 90 108
-7.20344 0.708496 -1.80779 84 91 110
-7.22617 0.758546 -1.81797 85 94 111
-7.09049 0.870147 -1.80471 88 93 113
-7.08879 0.888331 -1.80537 84 90 106
-6.89306 1.16125 -1.80752 83 90 108
-6.8904 1.18805 -1.80885 82 89 105
-6.42604 1.80505 -1.80077 151 128 109
-6.42019 1.83036 -1.80214 92 83 79
-6.40829 1.84449 -1.8001 73 72 80
-6.4087 1.86303 -1.80282 80 82 92
-5.15453 3.79125 -1.81783 101 103 116
-5.13634 3.79838 -1.8151 88 90 103
-5.12427 3.82332 -1.8185 96 98 113
-5.10066 3.82506 -1.81305 93 90 107
-4.73236 4.49933 -1.83215 92 95 110
-4.72776 4.52375 -1.8381 92 95 110
-4.56105 4.82847 -1.84433 90 97 113
-4.55045 4.84669 -1.84756 93 96 113
-4.40373 5.06991 -1.84738 94 97 114
-4.38508 5.07681 -1.84611 91 97 112
-4.20326 5.42748 -1.85824 93 96 113
-3.77079 6.07085 -1.85841 98 100 115
-3.75087 6.07913 -1.8584 97 99 114
-3.48588 6.56356 -1.87337 92 95 110
-3.3161 6.83068 -1.87591 94 93 109
-3.13677 7.13827 -1.88008 94 92 109
-7.66369 0.101387 -1.8218 87 95 114
-7.49119 0.329706 -1.81664 86 94 113
-7.21961 0.691678 -1.81223 79 84 104
-7.24738 0.732967 -1.82367 75 83 102
-7.11805 0.837245 -1.81181 87 93 112
-7.10522 0.85387 -1.80858 77 82 102
-6.90552 1.12734 -1.80883 86 93 109
-6.903 1.14509 -1.8095 80 87 103
-6.44707 1.75741 -1.80144 150 128 106
-6.43539 1.77169 -1.7994 148 123 101
-6.43783 1.79082 -1.80281 146 123 105
-5.09046 3.83986 -1.81441 84 87 104
-5.07679 3.86335 -1.81713 91 92 112
-5.06645 3.8781 -1.81849 81 82 100
-4.71048 4.53169 -1.83677 90 93 108
-4.67814 4.53445 -1.83081 93 94 112
-4.52463 4.8592 -1.84626 92 94 109
-4.51494 4.87892 -1.85013 88 94 108
-4.36843 5.08685 -1.8461 92 93 111
-4.18721 5.44026 -1.85947 92 95 110
-3.99145 5.7364 -1.86059 97 99 114
-3.97012 5.74018 -1.85878 96 98 113
-3.46445 6.57081 -1.87336 92 95 110
-3.29782 6.85025 -1.87971 94 96 111
-3.10331 7.15136 -1.88112 92 94 106
-2.93626 7.49654 -1.89659 94 96 109
-7.5025 0.311034 -1.81971 84 92 113
-7.21328 0.643966 -1.80776 87 91 110
-7.22443 0.673427 -1.81286 82 89 107
-7.11671 0.790997 -1.80855 83 88 107
-7.1059 0.807944 -1.80598 81 83 103
-6.90842 1.08241 -1.80617 79 85 101
-6.91353 1.11073 -1.81015 81 87 103
-6.46016 1.65305 -1.79256 84 82 94
-6.44161 1.66518 -1.7878 95 86 91
-6.46676 1.70033 -1.80075 127 108 97
-6.45702 1.71532 -1.79939 135 116 102
-6.45434 1.73263 -1.80075 141 123 107
-5.04943 3.88618 -1.81644 80 82 95
-5.05129 3.92558 -1.82734 88 87 103
-5.0184 3.91749 -1.81711 90 89 103
-4.66875 4.55278 -1.83411 92 93 111
-4.6604 4.57262 -1.83808 92 94 111
-4.63026 4.57808 -1.83344 94 96 111
-4.49879 4.88924 -1.85012 90 97 110
-4.47626 4.89011 -1.84623 90 96 110
-4.34973 5.1115 -1.8499 92 97 112
-4.32901 5.11498 -1.84735 95 100 114
-4.16707 5.46599 -1.86378 93 95 112
-4.14079 5.46034 -1.85821 94 96 112
-3.9521 5.75074 -1.85937 96 98 113
-3.72591 6.10197 -1.86187 95 98 113
-3.7044 6.1066 -1.8607 95 98 113
-3.4399 6.56893 -1.87055 91 94 109
-3.26176 6.8511 -1.87697 93 97 109
-3.07952 7.15567 -1.88058 93 95 108
-2.91233 7.50411 -1.89709 93 95 108
-7.51399 0.263446 -1.82215 91 100 121
-7.53697 0.283671 -1.83018 88 96 115
-7.24622 0.628868 -1.81791 85 92 109
-7.13564 0.747448 -1.81241 87 92 111
-7.11812 0.77277 -1.8079 90 95 113
-6.92966 1.05017 -1.81078 83 90 105
-6.91998 1.06649 -1.8088 80 85 103
-6.48409 1.59756 -1.79391 81 86 105
-6.47643 1.6132 -1.79323 83 86 105
-6.47152 1.63859 -1.7946 88 87 101
-5.8067 2.64675 -1.80435 78 82 95
-5.02487 3.9496 -1.82733 75 74 90
-5.00245 3.9521 -1.82255 60 62 77
-4.6251 4.60241 -1.83939 94 96 111
-4.6032 4.60389 -1.83541 93 95 110
-4.45868 4.91484 -1.8501 93 94 112
-4.43928 4.92026 -1.84816 92 95 112
-4.31222 5.12486 -1.84734 95 98 113
-4.29031 5.14445 -1.84924 95 97 112
-4.12276 5.46961 -1.85821 93 96 111
-4.09785 5.48675 -1.85943 94 97 112
-3.92173 5.75874 -1.85755 93 95 110
-3.90201 5.76572 -1.85694 94 96 111
-3.68213 6.10939 -1.85894 95 97 112
-3.40936 6.5832 -1.87165 91 95 107
-3.24106 6.86319 -1.87859 92 95 109
-3.05574 7.15991 -1.88003 93 93 107
-2.88609 7.50224 -1.89502 94 96 109
-7.50236 0.215007 -1.81719 84 91 110
-7.52321 0.244538 -1.82461 90 99 116
-7.2565 0.611129 -1.82044 84 93 108
-7.12872 0.709794 -1.80787 94 100 122
-7.12189 0.727335 -1.80659 80 86 108
-6.93193 1.00517 -1.80812 86 92 108
-6.93535 1.02401 -1.81077 80 87 103
-6.52623 1.57422 -1.80548 131 131 142
-6.50607 1.58622 -1.80003 75 81 97
-5.94064 2.38467 -1.79732 83 85 97
-5.92541 2.49085 -1.81206 129 124 127
-5.91841 2.50634 -1.81276 125 120 124
-5.90479 2.51822 -1.81066 127 124 131
-5.90352 2.54638 -1.81557 125 122 129
-5.88654 2.55634 -1.81206 124 122 127
-5.87931 2.57175 -1.81276 128 125 133
-5.86634 2.59344 -1.81277 132 132 142
-5.85252 2.60507 -1.81066 75 76 88
-5.81042 2.66864 -1.80996 78 81 96
-5.80763 2.68674 -1.81277 79 81 96
-5.79093 2.70618 -1.81137 79 81 96
-5.78481 2.72233 -1.81277 77 79 95
-5.77065 2.73359 -1.81067 79 82 97
-5.76329 2.75874 -1.81347 79 83 96
-5.75221 2.77187 -1.81277 79 81 96
-5.73792 2.78298 -1.81067 79 82 97
-5.73503 2.81107 -1.81558 79 81 96
-5.72222 2.82309 -1.81417 77 79 94
-5.7141 2.83811 -1.81487 76 79 94
-5.69832 2.85806 -1.81418 81 85 97
-5.7026 2.88122 -1.82049 77 79 94
-5.68179 2.88796 -1.81558 78 80 95
-5.67658 2.90495 -1.81768 75 77 91
-5.65428 2.92054 -1.81417 81 80 96
-5.64737 2.93644 -1.81557 77 78 94
-5.65126 2.9597 -1.82188 82 84 97
-5.61335 2.96449 -1.81137 82 84 97
-5.60475 2.97924 -1.81207 89 91 104
-5.58537 2.98648 -1.80786 83 85 98
-5.58881 3.01979 -1.81627 81 81 97
-5.58461 3.03773 -1.81908 80 77 94
-5.54531 3.0307 -1.80575 79 78 96
-5.5304 3.04091 -1.80364 80 79 96
-5.54098 3.07972 -1.81557 80 79 95
-5.50933 3.07775 -1.80575 81 80 96
-5.5109 3.09999 -1.81136 75 78 93
-5.49094 3.11671 -1.80925 73 77 89
-5.48633 3.13451 -1.81206 84 86 99
-5.00112 3.98888 -1.83209 75 78 95
-4.97865 3.99125 -1.82731 80 82 95
-4.94332 3.97987 -1.81572 89 91 104
-4.93908 4.01385 -1.8239 76 77 95
-4.58293 4.62278 -1.83673 95 98 113
-4.42403 4.93194 -1.8488 93 96 113
-4.3979 4.94383 -1.84749 93 96 113
-4.26956 5.14771 -1.84669 91 96 110
-4.25266 5.15741 -1.84668 89 96 109
-4.07705 5.49086 -1.85757 95 94 112
-3.88471 5.77781 -1.85813 93 95 110
-3.86657 5.78812 -1.85872 93 96 112
-3.65542 6.12845 -1.86125 98 100 113
-3.3909 6.59931 -1.87444 92 95 110
-3.2186 6.86972 -1.87858 96 98 113
-3.03291 7.1678 -1.88055 92 94 107
-2.86345 7.51529 -1.89706 94 96 109
-7.50001 0.195758 -1.81595 86 91 111
-7.27217 0.565603 -1.82359 81 88 107
-7.26766 0.58403 -1.82297 86 93 111
-7.13925 0.69266 -1.81045 82 86 106
-6.94346 0.970951 -1.80943 85 88 105
-6.94143 0.988751 -1.8101 86 89 108
-6.53488 1.51385 -1.80138 147 146 151
-6.53288 1.53124 -1.80274 140 135 142
-6.52543 1.54706 -1.80207 134 131 138
-6.02002 2.30219 -1.80853 134 106 84
-6.01531 2.31873 -1.80994 137 106 82
-6.00552 2.33275 -1.80924 139 111 89
-5.99571 2.34674 -1.80854 129 111 99
-5.9788 2.36638 -1.80644 79 73 76
-5.99549 2.39396 -1.81696 81 84 99
-5.95506 2.42051 -1.80855 80 86 100
-5.94994 2.43694 -1.80995 71 70 83
-5.94147 2.45161 -1.80995 105 100 115
-5.47416 3.14669 -1.81135 87 89 103
-5.45998 3.16772 -1.81205 74 76 91
-5.47003 3.19685 -1.82187 82 84 98
-5.43693 3.19302 -1.81135 83 85 98
-5.42756 3.20733 -1.81205 76 78 92
-5.41014 3.22587 -1.81135 80 83 98
-5.408 3.24589 -1.81555 77 80 95
-5.39258 3.25549 -1.81344 85 88 103
-5.35946 3.28332 -1.81064 76 76 91
-4.93328 4.03378 -1.82798 78 77 95
-4.92101 4.04684 -1.82866 80 82 97
-4.87947 4.04076 -1.81707 91 93 108
-4.57639 4.64555 -1.84201 93 96 111
-4.55664 4.64988 -1.83936 93 94 112
-4.52853 4.65779 -1.83604 93 96 113
-4.38359 4.95697 -1.84878 92 95 112
-4.23958 5.17358 -1.84922 90 96 110
-4.06159 5.50498 -1.85941 94 93 109
-4.03648 5.52186 -1.86063 94 96 111
-3.639 6.14521 -1.86415 96 98 111
-3.61739 6.14955 -1.86297 95 99 111
-3.36757 6.60081 -1.87275 91 94 109
-3.18364 6.87385 -1.87693 95 97 112
-3.00024 7.18415 -1.88265 93 95 108
-2.82586 7.51784 -1.8955 93 97 109
-7.51417 0.157741 -1.81963 86 92 116
-7.52989 0.17734 -1.82519 86 91 112
-7.24028 0.515542 -1.81087 90 96 115
-7.28037 0.547525 -1.82549 80 87 105
-7.14802 0.647749 -1.81107 81 88 104
-7.14138 0.665386 -1.80979 86 92 109
-6.95807 0.910073 -1.81006 86 91 110
-6.95623 0.927892 -1.81073 81 88 106
-6.95619 0.94604 -1.81206 81 87 103
-6.55367 1.45651 -1.80136 139 132 139
-6.54103 1.4709 -1.79864 146 141 145
-6.55001 1.49133 -1.80409 146 142 146
-6.07906 2.11656 -1.79659 83 84 98
-6.06989 2.13083 -1.79589 79 81 96
-6.06747 2.14816 -1.798 80 80 97
-6.06669 2.16629 -1.8008 83 80 99
-6.04546 2.18405 -1.7966 79 71 80
-6.04117 2.20057 -1.798 135 117 107
-6.06048 2.2283 -1.80922 140 116 94
-6.04914 2.25078 -1.80923 134 112 94
-6.04461 2.26736 -1.81063 137 118 101
-6.02992 2.27903 -1.80783 136 120 101
-5.98838 2.50548 -1.8352 131 126 132
-5.37933 3.27736 -1.81485 97 96 112
-5.37595 3.31862 -1.82396 90 92 107
-5.33051 3.31441 -1.80993 84 85 99
-5.31521 3.34604 -1.81343 98 100 115
-5.2943 3.36164 -1.81133 83 85 100
-4.88867 4.07725 -1.82933 94 93 111
-4.87372 4.0874 -1.82864 88 87 105
-4.84747 4.08494 -1.82182 85 84 102
-4.82106 4.09505 -1.81841 85 86 104
-4.51743 4.67431 -1.83868 95 96 114
-4.49873 4.67997 -1.83669 94 95 113
-4.37229 4.97485 -1.852 93 98 113
-4.34194 4.9801 -1.84812 92 95 110
-4.21263 5.1847 -1.84794 93 98 114
-4.19278 5.18931 -1.84602 93 97 114
-4.01999 5.53419 -1.86186 92 95 110
-3.84246 5.80954 -1.86172 95 97 112
-3.82102 5.8128 -1.8599 92 96 110
-3.33684 6.61476 -1.87385 92 95 110
-3.16335 6.88757 -1.87909 92 94 107
-2.97211 7.17137 -1.87734 93 92 106
-2.80225 7.52696 -1.89651 94 96 109
-7.51566 0.128985 -1.81961 79 87 106
-7.25445 0.479301 -1.81403 87 94 112
-7.24645 0.497354 -1.81213 86 91 111
-7.14704 0.601821 -1.80847 88 97 114
-7.15085 0.629686 -1.81106 79 86 104
-6.97239 0.885325 -1.81336 82 88 107
-6.5666 1.41544 -1.80135 85 86 104
-6.55588 1.43042 -1.79931 101 96 110
-6.11148 2.0396 -1.79517 77 83 95
-6.09587 2.06005 -1.79308 79 85 97
-6.09372 2.07738 -1.79518 77 82 96
-6.08978 2.09397 -1.79658 80 86 100
-5.35829 3.35935 -1.82886 76 75 92
-5.31298 3.39967 -1.82605 78 81 98
-5.29577 3.40764 -1.82324 82 83 101
-5.26716 3.40583 -1.81482 79 80 98
-5.23587 3.43497 -1.81342 86 85 100
-4.81106 4.1106 -1.82045 93 95 108
-4.81217 4.13883 -1.82862 94 96 111
-4.48218 4.68867 -1.83602 93 94 111
-4.46674 4.71484 -1.84065 91 94 109
-4.32748 4.9931 -1.8494 93 96 111
-4.31297 5.00606 -1.85069 93 97 109
-4.17764 5.20206 -1.84728 95 98 113
-4.15433 5.21946 -1.84854 93 96 115
-4.00434 5.54816 -1.8637 95 98 113
-3.80511 5.82813 -1.8623 93 95 110
-3.58682 6.15948 -1.86238 97 100 115
-3.57305 6.18317 -1.86759 96 98 113
-3.31466 6.61973 -1.87328 92 95 110
-3.29249 6.62463 -1.87271 91 94 109
-3.13866 6.88648 -1.8769 93 95 108
-2.95157 7.18833 -1.8805 90 94 105
-2.77817 7.53413 -1.89701 94 96 109
-7.53964 0.110129 -1.827 82 93 111
-7.25296 0.460423 -1.81275 88 95 113
-7.15725 0.5845 -1.81104 78 85 103
-6.97224 0.867176 -1.81203 90 95 114
-6.60068 1.36196 -1.80746 82 89 104
-6.59375 1.37803 -1.80678 83 91 102
-6.59181 1.40424 -1.80884 81 88 103
-6.16562 1.94431 -1.79866 84 86 99
-6.15867 1.95959 -1.79867 84 88 100
-6.1343 1.98578 -1.79446 76 79 92
-6.12926 2.01074 -1.79657 78 81 96
-6.13072 2.02959 -1.80008 79 81 96
-5.27865 3.44921 -1.82885 88 85 102
-5.24966 3.46967 -1.82604 85 84 100
-5.23388 3.48981 -1.82674 88 90 105
-5.19967 3.48254 -1.81551 86 89 104
-5.21167 3.51616 -1.82743 87 89 104
-5.16644 3.50988 -1.8134 83 84 102
-5.16291 3.52977 -1.81761 84 85 103
-4.80286 4.16852 -1.83475 94 97 112
-4.77906 4.16846 -1.82929 94 97 112
-4.7651 4.17968 -1.82929 94 96 111
-4.4448 4.71564 -1.83667 92 95 112
-4.43342 4.73198 -1.83931 92 95 112
-4.28158 5.00937 -1.84615 90 96 110
-4.27295 5.03187 -1.85132 89 95 111
-4.13721 5.2288 -1.84854 95 99 116
-4.11544 5.22984 -1.84535 93 96 113
-3.97467 5.55635 -1.86184 93 94 112
-3.9529 5.55833 -1.85936 96 95 115
-3.77216 5.8302 -1.85868 93 93 111
-3.54854 6.18019 -1.8641 95 98 115
-3.27144 6.63312 -1.87325 92 94 109
-3.11613 6.8927 -1.87689 94 93 109
-2.91594 7.19313 -1.87943 91 95 106
-7.27124 0.415013 -1.81717 79 86 104
-7.27288 0.433914 -1.81845 85 92 110
-6.61234 1.30265 -1.8054 82 85 104
-6.60351 1.32704 -1.80473 80 84 102
-6.60576 1.34541 -1.80746 91 96 113
-6.18561 1.88929 -1.79725 97 99 111
-6.18406 1.9067 -1.79936 80 82 95
-6.19115 1.9276 -1.80497 90 92 104
-6.17764 1.98556 -1.80919 74 77 92
-5.16485 3.55472 -1.82462 85 84 102
-5.1363 3.55192 -1.8162 87 89 104
-5.12284 3.57413 -1.8183 74 77 92
-5.10396 3.57999 -1.81479 84 86 101
-5.09735 3.59729 -1.81759 91 93 108
-4.74449 4.19642 -1.82928 94 95 113
-4.73409 4.21183 -1.83132 93 95 110
