-6.23817 -5.95594 -1.53814 131 124 132
-6.25743 -5.93824 -1.53853 130 124 128
-6.30286 -5.92718 -1.5436 129 124 128
-6.31777 -5.9052 -1.54282 137 132 136
-6.34967 -5.89937 -1.54672 138 132 132
-6.37655 -5.8702 -1.54673 128 124 125
-7.26805 -5.77788 -1.67069 128 116 107
-7.32045 -5.78372 -1.67965 129 116 108
-7.37132 -5.7694 -1.68589 140 127 118
-7.42084 -5.7722 -1.69408 129 118 110
-7.47353 -5.77716 -1.70304 126 117 108
-7.53232 -5.76785 -1.71123 123 113 106
-7.58366 -5.77098 -1.7198 125 114 107
-7.63354 -5.77265 -1.72799 123 111 104
-7.68351 -5.77405 -1.73617 128 115 106
-7.71447 -5.74202 -1.73735 131 117 107
-7.73788 -5.72292 -1.73891 135 121 112
-7.75342 -5.69788 -1.73852 129 117 109
-7.77617 -5.65964 -1.73775 131 117 115
-7.79937 -5.64027 -1.73931 126 112 110
-7.82096 -5.61965 -1.74049 122 112 110
-7.84172 -5.57998 -1.73932 112 101 100
-7.86313 -5.55918 -1.74049 111 100 99
-7.87492 -5.53149 -1.73933 117 107 106
-7.89619 -5.51056 -1.7405 117 108 109
-7.918 -5.4717 -1.73973 114 108 109
-7.94074 -5.45171 -1.74129 113 111 114
-7.95212 -5.42383 -1.74012 114 108 114
-7.97673 -5.38695 -1.74013 114 107 114
-7.9879 -5.35899 -1.73896 116 111 118
-8.00708 -5.33648 -1.73975 114 108 119
-8.02965 -5.29824 -1.73936 109 104 111
-8.04869 -5.27557 -1.74015 125 120 126
-8.06436 -5.25068 -1.74015 138 133 140
-8.09142 -5.23324 -1.74288 132 126 130
-8.13324 -5.20737 -1.74717 129 125 124
-8.13716 -5.17479 -1.74445 136 133 130
-8.13764 -5.14012 -1.74094 149 144 147
-9.75132 -3.29366 -1.78579 83 89 103
-9.77192 -3.26705 -1.78802 83 89 103
-9.7776 -3.23534 -1.78728 80 87 103
-11.0312 -1.90018 -1.83205 85 97 121
-11.045 -1.8494 -1.83311 78 90 111
-12.0063 -0.627076 -1.84377 84 98 123
-12.0239 -0.578467 -1.84678 79 95 121
-12.3412 -0.138451 -1.84564 83 97 123
-12.3427 -0.0996716 -1.84596 83 97 123
-3.44262 -8.56505 -1.39666 144 134 124
-3.92455 -7.98734 -1.41094 114 100 91
-3.96624 -7.98087 -1.41304 121 107 96
-4.97348 -7.21967 -1.48754 115 114 122
-4.96948 -7.16529 -1.47864 124 123 129
-5.96446 -6.14227 -1.52525 126 124 125
-5.98964 -6.13119 -1.5272 127 126 126
-5.99854 -6.10303 -1.52447 130 127 128
-6.0237 -6.07275 -1.5237 128 122 124
-6.04874 -6.0614 -1.52565 125 119 121
-6.07787 -6.05415 -1.52877 122 118 121
-6.1124 -6.03327 -1.53072 131 128 129
-6.13739 -6.02156 -1.53267 131 127 130
-8.19736 -5.12534 -1.74952 93 92 101
-8.17771 -5.0781 -1.74134 70 69 80
-8.21437 -5.06625 -1.74641 85 83 94
-8.21395 -5.01368 -1.74096 80 77 88
-8.25386 -5.00359 -1.74681 79 75 86
-8.26365 -4.97497 -1.74564 84 81 94
-8.28175 -4.95139 -1.74643 82 81 95
-8.3159 -4.91992 -1.74916 85 85 97
-8.31191 -4.88316 -1.74488 86 85 98
-8.32299 -4.85541 -1.7441 89 90 102
-8.34491 -4.8167 -1.74411 87 85 98
-8.36423 -4.79377 -1.74528 86 82 96
-8.38179 -4.76979 -1.74606 85 82 92
-9.80309 -3.19331 -1.78951 80 87 104
-9.7992 -3.15846 -1.78691 81 89 107
-9.81012 -3.1285 -1.78729 81 90 107
-11.0441 -1.81391 -1.83206 121 122 132
-11.0566 -1.78061 -1.83346 107 107 110
-12.0131 -0.544766 -1.84459 86 102 128
-12.0139 -0.511734 -1.84463 81 97 122
-12.3599 -0.0414971 -1.84883 84 98 124
-3.39961 -8.61056 -1.40133 143 134 129
-3.42318 -8.59339 -1.39999 147 137 128
-3.87685 -8.01175 -1.41129 112 100 93
-3.89949 -7.9969 -1.41059 118 102 89
-4.96688 -7.33286 -1.50459 129 126 135
-4.9657 -7.2816 -1.49643 128 125 136
-5.81592 -6.24892 -1.52016 128 126 127
-5.83204 -6.22833 -1.51939 127 122 126
-5.85784 -6.1988 -1.51861 126 121 125
-5.89376 -6.19966 -1.52368 126 121 125
-5.90969 -6.17885 -1.5229 126 124 125
-5.93925 -6.15325 -1.52329 126 124 125
-8.40331 -4.73079 -1.74607 85 83 95
-8.45992 -4.72877 -1.75581 82 82 94
-8.46363 -4.69679 -1.75348 80 82 94
-8.48947 -4.6772 -1.75621 81 83 96
-8.49509 -4.62919 -1.75271 79 83 95
-8.51906 -4.60845 -1.75505 78 81 95
-8.53263 -4.58202 -1.75505 81 83 96
-8.56016 -4.54597 -1.75661 81 82 95
-9.87626 -3.09933 -1.79768 84 93 108
-9.87949 -3.06676 -1.79657 86 96 108
-9.89387 -3.0377 -1.79769 84 91 107
-9.90815 -3.00857 -1.7988 83 90 108
-11.066 -1.72902 -1.83382 127 125 127
-11.0569 -1.69235 -1.83137 142 142 147
-11.0632 -1.65805 -1.83172 91 90 102
-12.0193 -0.462361 -1.84542 83 97 123
-12.0296 -0.429731 -1.84731 85 99 125
-3.35589 -8.61385 -1.39933 142 133 130
-3.81478 -8.0378 -1.41094 124 127 136
-3.83675 -8.02133 -1.40989 110 108 120
-4.963 -7.45301 -1.52313 127 126 132
-4.97203 -7.39082 -1.51423 126 125 132
-5.69322 -6.32449 -1.51469 128 126 127
-5.71093 -6.30572 -1.51431 125 123 124
-5.73508 -6.29423 -1.51587 124 122 125
-5.76181 -6.28558 -1.51821 125 120 124
-5.79447 -6.26364 -1.51938 126 122 123
-8.58047 -4.52307 -1.75818 83 85 98
-8.59203 -4.49552 -1.75779 86 85 101
-8.61573 -4.4573 -1.75857 87 86 100
-8.63059 -4.43145 -1.75897 84 83 97
-8.64011 -4.40286 -1.75819 83 85 98
-8.66339 -4.36436 -1.75897 83 86 101
-8.6902 -4.34448 -1.76209 77 79 94
-9.92515 -2.96334 -1.79955 85 93 112
-9.93734 -2.9335 -1.80029 85 94 111
-9.96259 -2.90753 -1.80364 84 95 110
-11.0753 -1.62456 -1.83312 101 106 119
-12.0242 -0.396405 -1.84623 92 106 132
-12.0231 -0.346719 -1.84591 85 99 126
-3.76283 -8.05249 -1.40953 124 123 131
-3.79118 -8.0506 -1.41128 120 123 130
-4.97152 -7.56943 -1.54241 127 126 134
-4.96741 -7.51117 -1.53277 127 125 134
-5.54815 -6.39248 -1.50572 125 125 125
-5.58005 -6.3906 -1.50961 126 123 126
-5.61055 -6.36667 -1.51001 127 123 126
-5.6284 -6.34815 -1.50962 130 126 128
-5.65521 -6.33995 -1.51196 126 124 125
-8.69418 -4.31311 -1.76015 76 82 94
-8.69804 -4.28175 -1.7582 76 84 97
-8.72782 -4.24636 -1.76055 78 80 95
-8.75082 -4.22436 -1.76289 78 78 92
-8.77024 -4.20056 -1.76445 80 79 93
-8.78908 -4.15965 -1.76445 94 93 107
-9.98854 -2.86474 -1.80624 82 90 111
-10.0136 -2.83846 -1.80958 81 91 109
-10.0066 -2.8029 -1.80661 83 94 114
-11.0917 -1.57394 -1.83488 95 107 126
-11.1016 -1.54004 -1.83593 93 108 130
-11.1074 -1.50556 -1.83628 85 99 123
-12.0292 -0.313837 -1.84706 83 97 120
-12.0469 -0.281254 -1.85042 84 99 122
-3.7265 -8.07051 -1.40988 121 121 131
-4.27951 -6.9972 -1.38179 125 124 132
-4.30956 -6.99979 -1.38513 124 123 131
-4.34658 -7.01415 -1.39106 125 124 132
-4.96766 -7.69536 -1.56206 127 126 132
-4.97738 -7.63113 -1.55279 127 126 132
-5.42747 -6.46718 -1.50142 128 126 131
-5.44568 -6.44922 -1.50103 124 122 127
-5.46757 -6.43575 -1.50181 127 125 130
-5.49695 -6.43125 -1.50493 128 126 129
-5.53265 -6.41375 -1.50688 127 127 127
-8.77112 -4.11812 -1.75783 82 81 95
-8.79025 -4.09417 -1.75939 82 81 95
-8.83525 -4.06547 -1.76524 87 85 98
-8.83109 -4.03065 -1.76174 86 82 96
-8.86602 -4.01372 -1.76681 83 79 93
-8.86167 -3.97889 -1.7633 81 77 91
-10.0528 -2.76557 -1.8133 85 98 117
-11.1272 -1.45517 -1.83874 92 106 132
-11.1133 -1.41813 -1.83559 90 103 129
-12.0312 -0.247693 -1.8475 86 100 125
-3.67138 -8.07734 -1.40708 124 124 134
-3.70124 -8.07941 -1.40953 124 124 132
-4.2403 -7.05444 -1.38735 127 127 139
-4.26018 -7.01329 -1.38253 127 125 136
-4.96127 -7.79233 -1.57689 124 124 132
-4.97274 -7.75726 -1.57244 125 124 132
-5.314 -6.52992 -1.49673 127 125 128
-5.34756 -6.51039 -1.4979 127 127 129
-5.3745 -6.5034 -1.50024 127 127 129
-5.39529 -6.48866 -1.50063 128 127 132
-8.90987 -3.95107 -1.76993 85 83 97
-8.89449 -3.91148 -1.76409 81 79 93
-8.92742 -3.89322 -1.76877 85 82 93
-8.93939 -3.8492 -1.76761 88 86 99
-8.94877 -3.8206 -1.76722 90 88 101
-11.1227 -1.38406 -1.83664 87 100 126
-12.0333 -0.198073 -1.84792 81 95 122
-12.0448 -0.165169 -1.85018 79 93 119
-3.60734 -8.09806 -1.40603 119 119 129
-3.63189 -8.08766 -1.40603 120 120 129
-4.80087 -7.71336 -1.54832 126 125 133
-4.90237 -7.83093 -1.57725 128 127 135
-4.93625 -7.83311 -1.58097 127 127 137
-5.21734 -6.59209 -1.49438 126 125 130
-5.23719 -6.57634 -1.49438 128 127 132
-5.27214 -6.55877 -1.49594 126 124 129
-5.29671 -6.54901 -1.49751 121 120 125
-8.96168 -3.79351 -1.76761 84 83 97
-8.97317 -3.74937 -1.76645 82 83 98
-8.98222 -3.72068 -1.76606 80 81 99
-9.03286 -3.70912 -1.77464 85 84 100
-11.1399 -1.33321 -1.83875 93 108 133
-11.1432 -1.29833 -1.83875 80 96 121
-11.1562 -1.26454 -1.8405 90 105 130
-11.474 -0.831926 -1.83999 86 101 124
-11.4816 -0.800993 -1.84119 84 99 122
-12.0444 -0.132016 -1.85021 83 97 123
-12.0343 -0.0821805 -1.84842 81 95 121
-3.53878 -8.1073 -1.40287 124 123 131
-3.58128 -8.10475 -1.40532 120 120 132
-5.1482 -6.6483 -1.49476 130 127 134
-5.17393 -6.61872 -1.49321 130 127 134
-5.19862 -6.60935 -1.49477 126 125 130
-9.0164 -3.66988 -1.76879 84 82 95
-9.03453 -3.62848 -1.76919 87 85 98
-9.06504 -3.60832 -1.77348 85 82 96
-9.06818 -3.57719 -1.77192 90 86 100
-11.1807 -1.23193 -1.84436 82 96 122
-11.4805 -0.753582 -1.84046 79 93 119
-12.0493 -0.0491673 -1.85141 83 97 124
-12.0486 -0.0159908 -1.85145 84 99 126
-3.4888 -8.1256 -1.40252 120 122 135
-3.51417 -8.11741 -1.40287 122 121 134
-4.49471 -7.56133 -1.49416 130 128 141
-5.05243 -6.71103 -1.49319 126 125 131
-5.07612 -6.70056 -1.49436 127 126 131
-5.10915 -6.68074 -1.49514 127 127 129
-5.12812 -6.66377 -1.49476 126 125 130
-9.08406 -3.5348 -1.77192 87 84 97
-9.09428 -3.50649 -1.77193 86 84 97
-9.1117 -3.48095 -1.77349 86 84 97
-9.13079 -3.43972 -1.77427 82 81 95
-11.1836 -1.17921 -1.84401 84 98 125
-11.1844 -1.14399 -1.84366 81 95 122
-11.1891 -1.10915 -1.84401 82 96 122
-11.4839 -0.722306 -1.84088 80 95 118
-11.4638 -0.689447 -1.83664 86 101 126
-3.44849 -8.13315 -1.40112 117 120 128
-4.57354 -7.8445 -1.54793 112 109 116
-4.61738 -7.83774 -1.5509 130 127 138
-4.99215 -6.77977 -1.49708 129 127 132
-5.00349 -6.75199 -1.49396 127 126 132
-5.0287 -6.72142 -1.49202 127 126 132
-6.08027 -5.78103 -1.55878 130 124 128
-6.12268 -5.78717 -1.56608 132 126 128
-6.1582 -5.78627 -1.57135 135 126 127
-6.2099 -5.78256 -1.57865 139 128 125
-6.24413 -5.77988 -1.58352 139 126 121
-6.28547 -5.78379 -1.59041 130 117 109
-6.33885 -5.78053 -1.59812 132 121 109
-6.37752 -5.78126 -1.6042 134 122 113
-6.42055 -5.78582 -1.6115 135 125 116
-6.45938 -5.78616 -1.61758 137 127 118
-6.51024 -5.77903 -1.62448 132 119 111
-6.55496 -5.78419 -1.63218 130 116 107
-6.59545 -5.78518 -1.63867 137 123 112
-6.64945 -5.77974 -1.64638 133 121 108
-6.68861 -5.77894 -1.65246 132 120 109
-6.7337 -5.78314 -1.66016 131 118 109
-6.78795 -5.77673 -1.66787 130 117 109
-6.82732 -5.77525 -1.67395 128 118 108
-6.87857 -5.78383 -1.68328 132 122 112
-6.91215 -5.7768 -1.68774 123 113 104
-6.97564 -5.77677 -1.69788 128 113 105
-7.01976 -5.77817 -1.70518 135 121 112
-7.06694 -5.78186 -1.71329 131 117 106
-7.11878 -5.77064 -1.72019 125 110 104
-7.16614 -5.77378 -1.7283 125 112 106
-7.20453 -5.76921 -1.73398 122 110 105
-7.24594 -5.74838 -1.73803 119 108 105
-7.26616 -5.72858 -1.73885 123 112 107
-7.28936 -5.71117 -1.74047 119 106 99
-7.31075 -5.67388 -1.73926 135 126 116
-7.3277 -5.65141 -1.73927 135 125 117
-7.34302 -5.62766 -1.73886 127 116 115
-7.36135 -5.60629 -1.73927 116 106 106
-7.39303 -5.57711 -1.7409 112 104 106
-7.41276 -5.55676 -1.74171 112 106 108
-7.42621 -5.53157 -1.74091 112 108 110
-7.4576 -5.502 -1.74253 112 110 113
-7.46774 -5.47434 -1.74092 113 111 114
-7.49031 -5.45604 -1.74254 115 110 116
-7.51666 -5.4226 -1.74295 114 109 115
-7.52337 -5.39249 -1.74052 113 107 117
-7.54099 -5.37047 -1.74093 114 109 116
-7.5554 -5.34609 -1.74053 106 101 108
-7.58442 -5.31459 -1.74175 112 107 113
-7.60181 -5.29236 -1.74216 137 131 134
-7.61596 -5.2678 -1.74176 140 134 136
-7.64624 -5.23707 -1.74338 129 123 123
-7.67303 -5.22134 -1.74623 134 130 127
-7.68212 -5.19322 -1.74461 137 131 133
-7.69759 -5.15213 -1.74259 149 145 151
-7.70803 -5.12508 -1.74137 101 99 105
-7.72972 -5.10569 -1.743 89 86 93
-7.73837 -5.07747 -1.74138 74 71 82
-7.7695 -5.04706 -1.74341 79 78 91
-7.78284 -5.02201 -1.74301 81 80 95
-7.80591 -5.00336 -1.74504 81 78 95
-9.18106 -3.42634 -1.78285 83 85 100
-9.2001 -3.40111 -1.7848 82 86 98
-9.22274 -3.37714 -1.78753 82 85 99
-9.22111 -3.328 -1.78403 78 84 98
-10.2235 -2.23975 -1.82298 95 89 85
-11.1933 -1.05657 -1.84402 87 101 127
-11.4973 -0.644331 -1.84291 86 100 126
-11.473 -0.611363 -1.83789 83 97 123
-11.4682 -0.579638 -1.83676 85 99 126
-3.4026 -8.16188 -1.40287 124 125 135
-3.42664 -8.1503 -1.40252 116 118 128
-4.50979 -7.84217 -1.54162 131 129 132
-4.5393 -7.83908 -1.54384 127 125 128
-4.99492 -6.87225 -1.51226 124 123 128
-4.98857 -6.81877 -1.50292 125 124 130
-5.82932 -5.90393 -1.5393 121 121 123
-5.86185 -5.90179 -1.54376 123 122 125
-5.88469 -5.87081 -1.54255 128 124 128
-5.905 -5.85572 -1.54336 129 127 128
-5.92527 -5.84056 -1.54417 130 128 129
-5.95875 -5.82046 -1.5462 128 124 126
-5.97342 -5.79955 -1.5454 126 124 125
-6.00596 -5.79661 -1.54986 133 129 130
-6.04131 -5.79628 -1.55513 130 125 128
-7.83346 -4.9704 -1.74626 81 79 93
-7.84161 -4.94196 -1.74464 80 78 92
-7.85624 -4.91775 -1.74465 83 82 96
-7.88177 -4.88343 -1.74546 80 80 92
-7.89292 -4.857 -1.74466 88 87 101
-7.91225 -4.83573 -1.74588 83 83 96
-7.93319 -4.81542 -1.7475 81 80 94
-7.94828 -4.77452 -1.74588 78 80 95
-7.98241 -4.7622 -1.75075 78 79 97
-7.97139 -4.7223 -1.74468 80 79 97
-8.01115 -4.69639 -1.74914 78 79 95
-8.01156 -4.66361 -1.7459 80 82 97
-8.03036 -4.64183 -1.74712 77 80 95
-9.24725 -3.30518 -1.78754 81 89 102
-9.26226 -3.2783 -1.78871 79 87 101
-9.2638 -3.23043 -1.78598 79 85 101
-10.2392 -2.20991 -1.82484 96 93 94
-10.2468 -2.16148 -1.82447 96 100 112
-11.1957 -1.02151 -1.84402 84 98 124
-11.1843 -0.985258 -1.84157 87 101 128
-11.4749 -0.548555 -1.83795 86 100 126
-11.457 -0.500504 -1.83412 82 96 122
-3.37502 -8.16419 -1.40147 126 129 137
-4.39895 -7.83818 -1.53085 136 133 140
-4.43201 -7.84245 -1.53456 136 135 141
-4.46421 -7.84486 -1.53791 128 129 133
-4.98907 -6.97734 -1.52861 129 126 135
-4.9845 -6.92528 -1.51966 128 125 132
-5.67422 -5.99442 -1.53036 126 124 127
-5.70158 -5.96858 -1.53037 128 126 129
-5.72211 -5.95415 -1.53118 130 128 131
-5.74794 -5.94539 -1.53361 132 127 131
-5.76709 -5.92937 -1.53402 127 122 126
-5.79681 -5.90592 -1.53484 125 123 126
-8.05974 -4.60949 -1.74915 80 81 97
-8.07165 -4.58358 -1.74875 79 82 97
-8.11395 -4.57523 -1.75564 80 81 96
-8.09858 -4.53359 -1.74876 78 80 95
-8.14112 -4.50852 -1.75403 78 80 95
-8.14585 -4.47852 -1.75201 78 81 96
-8.18124 -4.46571 -1.75728 79 82 98
-8.17222 -4.41162 -1.75039 79 81 96
-8.20919 -4.39948 -1.75607 80 84 97
-9.28969 -3.20729 -1.78949 83 88 107
-9.297 -3.17767 -1.78911 81 86 105
-9.32586 -3.13914 -1.79223 80 89 106
-9.33481 -3.11004 -1.79223 82 89 108
-10.2546 -2.12985 -1.82484 91 99 115
-10.2566 -2.09699 -1.8241 88 99 117
-11.1801 -0.932054 -1.84017 80 96 122
-11.188 -0.897486 -1.84122 83 97 124
-11.4753 -0.469929 -1.83765 81 93 117
-3.31598 -8.1972 -1.40321 124 123 131
-3.3374 -8.17852 -1.40146 118 121 128
-4.32338 -7.84087 -1.52454 141 137 137
-4.36687 -7.83551 -1.52751 137 136 139
-4.98738 -7.09085 -1.54691 130 127 136
-4.99449 -7.03112 -1.53795 129 126 133
-5.55596 -6.06743 -1.52467 124 124 126
-5.57415 -6.0506 -1.52468 126 126 128
-5.59361 -6.03518 -1.52508 126 126 128
-5.62376 -6.01264 -1.5259 125 123 126
-5.65488 -6.01012 -1.52995 124 122 125
-8.20322 -4.36378 -1.75162 81 85 97
-8.25211 -4.34141 -1.75851 79 81 96
-8.2752 -4.32137 -1.76095 78 80 95
-8.28098 -4.29207 -1.75933 79 82 95
-8.29182 -4.2655 -1.75893 80 83 97
-8.31618 -4.22965 -1.76015 68 71 84
-8.33379 -4.20656 -1.76137 90 92 104
-9.34366 -3.0809 -1.79223 83 90 108
-9.36363 -3.05538 -1.79457 91 99 118
-9.36959 -3.00913 -1.79302 80 90 109
-10.279 -2.05163 -1.8267 85 97 119
-10.2884 -2.02026 -1.82744 85 97 121
-10.2957 -1.98846 -1.82782 86 98 120
-11.1762 -0.861396 -1.83877 85 97 123
-11.1681 -0.82567 -1.83703 87 99 123
-11.4778 -0.438591 -1.83807 80 92 115
-11.4906 -0.391876 -1.84045 82 97 121
-3.24992 -8.21125 -1.40146 120 122 129
-3.28972 -8.20288 -1.40251 126 125 130
-4.26128 -7.8383 -1.5186 118 113 111
-4.2914 -7.8379 -1.5212 128 123 121
-4.99768 -7.20052 -1.56599 128 127 133
-4.98885 -7.13994 -1.55508 131 130 138
-5.43343 -6.15369 -1.52101 127 127 129
-5.46409 -6.132 -1.52182 127 125 130
-5.48504 -6.11844 -1.52264 124 122 125
-5.50467 -6.10332 -1.52304 124 122 125
-5.52812 -6.09257 -1.52467 126 124 127
-8.33741 -4.17627 -1.75934 104 103 113
-8.37009 -4.14455 -1.76259 102 105 113
-8.38397 -4.11948 -1.763 76 78 89
-8.39426 -4.09261 -1.7626 85 84 100
-8.4161 -4.05527 -1.76341 85 84 100
-8.43322 -4.03174 -1.76463 102 101 115
-9.38933 -2.98343 -1.79536 82 93 111
-9.3978 -2.95412 -1.79536 82 94 111
-9.41823 -2.9124 -1.79692 79 92 111
-10.2984 -1.93905 -1.8267 83 95 117
-10.319 -1.90976 -1.82967 87 99 122
-11.1593 -0.772376 -1.83493 80 95 118
-11.1529 -0.736898 -1.83353 78 94 119
-11.4968 -0.3606 -1.84165 88 103 126
-11.4912 -0.328927 -1.84052 88 103 126
-3.22565 -8.22227 -1.40181 119 122 128
-4.15177 -7.83087 -1.50784 127 115 106
-4.18349 -7.8344 -1.51118 127 118 113
-4.21617 -7.83957 -1.51489 128 120 121
-4.99315 -7.31478 -1.58428 128 127 135
-4.98288 -7.25072 -1.5726 125 124 129
-5.31691 -6.22629 -1.51654 127 125 130
-5.34056 -6.21629 -1.51816 129 128 133
-5.36794 -6.21073 -1.521 126 125 130
-5.39258 -6.18186 -1.51979 126 124 127
-5.4124 -6.16706 -1.5202 125 125 127
-8.45554 -4.0107 -1.76707 79 78 90
-8.45666 -3.97938 -1.76464 89 87 100
-8.478 -3.94168 -1.76545 79 80 98
-8.49302 -3.91704 -1.76627 72 78 94
-8.5115 -3.89399 -1.76789 76 82 98
-9.45081 -2.89042 -1.80199 79 91 113
-9.45711 -2.86034 -1.8016 80 93 112
-10.3299 -1.87856 -1.83079 85 97 121
-10.3214 -1.84378 -1.82819 84 99 121
-11.1602 -0.702298 -1.83458 82 98 124
-11.478 -0.281354 -1.83785 84 100 126
-3.1987 -8.2258 -1.40076 123 126 131
-4.08042 -7.83828 -1.50302 137 123 112
-4.1112 -7.84034 -1.50598 122 112 100
-4.99879 -7.42191 -1.60258 127 125 137
-4.98916 -7.35763 -1.5909 127 125 136
-5.22319 -6.28702 -1.51369 127 126 131
-5.24331 -6.27281 -1.5141 127 126 131
-5.26338 -6.25852 -1.5145 129 127 131
-5.29078 -6.2533 -1.51734 126 124 127
-8.53601 -3.85762 -1.76952 81 87 103
-8.55078 -3.83275 -1.77033 77 82 99
-8.5637 -3.80701 -1.77074 81 83 101
-8.56998 -3.76231 -1.76831 82 81 97
-8.597 -3.74284 -1.77196 80 79 95
-10.3407 -1.7974 -1.83042 87 100 119
-10.3358 -1.76337 -1.82857 85 98 118
-11.1586 -0.649596 -1.83388 81 95 121
-11.1421 -0.613682 -1.83073 91 104 129
-11.5015 -0.250444 -1.84255 83 97 123
-11.4896 -0.218696 -1.84025 84 97 123
-11.4855 -0.187151 -1.83951 85 97 123
-4.01652 -7.82848 -1.49596 144 130 117
-4.04801 -7.83256 -1.4993 141 129 117
-4.92354 -7.48052 -1.60413 127 126 132
-4.93988 -7.45582 -1.6018 128 127 133
-4.96245 -7.441 -1.6018 130 128 139
-5.11403 -6.34775 -1.50922 128 125 132
-5.14665 -6.32927 -1.51044 127 126 132
-5.1681 -6.31686 -1.51125 127 126 132
-5.1883 -6.30283 -1.51166 127 126 132
-8.61859 -3.72087 -1.7744 76 77 95
-8.62441 -3.67602 -1.77197 78 79 97
-8.64763 -3.65465 -1.77481 78 79 95
-8.65101 -3.6247 -1.77319 83 83 97
-8.6669 -3.60011 -1.77441 82 85 96
-10.354 -1.73334 -1.83117 82 94 118
-10.3554 -1.68378 -1.83005 83 98 122
-11.149 -0.579042 -1.83178 90 102 128
-11.4932 -0.140029 -1.84111 80 94 120
-3.94467 -7.83288 -1.49077 133 115 103
-3.97439 -7.83369 -1.49337 148 130 116
-4.37181 -7.05353 -1.47404 132 131 139
-4.85066 -7.54332 -1.60685 131 130 138
-4.8673 -7.51879 -1.60451 128 128 138
-4.88488 -7.49589 -1.60257 127 125 136
-5.01778 -6.40369 -1.50596 122 121 126
-5.04876 -6.40428 -1.51002 127 125 131
-5.07452 -6.37679 -1.50881 128 127 132
-5.09608 -6.36464 -1.50962 127 125 131
-8.68471 -3.56045 -1.77482 80 81 94
-8.71306 -3.54094 -1.77888 84 83 97
-8.72148 -3.51311 -1.77848 82 81 96
-8.73707 -3.47243 -1.77848 80 84 96
-10.3617 -1.65169 -1.83043 86 98 123
-10.3815 -1.62174 -1.8334 90 102 126
-11.1468 -0.526428 -1.83109 80 94 120
-11.1574 -0.491886 -1.83284 86 100 126
-11.4947 -0.108547 -1.84153 79 94 117
-11.4942 -0.0770394 -1.84157 82 96 121
-3.87217 -7.83482 -1.4852 117 105 93
-3.91583 -7.83373 -1.48854 124 110 101
-4.31326 -7.05225 -1.4678 117 116 121
-4.33756 -7.0445 -1.46897 126 126 130
-4.80303 -7.5961 -1.61074 127 125 137
-4.81584 -7.56499 -1.60684 126 125 133
-4.9461 -6.45124 -1.50474 125 124 129
-4.97794 -6.43209 -1.50555 125 125 127
-4.99613 -6.41556 -1.50515 124 123 128
-8.75977 -3.45036 -1.78132 85 84 99
-8.78789 -3.43036 -1.78538 83 81 97
-8.77943 -3.38005 -1.78011 81 83 98
-8.78549 -3.35133 -1.7793 82 84 97
-10.3882 -1.573 -1.8334 87 99 124
-10.3962 -1.54108 -1.83414 86 98 122
-11.156 -0.456824 -1.83249 83 97 123
-11.1644 -0.422113 -1.83389 86 101 124
-11.4877 -0.0297715 -1.84045 82 96 122
-3.64746 -7.62071 -1.43068 131 126 118
-3.66985 -7.60822 -1.43031 109 101 96
-3.78161 -7.76237 -1.46554 113 100 91
-3.84178 -7.83182 -1.48223 114 100 91
-4.26618 -7.09593 -1.47052 129 127 138
-4.28372 -7.07646 -1.46897 130 127 137
-4.70461 -7.53714 -1.59048 131 130 138
-4.77391 -7.60033 -1.6084 130 128 139
-4.88301 -6.5107 -1.50676 131 128 135
-4.90712 -6.48075 -1.50473 127 126 130
-4.92434 -6.46285 -1.50393 126 126 128
-7.05402 -5.42343 -1.73843 113 107 117
-7.06707 -5.39936 -1.73759 112 106 116
-7.07848 -5.37406 -1.73633 113 109 116
-7.10841 -5.36301 -1.74012 107 104 113
-7.13585 -5.33257 -1.74097 104 98 108
-7.15481 -5.31299 -1.74182 117 111 117
-7.17059 -5.29098 -1.74182 139 134 140
-7.193 -5.25671 -1.7414 134 129 132
-7.22433 -5.24618 -1.74562 126 124 125
-7.23361 -5.21933 -1.74394 129 128 126
-7.24618 -5.17789 -1.74099 149 145 149
-7.26312 -5.15673 -1.74142 133 129 135
-7.28795 -5.14119 -1.74395 87 82 92
-7.30166 -5.10073 -1.74143 67 65 76
-7.31996 -5.0805 -1.74227 79 75 89
-7.33501 -5.05795 -1.74228 85 83 96
-7.34519 -5.03201 -1.74102 85 81 95
-7.38243 -5.00801 -1.74481 85 85 93
-7.39725 -4.98526 -1.74481 97 94 102
-8.8152 -3.33173 -1.78377 80 82 95
-8.81198 -3.29943 -1.78093 83 85 98
-8.83755 -3.26242 -1.78337 81 85 97
-10.3962 -1.50796 -1.8334 86 101 122
-11.1575 -0.369347 -1.83249 80 94 121
-3.60096 -7.64186 -1.43067 146 135 129
-3.62109 -7.62411 -1.42919 145 136 127
-4.33369 -7.26535 -1.50635 134 133 141
-4.80802 -6.55341 -1.50472 127 125 135
-4.83805 -6.53178 -1.50473 127 124 133
-4.8611 -6.52208 -1.50594 128 125 134
-6.39993 -5.79309 -1.67982 130 119 111
-6.44743 -5.80131 -1.68866 133 124 116
-6.48351 -5.79874 -1.69414 135 126 119
-6.54321 -5.79915 -1.70383 130 119 113
-6.57505 -5.79221 -1.70804 127 117 107
-6.6171 -5.79423 -1.7152 129 119 109
-6.66217 -5.79864 -1.7232 126 116 106
-6.70907 -5.7861 -1.7291 127 114 105
-6.74546 -5.78228 -1.73458 126 113 105
-6.76126 -5.76033 -1.73416 125 112 106
-6.783 -5.72541 -1.7329 123 110 102
-6.80156 -5.70589 -1.73333 119 108 102
-6.82455 -5.69011 -1.73502 118 109 104
-6.85489 -5.66248 -1.73628 126 116 116
-6.86727 -5.6377 -1.73503 129 119 117
-6.88559 -5.61788 -1.73545 121 112 106
-6.90534 -5.59925 -1.7363 117 110 108
-6.92776 -5.56497 -1.73546 112 106 108
-6.94889 -5.54741 -1.73672 107 101 104
-6.96693 -5.52731 -1.73715 115 110 114
-6.99202 -5.4952 -1.73715 112 107 113
-7.01297 -5.47738 -1.73842 111 106 112
-7.02927 -5.45584 -1.73842 114 109 115
-7.41363 -4.96356 -1.74524 104 103 111
-7.43281 -4.92708 -1.7444 98 98 108
-7.4555 -4.90958 -1.74651 90 92 104
-7.46351 -4.88227 -1.74483 99 99 111
-7.49209 -4.85201 -1.74652 84 83 97
-7.51298 -4.83317 -1.74821 81 80 93
-7.52562 -4.80892 -1.74779 79 78 92
-7.5316 -4.78042 -1.74569 85 84 97
-7.55646 -4.74763 -1.74653 85 84 98
-7.61013 -4.74935 -1.75664 81 80 94
-7.62413 -4.72585 -1.75665 76 78 91
-7.6471 -4.69155 -1.75707 80 82 97
-7.66759 -4.67203 -1.75876 77 79 94
-7.68302 -4.64937 -1.75918 78 81 96
-7.71232 -4.6188 -1.76129 78 81 96
-8.84141 -3.23287 -1.78215 81 84 99
-8.85616 -3.20738 -1.78337 81 87 101
-8.87214 -3.16669 -1.78378 80 86 100
-8.8904 -3.14239 -1.78581 81 89 102
-11.1814 -0.335002 -1.8367 85 99 128
-11.1717 -0.299685 -1.83495 86 98 124
-3.53534 -7.65158 -1.42733 147 138 130
-3.56713 -7.66114 -1.43141 150 140 131
-4.74084 -6.5849 -1.50188 123 122 129
-4.7673 -6.58041 -1.50431 126 125 131
-4.78934 -6.56936 -1.50513 126 125 131
-5.69605 -5.79406 -1.56988 136 127 128
-5.73367 -5.79788 -1.5762 136 128 126
-5.7741 -5.80433 -1.58336 139 131 128
-5.80779 -5.80359 -1.58842 130 121 116
-5.8575 -5.80076 -1.59558 121 111 102
-5.8927 -5.80101 -1.60105 124 114 105
-5.93759 -5.81077 -1.60948 128 116 109
-5.98758 -5.80707 -1.61664 133 124 115
-6.01466 -5.79846 -1.61959 135 122 114
-6.05566 -5.80342 -1.62675 132 123 114
-6.10867 -5.80162 -1.63475 130 121 112
-6.14707 -5.80337 -1.64107 129 120 113
-6.18271 -5.80223 -1.64654 125 116 111
-6.22688 -5.80902 -1.65455 128 118 112
-6.27177 -5.79796 -1.66002 129 119 110
-6.30616 -5.79487 -1.66508 129 119 110
-6.36201 -5.81164 -1.67645 129 119 111
-7.72258 -4.59296 -1.76046 77 83 99
-7.73441 -4.56809 -1.76004 74 80 96
-7.74281 -4.5412 -1.75878 80 81 99
-7.78517 -4.51813 -1.76426 80 80 97
-7.79676 -4.49307 -1.76384 78 81 96
-7.81505 -4.4719 -1.76511 72 78 92
-7.82499 -4.42981 -1.76258 78 80 95
-7.83119 -4.40175 -1.7609 75 78 95
-7.85773 -4.38519 -1.76428 72 79 95
-7.85183 -4.33445 -1.75796 75 81 97
-8.89752 -3.11406 -1.78541 79 86 102
-8.92045 -3.07573 -1.78744 79 88 103
-8.93107 -3.0486 -1.78785 81 89 105
-3.51962 -7.67996 -1.43104 146 137 132
-4.55063 -7.7306 -1.60798 137 130 136
-4.73568 -6.6434 -1.5112 128 126 136
-5.46941 -5.85477 -1.54545 127 125 128
-5.48947 -5.82269 -1.54335 124 122 124
-5.51612 -5.81612 -1.54629 126 124 125
-5.54944 -5.8166 -1.55135 131 127 128
-5.58792 -5.80419 -1.55514 131 126 130
-5.6173 -5.80005 -1.55893 130 125 128
-5.65479 -5.80429 -1.56525 133 127 129
-7.86111 -4.30826 -1.75712 72 78 94
-7.89086 -4.29333 -1.76134 73 79 93
-7.90516 -4.26984 -1.76176 71 73 86
-7.92603 -4.23404 -1.76219 82 84 96
-7.94531 -4.21319 -1.76388 96 96 108
-7.96973 -4.195 -1.76683 93 93 105
-7.9868 -4.15705 -1.76641 90 91 101
-8.94159 -3.02142 -1.78826 82 91 108
-8.94832 -2.99294 -1.78785 79 88 105
-8.97074 -2.95423 -1.78988 77 85 104
-11.1875 -0.177219 -1.83775 82 94 120
-3.45314 -7.68713 -1.42733 144 136 130
-3.47955 -7.68434 -1.42881 145 135 130
-4.46116 -7.73649 -1.60019 133 125 125
-4.49127 -7.73521 -1.60291 140 134 134
-4.52714 -7.74409 -1.60798 140 134 137
-4.85371 -6.86415 -1.56265 127 126 134
-5.32833 -5.93155 -1.53701 124 124 126
-5.34993 -5.91986 -1.53828 127 125 128
-5.37797 -5.91541 -1.54165 129 127 132
-5.41012 -5.89682 -1.54333 126 124 127
-5.41993 -5.87171 -1.54081 123 122 125
-5.44532 -5.86402 -1.54334 126 124 128
-8.00241 -4.13412 -1.76726 85 84 97
-8.00929 -4.10664 -1.766 92 88 102
-8.02593 -4.06851 -1.76558 85 85 98
-8.05175 -4.0507 -1.76895 89 87 101
-8.05485 -4.02136 -1.76685 83 81 94
-8.06482 -3.99552 -1.76643 90 88 102
-8.09494 -3.96405 -1.76938 82 82 94
-8.99025 -2.92998 -1.79232 78 89 105
-9.00412 -2.90381 -1.79354 79 91 107
-9.06522 -2.87736 -1.80408 79 86 107
-9.74396 -2.05873 -1.82114 89 101 117
-11.1677 -0.124386 -1.83425 81 95 121
-3.42746 -7.69166 -1.42621 144 136 128
-4.39815 -7.76245 -1.59862 127 119 109
-4.42546 -7.75626 -1.60018 121 112 105
-4.94767 -7.05147 -1.6056 127 126 132
-5.2292 -6.00075 -1.53405 126 124 127
-5.25656 -5.97705 -1.53405 127 125 129
-5.27444 -5.96117 -1.53406 125 124 129
-5.30119 -5.95561 -1.53701 124 123 127
-8.09772 -3.93466 -1.76728 92 92 104
-8.11795 -3.91382 -1.76939 92 93 105
-8.1319 -3.87435 -1.76855 102 101 113
-8.15376 -3.85416 -1.77108 89 87 100
-8.15081 -3.8222 -1.76771 90 90 102
-9.05102 -2.84195 -1.79922 86 94 115
-9.04412 -2.80902 -1.79598 84 95 113
-9.08628 -2.77603 -1.80247 87 95 112
-9.76227 -2.01492 -1.82309 87 98 116
-9.76769 -1.98436 -1.82309 88 99 117
-11.0532 -0.182072 -1.83123 82 94 120
-11.177 -0.0893982 -1.836 84 98 124
-11.1882 -0.0543469 -1.83811 85 99 125
-3.36616 -7.7108 -1.4251 142 134 131
-3.3933 -7.71014 -1.42695 143 135 131
-4.33592 -7.78961 -1.59745 126 119 110
-4.37918 -7.78409 -1.60057 127 118 109
-4.91701 -7.1718 -1.62261 126 125 131
-4.93441 -7.15052 -1.621 127 124 133
-4.9528 -7.13083 -1.61978 128 125 136
-5.14117 -6.06349 -1.53193 126 124 129
-5.16756 -6.03872 -1.53152 127 126 131
-5.19065 -6.02914 -1.5332 128 127 130
-5.2112 -6.01648 -1.53405 128 126 129
-8.17848 -3.78921 -1.77025 83 82 96
-8.20722 -3.77203 -1.77446 75 78 93
-8.20927 -3.74249 -1.77236 78 83 97
-8.22545 -3.71943 -1.77362 77 79 94
-8.24915 -3.68432 -1.77531 76 78 93
-9.13147 -2.75921 -1.81058 90 98 111
-9.14484 -2.73245 -1.8118 90 96 108
-9.14691 -2.70224 -1.81059 83 86 93
-9.79415 -1.95795 -1.82738 90 102 118
-9.79086 -1.9097 -1.82505 87 100 119
-9.79787 -1.8794 -1.82544 87 99 121
-11.0568 -0.152081 -1.83207 86 101 127
-11.1914 -0.0192307 -1.83881 81 95 121
-3.30404 -7.72759 -1.42361 143 138 134
-3.34192 -7.71868 -1.42473 143 135 130
-4.28671 -7.81165 -1.59666 126 117 110
-4.3095 -7.7972 -1.59628 126 119 111
-4.83406 -7.21285 -1.62017 127 126 134
-4.85902 -7.20335 -1.62139 126 125 133
-4.88291 -7.1921 -1.62221 127 126 131
-5.04264 -6.11261 -1.52645 127 126 131
-5.07071 -6.10964 -1.52982 128 127 132
-5.09734 -6.08519 -1.5294 129 128 133
-5.11557 -6.06984 -1.52941 126 125 130
-8.25267 -3.65553 -1.77363 82 81 97
-8.26325 -3.62991 -1.77363 80 79 97
-8.28298 -3.59297 -1.77448 81 80 98
-8.29335 -3.56725 -1.77448 81 80 96
-8.3234 -3.54995 -1.77912 80 79 93
-9.16618 -2.66167 -1.81221 86 81 84
-9.18114 -2.63528 -1.81384 83 75 79
-9.17725 -2.60338 -1.81141 81 75 77
-9.81827 -1.85159 -1.82856 86 98 119
-9.79712 -1.80019 -1.82271 86 98 120
-11.0663 -0.107098 -1.83415 83 97 123
-11.0579 -0.0769048 -1.83256 85 99 125
-3.25476 -7.74102 -1.4225 144 138 133
-3.2833 -7.74444 -1.42509 144 138 134
-4.22327 -7.83612 -1.5951 125 116 106
-4.24348 -7.81664 -1.59355 125 115 107
-4.79233 -7.27029 -1.62543 130 129 137
-4.81219 -7.22724 -1.62017 124 123 131
-4.91208 -6.15781 -1.51634 128 125 130
-4.9377 -6.15233 -1.51886 127 125 130
-4.95854 -6.14058 -1.51971 127 125 128
-4.99379 -6.14722 -1.5256 127 125 130
-5.02427 -6.12773 -1.52645 128 126 131
-8.33558 -3.50963 -1.77828 83 85 100
-8.34929 -3.48524 -1.77912 78 80 95
-8.35932 -3.4593 -1.77913 78 80 96
-8.3729 -3.43481 -1.77997 78 81 96
-9.18478 -2.55936 -1.8106 85 85 86
-9.20509 -2.5344 -1.81344 89 89 91
-9.82692 -1.77397 -1.82778 85 100 121
-9.8258 -1.74217 -1.82661 89 102 120
-11.0573 -0.0468177 -1.83259 83 96 121
-3.23185 -7.75221 -1.42286 145 141 134
-3.71712 -7.27957 -1.45101 143 125 113
-4.16943 -7.84866 -1.59237 118 102 86
-4.19325 -7.83632 -1.59237 126 112 100
-4.75023 -7.30205 -1.62624 132 129 139
-4.76925 -7.28288 -1.62503 133 130 141
-4.85022 -6.21366 -1.51759 130 128 133
-4.87238 -6.20379 -1.51886 130 128 133
-4.88626 -6.18294 -1.51717 131 126 132
-6.75238 -5.30248 -1.73246 111 106 113
-6.77797 -5.27276 -1.7329 137 130 137
-6.80125 -5.25815 -1.73509 136 131 137
-6.82145 -5.24102 -1.7364 131 126 130
-6.8561 -5.1852 -1.7351 138 133 137
-6.86073 -5.15587 -1.73205 149 147 148
-6.87296 -5.13251 -1.73118 110 107 114
-6.89466 -5.09978 -1.73075 60 57 72
-6.916 -5.08341 -1.73249 77 75 86
-6.92953 -5.06108 -1.73206 82 80 91
-6.95713 -5.03276 -1.73338 81 79 92
-6.99238 -5.02659 -1.73905 75 75 87
-6.99005 -4.99245 -1.73425 86 86 96
-7.02998 -4.9895 -1.74124 82 82 92
-7.03837 -4.94688 -1.73732 83 82 90
-7.05778 -4.92874 -1.73863 79 77 88
-7.0787 -4.91166 -1.74038 100 100 108
-7.08342 -4.8667 -1.73558 90 88 99
-7.11854 -4.8596 -1.74126 84 81 90
-7.11215 -4.82324 -1.73559 80 78 91
-7.15316 -4.80384 -1.74083 82 80 94
-7.16576 -4.78081 -1.7404 89 89 99
-7.16541 -4.74892 -1.73647 86 84 98
-7.18427 -4.73023 -1.73779 78 77 93
-7.20725 -4.69824 -1.73823 81 83 96
-7.21463 -4.6718 -1.73649 78 82 94
-8.43157 -3.4134 -1.79008 76 83 94
-8.43775 -3.38573 -1.78925 76 82 94
-8.44385 -3.35805 -1.78841 78 84 96
-9.23477 -2.51195 -1.81831 87 86 97
-9.23621 -2.46615 -1.81628 90 92 102
-9.24871 -2.43884 -1.8175 87 85 95
-9.82917 -1.69532 -1.82583 92 103 124
-9.84131 -1.66581 -1.8274 86 98 120
-11.0565 -0.00168675 -1.83264 82 97 120
-3.17157 -7.7734 -1.42249 144 139 137
-3.19732 -7.76977 -1.4236 147 140 137
-3.64474 -7.27104 -1.44322 117 104 95
-3.68579 -7.27093 -1.44672 125 107 97
-4.10493 -7.87038 -1.59042 138 126 115
-4.12969 -7.86 -1.59081 115 99 84
-4.642 -7.30074 -1.61408 128 126 136
-4.67621 -7.30702 -1.61894 129 128 135
-4.71455 -7.31985 -1.62543 124 123 129
-4.77499 -6.25151 -1.51421 129 126 134
-4.79953 -6.24506 -1.51632 128 125 132
-4.81594 -6.22753 -1.51548 125 123 127
-6.47512 -5.61207 -1.72804 123 114 106
-6.49331 -5.59366 -1.72848 119 112 105
-6.51875 -5.56398 -1.72849 121 116 112
-6.54267 -5.55058 -1.73067 120 114 115
-6.55482 -5.52679 -1.72937 113 107 110
-6.57405 -5.4917 -1.72763 113 108 114
-6.59929 -5.47931 -1.73025 109 107 111
-6.60821 -5.45285 -1.72807 110 107 114
-6.63187 -5.43902 -1.73026 111 107 114
-6.65659 -5.40866 -1.73026 111 106 117
-6.66672 -5.38335 -1.72852 111 105 115
-6.69023 -5.36925 -1.7307 109 106 115
-6.71161 -5.33612 -1.72984 102 99 107
-6.73201 -5.31934 -1.73115 102 100 104
-7.23652 -4.65505 -1.73867 78 82 94
-7.2559 -4.62064 -1.73824 76 79 94
-7.27278 -4.60049 -1.73911 76 82 96
-7.28471 -4.5771 -1.73868 74 82 95
-7.34144 -4.56668 -1.74828 75 81 95
-7.35982 -4.54727 -1.7496 76 82 96
-7.36003 -4.51632 -1.74611 75 81 95
-7.39029 -4.48858 -1.74873 77 80 95
-7.37867 -4.45043 -1.74219 78 81 96
-7.38014 -4.42059 -1.73914 75 81 95
-7.40643 -4.40605 -1.74263 74 81 97
-7.42791 -4.37288 -1.74307 77 80 97
-7.44743 -4.35406 -1.74482 77 80 95
-8.47507 -3.32509 -1.7922 78 84 98
-8.48824 -3.30016 -1.79304 77 80 97
-8.49953 -3.27446 -1.79347 80 81 99
-8.52129 -3.23758 -1.79516 79 82 99
-9.24791 -2.40797 -1.81588 85 82 91
-9.26783 -2.38257 -1.81872 90 86 91
-9.27051 -2.33722 -1.8171 84 82 83
-9.84564 -1.63496 -1.8274 84 96 118
-9.85566 -1.60503 -1.82857 88 100 124
-3.14921 -7.78618 -1.42323 144 138 134
-3.60473 -7.30106 -1.44516 110 96 87
-3.62932 -7.29585 -1.44633 112 99 90
-4.02667 -7.86331 -1.58224 141 127 113
-4.07325 -7.86658 -1.58691 141 128 113
-4.28509 -7.04337 -1.53019 137 133 135
-4.31028 -7.03746 -1.53181 136 132 137
-4.35534 -7.04029 -1.53708 135 130 136
-4.54123 -7.30971 -1.60475 135 130 137
-4.58616 -7.33501 -1.61407 131 128 135
-4.60437 -7.31462 -1.61245 133 131 136
-4.70176 -6.29157 -1.51168 127 126 133
-4.71949 -6.27591 -1.51126 127 126 131
-4.74636 -6.27285 -1.51421 128 126 131
-6.18668 -5.78294 -1.70532 128 118 109
-6.22497 -5.78452 -1.71187 125 116 109
-6.26053 -5.7832 -1.71754 122 112 108
-6.29251 -5.76004 -1.71929 114 106 104
-6.31821 -5.74897 -1.72191 116 108 108
-6.33966 -5.73378 -1.72322 123 116 111
-6.37289 -5.7115 -1.72541 117 106 101
-6.39281 -5.69478 -1.72629 117 106 102
-6.40553 -5.67137 -1.72498 119 109 104
-6.43253 -5.6611 -1.72804 127 118 113
-6.45397 -5.62779 -1.72673 126 117 110
-7.45855 -4.33015 -1.74439 75 81 92
-7.49813 -4.30763 -1.74963 75 78 93
-7.49732 -4.27666 -1.74614 76 76 96
-7.53849 -4.27027 -1.75356 74 78 94
-7.55597 -4.23448 -1.75313 75 77 92
-7.57515 -4.21509 -1.75488 74 76 89
-7.57903 -4.18695 -1.7527 97 97 109
-7.59298 -4.16457 -1.75314 99 97 110
-8.54336 -3.21589 -1.79811 78 84 100
-8.53609 -3.18316 -1.79432 79 85 101
-8.54461 -3.14128 -1.79306 78 85 101
-8.56641 -3.11938 -1.79601 77 84 100
-9.28643 -2.31068 -1.81913 89 87 92
-9.30037 -2.28359 -1.82076 89 87 95
-9.87579 -1.5608 -1.8313 84 97 121
-9.87013 -1.52835 -1.82935 78 91 115
-3.11182 -7.79596 -1.42249 144 136 134
-3.56699 -7.30782 -1.44321 115 99 92
-4.23128 -7.07481 -1.53018 129 121 118
-4.25704 -7.04407 -1.52735 136 132 132
-4.6058 -6.33968 -1.50788 124 123 128
-4.62594 -6.32752 -1.50831 124 123 128
-4.65056 -6.32168 -1.51041 126 125 131
-4.68511 -6.30876 -1.51252 127 126 134
-5.63255 -5.78674 -1.61716 134 121 112
-5.66716 -5.78827 -1.62284 134 121 113
-5.69916 -5.78679 -1.62764 136 122 113
-5.73789 -5.79225 -1.63462 134 120 111
-5.78045 -5.78315 -1.63986 129 116 108
-5.8207 -5.78958 -1.64728 128 115 106
-5.85562 -5.7902 -1.65295 130 117 105
-5.91197 -5.79431 -1.66255 127 114 105
-5.93885 -5.78616 -1.66561 128 117 110
-5.97946 -5.79176 -1.67302 128 118 109
-6.02238 -5.78113 -1.67826 129 119 111
-6.05899 -5.78215 -1.68437 132 122 113
-6.10259 -5.78985 -1.69266 132 121 114
-6.13381 -5.78502 -1.69703 130 120 113
-7.62356 -4.13612 -1.7562 98 95 106
-7.63737 -4.11358 -1.75664 94 92 105
-7.64085 -4.08535 -1.75446 82 80 93
-7.66771 -4.05468 -1.75665 95 94 107
-7.6847 -4.03382 -1.75796 87 86 99
-7.69475 -4.00921 -1.75753 93 91 105
-7.71958 -3.97726 -1.75928 77 76 89
-8.57715 -3.09338 -1.79643 77 85 98
-8.58963 -3.068 -1.79728 75 82 98
-8.59758 -3.02593 -1.79602 78 85 103
-9.31395 -2.24095 -1.82157 94 94 102
-9.322 -2.21232 -1.82198 95 98 107
-9.32994 -2.18366 -1.82238 92 97 109
-9.86434 -1.49596 -1.8274 85 97 121
-9.88203 -1.45124 -1.82974 91 103 127
-3.06291 -7.80995 -1.42174 145 137 139
-3.08736 -7.80299 -1.42212 146 139 138
-3.52503 -7.3338 -1.44437 126 117 108
-3.54644 -7.32174 -1.44399 107 96 87
-4.28287 -7.21909 -1.56138 115 108 100
-4.5565 -6.37219 -1.50746 128 127 133
-4.57895 -6.36342 -1.50872 130 129 135
-5.28907 -5.78064 -1.56349 135 128 130
-5.32177 -5.78237 -1.56872 135 127 125
-5.35709 -5.78687 -1.57483 131 124 120
-5.40031 -5.78163 -1.58051 118 109 102
-5.4371 -5.78719 -1.58705 120 111 104
-5.46874 -5.78677 -1.59185 128 118 113
-5.51477 -5.78369 -1.5984 131 122 113
-5.55049 -5.78723 -1.60451 133 123 113
-5.58759 -5.79203 -1.61105 134 121 112
-7.74498 -3.96071 -1.76277 75 78 93
-7.72715 -3.92151 -1.75535 76 79 94
-7.74895 -3.90305 -1.75798 73 77 91
-7.79069 -3.87961 -1.76409 68 71 86
-7.77591 -3.84234 -1.75755 73 74 89
-7.78883 -3.81922 -1.75799 78 76 92
-8.64125 -3.01138 -1.80402 81 90 107
-8.6461 -2.9832 -1.80318 79 88 105
-8.66288 -2.94406 -1.80403 79 91 107
-9.34878 -2.14216 -1.82441 88 97 114
-9.33365 -2.10813 -1.81995 89 98 113
-9.88569 -1.42026 -1.82974 85 97 121
-9.90476 -1.3914 -1.83286 94 106 130
-3.02544 -7.8193 -1.421 145 140 141
-3.46734 -7.35561 -1.44359 141 127 116
-3.50277 -7.34402 -1.44437 145 133 124
-4.3685 -7.4272 -1.60756 126 116 107
-4.48336 -6.41116 -1.50534 127 126 131
-4.49825 -6.39131 -1.50366 127 126 131
-4.53624 -6.3841 -1.50703 127 126 131
-5.09598 -5.8063 -1.53904 126 124 127
-5.11837 -5.79701 -1.54079 131 126 130
-5.15738 -5.78887 -1.54516 131 126 130
-5.18353 -5.78381 -1.54821 131 126 129
-5.21479 -5.78456 -1.55301 131 127 127
-5.25899 -5.78172 -1.55912 136 129 131
-7.83554 -3.79791 -1.76541 74 76 89
-7.84656 -3.77373 -1.76541 79 80 93
-7.86276 -3.75207 -1.76672 80 79 94
-7.84618 -3.69951 -1.75844 79 82 99
-7.86567 -3.6795 -1.76062 76 79 94
-7.89216 -3.66275 -1.76455 77 80 95
-8.68234 -2.92082 -1.80656 83 92 110
-8.71099 -2.90056 -1.8112 82 90 109
-8.72183 -2.85924 -1.81078 81 90 107
-9.33937 -2.07896 -1.81996 88 100 115
-9.36789 -2.05491 -1.82483 87 99 115
-9.9084 -1.34454 -1.83247 89 102 127
-3.42577 -7.38278 -1.44515 142 128 116
-3.44816 -7.37282 -1.44515 143 129 118
-4.33798 -7.45337 -1.60918 126 116 107
-4.40241 -6.43778 -1.50029 125 124 132
-4.4372 -6.42627 -1.50239 127 126 134
-4.46407 -6.42446 -1.50534 127 126 132
-5.01062 -5.86673 -1.53685 126 124 126
-5.02573 -5.8487 -1.53598 117 115 116
-5.0519 -5.84423 -1.53904 123 121 123
-5.07855 -5.82151 -1.53904 126 124 126
-7.89044 -3.63254 -1.7615 75 79 91
-7.91896 -3.60173 -1.76456 80 82 97
-7.94528 -3.58464 -1.76849 86 85 99
-7.9344 -3.55032 -1.76326 83 82 96
-9.37661 -2.01099 -1.82483 85 98 115
-9.39731 -1.98498 -1.82807 84 97 115
-9.91172 -1.31345 -1.83247 82 96 122
-9.92464 -1.2836 -1.83442 94 108 134
-3.38865 -7.39037 -1.44359 143 130 121
-4.29086 -7.47541 -1.60837 125 115 106
-4.3135 -7.4627 -1.60837 125 115 106
-4.36255 -6.46214 -1.49986 129 126 135
-4.38516 -6.45409 -1.50113 130 127 134
-4.91368 -5.91199 -1.53074 125 125 127
-4.93019 -5.89579 -1.5303 128 126 129
-4.96484 -5.90243 -1.53641 132 130 133
-4.98813 -5.87558 -1.5351 128 128 129
-7.96792 -3.52158 -1.76762 81 80 96
-7.98518 -3.50014 -1.76937 79 78 96
-7.99173 -3.47387 -1.7685 82 81 97
-8.01249 -3.43914 -1.76981 82 84 99
-8.00811 -3.40813 -1.76633 76 80 95
-9.39116 -1.95317 -1.82564 82 95 114
-9.41664 -1.91271 -1.82929 80 92 115
-9.93359 -1.25318 -1.83559 89 104 127
-9.92493 -1.2048 -1.83287 85 100 123
-3.34224 -7.40622 -1.44281 139 129 119
-3.3647 -7.39653 -1.44281 141 129 120
-4.21085 -7.51928 -1.60836 126 117 112
-4.24001 -7.51896 -1.6112 124 117 111
-4.26005 -7.50124 -1.60999 127 118 112
-4.28554 -6.49379 -1.49649 129 128 133
-4.30611 -6.48272 -1.49691 128 127 132
-4.33083 -6.47818 -1.49902 126 123 132
-4.81057 -5.96743 -1.52593 124 123 128
-4.83902 -5.94743 -1.52637 126 125 130
-4.85923 -5.93609 -1.52724 124 123 128
-4.87702 -5.92158 -1.52724 125 124 129
-8.02687 -3.38723 -1.76851 74 82 95
-8.03839 -3.36317 -1.76895 74 82 95
-8.08557 -3.33954 -1.77681 75 82 96
-8.10954 -3.32055 -1.7803 77 81 96
-9.40643 -1.88014 -1.82605 87 99 123
-9.40567 -1.84958 -1.82484 85 97 119
-9.94725 -1.17592 -1.83676 86 101 124
-9.94419 -1.14404 -1.8356 82 97 120
-3.30584 -7.41519 -1.44164 139 129 117
-4.18353 -7.52295 -1.60633 128 118 109
-4.21954 -6.54279 -1.49774 131 130 135
-4.2464 -6.54193 -1.50069 127 124 131
-4.25576 -6.51274 -1.49649 129 128 134
-4.74731 -5.99759 -1.52243 127 125 128
-4.77115 -5.99126 -1.52461 128 126 130
-4.79146 -5.98016 -1.52549 129 128 133
-8.10827 -3.29096 -1.77769 75 83 96
-8.13183 -3.257 -1.77987 73 83 95
-8.13756 -3.23036 -1.779 75 83 96
-8.15041 -3.20663 -1.77988 74 83 98
-9.42494 -1.80772 -1.82727 86 98 120
-9.43355 -1.77898 -1.82808 84 97 118
-9.43439 -1.74876 -1.82727 84 96 118
-9.96224 -1.0987 -1.83833 86 98 124
-3.26003 -7.4323 -1.44124 141 129 118
-3.28259 -7.42288 -1.44124 140 129 116
-3.65698 -6.99799 -1.45965 144 122 98
-4.10477 -7.5691 -1.60713 120 96 73
-4.13125 -7.56399 -1.60876 111 93 75
-4.15328 -7.55006 -1.60836 119 105 91
-4.16575 -6.56707 -1.49606 138 133 137
-4.18954 -6.56143 -1.49774 138 135 138
-4.67439 -6.034 -1.51893 127 127 129
-4.69481 -6.02324 -1.51981 124 123 128
-4.71866 -6.01712 -1.52199 127 126 131
-8.18447 -3.17668 -1.78468 76 82 101
-8.18631 -3.14848 -1.78294 78 83 100
-8.19892 -3.12454 -1.78382 75 82 99
-9.41207 -1.71424 -1.8216 84 96 118
-9.41533 -1.66938 -1.82079 82 97 120
-9.98426 -1.06947 -1.84222 79 91 117
-9.96138 -1.03555 -1.83716 94 106 132
-3.23821 -7.44348 -1.44163 141 129 117
-3.61789 -7.02622 -1.46126 148 124 98
-3.63578 -7.0086 -1.45964 148 125 103
-4.07595 -7.59938 -1.60997 127 103 79
-4.12614 -6.59154 -1.49605 140 135 141
-4.13895 -6.56759 -1.49311 140 136 141
-4.60686 -6.07742 -1.51762 126 125 130
-4.62058 -6.05739 -1.51588 126 125 130
-4.64445 -6.05157 -1.51806 127 127 130
-6.37244 -5.33249 -1.7391 107 101 110
-6.38471 -5.29324 -1.7355 135 130 136
-6.40936 -5.2813 -1.73821 136 131 135
-6.43997 -5.27425 -1.74273 132 126 128
-6.45486 -5.23729 -1.74002 128 121 127
-6.46738 -5.21511 -1.73912 130 124 130
-6.49039 -5.20153 -1.74138 142 140 146
-6.49071 -5.16942 -1.73687 139 139 142
-6.53837 -5.15922 -1.7441 69 68 77
-6.54303 -5.13072 -1.74094 63 63 74
-6.56432 -5.11558 -1.74275 74 74 86
-6.57216 -5.07341 -1.73824 79 81 94
-6.59639 -5.06052 -1.74095 79 81 93
-6.62059 -5.04753 -1.74367 81 81 93
-6.64186 -5.01595 -1.74322 78 78 90
-6.66599 -5.00273 -1.74593 77 79 92
-6.66683 -4.97172 -1.74187 77 79 92
-6.69551 -4.96189 -1.74594 78 77 91
-6.72261 -4.93463 -1.7473 79 78 94
-6.71844 -4.9001 -1.74188 80 79 93
-6.74857 -4.8911 -1.7464 77 76 90
-6.77695 -4.86468 -1.74821 73 72 86
-6.77713 -4.83361 -1.74415 78 77 91
-6.79772 -4.8174 -1.74596 79 79 91
-6.82105 -4.78727 -1.74642 82 78 92
-6.82723 -4.76072 -1.74416 81 79 93
-6.83967 -4.73867 -1.74371 74 73 89
-6.85524 -4.71882 -1.74417 77 76 92
-6.8701 -4.68282 -1.74237 74 76 89
-6.89833 -4.67169 -1.74643 77 80 95
-6.91853 -4.65492 -1.74824 77 80 95
-6.92497 -4.61323 -1.74418 72 75 90
-6.93854 -4.59198 -1.74419 76 80 92
-6.96826 -4.5815 -1.7487 74 78 90
-6.99537 -4.55368 -1.75051 74 76 91
-6.99736 -4.52471 -1.74736 74 77 92
-7.01393 -4.50535 -1.74826 73 76 91
-7.0386 -4.49122 -1.75143 74 77 92
-7.04896 -4.45245 -1.74872 74 80 96
-7.0719 -4.43706 -1.75144 72 78 94
-7.08821 -4.41741 -1.75234 72 78 92
-7.0965 -4.37747 -1.74919 74 77 94
-7.13415 -4.37107 -1.75596 74 75 93
-8.21873 -3.10336 -1.78644 77 84 100
-8.22694 -3.06307 -1.78513 79 88 103
-8.22472 -3.03345 -1.78252 81 90 107
-8.24795 -3.01342 -1.78601 82 91 106
-9.42737 -1.6413 -1.82241 82 94 118
-9.43355 -1.61214 -1.82282 84 97 121
-9.96726 -0.988833 -1.83755 78 93 116
-9.94801 -0.955534 -1.83326 80 92 115
-3.17835 -7.45925 -1.44007 143 129 117
-3.20243 -7.45373 -1.44085 143 130 118
-3.58388 -7.03836 -1.46045 124 105 93
-3.87261 -7.38892 -1.55202 134 114 91
-4.0091 -7.58099 -1.60024 134 113 90
-4.04681 -7.59902 -1.60713 145 121 99
-4.06713 -6.60655 -1.49226 113 105 101
-4.09393 -6.60634 -1.49521 112 104 102
-4.49978 -6.12404 -1.51194 127 126 132
-4.53111 -6.10881 -1.51325 125 124 130
-4.55281 -6.10017 -1.51456 127 124 131
-4.57785 -6.09623 -1.51718 128 125 131
-6.16463 -5.53367 -1.73275 113 108 112
-6.19837 -5.5134 -1.73546 110 108 109
-6.20612 -5.48668 -1.73276 112 110 115
-6.22534 -5.4704 -1.73366 112 109 116
-6.26033 -5.45103 -1.73683 114 108 118
-6.27362 -5.42938 -1.73593 113 107 117
-6.28684 -5.4077 -1.73503 112 109 120
-6.31318 -5.39753 -1.73819 109 106 117
-6.33175 -5.36354 -1.73639 106 102 111
-6.35801 -5.35315 -1.73955 107 101 110
-7.14696 -4.34913 -1.75596 78 77 93
-7.15983 -4.31207 -1.75416 79 76 93
-7.18246 -4.2961 -1.75687 80 79 93
-7.21506 -4.28606 -1.7623 77 79 92
-7.20755 -4.25186 -1.75688 70 70 82
-7.23165 -4.22154 -1.75824 96 96 107
-7.23895 -4.19632 -1.75689 103 102 113
-7.26972 -4.18481 -1.76186 100 98 110
-7.28342 -4.14829 -1.76051 98 96 107
-7.29215 -4.12392 -1.75961 101 99 112
-8.26852 -2.97777 -1.78776 78 86 102
-8.27513 -2.95147 -1.78732 79 88 105
-8.32013 -2.93907 -1.79606 80 89 106
-9.42669 -1.56557 -1.81998 83 97 123
-9.44034 -1.53768 -1.82201 86 100 126
-9.954 -0.924649 -1.83404 77 89 111
-3.15571 -7.46834 -1.44007 141 129 116
-3.53222 -7.03948 -1.45599 102 92 83
-3.56093 -7.04518 -1.45964 105 91 84
-4.06092 -6.64218 -1.49815 120 111 104
-4.46833 -6.1586 -1.51411 129 128 133
-4.48684 -6.14536 -1.51412 128 127 133
-6.01015 -5.69725 -1.73182 127 117 115
-6.02293 -5.67494 -1.73047 129 119 117
-6.0473 -5.64613 -1.73002 117 110 108
-6.07117 -5.63449 -1.73228 117 110 110
-6.0922 -5.62006 -1.73364 119 113 116
-6.10326 -5.5962 -1.73183 116 110 115
-6.13437 -5.57367 -1.73364 114 108 113
-6.15239 -5.55634 -1.7341 113 107 112
-7.30758 -4.10338 -1.76051 99 97 110
-7.34123 -4.07818 -1.76458 97 95 106
-7.34292 -4.04986 -1.76188 96 94 105
-7.35643 -4.02817 -1.76233 90 90 102
-7.39153 -4.0035 -1.76685 99 97 111
-7.38436 -3.97047 -1.76189 96 95 108
-7.40791 -3.95417 -1.76505 87 87 98
-8.3312 -2.89971 -1.79562 80 89 106
-8.33205 -2.87128 -1.79388 80 88 106
-8.34752 -2.84801 -1.79563 80 88 107
-9.46164 -1.51098 -1.82566 84 99 124
-3.09714 -7.48707 -1.43929 142 129 120
-3.12197 -7.48366 -1.44046 140 127 118
-3.48567 -7.08092 -1.45964 106 96 86
-3.49981 -7.05476 -1.45599 104 95 86
-4.12162 -6.81948 -1.53771 120 111 104
-4.39851 -6.19793 -1.51236 128 127 133
-4.41607 -6.1833 -1.51193 128 127 132
-4.45306 -6.17662 -1.51542 127 126 132
-5.79288 -5.79598 -1.71148 118 109 102
-5.836 -5.80493 -1.72006 123 113 104
-5.86698 -5.80115 -1.72457 126 116 107
-5.88291 -5.78198 -1.72413 121 112 107
-5.91608 -5.76211 -1.72639 117 107 105
-5.94569 -5.75654 -1.73045 119 110 105
-5.95455 -5.73028 -1.72775 116 107 102
-5.98059 -5.70316 -1.72775 126 116 114
-7.42973 -3.93684 -1.76776 97 97 109
-7.44902 -3.90336 -1.76822 109 109 121
-7.45519 -3.87766 -1.76687 95 93 106
-7.4751 -3.85916 -1.76913 92 90 103
-7.47846 -3.81739 -1.76552 77 76 90
-7.493 -3.79608 -1.76643 84 83 97
-7.52139 -3.78177 -1.77094 83 85 98
-9.46007 -1.46533 -1.82404 86 100 126
-9.46762 -1.43633 -1.82485 82 97 120
-3.07371 -7.49407 -1.4389 141 129 117
-3.46421 -7.09097 -1.45963 112 100 88
-4.21677 -7.0355 -1.58821 123 114 107
-4.31987 -6.22331 -1.50712 125 124 132
-4.34177 -6.21546 -1.50843 126 125 130
-4.37342 -6.2011 -1.50974 128 127 134
-5.4484 -5.80215 -1.65684 134 121 112
-5.48277 -5.80442 -1.66271 132 119 110
-5.52382 -5.81368 -1.67084 131 118 109
-5.56482 -5.80435 -1.6758 131 117 108
-5.59542 -5.80178 -1.68032 135 121 110
-5.64608 -5.82037 -1.69161 133 119 110
-5.6779 -5.80039 -1.69342 129 117 109
-5.71402 -5.80295 -1.69974 127 117 108
-5.75023 -5.80533 -1.70606 127 116 109
-7.52953 -3.74255 -1.76869 83 82 96
-7.53515 -3.71669 -1.76734 83 82 96
-7.54941 -3.69514 -1.76824 99 98 112
-7.57234 -3.67782 -1.77141 82 82 95
-7.58519 -3.64101 -1.77051 80 82 97
-9.49637 -1.41051 -1.83013 86 101 124
-9.51538 -1.38309 -1.83337 81 96 118
-3.0143 -7.51029 -1.43773 141 131 121
-3.03641 -7.49982 -1.43734 145 131 120
-3.40768 -7.11042 -1.45841 107 91 78
-3.42839 -7.09876 -1.45801 110 93 83
-4.23964 -7.12621 -1.60757 124 114 105
