-20.2 4.55374 -1.92294 78 86 102
-20.22 4.65306 -1.92751 80 89 104
-20.2199 4.71623 -1.92909 79 87 102
-20.1792 4.76928 -1.92608 80 87 102
-20.1962 4.86847 -1.93043 81 91 103
-20.1935 4.93125 -1.93179 81 90 103
-18.7081 7.44881 -1.95345 85 88 103
-18.7003 7.51058 -1.95532 84 87 104
-18.6731 7.5965 -1.95621 81 89 102
-18.6594 7.65588 -1.95741 80 88 101
-18.6599 7.72172 -1.96042 81 87 103
-18.6226 7.80346 -1.96017 82 89 102
-18.6135 7.86527 -1.96205 82 90 103
-18.5934 7.92213 -1.96256 80 87 103
-18.5606 8.00608 -1.96299 81 88 104
-18.5544 8.06956 -1.96532 80 87 103
-18.539 8.12884 -1.96652 81 87 103
-18.5216 8.18726 -1.96748 82 87 106
-18.4929 8.27354 -1.96859 81 87 103
-18.4822 8.33535 -1.97047 81 87 101
-18.4623 8.39282 -1.97121 84 92 105
-18.4343 8.47982 -1.97255 83 86 103
-18.414 8.53719 -1.97328 83 86 103
-18.4094 8.60256 -1.97606 81 88 104
-13.6156 12.6376 -1.79273 99 101 113
-13.5695 12.6707 -1.79168 98 100 114
-13.5234 12.7037 -1.79063 100 103 117
-13.4682 12.7671 -1.79131 99 102 118
-13.4136 12.7911 -1.78891 97 99 117
-13.3563 12.812 -1.78606 99 100 118
-13.2951 12.869 -1.78584 93 99 112
-13.2498 12.9024 -1.78502 95 101 115
-13.2072 12.9387 -1.78465 94 102 113
-13.1413 12.9906 -1.78375 93 99 113
-12.0017 14.8696 -1.77518 77 75 89
-11.9296 14.9187 -1.77475 80 78 91
-11.8784 14.9475 -1.77396 83 83 95
-11.8364 14.9891 -1.77489 94 97 110
-11.7568 15.0277 -1.77318 98 102 116
-11.7122 15.0656 -1.77368 97 102 114
-8.46725 16.0468 -1.54969 65 76 59
-8.30356 15.8873 -1.52825 63 72 55
-8.2973 16.0094 -1.53906 61 67 53
-6.94375 16.2705 -1.43473 59 62 55
-6.84488 16.2378 -1.42849 61 61 59
-21.6546 1.09432 -1.87577 83 89 108
-21.6465 1.19001 -1.87533 76 78 94
-21.6517 1.2545 -1.87618 60 63 76
-21.6548 1.3189 -1.87684 60 68 77
-20.2374 4.15501 -1.91768 84 93 106
-20.2332 4.21656 -1.91861 83 91 106
-20.2403 4.28074 -1.92085 83 91 109
-20.2086 4.33616 -1.91871 81 90 107
-20.2298 4.43504 -1.92328 80 91 107
-18.8945 6.65723 -1.94069 82 92 104
-18.882 6.71602 -1.94166 82 89 104
-18.8786 6.7784 -1.94376 83 89 104
-18.8565 6.83359 -1.9436 86 89 104
-18.8419 6.92356 -1.94563 87 90 105
-18.8285 6.98232 -1.9466 83 89 103
-18.8168 7.04182 -1.94779 81 89 102
-18.7864 7.1258 -1.948 82 89 105
-18.7724 7.18449 -1.94897 82 88 104
-18.7655 7.24622 -1.95085 83 89 105
-18.7341 7.33 -1.95106 83 91 104
-18.7267 7.39174 -1.95294 82 88 102
-13.097 13.025 -1.78316 94 100 116
-13.0567 13.0637 -1.78324 96 102 116
-13.0188 13.1052 -1.78377 95 100 115
-11.6686 15.1051 -1.7744 97 101 112
-11.6225 15.1412 -1.77468 94 98 110
-11.5503 15.1902 -1.77447 94 100 115
-11.5073 15.2308 -1.7754 78 87 102
-11.4797 15.2944 -1.77934 88 96 109
-8.32166 16.2025 -1.55762 60 66 56
-8.20704 16.1506 -1.5481 52 54 49
-8.13416 16.1235 -1.54262 55 60 54
-8.03487 16.0341 -1.53039 58 63 57
-7.85538 15.8231 -1.50379 58 60 55
-6.80952 16.3026 -1.43313 60 63 56
-6.75419 16.3111 -1.43207 62 64 59
-6.56998 16.0272 -1.40064 66 69 60
-6.53732 16.0989 -1.40603 65 67 56
-6.48398 16.1102 -1.40536 70 71 62
-21.7114 0.872595 -1.88082 81 92 110
-21.7142 0.96906 -1.88141 78 86 103
-21.6766 1.03136 -1.87777 81 86 105
-20.2645 3.72555 -1.91161 83 90 105
-20.2383 3.78231 -1.90991 84 89 106
-20.2567 3.848 -1.91324 86 92 108
-20.2492 3.93957 -1.91432 87 93 110
-20.2515 4.00226 -1.9159 85 91 107
-20.2536 4.06502 -1.91749 85 92 108
-19.0227 6.04306 -1.93171 83 90 106
-19.0123 6.10194 -1.93268 80 88 104
-18.9961 6.15885 -1.93297 81 87 103
-18.9736 6.24481 -1.93364 82 88 102
-18.97 6.30633 -1.93553 83 89 104
-18.9568 6.36451 -1.93627 84 88 104
-18.9334 6.45037 -1.93694 83 90 105
-18.929 6.51194 -1.93882 80 90 102
-18.9134 6.56938 -1.93933 80 90 102
-11.4034 15.3378 -1.77849 101 105 114
-11.3511 15.3648 -1.7777 82 86 98
-11.2987 15.3917 -1.77692 77 81 92
-11.222 15.4341 -1.77606 73 79 93
-11.163 15.4506 -1.77399 76 83 98
-7.85173 15.9558 -1.51579 60 61 56
-7.82439 16.0337 -1.52184 62 66 59
-7.77164 16.0509 -1.52132 57 62 55
-6.40906 16.141 -1.40577 69 71 57
-6.28142 15.9252 -1.38236 68 69 63
-6.23544 15.9565 -1.38378 65 67 62
-21.7588 0.681694 -1.8852 76 84 103
-21.7438 0.745438 -1.88381 81 90 108
-21.7287 0.809103 -1.88242 76 89 108
-20.2629 3.35523 -1.90447 77 82 99
-20.2636 3.44758 -1.90621 75 83 96
-20.2715 3.51064 -1.90823 77 84 101
-20.2518 3.56866 -1.90719 81 89 103
-20.2728 3.63442 -1.91075 79 89 101
-19.11 5.48341 -1.92232 81 90 105
-19.0965 5.57141 -1.92368 82 91 106
-19.099 5.63389 -1.92602 82 91 106
-19.0861 5.69158 -1.92654 85 92 108
-19.0678 5.77839 -1.92744 82 89 105
-19.0564 5.83666 -1.92818 85 92 107
-19.0429 5.89428 -1.9287 82 90 103
-19.033 5.98417 -1.93074 82 90 104
-12.2425 13.699 -1.7763 93 99 111
-12.1764 13.7057 -1.77211 95 99 111
-12.1085 13.7541 -1.77145 93 95 110
-12.0572 13.7788 -1.76996 63 57 71
-12.0167 13.8175 -1.7705 62 54 67
-11.105 15.4685 -1.77214 74 82 95
-11.0523 15.4945 -1.77135 73 81 94
-10.971 15.5291 -1.76964 64 71 87
-10.9171 15.553 -1.76865 79 86 102
-10.8569 15.5667 -1.76636 80 89 104
-7.71083 16.1206 -1.52532 59 66 58
-7.64817 16.1135 -1.52223 61 68 60
-7.56278 16.0491 -1.51298 57 64 57
-6.17627 16.0336 -1.38893 63 65 60
-6.11608 16.021 -1.38598 63 68 61
-6.05779 16.0139 -1.38361 58 66 55
-21.7384 0.359978 -1.88272 78 90 110
-21.7615 0.456794 -1.88515 78 91 110
-21.7651 0.521162 -1.8856 76 87 109
-21.7685 0.585557 -1.88605 74 85 105
-20.2846 3.02172 -1.9012 78 85 101
-20.3017 3.08568 -1.9041 81 90 105
-20.2852 3.14428 -1.90328 77 85 99
-20.2949 3.23788 -1.9059 78 85 101
-20.2682 3.29472 -1.90398 77 84 100
-19.19 5.01808 -1.91677 80 89 105
-19.1959 5.11106 -1.92019 79 88 103
-19.1829 5.16833 -1.92048 81 90 105
-19.1487 5.21941 -1.91826 79 88 103
-19.1441 5.30968 -1.92053 81 88 104
-19.1399 5.36971 -1.92197 81 90 105
-19.126 5.42687 -1.92226 82 92 104
-11.9411 13.8557 -1.76849 77 77 89
-11.74 14.0043 -1.76764 51 59 77
-11.7118 14.0596 -1.77064 85 96 116
-10.7785 15.6053 -1.7653 78 86 99
-10.7297 15.6371 -1.76538 80 88 101
-10.6817 15.6704 -1.76567 83 92 105
-10.6009 15.7047 -1.76418 81 93 106
-7.49499 16.1013 -1.51519 59 67 58
-7.43414 16.0972 -1.5125 57 69 59
-7.37625 16.1002 -1.5106 56 68 58
-6.10037 16.3333 -1.41381 62 68 54
-20.287 2.65634 -1.89602 84 92 105
-20.2735 2.7456 -1.89578 82 92 104
-20.3013 2.81057 -1.89979 81 90 103
-20.2838 2.86896 -1.89875 80 89 104
-20.3229 2.93601 -1.90406 82 91 107
-19.2503 4.55045 -1.9103 82 91 108
-19.2222 4.63342 -1.90938 80 92 107
-19.2489 4.7008 -1.91424 79 91 106
-19.2544 4.76276 -1.91659 79 91 106
-19.2176 4.8134 -1.91391 79 91 105
-19.2265 4.9067 -1.91756 81 90 105
-19.2217 4.96615 -1.91876 81 90 105
-11.6573 14.0797 -1.76871 80 91 113
-11.5937 14.1336 -1.76917 64 68 80
-11.5508 14.1693 -1.76948 75 74 88
-11.5055 14.2017 -1.76935 75 74 88
-11.4458 14.2614 -1.77071 80 78 91
-10.5476 15.7291 -1.7634 72 82 94
-10.4963 15.7568 -1.76305 81 91 103
-10.4212 15.8005 -1.76284 81 89 100
-10.3487 15.7917 -1.75799 79 86 96
-10.2793 15.7878 -1.75378 71 75 84
-10.2091 15.7819 -1.74936 72 76 82
-7.32213 16.1888 -1.51678 59 71 57
-7.29078 16.262 -1.52243 58 70 57
-20.2648 2.38056 -1.88993 75 86 104
-20.2662 2.44126 -1.89087 76 86 99
-20.2911 2.53539 -1.8948 77 86 101
-20.2587 2.59171 -1.89201 78 87 102
-19.277 4.13784 -1.90273 83 90 108
-19.2662 4.22472 -1.90364 82 90 109
-19.2656 4.28434 -1.90508 83 90 109
-19.2687 4.34495 -1.90698 80 90 107
-19.2588 4.43238 -1.90811 80 91 107
-19.2421 4.48825 -1.90772 80 92 108
-15.4255 9.8673 -1.8867 73 82 99
-15.314 9.85591 -1.87471 67 76 93
-15.2028 9.84392 -1.86272 55 62 80
-15.0892 9.86224 -1.8526 65 71 90
-14.9897 9.85702 -1.84231 87 94 109
-14.8983 9.85708 -1.83322 108 115 129
-14.79 9.87676 -1.82383 111 116 128
-14.7341 9.90156 -1.82006 107 112 124
-14.7086 9.94852 -1.82088 101 105 118
-14.6462 9.96819 -1.81614 104 109 121
-14.5777 10.0156 -1.81278 102 104 117
-14.5295 10.0454 -1.81022 107 111 123
-14.4924 10.0834 -1.80935 103 107 119
-14.4188 10.1263 -1.80527 107 111 122
-14.3877 10.1687 -1.80537 104 106 119
-14.3455 10.2026 -1.80377 105 106 119
-14.3074 10.2727 -1.80525 103 104 116
-14.2742 10.3136 -1.8051 101 104 116
-14.2565 10.3668 -1.80737 103 105 117
-14.2092 10.3964 -1.80505 101 104 116
-14.17 10.466 -1.80652 103 107 118
-14.1117 10.4865 -1.80252 101 103 116
-14.0978 10.5431 -1.80551 103 105 118
-14.0396 10.5972 -1.80408 98 100 113
-14.01 10.6411 -1.80466 99 100 114
-13.9772 10.6824 -1.80476 101 105 117
-13.9214 10.7383 -1.80382 100 104 116
-13.8838 10.7755 -1.80319 103 105 118
-10.9946 10.8989 -1.55928 100 100 105
-10.9185 10.8836 -1.55171 97 97 108
-10.8413 10.9009 -1.54696 98 101 108
-11.3933 14.2838 -1.76923 81 79 92
-11.3441 14.3108 -1.76842 99 100 110
-11.3098 14.3588 -1.77052 94 98 110
-11.2311 14.3916 -1.7683 95 99 111
-11.1839 14.4214 -1.76794 92 95 110
-11.1333 14.4461 -1.7669 92 95 110
-10.1191 15.7983 -1.74594 64 68 71
-10.0549 15.8022 -1.74281 76 81 84
-9.96754 15.7641 -1.73453 70 77 83
-9.87789 15.7793 -1.73112 74 79 87
-9.79684 15.7509 -1.72413 76 84 93
-7.2994 16.4431 -1.53958 57 67 56
-7.22169 16.4738 -1.53961 56 65 57
-7.12885 16.3828 -1.52779 58 70 55
-20.2439 2.04643 -1.88378 71 83 99
-20.2661 2.10907 -1.88691 73 83 100
-20.2428 2.16672 -1.885 74 82 101
-20.2332 2.22586 -1.88462 72 83 101
-20.2946 2.32372 -1.8925 75 86 106
-19.2749 3.75179 -1.89348 78 85 103
-19.2875 3.81358 -1.89629 79 88 103
-19.2921 3.87381 -1.89819 81 90 105
-19.2807 3.96019 -1.89888 83 91 107
-19.2829 4.0201 -1.90054 85 92 108
-19.2829 4.07962 -1.90198 83 92 107
-16.2426 9.88322 -1.97082 91 95 107
-16.1347 9.8797 -1.95955 97 103 115
-15.9939 9.85355 -1.94344 91 97 109
-15.8676 9.86948 -1.93161 68 72 87
-15.7521 9.85837 -1.91913 71 77 92
-15.6482 9.85449 -1.90834 70 78 92
-15.5429 9.84892 -1.89731 71 79 92
-13.8596 10.8242 -1.80473 101 103 116
-13.7987 10.8756 -1.80307 105 107 120
-13.7682 10.9189 -1.80365 102 104 117
-13.7256 10.9516 -1.8023 103 107 118
-13.7022 11.0012 -1.80409 101 105 116
-13.6346 11.0466 -1.80146 100 104 116
-13.605 11.0907 -1.80228 102 105 120
-13.556 11.1175 -1.79997 100 103 118
-13.5188 11.1901 -1.80241 102 108 122
-13.4697 11.2165 -1.8001 101 104 121
-13.4277 11.2494 -1.79899 101 107 121
-13.3709 11.304 -1.7983 102 105 120
-13.3534 11.3597 -1.80128 102 105 120
-13.3038 11.3854 -1.79897 106 112 125
-12.3182 11.1058 -1.68888 101 105 115
-12.2586 11.1166 -1.68466 101 102 112
-12.2507 11.1794 -1.68934 102 104 115
-10.8036 10.9281 -1.54636 97 97 105
-10.7593 10.9477 -1.54455 103 102 108
-10.596 11.005 -1.53669 100 104 112
-10.4253 10.9097 -1.51442 97 99 111
-10.3825 10.9294 -1.51286 97 100 114
-10.3384 10.9475 -1.51106 96 98 114
-10.3057 10.9791 -1.51142 96 102 115
-10.2694 11.0417 -1.51437 92 100 111
-11.0599 14.4862 -1.7658 92 96 107
-10.9992 14.4957 -1.76275 96 102 115
-10.9473 14.5182 -1.76149 84 92 105
-10.8693 14.5507 -1.75949 86 93 101
-10.8249 14.5843 -1.75981 100 104 113
-9.75602 15.7954 -1.72614 77 83 95
-9.66558 15.8077 -1.72252 75 81 91
-9.59536 15.7975 -1.71789 75 86 90
-9.52905 15.7941 -1.71412 76 78 86
-7.03867 16.297 -1.51657 61 72 55
-7.0469 16.4837 -1.53432 57 63 54
-6.69735 15.9055 -1.46798 54 59 55
-6.6647 15.9755 -1.47343 59 65 61
-20.2616 1.83791 -1.88366 79 88 105
-20.2589 1.89772 -1.88394 70 78 97
-20.2836 1.96038 -1.88729 72 80 100
-19.3189 3.40743 -1.89121 80 88 104
-19.3151 3.46547 -1.89197 77 85 98
-19.294 3.54946 -1.89129 77 86 100
-19.315 3.61261 -1.89501 82 91 103
-19.3087 3.67033 -1.89554 78 88 100
-17.339 7.8735 -1.96858 81 88 104
-17.3294 7.93173 -1.9706 79 86 102
-17.2964 8.0098 -1.97109 79 86 102
-17.2774 8.06357 -1.9719 79 84 103
-17.2778 8.12718 -1.97537 80 86 103
-17.2403 8.20325 -1.97538 81 88 104
-17.2313 8.2624 -1.97764 81 87 103
-17.222 8.32157 -1.9799 83 89 105
-17.2003 8.37431 -1.98046 82 88 102
-17.1564 8.44727 -1.97974 80 89 102
-17.1412 8.5036 -1.98127 80 87 103
-17.1241 8.55897 -1.98256 83 87 103
-17.0915 8.6382 -1.98354 81 88 103
-17.074 8.6935 -1.98483 79 86 102
-17.077 8.76032 -1.98902 81 87 103
-17.04 8.83749 -1.98951 82 89 105
-17.0235 8.89373 -1.99104 80 89 104
-16.9843 8.93721 -1.98943 77 87 101
-16.9674 8.99335 -1.99096 84 91 109
-16.9327 9.07208 -1.99193 83 89 103
-16.9102 9.12516 -1.99273 84 92 105
-16.8858 9.17719 -1.9933 82 91 106
-16.8655 9.26475 -1.99645 81 89 102
-16.8985 9.3513 -2.00523 82 90 103
-16.7544 9.33171 -1.98886 82 90 103
-16.7197 9.41067 -1.99007 81 89 102
-16.6943 9.46221 -1.99064 84 90 104
-16.6907 9.52723 -1.99434 85 88 103
-16.6532 9.57139 -1.99321 86 92 106
-16.6206 9.65213 -1.99491 85 91 105
-16.6162 9.71722 -1.99862 87 90 105
-16.5899 9.76854 -1.99918 87 90 105
-16.5629 9.85343 -2.00184 87 90 105
-16.5178 9.89275 -1.99974 91 95 107
-16.4194 9.89719 -1.98991 87 93 105
-13.2773 11.4328 -1.80052 101 104 119
-13.2124 11.4797 -1.79862 103 107 118
-13.1855 11.5269 -1.80016 97 101 112
-13.147 11.563 -1.79978 100 107 116
-13.0817 11.6092 -1.79788 100 106 118
-13.0585 11.6603 -1.80015 97 103 119
-13.0196 11.696 -1.79976 99 105 117
-10.2665 11.1101 -1.52049 93 99 111
-9.71235 10.9905 -1.46701 96 98 111
-9.73148 11.0879 -1.4777 73 75 90
-9.6109 11.0396 -1.46409 75 81 93
-10.7729 14.6062 -1.75855 95 99 111
-10.7053 14.6545 -1.7588 88 96 105
-10.651 14.6726 -1.7571 92 98 110
-10.603 14.7005 -1.75674 92 98 110
-10.5549 14.7283 -1.75638 91 97 109
-9.46651 15.7975 -1.71121 71 68 75
-9.37002 15.7959 -1.70609 73 74 76
-9.30402 15.7916 -1.70232 70 73 77
-9.23722 15.7853 -1.69834 72 76 77
-6.66407 16.2232 -1.49667 66 72 61
-6.53861 16.0222 -1.47356 66 72 60
-6.49748 16.0693 -1.47663 63 68 57
-6.34708 15.87 -1.45287 61 65 58
-20.2754 1.53927 -1.88267 77 79 97
-20.2692 1.62862 -1.88266 70 76 92
-20.2948 1.69084 -1.88602 74 81 99
-20.2906 1.75055 -1.88608 74 80 96
-19.3359 3.08847 -1.88704 78 87 101
-19.337 3.14712 -1.88826 77 86 101
-19.3653 3.21072 -1.89267 77 85 100
-19.3259 3.29139 -1.8897 75 83 96
-19.3303 3.35086 -1.89137 79 86 104
-17.6149 6.94983 -1.95358 80 89 101
-17.5922 7.00099 -1.95342 80 89 102
-17.5766 7.05523 -1.95423 81 88 104
-17.5627 7.11024 -1.95528 80 87 103
-17.5427 7.19314 -1.95699 81 88 104
-17.5392 7.25297 -1.9595 81 91 103
-17.5101 7.30146 -1.95861 80 88 101
-17.4946 7.38674 -1.96104 81 87 103
-17.4777 7.44084 -1.96185 82 88 104
-17.4643 7.49659 -1.96315 81 88 104
-17.4352 7.57598 -1.96388 79 86 102
-17.4249 7.63338 -1.96566 79 86 102
-17.4072 7.68738 -1.96647 80 87 103
-17.3911 7.7422 -1.96752 80 87 103
-17.3697 7.8257 -1.96947 80 87 103
-14.7777 9.88959 -1.86971 63 70 84
-14.6789 9.8825 -1.85918 78 86 99
-14.5897 9.88199 -1.85014 95 102 113
-14.4741 9.89347 -1.83931 114 119 130
-14.3773 9.88589 -1.82903 107 110 120
-14.2934 9.88742 -1.82074 99 103 114
-14.2098 9.92092 -1.81485 97 101 113
-14.1621 9.94941 -1.81223 94 98 109
-14.1269 9.98744 -1.81159 102 105 116
-14.0587 10.032 -1.80817 99 103 114
-13.9969 10.0488 -1.80334 103 107 118
-13.9707 10.0937 -1.80418 103 107 118
-13.9304 10.1274 -1.8028 100 102 114
-13.8726 10.1795 -1.80111 104 106 118
-13.8444 10.2228 -1.80171 102 104 117
-13.8069 10.2585 -1.80082 105 104 120
-13.7593 10.3188 -1.80086 102 104 117
-13.7245 10.3567 -1.80047 103 105 118
-13.6866 10.392 -1.79959 105 106 118
-13.6216 10.4377 -1.79691 101 104 116
-13.5865 10.4752 -1.79652 103 107 119
-13.5483 10.51 -1.79564 104 107 119
-13.5145 10.5486 -1.7955 101 103 118
-12.8402 11.8514 -1.79745 101 103 116
-12.753 11.8746 -1.79195 101 100 114
-12.7093 11.905 -1.79084 99 98 110
-12.6738 11.9439 -1.79119 102 102 110
-12.6139 11.9948 -1.7905 101 102 108
-12.6162 12.0737 -1.79757 104 105 110
-12.5516 12.0819 -1.79286 104 104 109
-12.4992 12.141 -1.79362 106 105 108
-12.4399 12.1544 -1.78987 110 108 110
-12.4049 12.194 -1.79045 110 108 110
-10.4899 14.7806 -1.75731 92 96 108
-10.4469 14.8165 -1.75807 89 95 107
-10.4027 14.8505 -1.75861 91 98 110
-10.3308 14.8921 -1.75819 93 99 111
-9.15292 15.8054 -1.696 76 85 91
-9.0622 15.7507 -1.68624 73 82 89
-9.01274 15.7772 -1.68633 77 84 90
-8.92427 15.7873 -1.68293 80 86 92
-8.87207 15.808 -1.68238 87 90 95
-6.31782 15.9524 -1.45971 62 68 56
-6.24557 15.9025 -1.45267 57 63 54
-20.2954 1.36108 -1.88358 78 87 102
-20.2844 1.42015 -1.88276 77 85 100
-20.2968 1.48101 -1.88458 77 81 97
-19.3421 2.79836 -1.88277 77 84 101
-19.3592 2.88831 -1.8862 80 89 106
-19.3552 2.94593 -1.88673 78 87 102
-19.3686 3.00651 -1.88932 78 88 100
-17.7842 6.23732 -1.94129 81 87 103
-17.7631 6.31835 -1.94228 79 87 103
-17.7313 6.36566 -1.94066 80 89 104
-17.7289 6.42438 -1.94293 81 89 106
-17.73 6.48461 -1.94569 81 88 106
-17.7003 6.56258 -1.9457 82 89 105
-17.6843 6.61623 -1.94627 82 89 105
-17.6884 6.67806 -1.94951 80 89 104
-17.6468 6.75133 -1.94806 80 87 103
-17.6449 6.81096 -1.95057 81 88 106
-17.6354 6.86759 -1.95211 78 87 102
-15.6508 9.88028 -1.95862 76 85 97
-15.5236 9.89241 -1.94628 69 77 91
-15.4203 9.88708 -1.93525 73 81 90
-15.3138 9.87891 -1.92373 70 79 89
-15.1953 9.89434 -1.91263 69 77 93
-15.0877 9.88373 -1.90086 75 83 101
-14.9931 9.88183 -1.89108 63 70 89
-14.8736 9.89382 -1.87974 63 70 87
-13.4565 10.5997 -1.79405 100 102 117
-13.4194 10.6354 -1.79342 98 100 115
-13.3852 10.6735 -1.79328 100 104 116
-13.3385 10.7345 -1.79381 100 104 116
-13.3113 10.7791 -1.7949 102 107 119
-13.2884 10.8275 -1.79673 99 103 117
-13.2248 10.8735 -1.79455 102 107 119
-13.1782 10.9003 -1.79244 102 105 117
-13.146 10.9404 -1.79279 101 103 116
-13.0907 10.9937 -1.79209 103 107 119
-13.0539 11.0294 -1.7917 100 104 116
-13.0199 11.0678 -1.79181 102 106 117
-12.2693 11.1459 -1.73089 101 105 117
-12.3252 12.223 -1.7864 106 104 107
-12.2992 12.2725 -1.78867 109 107 109
-10.9118 10.9245 -1.59433 112 107 110
-10.8688 10.9459 -1.59273 111 109 113
-10.8114 10.9508 -1.58843 114 109 113
-10.7564 10.9928 -1.58776 71 65 74
-10.2811 14.9173 -1.75761 88 94 106
-10.2334 14.9458 -1.75748 89 95 107
-10.1611 14.9865 -1.75706 93 99 111
-10.1061 15.0027 -1.75536 96 102 114
-10.0582 15.0306 -1.75523 89 95 109
-8.81285 15.8143 -1.68012 85 85 94
-8.71935 15.8126 -1.67544 88 92 99
-8.65685 15.8112 -1.67232 88 91 100
-8.59527 15.8113 -1.66941 84 86 92
-6.20017 15.9355 -1.45435 62 64 61
-6.12947 15.9763 -1.45598 60 65 59
-6.07607 15.9844 -1.45508 59 64 58
-20.3473 1.06493 -1.88762 76 89 107
-20.3116 1.15266 -1.88411 71 82 100
-20.317 1.21285 -1.88505 70 83 100
-20.3103 1.2723 -1.88468 74 82 100
-19.3405 2.47948 -1.87766 76 85 100
-19.3456 2.53803 -1.87911 79 86 102
-19.3444 2.62465 -1.88026 82 89 105
-19.3432 2.68243 -1.88102 79 87 100
-19.3574 2.74264 -1.88361 78 88 100
-17.8946 5.6884 -1.93192 79 88 105
-17.8777 5.74105 -1.93201 82 91 108
-17.9412 5.82179 -1.94254 81 90 105
-17.8173 5.83697 -1.92877 80 89 105
-17.8038 5.91994 -1.93049 80 87 103
-17.7899 5.97368 -1.93106 81 88 104
-17.7889 6.03217 -1.93334 82 88 106
-17.8097 6.12828 -1.93967 81 88 106
-17.8008 6.1842 -1.94097 81 88 106
-16.885 7.55085 -1.94976 81 89 104
-16.8872 7.61286 -1.95333 80 87 103
-16.8607 7.66092 -1.95292 80 87 103
-16.8379 7.74126 -1.95467 79 88 103
-16.8057 7.78648 -1.95352 81 88 104
-16.8034 7.84683 -1.95659 79 86 102
-16.7743 7.92435 -1.9576 79 86 102
-16.768 7.98297 -1.96017 81 88 104
-16.7315 8.02604 -1.95852 78 85 101
-16.7301 8.08741 -1.96183 80 87 103
-16.6858 8.15727 -1.96086 78 86 99
-16.6891 8.2215 -1.96491 79 88 103
-16.6572 8.26701 -1.96401 81 87 103
-16.6278 8.34502 -1.96527 81 88 104
-16.599 8.3922 -1.96486 80 87 103
-16.5909 8.45082 -1.96743 80 87 103
-16.5502 8.52282 -1.96719 81 87 103
-16.5537 8.58827 -1.97149 80 86 102
-16.5139 8.62932 -1.9696 80 87 103
-16.5152 8.69385 -1.97365 83 90 106
-16.4562 8.75558 -1.97094 83 89 105
-16.4604 8.82216 -1.97549 83 90 106
-16.4216 8.86376 -1.97385 82 89 105
-16.4165 8.95725 -1.97906 81 87 103
-16.3603 8.98846 -1.97494 82 89 105
-16.3567 9.05111 -1.97849 82 90 103
-16.3166 9.1241 -1.97875 84 88 104
-16.277 9.16506 -1.97711 83 89 105
-16.2727 9.22774 -1.98066 82 90 104
-16.2698 9.29153 -1.98446 84 92 103
-16.2134 9.35466 -1.9825 85 87 102
-16.1815 9.40047 -1.98209 87 90 105
-16.1361 9.43764 -1.97971 85 88 103
-16.0974 9.51183 -1.98046 89 91 108
-16.0884 9.57235 -1.98352 88 91 108
-16.0641 9.62316 -1.98435 82 88 104
-16.0229 9.69599 -1.98486 85 88 103
-15.9784 9.73349 -1.98272 86 91 103
-15.9602 9.78843 -1.98454 85 88 103
-15.9352 9.83894 -1.98537 83 89 103
-15.8551 9.88561 -1.98019 87 90 107
-15.7611 9.88881 -1.97064 72 79 95
-13.0146 11.1334 -1.79684 100 102 115
-12.9986 11.2244 -1.80304 102 104 117
-13.0082 11.3052 -1.81078 102 106 118
-13.0118 11.3808 -1.81753 100 105 117
-12.9941 11.4721 -1.82372 101 107 119
-13.004 11.5549 -1.83171 99 103 117
-12.3665 11.1731 -1.74186 100 103 116
-12.2557 11.2031 -1.7347 98 102 116
-10.5726 11.0258 -1.57579 100 100 106
-10.4427 10.9429 -1.55748 100 99 106
-10.3859 10.9459 -1.55319 99 98 105
-10.3444 10.967 -1.55184 98 98 107
-10.2957 11.0145 -1.5524 95 97 109
-10.2716 11.0567 -1.55449 96 96 111
-10.2586 11.1128 -1.5588 95 99 110
-10.0131 15.0635 -1.75577 88 94 106
-9.93632 15.0964 -1.75446 79 85 97
-9.87621 15.1031 -1.75164 85 92 102
-9.83286 15.139 -1.75263 81 85 96
-8.53292 15.8094 -1.6663 78 79 81
-8.44751 15.8224 -1.66355 72 75 77
-8.3845 15.8181 -1.66022 63 68 70
-6.07494 16.1632 -1.47203 56 66 58
-20.392 0.857383 -1.89167 93 105 128
-20.3671 0.946128 -1.88925 79 90 110
-20.3534 1.00535 -1.888 75 86 107
-19.3079 2.21594 -1.87033 67 79 95
-19.3119 2.27392 -1.87155 74 85 103
-19.3236 2.33301 -1.87368 73 84 102
-19.3097 2.41752 -1.87324 75 84 101
-17.9988 5.17176 -1.92511 78 87 103
-17.9893 5.22644 -1.92593 78 87 102
-17.9618 5.30424 -1.92546 80 89 104
-17.9594 5.36129 -1.92725 80 89 106
-17.9624 5.42023 -1.92977 80 89 104
-17.9302 5.49665 -1.92881 80 89 104
-17.9253 5.55314 -1.93036 80 89 105
-17.8976 5.60207 -1.92899 80 89 106
-17.1328 6.70609 -1.93562 79 88 103
-17.1401 6.76829 -1.93943 79 88 103
-17.1071 6.81328 -1.93779 79 88 103
-17.1103 6.87399 -1.94111 79 88 103
-17.0643 6.94279 -1.93914 82 89 105
-17.0688 7.00438 -1.94271 78 85 101
-17.037 7.04981 -1.94131 78 85 101
-17.0281 7.13538 -1.94456 78 87 99
-17.0013 7.18309 -1.9439 80 87 103
-16.9977 7.24155 -1.94648 82 88 104
-16.9483 7.3087 -1.94426 80 88 101
-16.9622 7.37561 -1.94932 79 87 102
-16.931 7.42137 -1.94817 79 86 102
-16.939 7.4859 -1.95247 80 87 103
-13.0119 11.6364 -1.83945 101 104 119
-13.0011 11.7366 -1.84711 98 101 116
-12.8242 11.8945 -1.84524 103 102 116
-12.7543 11.8981 -1.83944 101 103 116
-12.6681 11.8841 -1.83069 102 104 119
-12.5702 11.8948 -1.8231 101 103 118
-12.4966 11.8928 -1.81656 103 105 118
-12.4218 11.8891 -1.80978 97 99 111
-12.3285 11.9025 -1.80293 99 101 114
-12.2486 11.8922 -1.79517 100 102 114
-12.1769 11.8903 -1.78889 99 100 111
-10.2501 11.2109 -1.56746 96 100 112
-11.5713 12.7904 -1.77771 96 102 112
-11.52 12.8515 -1.77943 96 102 112
-11.4701 12.8729 -1.77761 98 100 111
-11.435 12.9128 -1.77868 96 98 111
-9.66074 11.042 -1.5054 73 79 95
-9.62765 11.0717 -1.50577 74 82 95
-9.7548 15.1692 -1.75109 72 76 86
-9.70923 15.2012 -1.75164 68 71 77
-9.65583 15.2192 -1.75039 65 68 73
-8.32158 15.8137 -1.65689 74 80 82
-8.23392 15.8201 -1.6535 62 66 65
-8.17444 15.8223 -1.65103 56 58 58
-8.1078 15.808 -1.64663 52 53 55
-20.4174 0.678442 -1.89389 73 86 105
-20.3906 0.737433 -1.8911 72 85 103
-20.3855 0.797157 -1.89072 72 84 106
-19.3031 1.95738 -1.86665 73 85 101
-19.3 2.01428 -1.86696 73 80 96
-19.3165 2.0735 -1.86955 77 82 101
-19.2953 2.12834 -1.8678 70 79 96
-18.0679 4.73426 -1.91855 78 90 106
-18.0598 4.78896 -1.91937 79 90 104
-18.0477 4.87099 -1.92061 80 89 104
-18.0506 4.92904 -1.92289 78 90 104
-18.038 4.98263 -1.92322 80 89 104
-18.0193 5.06297 -1.92372 77 89 105
-18.0101 5.11766 -1.92454 75 87 103
-17.2759 6.09308 -1.92447 80 92 106
-17.2818 6.15323 -1.92779 80 89 104
-17.2505 6.19904 -1.92614 80 89 104
-17.2579 6.26 -1.92972 79 87 104
-17.2164 6.33067 -1.928 80 87 105
-17.2307 6.39471 -1.93256 81 88 104
-17.1987 6.44021 -1.93092 79 86 102
-17.1932 6.52561 -1.93417 77 85 101
-17.1645 6.57244 -1.93302 81 88 104
-17.1631 6.63066 -1.9356 82 91 108
-12.112 11.8953 -1.78383 101 104 113
-12.0285 11.917 -1.77871 100 102 110
-11.9915 11.9524 -1.77882 99 101 109
-11.9532 11.9861 -1.77869 100 103 110
-11.3781 12.9671 -1.77944 72 73 89
-11.3304 12.9911 -1.77811 71 79 92
-11.1473 13.1392 -1.77847 56 55 67
-11.0992 13.1624 -1.77714 54 56 70
-9.58708 15.2659 -1.75109 71 73 84
-9.53829 15.2923 -1.75097 69 75 86
-9.49227 15.3237 -1.75151 74 81 91
-9.42199 15.3679 -1.75199 76 80 89
-8.02046 15.8133 -1.64324 65 65 70
-7.96123 15.8147 -1.64077 55 55 60
-7.90204 15.816 -1.63831 57 58 60
-7.83905 15.8079 -1.63477 49 51 49
-20.4242 0.468743 -1.89419 75 86 108
-20.4277 0.528802 -1.8947 76 88 110
-20.4093 0.588251 -1.89279 73 85 107
-19.2933 1.67087 -1.86257 83 87 99
-19.3239 1.75943 -1.86694 89 97 110
-19.3333 1.81758 -1.86862 93 100 116
-19.3306 1.87454 -1.86893 76 82 101
-18.0978 4.34605 -1.91012 77 88 106
-18.0956 4.42997 -1.91233 78 89 107
-18.0923 4.48563 -1.91364 81 90 106
-18.0984 4.5439 -1.91616 79 88 105
-18.0851 4.59703 -1.91625 80 89 106
-18.0778 4.68011 -1.91798 79 91 108
-17.4273 5.48992 -1.91751 80 89 106
-17.3943 5.53532 -1.91537 80 89 105
-17.406 5.59628 -1.9192 82 91 106
-17.3763 5.64283 -1.91755 81 88 104
-17.3806 5.72984 -1.92155 81 88 106
-17.3655 5.78163 -1.9219 82 89 105
-17.3428 5.83067 -1.92125 81 87 103
-17.3237 5.90959 -1.92226 82 88 104
-17.2857 5.9529 -1.91962 80 87 103
-17.3125 6.02059 -1.92568 81 90 105
-11.0292 13.1993 -1.7755 78 84 98
-10.975 13.2142 -1.77297 75 78 91
-10.9338 13.2464 -1.77308 71 77 89
-10.8763 13.3001 -1.77408 74 77 89
-10.8302 13.3256 -1.77323 72 72 88
-9.36636 15.3814 -1.7503 74 78 87
-9.31999 15.4123 -1.75085 72 75 85
-9.26798 15.4326 -1.75005 69 68 76
-9.18982 15.4617 -1.74874 74 74 77
-7.75593 15.8209 -1.63245 44 49 45
-7.69619 15.8196 -1.62977 49 54 49
-7.63503 15.8144 -1.62667 54 61 54
-20.413 0.318711 -1.8928 76 89 107
-20.4091 0.378545 -1.89243 75 87 105
-19.3123 1.4163 -1.86255 72 80 96
-19.3326 1.47493 -1.86538 73 81 97
-19.305 1.55798 -1.86288 74 79 94
-19.3229 1.61661 -1.86547 78 83 97
-18.1671 3.97036 -1.90776 83 92 107
-18.1474 4.04954 -1.90754 85 92 108
-18.1242 4.09994 -1.90617 85 92 108
-18.12 4.15498 -1.90723 83 92 108
-18.1129 4.23734 -1.90872 82 91 106
-18.1103 4.29292 -1.91003 81 89 108
-17.5147 5.03941 -1.91108 80 89 104
-17.4995 5.11867 -1.9121 80 89 104
-17.4958 5.17373 -1.91369 79 89 103
-17.4919 5.22882 -1.91528 80 89 106
-17.4588 5.30248 -1.91406 80 89 104
-17.4564 5.35819 -1.9159 79 88 103
-17.4331 5.40697 -1.915 80 89 104
-11.2673 12.5571 -1.77636 98 98 109
-11.216 12.5747 -1.77402 99 97 111
-11.1436 12.606 -1.77136 103 101 113
-10.791 13.3606 -1.77382 75 75 88
-10.7121 13.3846 -1.77051 78 78 88
-10.6853 13.4371 -1.77374 81 83 95
-10.6308 13.4505 -1.77121 94 100 112
-10.5911 13.485 -1.7718 95 101 113
-9.14043 15.4868 -1.74862 73 73 82
-9.09544 15.5206 -1.74961 73 76 84
-9.02232 15.5595 -1.74965 58 63 68
-8.94334 15.5255 -1.74214 76 85 90
-7.54833 15.8172 -1.62329 55 62 56
-7.48736 15.8115 -1.62018 55 60 55
-7.43167 15.8184 -1.61857 56 63 58
-19.3528 1.22017 -1.86581 72 84 100
-19.3322 1.30403 -1.86399 71 83 97
-19.3352 1.36118 -1.86476 71 79 96
-18.1795 3.61131 -1.89996 78 87 102
-18.179 3.66666 -1.90127 74 81 99
-18.1782 3.72205 -1.90258 75 82 100
-18.1616 3.80171 -1.90261 75 86 103
-18.1585 3.85669 -1.90367 81 91 110
-18.1609 3.91305 -1.90547 82 92 107
-17.5767 4.6123 -1.90381 78 90 106
-17.5674 4.69272 -1.90533 77 89 105
-17.5689 4.74876 -1.90742 80 92 108
-17.557 4.80091 -1.90777 78 90 106
-17.541 4.87966 -1.90855 78 88 104
-17.5438 4.93639 -1.91088 79 90 106
-17.5388 4.99085 -1.91222 78 89 106
-11.1008 12.634 -1.77074 80 77 91
-11.0652 12.6713 -1.77159 71 74 90
-11.0161 12.6912 -1.76974 75 77 92
-10.8809 12.8076 -1.77076 56 52 66
-10.5198 13.5193 -1.77017 94 100 112
-10.481 13.555 -1.771 95 101 113
-10.4364 13.5825 -1.77063 95 101 112
-10.3815 13.6407 -1.7726 94 101 111
-10.3312 13.6596 -1.77103 84 90 104
-8.90695 15.5765 -1.74537 72 81 89
-8.83442 15.6163 -1.74563 74 78 89
-8.7932 15.6581 -1.74775 70 77 87
-7.35108 15.8349 -1.61691 58 67 59
-7.29322 15.8359 -1.61466 54 61 54
-7.22899 15.8199 -1.61049 57 67 61
-19.3932 1.02348 -1.8693 71 82 100
-19.3934 1.10893 -1.86978 70 81 101
-19.3791 1.165 -1.86848 72 85 101
-18.1941 3.28305 -1.89401 78 85 101
-18.2082 3.3409 -1.89703 74 80 96
-18.2051 3.423 -1.89853 75 82 98
-18.1779 3.47271 -1.89642 80 87 103
-18.1797 3.52836 -1.89798 77 86 101
-17.6299 4.26833 -1.8993 78 90 106
-17.606 4.31696 -1.8979 79 91 107
-17.6222 4.37637 -1.90174 81 90 107
-17.5962 4.4244 -1.90009 80 89 104
-17.5839 4.50369 -1.90112 78 90 106
-17.588 4.56014 -1.90346 78 90 106
-10.8079 12.8372 -1.76811 50 50 63
-10.7679 12.8688 -1.76823 82 89 102
-10.729 12.902 -1.76859 73 77 90
-10.6651 12.9435 -1.76791 75 79 91
-10.6201 12.9683 -1.76705 72 74 86
-10.2863 13.6865 -1.77066 87 95 106
-10.2143 13.7193 -1.76903 97 102 109
-10.1725 13.7509 -1.76939 97 101 110
-10.1177 13.7624 -1.76686 96 100 111
-8.74491 15.6856 -1.74808 71 77 88
-8.69393 15.7075 -1.74773 76 83 94
-8.61057 15.7249 -1.74531 73 80 91
-7.15207 15.8447 -1.60989 58 68 59
-7.08807 15.8283 -1.60572 65 76 62
-7.03259 15.8339 -1.60411 67 77 63
-19.4473 0.826824 -1.87462 76 88 110
-19.4246 0.911231 -1.87235 69 81 103
-19.413 0.967611 -1.87128 71 82 105
-18.219 2.9859 -1.89068 76 85 100
-18.2342 3.04338 -1.8937 75 82 100
-18.2042 3.0928 -1.89111 75 82 100
-18.214 3.17686 -1.89407 73 82 97
-18.207 3.23053 -1.89441 74 83 98
-17.6453 3.88978 -1.89011 81 93 105
-17.6553 3.94665 -1.89295 84 92 105
-17.6344 3.99602 -1.89181 82 92 104
-17.6319 4.07717 -1.89383 82 92 104
-17.624 4.12985 -1.89443 81 91 103
-17.6217 4.184 -1.89578 81 91 104
-10.5774 12.9962 -1.76667 72 71 87
-10.5369 13.0271 -1.76679 76 75 89
-10.4724 13.0677 -1.76611 81 79 90
-10.4363 13.1049 -1.76721 77 77 87
-10.3966 13.137 -1.76757 101 106 117
-10.0876 13.812 -1.76985 97 101 112
-10.0162 13.8454 -1.76846 93 101 112
-9.96975 13.8697 -1.76786 92 102 112
-9.92637 13.8989 -1.76797 95 101 114
-9.84839 13.9214 -1.76515 98 103 115
-8.56285 15.7535 -1.74586 78 82 93
-8.51001 15.7713 -1.74507 74 77 86
-8.42406 15.7823 -1.74198 67 71 78
-6.97644 15.8374 -1.6023 63 69 65
-6.89746 15.8554 -1.60106 54 58 57
-6.8488 15.8791 -1.6016 59 63 58
-19.4725 0.656702 -1.8769 74 86 108
-19.4815 0.714156 -1.87813 75 87 109
-19.4506 0.769926 -1.87477 75 87 109
-18.2377 2.71612 -1.88774 77 86 103
-18.2278 2.79623 -1.88801 77 86 101
-18.224 2.85016 -1.8886 76 85 100
-18.2318 2.90612 -1.89064 77 86 102
-17.6885 3.57473 -1.88699 82 89 107
-17.6901 3.65612 -1.88927 77 84 101
-17.6797 3.70794 -1.88937 74 82 99
-17.6594 3.75748 -1.88823 72 80 99
-17.6526 3.81013 -1.88883 81 90 107
-13.1931 9.87932 -1.8464 104 110 124
-13.0955 9.89376 -1.83751 105 109 121
-13.0196 9.8941 -1.82974 98 102 114
-12.9347 9.88641 -1.82039 94 98 110
-12.8726 9.8975 -1.81499 94 99 111
-12.8191 9.94708 -1.81374 90 97 108
-12.7945 9.98988 -1.81493 99 102 117
-12.7563 10.021 -1.81375 101 105 119
-10.3305 13.1753 -1.76664 94 100 112
-10.295 13.2137 -1.76799 96 102 114
-10.2482 13.2356 -1.76688 96 102 112
-10.1872 13.2814 -1.76718 95 101 113
-10.1414 13.3046 -1.76632 95 100 111
-9.80694 13.9535 -1.76574 93 99 111
-9.74872 13.9586 -1.76251 93 99 111
-9.69337 14.0174 -1.76495 93 99 111
-9.63617 14.0237 -1.76196 91 97 109
-8.35389 15.7617 -1.73649 74 78 87
-8.29292 15.7607 -1.73346 64 69 75
-8.21212 15.7815 -1.73172 74 79 86
-8.14886 15.7745 -1.72802 79 83 93
-6.81545 15.9455 -1.60705 57 57 55
-6.7387 15.9702 -1.60667 69 69 67
-19.4909 0.457522 -1.87855 75 86 110
-19.4847 0.514431 -1.87794 74 86 108
-19.4782 0.5713 -1.87734 74 86 108
-18.2041 2.54789 -1.88061 88 97 112
-18.2285 2.60587 -1.88461 79 91 105
-18.2214 2.65912 -1.88471 79 91 107
-17.7128 3.28371 -1.8828 78 85 103
-17.7074 3.33634 -1.8834 80 87 105
-17.7039 3.38939 -1.88426 79 86 102
-17.7063 3.47064 -1.88654 78 87 102
-17.7004 3.52332 -1.88714 76 85 100
-15.4265 8.26973 -1.97146 79 88 100
-15.4287 8.3312 -1.9758 80 88 102
-15.4 8.37464 -1.9754 78 85 101
-15.3831 8.42507 -1.97684 78 88 100
-15.3561 8.49967 -1.97874 80 90 102
-15.3319 8.54595 -1.97912 80 90 102
-15.311 8.59422 -1.98003 79 88 103
-15.2697 8.66032 -1.97982 78 90 104
-15.2467 8.70741 -1.98047 79 88 103
-15.2336 8.76075 -1.9827 81 88 104
-15.1981 8.83072 -1.98354 81 88 103
-15.1762 8.87871 -1.98446 80 88 101
-15.1525 8.92559 -1.9851 81 89 100
-15.1212 8.99848 -1.98674 82 90 104
-15.0921 9.04198 -1.98659 78 84 99
-15.0596 9.08323 -1.98592 71 77 90
-15.0484 9.13854 -1.98868 87 93 105
-15.0061 9.20453 -1.98873 118 123 136
-14.9051 9.35738 -1.98876 95 93 104
-14.8733 9.39909 -1.98835 80 78 89
-14.8299 9.43281 -1.98609 73 69 81
-14.2942 9.88019 -1.96236 65 73 85
-14.2056 9.878 -1.95273 64 72 85
-14.1077 9.86814 -1.94151 68 76 87
-14.0242 9.86863 -1.93267 68 76 86
-13.9127 9.87892 -1.92166 57 63 76
-13.8217 9.8723 -1.91151 77 83 96
-13.7354 9.86889 -1.90214 80 86 98
-13.6493 9.89683 -1.89535 78 83 101
-13.5525 9.88379 -1.88415 78 84 100
-13.4636 9.87647 -1.87426 71 77 91
-13.367 9.89397 -1.86563 68 72 86
-13.28 9.88686 -1.85601 67 75 88
-12.7097 10.0764 -1.81382 96 101 113
-12.6668 10.1033 -1.81184 103 107 119
-12.6343 10.1392 -1.81171 97 101 113
-12.5782 10.1862 -1.81021 101 105 117
-12.5351 10.2125 -1.80823 105 107 120
-12.4978 10.244 -1.80732 98 100 115
-12.4692 10.2833 -1.80798 100 103 116
-12.4111 10.3281 -1.80621 96 100 112
-12.3735 10.3592 -1.80529 100 102 115
-12.3473 10.4009 -1.80648 102 104 117
-12.3018 10.4572 -1.80708 91 95 107
-12.2667 10.4906 -1.80668 95 98 111
-12.22 10.513 -1.80419 97 101 114
-10.0999 13.3343 -1.76644 85 93 106
-10.0352 13.3744 -1.76601 87 91 101
-9.99344 13.4037 -1.76613 95 100 106
-9.94298 13.4196 -1.76429 98 102 110
-9.89571 13.4404 -1.76319 96 100 113
-9.6035 14.0706 -1.76471 92 98 110
-9.53019 14.0998 -1.76308 91 97 109
-9.48605 14.1277 -1.7632 91 99 110
-9.4408 14.1537 -1.76308 92 100 113
-8.08809 15.7728 -1.725 74 81 89
-7.99792 15.7706 -1.72057 74 81 89
-7.9397 15.7738 -1.71822 73 78 85
-6.68568 15.9822 -1.60592 69 70 65
-6.58781 15.8644 -1.59043 67 68 63
-6.52812 15.9369 -1.59561 59 66 59
-19.4896 0.314835 -1.87821 74 86 108
-19.4996 0.372113 -1.87945 73 86 106
-18.2097 2.17059 -1.87526 73 80 97
-18.2158 2.22527 -1.87683 71 83 99
-18.208 2.3591 -1.87794 79 86 101
-18.2213 2.41505 -1.88048 77 84 102
-17.7307 2.96621 -1.87792 76 83 101
-17.7236 3.04489 -1.87871 75 82 100
-17.719 3.09747 -1.87931 77 84 100
-17.726 3.15233 -1.88141 76 85 100
-17.7172 3.20419 -1.88152 74 83 100
-15.946 6.91377 -1.95032 80 87 103
-15.9018 6.97768 -1.94852 80 87 103
-15.9076 7.03727 -1.95261 80 87 103
-15.8918 7.08664 -1.95353 78 86 99
-15.8593 7.15628 -1.95358 77 87 99
-15.8501 7.20905 -1.95555 80 90 102
-15.8249 7.25391 -1.95515 81 90 105
-15.819 7.30844 -1.95765 79 88 103
-15.7819 7.37599 -1.95717 81 89 102
-15.7614 7.42332 -1.95756 79 87 100
-15.7549 7.47785 -1.96006 81 89 102
-15.7188 7.54599 -1.95985 82 90 103
-15.7082 7.59869 -1.96182 80 88 101
-15.6835 7.64399 -1.96168 79 89 101
-15.6658 7.72208 -1.96438 80 88 101
-15.6477 7.77101 -1.96529 80 88 101
-15.626 7.81802 -1.96567 80 88 101
-15.604 7.86498 -1.96606 79 89 101
-15.5765 7.93817 -1.96743 80 88 101
-15.5646 7.99079 -1.96941 78 88 100
-15.5421 8.03759 -1.96979 81 90 103
-15.5205 8.11453 -1.97222 79 86 101
-15.4925 8.15827 -1.97181 78 85 100
-15.4695 8.2049 -1.9722 79 86 102
-14.9928 9.25872 -1.99123 106 114 126
-14.9645 9.30294 -1.99135 132 139 148
-14.7992 9.50689 -1.98826 73 71 84
-14.7717 9.55168 -1.98864 74 75 88
-14.7409 9.59411 -1.9885 74 77 92
-14.7228 9.64564 -1.99046 67 72 88
-14.6669 9.70207 -1.98867 58 62 79
-14.6516 9.7558 -1.99116 51 56 75
-14.6201 9.79786 -1.99102 55 60 80
-14.5747 9.86192 -1.99107 53 56 71
-14.5031 9.87423 -1.98433 68 71 86
-14.4 9.86246 -1.97232 65 72 86
-12.1596 10.555 -1.80216 102 107 119
-12.1199 10.5838 -1.80098 107 110 122
-12.066 10.5987 -1.79717 101 103 116
-11.7659 10.8423 -1.79143 104 106 118
-9.83047 13.4795 -1.76275 97 99 111
-9.78734 13.5066 -1.76263 95 102 113
-9.73987 13.5268 -1.76153 92 100 111
-9.39547 14.1796 -1.76296 90 96 109
-9.31587 14.1975 -1.7599 88 96 109
-9.28615 14.2505 -1.76361 89 97 110
-9.22194 14.2431 -1.75894 88 96 109
-7.88076 15.775 -1.71565 75 81 89
-7.8188 15.7686 -1.71218 76 80 89
-7.73676 15.7833 -1.70999 75 81 90
-6.56607 16.2172 -1.62541 64 69 62
-6.4853 16.1476 -1.61548 62 63 58
-18.1955 1.98077 -1.87087 74 80 98
-18.1963 2.03454 -1.8717 79 84 100
-18.2284 2.09221 -1.87644 73 80 98
-17.7526 2.73054 -1.87582 84 93 108
-17.7354 2.78075 -1.87468 86 95 111
-17.7389 2.86108 -1.87671 75 84 99
-17.7446 2.9154 -1.87857 74 83 98
-16.1718 6.17672 -1.93892 79 86 102
-16.1473 6.24907 -1.93951 77 88 100
-16.1305 6.29726 -1.9399 77 90 99
-16.1208 6.34851 -1.94135 78 88 100
-16.0936 6.4199 -1.94167 79 87 103
-16.0581 6.46006 -1.93941 82 89 104
-16.0605 6.51678 -1.94271 80 88 102
-16.0537 6.56959 -1.94468 79 88 103
-16.0327 6.64397 -1.94607 80 87 103
-16.0182 6.69353 -1.94698 81 87 101
-15.9963 6.73979 -1.94684 80 86 103
-15.9799 6.81651 -1.94901 78 85 101
-15.954 6.86097 -1.94834 79 85 101
-12.3392 11.1085 -1.87035 103 105 118
-12.2895 11.1293 -1.86759 105 107 119
-12.2905 11.2363 -1.87765 102 104 116
-11.7291 10.9075 -1.79414 93 96 106
-11.6912 10.9377 -1.79349 93 96 105
-11.6642 10.9791 -1.79494 89 92 102
-11.6184 11.0354 -1.79607 98 100 112
-11.5816 11.0666 -1.79568 102 104 116
-11.5554 11.1092 -1.79739 111 112 122
-11.5278 11.1504 -1.79885 118 118 126
-11.4663 11.1901 -1.79708 131 131 139
-10.6254 10.9536 -1.69897 67 65 74
-9.6753 13.5669 -1.76134 96 102 114
-9.6277 13.5867 -1.76024 92 98 110
-9.58214 13.6098 -1.75963 93 99 111
-9.52646 13.6644 -1.76165 92 98 110
-9.47966 13.6854 -1.76079 92 98 112
-9.15487 14.2826 -1.759 87 95 106
-9.0995 14.2902 -1.75648 89 97 108
-9.06621 14.3376 -1.75947 89 97 108
-7.67574 15.7783 -1.70675 77 82 90
-7.61782 15.7803 -1.7044 72 77 81
-7.53292 15.7867 -1.70132 70 74 79
-6.38221 16.0934 -1.60635 65 67 61
-6.33507 16.1231 -1.60774 64 66 63
-6.21298 15.9201 -1.58286 58 60 59
-6.14701 15.8887 -1.57742 60 65 59
-18.2428 1.74465 -1.87371 76 83 96
-18.2226 1.79616 -1.87185 76 86 98
-18.22 1.84949 -1.8722 86 93 109
-18.2143 1.92927 -1.87248 78 85 103
-17.7443 2.43797 -1.86936 77 86 101
-17.7691 2.49462 -1.87346 70 81 95
-17.7937 2.55144 -1.87756 63 75 91
-17.7712 2.60092 -1.87567 65 77 93
-17.7325 2.67412 -1.87222 80 89 104
-16.2912 5.67826 -1.92973 72 81 96
-16.2744 5.72605 -1.92985 75 83 96
-16.2722 5.77947 -1.93209 98 105 115
-16.2201 5.84063 -1.92844 110 115 127
-16.2193 5.89474 -1.93095 107 110 127
-16.2018 5.94234 -1.93108 83 89 103
-16.2025 5.99725 -1.93385 70 76 90
-16.1917 6.07489 -1.93629 79 88 101
-16.17 6.12093 -1.93589 80 88 102
-13.027 11.6085 -1.98219 99 103 115
-13.0052 11.6975 -1.98829 102 104 117
-11.4303 11.2223 -1.79696 119 122 133
-11.3969 11.2573 -1.79736 108 113 119
-11.3284 11.2889 -1.79429 100 103 112
-11.2868 11.3148 -1.79311 94 94 104
-11.2426 11.3375 -1.79141 91 90 97
-11.1712 11.3653 -1.78782 68 63 69
-11.0852 11.3399 -1.77772 81 75 84
-10.6462 11.0837 -1.71376 82 90 101
-10.649 11.1585 -1.72152 95 103 116
-10.6374 11.2169 -1.72639 107 117 127
-9.72074 11.0235 -1.62939 102 103 108
-9.43995 13.7182 -1.76165 93 99 113
-9.39302 13.7389 -1.76079 92 98 110
-9.32243 13.7688 -1.75938 92 98 110
-9.27336 13.7858 -1.75804 90 98 109
-8.98347 14.3485 -1.7557 87 96 105
-8.94887 14.3939 -1.75845 89 97 109
-8.89808 14.4095 -1.75714 85 93 106
-8.86037 14.4494 -1.75917 85 95 107
-7.47437 15.7864 -1.69875 74 78 87
-7.41153 15.7748 -1.69484 74 81 89
-7.32835 15.7838 -1.69221 74 81 89
-6.09552 15.9899 -1.58602 61 64 61
-18.2298 1.55609 -1.87004 77 86 101
-18.2122 1.60788 -1.86843 75 80 99
-18.2181 1.6619 -1.86976 76 82 98
-17.7326 2.17316 -1.86356 69 81 97
-17.7253 2.25091 -1.86386 76 84 102
-17.7626 2.3088 -1.86946 72 79 97
-17.7584 2.36094 -1.86981 73 85 101
-16.4303 5.16467 -1.92455 78 87 104
-16.3964 5.20638 -1.92202 77 86 103
-16.3896 5.28398 -1.92447 79 88 103
-16.3797 5.33399 -1.92539 76 88 104
-16.349 5.37669 -1.9234 77 89 105
-16.3555 5.43265 -1.9267 77 89 103
-16.3346 5.50558 -1.9273 77 87 102
-16.3034 5.548 -1.9253 79 88 103
-16.3111 5.60478 -1.92887 80 89 104
-12.6567 9.86321 -1.85204 90 96 107
-12.5831 9.86267 -1.84431 99 106 117
-12.4823 9.86902 -1.83436 108 116 126
-12.4193 9.87679 -1.82853 108 116 126
-12.3387 9.86847 -1.81946 97 101 112
-12.2574 9.8903 -1.81303 97 101 112
-12.1903 9.89305 -1.8064 99 103 114
-12.1057 9.87948 -1.79651 97 99 112
-12.1235 9.95909 -1.8056 100 101 117
-12.0554 9.99154 -1.80162 98 100 113
-12.8203 11.8473 -1.98478 105 108 117
-10.8237 11.5483 -1.77582 89 98 111
-10.8599 11.6668 -1.79092 112 119 135
-9.67559 11.0377 -1.62718 72 71 85
-9.64368 11.069 -1.62786 70 74 91
-9.23722 13.8248 -1.75988 93 101 112
-9.16433 13.8505 -1.75798 93 99 112
-9.11314 13.8635 -1.75615 89 95 109
-9.06195 13.8762 -1.75432 90 96 110
-8.78487 14.4732 -1.75732 86 94 107
-8.74038 14.5006 -1.75768 86 96 106
-8.68482 14.5066 -1.75517 87 95 106
-7.27004 15.7828 -1.68964 75 82 91
-7.2118 15.7816 -1.68708 78 85 95
-7.15503 15.7839 -1.68496 80 85 95
-6.09608 16.1723 -1.60471 56 61 57
-5.97926 15.9752 -1.58069 67 69 64
-18.2296 1.31595 -1.86773 76 83 101
-18.2404 1.37013 -1.86955 73 82 97
-18.2213 1.42192 -1.8677 77 85 99
-18.2199 1.47514 -1.86804 78 86 99
-17.748 1.99161 -1.86279 71 78 94
-17.7534 2.0709 -1.86459 77 88 104
-17.7342 2.12088 -1.86295 72 84 100
-16.5021 4.76455 -1.91743 78 90 106
-16.507 4.81882 -1.92021 80 89 106
-16.4797 4.86294 -1.91848 80 91 108
-16.4766 4.94112 -1.92119 75 87 103
-16.4471 4.98444 -1.9192 78 87 104
-16.4663 5.04382 -1.9241 77 89 105
-16.4247 5.10954 -1.92151 78 89 104
-15.2909 7.03655 -1.94279 80 87 103
-15.271 7.10973 -1.94477 79 86 102
-15.2514 7.15549 -1.94518 79 86 102
-15.2369 7.20393 -1.9464 80 87 103
-15.195 7.266 -1.9451 80 87 103
-15.1994 7.3245 -1.94932 81 88 104
-15.1878 7.37475 -1.95109 79 86 102
-15.1452 7.43651 -1.9498 82 89 105
-15.1244 7.48197 -1.9502 81 88 104
-15.114 7.53306 -1.95224 78 86 99
-15.0878 7.57557 -1.95183 79 88 103
-15.0616 7.64641 -1.95326 79 87 103
-15.0471 7.69552 -1.95475 79 86 102
-15.0359 7.74657 -1.95679 79 87 101
-14.9916 7.80747 -1.9555 80 86 102
-14.9732 7.85451 -1.95644 82 88 104
-14.9648 7.90747 -1.95903 84 88 105
-14.9232 7.96996 -1.95828 81 86 103
-14.9093 8.01988 -1.96004 80 87 103
-14.8969 8.07081 -1.96208 78 85 102
-14.8673 8.11159 -1.96139 79 87 103
-14.8367 8.18074 -1.96255 79 89 101
-14.8203 8.22954 -1.96404 79 89 101
-14.7818 8.26487 -1.962 78 88 100
-14.7538 8.33581 -1.9637 81 89 102
-14.7436 8.38866 -1.96628 79 89 101
-14.7231 8.43521 -1.96722 80 90 102
-14.6892 8.50283 -1.96811 80 87 103
-14.6783 8.55566 -1.97069 81 89 102
-14.6273 8.58278 -1.96674 79 89 101
-14.6328 8.6463 -1.97204 79 89 99
-14.5878 8.70709 -1.97129 80 88 101
-14.5696 8.75548 -1.97278 82 88 102
-14.5528 8.80495 -1.97454 81 88 104
-14.5104 8.86754 -1.97433 83 90 104
-14.4982 8.92023 -1.97691 82 91 105
-14.4693 8.96181 -1.97677 81 89 102
-14.4279 9.02513 -1.97684 73 78 98
-14.4084 9.07325 -1.97833 67 71 88
-14.3775 9.11342 -1.97792 67 72 86
-14.3353 9.17634 -1.97798 106 112 126
-14.3202 9.22771 -1.98029 128 134 145
-14.3033 9.27793 -1.98232 139 142 150
-14.2444 9.29814 -1.97729 123 123 130
-14.2173 9.37208 -1.98007 86 84 94
-14.1727 9.40229 -1.97749 67 65 78
-14.1343 9.437 -1.97599 59 61 75
-14.1144 9.51652 -1.98013 67 69 86
-14.0774 9.55217 -1.9789 62 63 81
-14.0307 9.58057 -1.97605 60 63 83
-13.9958 9.64911 -1.97774 58 65 84
-13.9709 9.69394 -1.97869 54 59 77
-13.9334 9.72906 -1.97747 60 66 80
-13.9098 9.77496 -1.97868 63 71 84
-13.8707 9.84066 -1.97984 61 71 83
-13.7985 9.84849 -1.97264 72 78 92
-13.7186 9.84983 -1.96408 75 81 93
-13.6203 9.86776 -1.95492 70 76 88
-13.5283 9.85825 -1.9442 73 79 91
-13.4427 9.85323 -1.93456 75 81 93
-13.3494 9.87308 -1.92622 78 82 94
-13.2656 9.86834 -1.91685 77 84 96
-13.1743 9.85688 -1.90613 76 82 94
-13.0938 9.8538 -1.89732 72 79 89
-12.9889 9.86118 -1.88681 77 86 95
-12.9103 9.85843 -1.87827 78 84 96
-12.8363 9.85914 -1.87054 68 74 86
-12.7379 9.86985 -1.86112 75 78 91
-12.013 10.0161 -1.7996 101 102 116
-11.9894 10.0581 -1.8011 102 104 117
-11.9297 10.0978 -1.79875 95 100 112
-11.8986 10.1328 -1.79889 97 101 115
-11.8616 10.1622 -1.79796 91 94 107
-11.8029 10.2026 -1.79588 90 95 107
-11.7729 10.2386 -1.79629 97 101 113
-11.747 10.2786 -1.79752 96 98 111
-11.7139 10.3117 -1.7974 100 103 118
-11.6673 10.3638 -1.79776 97 101 113
-11.6297 10.3924 -1.79682 100 104 116
-10.8199 11.6941 -1.79028 104 108 124
-10.7602 11.7347 -1.78931 115 124 135
-10.7125 11.7523 -1.78709 116 123 134
-10.6784 11.7868 -1.78776 104 110 121
-10.6195 11.8282 -1.78705 92 95 105
-10.5766 11.8516 -1.78588 93 93 101
-9.00058 13.9218 -1.75536 90 96 110
-8.95797 13.9498 -1.75573 91 99 110
-8.91814 13.9828 -1.75684 90 98 109
-8.62823 14.5666 -1.75834 86 94 107
-8.56628 14.5599 -1.75416 86 96 106
-8.51968 14.5831 -1.75404 83 91 102
-7.0728 15.7934 -1.68255 79 85 94
-7.01544 15.7934 -1.68021 83 90 98
-6.95608 15.7875 -1.6772 83 88 95
-18.2553 1.13133 -1.86944 69 80 98
-18.2429 1.18377 -1.86832 72 84 100
-18.2463 1.23728 -1.86916 70 82 98
-17.7362 1.75502 -1.85817 86 94 107
-17.7467 1.83447 -1.86047 81 89 104
-17.7578 1.88805 -1.86258 72 81 98
-17.7353 1.93771 -1.86044 75 84 101
-16.5614 4.3638 -1.91003 79 88 105
-16.5526 4.41333 -1.91068 79 88 104
-16.5531 4.46563 -1.91267 79 88 103
-16.5254 4.53573 -1.91167 76 88 104
-16.5463 4.59433 -1.91658 78 90 106
-16.5102 4.63585 -1.91352 77 89 105
-16.5253 4.71912 -1.91863 78 90 106
-15.5196 6.27108 -1.92727 78 85 101
-15.5226 6.32627 -1.93068 79 87 100
-15.5045 6.39903 -1.93238 79 89 100
-15.4692 6.43713 -1.93006 79 89 101
-15.4643 6.48912 -1.93238 80 87 103
-15.4508 6.56426 -1.9349 80 87 105
-15.4078 6.59867 -1.93149 80 87 103
-15.422 6.65997 -1.93681 80 88 103
-15.4005 6.73169 -1.93824 79 86 104
-15.3607 6.76743 -1.93537 79 86 102
-15.36 6.82204 -1.93851 80 88 101
-15.3395 6.86714 -1.93864 79 88 102
-15.3045 6.93247 -1.93817 80 90 102
-15.3049 6.98803 -1.94157 79 88 103
-11.6102 10.4391 -1.79941 102 106 118
-11.5463 10.4739 -1.79652 118 125 135
-11.5167 10.5106 -1.79721 124 127 136
-11.4774 10.5372 -1.796 124 127 136
-11.4282 10.5869 -1.79609 114 118 129
-11.3901 10.6147 -1.79515 107 111 121
-11.3368 10.6265 -1.79124 102 105 116
-11.3013 10.6568 -1.79085 99 103 112
-11.2434 10.6971 -1.78931 94 94 101
-10.5373 11.8794 -1.7855 92 94 103
-10.4967 11.9056 -1.78486 97 100 107
-8.85333 14.0225 -1.75715 89 96 107
-8.80753 14.0448 -1.75679 92 100 110
-8.75791 14.06 -1.75544 91 97 109
-8.71482 14.0872 -1.75582 91 98 112
-8.45805 14.6335 -1.75601 87 95 108
-8.41032 14.6546 -1.75566 83 93 105
-8.37219 14.695 -1.75793 84 94 106
-6.87066 15.7868 -1.67368 80 86 96
-6.81755 15.7972 -1.67268 78 83 92
-6.75579 15.7832 -1.66878 85 90 96
-17.7312 1.5722 -1.8554 78 84 100
-17.7485 1.65201 -1.85845 72 78 94
-17.7563 1.70499 -1.86006 75 82 98
-16.595 4.06238 -1.90393 77 85 103
-16.5922 4.13899 -1.90612 79 88 105
-16.6012 4.19322 -1.90917 78 87 102
-16.572 4.23702 -1.90691 80 89 104
-16.5673 4.28761 -1.9081 80 89 104
-15.6859 5.62397 -1.91491 80 89 104
-15.7024 5.68304 -1.91997 67 75 92
-15.7039 5.73639 -1.92283 86 91 107
-15.6796 5.77944 -1.92188 106 111 124
-15.6496 5.84647 -1.9214 110 115 127
-15.6395 5.89534 -1.92263 92 97 109
-15.622 5.94118 -1.92276 74 79 93
-15.6278 6.02331 -1.92775 78 85 103
-15.6098 6.06913 -1.92788 81 88 106
-15.5645 6.10317 -1.92392 79 88 105
-15.5675 6.18463 -1.92864 78 87 102
-15.5618 6.23585 -1.93068 77 87 99
-11.1982 10.7169 -1.78703 96 93 99
-11.1691 10.7541 -1.78799 98 96 102
-11.1016 10.7834 -1.78456 102 100 106
-11.0655 10.813 -1.78417 103 100 107
-11.0387 10.8527 -1.78567 102 101 106
-10.9867 10.899 -1.78549 102 100 103
-10.9477 10.9252 -1.78456 102 100 101
-10.7949 10.927 -1.77073 114 112 116
-10.2994 12.0423 -1.78295 71 67 82
-10.281 12.0978 -1.78729 54 51 70
-10.2481 12.1342 -1.78848 53 55 69
-10.1818 12.1656 -1.78647 72 81 92
-10.1462 12.1986 -1.78714 74 82 93
-8.64575 14.119 -1.75515 88 96 109
-8.59876 14.1389 -1.75454 86 96 108
-8.55082 14.1569 -1.75369 90 100 110
-8.29073 14.7056 -1.75465 84 90 102
-8.23591 14.7118 -1.75238 85 92 103
-8.1914 14.7394 -1.75298 85 93 104
-8.13657 14.7452 -1.75072 80 87 100
-6.67331 15.7889 -1.66616 82 90 98
-6.6086 15.7649 -1.66114 85 92 102
-6.53572 15.7164 -1.65322 90 96 105
-17.7846 1.34293 -1.85976 76 82 99
-17.7815 1.39472 -1.85987 77 83 98
-17.7878 1.47339 -1.86143 72 78 93
