-2.90372 -4.24369 -1.7669 57 61 72
-2.97662 -4.07867 -1.75647 57 61 72
-3.32957 -3.76087 -1.79983 60 65 77
-3.34058 -3.73904 -1.7961 60 64 79
-3.75786 -3.04871 -1.78093 63 75 97
-3.77368 -3.04344 -1.78476 64 77 99
-3.78243 -3.03217 -1.78476 65 78 100
-3.79588 -3.01521 -1.78476 63 74 96
-3.80738 -3.00621 -1.78629 61 74 93
-3.81172 -2.99133 -1.784 62 75 94
-3.8221 -2.9719 -1.78247 60 72 94
-3.83639 -2.96509 -1.78553 61 73 95
-3.84489 -2.95361 -1.78553 62 75 94
-3.85624 -2.9444 -1.78706 61 73 97
-3.86782 -2.92593 -1.7863 62 75 95
-3.87183 -2.91094 -1.784 63 76 95
-3.88453 -2.90273 -1.7863 66 79 98
-3.90562 -2.87357 -1.7863 62 74 96
-3.91529 -2.86297 -1.78707 65 77 99
-3.98196 -2.76929 -1.78784 58 70 92
-3.99718 -2.75347 -1.78937 62 77 100
-4.01279 -2.72939 -1.78937 61 76 99
-4.01572 -2.70494 -1.78478 66 81 104
-4.03707 -2.7023 -1.79167 70 85 110
-4.03712 -2.68491 -1.78785 63 78 102
-4.04627 -2.67379 -1.78861 68 83 106
-4.05189 -2.65136 -1.78555 65 79 103
-4.06861 -2.64532 -1.79014 66 81 104
-4.06995 -2.62895 -1.78709 66 81 104
-4.08766 -2.6146 -1.79015 65 80 103
-4.08732 -2.59721 -1.78632 66 81 104
-4.09776 -2.58689 -1.78785 68 83 108
-4.106 -2.56633 -1.78632 63 77 103
-4.11169 -2.55293 -1.78556 65 80 103
-4.61284 -1.91561 -1.80296 63 76 100
-4.61122 -1.89856 -1.79997 60 75 98
-4.61125 -1.88226 -1.79773 68 80 102
-4.81402 -1.53096 -1.78374 72 91 123
-4.81265 -1.51435 -1.78155 72 91 123
-4.96523 -1.34709 -1.79156 77 94 124
-4.99201 -1.33816 -1.80091 78 94 123
-5.19202 -1.0722 -1.80382 73 83 108
-5.1872 -1.05446 -1.80102 64 75 102
-5.65249 -0.369214 -1.7966 67 79 101
-5.79009 -0.156718 -1.79588 68 80 102
-5.85301 -0.0481317 -1.79339 68 80 102
-2.10563 -5.38484 -1.76526 101 101 112
-2.22717 -5.18856 -1.76134 100 98 112
-2.45613 -4.86067 -1.76303 87 89 102
-2.68238 -4.58821 -1.77485 56 60 74
-2.87962 -4.27729 -1.77265 59 61 73
-2.95679 -4.10206 -1.7594 57 59 71
-2.9709 -4.09652 -1.76086 57 59 72
-3.26723 -3.76582 -1.7849 58 64 76
-3.30628 -3.77887 -1.79909 61 65 77
-3.31737 -3.76917 -1.79909 60 66 78
-3.69263 -3.14348 -1.78475 62 75 93
-3.70168 -3.13249 -1.78476 62 74 96
-3.70653 -3.1178 -1.78246 64 76 98
-3.72737 -3.10729 -1.78629 62 75 94
-3.73491 -3.09497 -1.78552 63 75 96
-3.741 -3.08143 -1.78399 64 76 99
-3.75892 -3.06827 -1.78629 61 73 95
-4.12202 -2.54249 -1.78709 67 82 105
-4.13543 -2.53398 -1.79015 67 81 107
-4.14182 -2.51229 -1.78786 66 82 108
-4.15675 -2.50463 -1.79169 68 85 113
-4.1575 -2.4882 -1.78863 68 85 113
-4.17153 -2.47125 -1.79016 70 85 114
-4.18006 -2.45958 -1.79093 68 85 115
-4.62488 -1.87173 -1.80147 63 70 89
-4.63798 -1.85259 -1.80371 58 63 81
-4.82898 -1.50324 -1.78667 72 91 123
-4.95943 -1.31282 -1.78653 78 95 125
-5.18968 -1.03819 -1.80102 64 77 101
-5.66652 -0.343405 -1.80122 63 76 98
-5.79163 -0.138628 -1.79652 64 76 99
-2.08834 -5.38688 -1.76397 101 101 111
-2.19964 -5.18696 -1.75739 100 99 113
-2.43621 -4.87624 -1.76507 88 90 103
-2.6497 -4.61072 -1.77625 74 76 90
-2.65891 -4.59483 -1.77276 68 71 86
-2.8446 -4.2779 -1.76547 57 61 72
-2.85434 -4.26489 -1.76331 59 61 73
-2.93726 -4.11335 -1.75867 59 61 73
-3.24163 -3.78048 -1.78266 58 64 76
-3.25272 -3.77099 -1.78266 58 64 76
-3.6286 -3.20126 -1.78016 64 75 93
-3.65238 -3.19381 -1.78552 64 73 93
-3.65614 -3.17798 -1.78246 67 79 95
-3.66804 -3.16959 -1.78399 64 75 93
-3.67444 -3.15621 -1.78246 64 75 93
-4.19013 -2.44883 -1.79246 58 77 109
-4.19541 -2.4352 -1.79169 50 68 101
-4.21082 -2.41895 -1.79399 54 70 103
-4.19845 -2.395 -1.78481 41 55 89
-4.20834 -2.38414 -1.78634 48 63 97
-4.63955 -1.83696 -1.80222 92 94 106
-4.6445 -1.82274 -1.80222 86 85 96
-4.8245 -1.47748 -1.78228 72 91 123
-4.8265 -1.46195 -1.78155 71 90 122
-4.97352 -1.30035 -1.79085 83 99 128
-4.977 -1.27672 -1.79013 73 89 117
-5.19552 -1.01412 -1.80172 61 76 99
-5.67051 -0.325859 -1.80254 69 81 106
-5.91109 -0.0296204 -1.81303 60 72 96
-2.07571 -5.40324 -1.76784 103 103 115
-2.18159 -5.18581 -1.75475 101 100 114
-2.41707 -4.87283 -1.761 91 91 103
-2.63426 -4.61502 -1.77486 85 84 98
-2.8213 -4.28376 -1.76259 59 63 72
-2.91407 -4.13187 -1.7594 57 59 71
-2.92825 -4.1265 -1.76087 60 59 73
-3.21568 -3.80696 -1.78415 59 58 74
-3.23396 -3.79431 -1.7849 58 62 74
-3.57944 -3.26254 -1.78169 63 74 92
-3.58888 -3.25192 -1.78169 63 74 92
-3.59828 -3.24128 -1.78169 62 73 91
-3.61271 -3.22525 -1.78169 64 76 96
-3.62474 -3.21704 -1.78322 60 71 90
-4.22835 -2.37053 -1.79093 76 91 123
-4.23658 -2.35863 -1.7917 68 83 116
-4.24639 -2.3476 -1.79323 67 82 117
-4.25178 -2.32557 -1.79094 55 70 105
-4.25664 -2.31177 -1.79017 51 69 102
-4.65051 -1.80067 -1.80148 92 94 107
-4.64675 -1.78297 -1.79775 86 93 110
-4.66186 -1.7728 -1.80223 68 79 103
-4.82846 -1.44642 -1.78082 72 91 123
-4.83794 -1.42494 -1.78229 73 91 123
-4.9928 -1.26457 -1.79516 77 94 121
-5.19602 -0.997478 -1.80103 62 74 100
-5.64247 -0.306686 -1.79264 68 80 106
-5.79519 -0.111488 -1.79782 68 80 102
-5.88572 -0.00162554 -1.8048 67 79 102
-2.05607 -5.39797 -1.76398 99 102 114
-2.16872 -5.19876 -1.75739 100 100 112
-2.40249 -4.87966 -1.761 95 95 107
-2.62057 -4.62258 -1.77486 83 86 98
-2.79493 -4.29834 -1.76188 58 62 74
-2.81337 -4.29989 -1.76619 58 62 73
-2.91374 -4.17249 -1.77257 58 62 73
-3.21131 -3.84921 -1.7961 61 63 76
-3.20901 -3.8222 -1.78714 64 63 77
-3.53619 -3.3099 -1.78169 63 73 88
-3.55105 -3.3046 -1.78475 62 72 89
-3.55002 -3.28378 -1.77863 59 70 89
-3.56616 -3.27968 -1.78245 56 68 85
-4.25984 -2.29707 -1.78865 69 83 116
-4.27434 -2.28858 -1.79247 61 76 108
-4.28427 -2.26911 -1.79247 40 49 85
-4.28569 -2.25348 -1.79018 27 35 75
-4.66488 -1.75782 -1.80148 65 82 111
-4.83085 -1.4068 -1.7779 72 91 123
-4.98692 -1.24674 -1.79157 82 97 125
-5.19648 -0.980835 -1.80033 65 77 100
-5.18951 -0.962863 -1.79683 65 78 100
-5.79472 -0.0933211 -1.79782 67 79 101
-2.03369 -5.41336 -1.76656 102 104 116
-2.15196 -5.20104 -1.75607 100 100 112
-2.37945 -4.8881 -1.76032 93 94 108
-2.59613 -4.62719 -1.77206 95 94 109
-2.77821 -4.31519 -1.76403 56 62 74
-2.90247 -4.18247 -1.77331 60 62 74
-3.19035 -3.88286 -1.80133 59 63 74
-3.19055 -3.85878 -1.79386 63 62 76
-3.48956 -3.36437 -1.78322 62 69 85
-3.49546 -3.33972 -1.77786 62 71 86
-3.51168 -3.33592 -1.78169 62 71 88
-3.52791 -3.33205 -1.78551 62 71 88
-4.29685 -2.24307 -1.79248 24 31 72
-4.30493 -2.22262 -1.79171 41 47 82
-4.29962 -2.20354 -1.78636 38 47 76
-4.31721 -2.19643 -1.79172 45 55 82
-4.67405 -1.73701 -1.80223 70 87 116
-4.67523 -1.72133 -1.80074 70 87 116
-4.68327 -1.70829 -1.80224 71 88 119
-4.83978 -1.3933 -1.7801 73 92 124
-4.84007 -1.36921 -1.7779 73 90 123
-4.98291 -1.22121 -1.78798 73 89 118
-4.99134 -1.20709 -1.79014 70 83 114
-5.19316 -0.938425 -1.79683 64 76 98
-5.66751 -0.28128 -1.80122 71 83 105
-5.78283 -0.0749559 -1.79395 71 83 105
-2.0141 -5.40793 -1.7627 103 105 117
-2.12641 -5.20434 -1.7541 101 100 114
-2.36706 -4.89998 -1.76236 93 93 105
-2.57292 -4.65034 -1.77556 90 90 103
-2.58497 -4.63961 -1.77416 90 89 103
-2.76447 -4.32155 -1.76332 59 63 75
-2.88184 -4.20545 -1.77623 60 63 72
-2.89016 -4.19085 -1.77331 63 63 74
-3.15139 -3.89257 -1.79461 62 62 74
-3.17337 -3.88471 -1.7976 60 64 73
-3.4372 -3.40236 -1.77863 60 69 86
-3.45477 -3.4002 -1.78322 60 69 86
-3.4648 -3.3796 -1.78016 61 70 87
-3.47719 -3.37201 -1.78169 62 69 85
-4.32178 -2.17421 -1.78942 46 58 82
-4.34588 -2.17029 -1.79784 47 55 77
-4.34694 -2.15457 -1.79555 48 56 77
-4.68701 -1.68541 -1.80074 71 88 118
-4.85247 -1.35663 -1.78156 73 91 123
-4.83975 -1.33712 -1.77498 73 90 123
-4.99792 -1.19248 -1.79158 72 87 117
-5.20265 -0.923397 -1.79964 67 78 97
-5.6732 -0.263758 -1.80321 67 78 99
-5.7898 -0.0569299 -1.79653 62 77 100
-2.35019 -4.90147 -1.76032 87 89 101
-2.75166 -4.32948 -1.76332 58 62 74
-2.82372 -4.18371 -1.75648 58 60 73
-2.83898 -4.18025 -1.75867 58 60 72
-3.12953 -3.91231 -1.79536 63 61 72
-3.14102 -3.9032 -1.79536 63 61 74
-3.39947 -3.43487 -1.7771 60 69 84
-3.42371 -3.42924 -1.78245 59 68 85
-3.42857 -3.4138 -1.77939 60 69 86
-4.35453 -2.14217 -1.79631 47 58 78
-4.36379 -2.12229 -1.79631 48 56 77
-4.37295 -2.11063 -1.79785 48 55 75
-4.37875 -2.09732 -1.79785 45 54 71
-4.69842 -1.67359 -1.80373 70 87 117
-4.68893 -1.65404 -1.79776 68 87 119
-4.85387 -1.32496 -1.77937 72 91 121
-5.01356 -1.17182 -1.79589 62 77 106
-4.99828 -1.15191 -1.78871 59 71 99
-5.20103 -0.906436 -1.79824 71 75 102
-5.65248 -0.245175 -1.79595 72 84 108
-2.00124 -5.4241 -1.76657 104 106 118
-2.11403 -5.21891 -1.7574 102 102 114
-2.32925 -4.91483 -1.76169 89 93 105
-2.53797 -4.66864 -1.77556 91 93 105
-2.54758 -4.65301 -1.77206 96 96 108
-2.73381 -4.34453 -1.76476 58 61 77
-2.80944 -4.18868 -1.75502 59 61 74
-3.09702 -3.93041 -1.79312 63 61 73
-3.11256 -3.91389 -1.79162 62 62 72
-3.36765 -3.47373 -1.77939 62 71 83
-3.39072 -3.467 -1.78398 58 68 80
-3.39324 -3.44891 -1.77939 59 68 83
-4.38945 -2.07811 -1.79861 47 53 72
-4.38683 -2.06075 -1.79479 42 50 74
-4.39247 -2.04738 -1.79479 41 52 72
-4.70111 -1.63432 -1.8 70 88 119
-4.72287 -1.62612 -1.80747 70 88 119
-4.70444 -1.60354 -1.79777 70 89 121
-4.85562 -1.30134 -1.77791 75 92 122
-4.99744 -1.13552 -1.78727 59 71 98
-5.20257 -0.881628 -1.79754 71 80 99
-5.66782 -0.219116 -1.80123 73 85 110
-5.78352 -0.0296407 -1.7946 75 90 113
-2.09786 -5.22277 -1.75674 103 101 112
-2.31744 -4.92831 -1.7644 96 100 111
-2.52161 -4.67085 -1.77346 92 94 107
-2.70982 -4.36338 -1.76619 56 59 74
-2.72733 -4.36372 -1.76979 57 60 75
-2.78303 -4.21672 -1.75868 58 60 72
-2.79541 -4.20869 -1.75868 59 62 73
-3.07277 -3.94679 -1.79237 61 61 71
-3.08976 -3.94541 -1.79611 60 60 70
-3.3347 -3.50049 -1.77786 60 70 82
-3.34985 -3.49617 -1.78092 60 70 82
-3.36125 -3.4877 -1.78169 61 69 81
-4.39974 -2.03479 -1.79556 43 55 70
-4.41687 -2.01855 -1.79939 63 72 89
-4.41064 -1.99967 -1.79403 63 75 91
-4.71216 -1.59031 -1.79926 70 89 121
-4.85707 -1.28575 -1.77718 74 90 123
-4.86744 -1.27248 -1.78011 75 91 123
-4.9893 -1.11746 -1.78296 58 72 99
-5.20266 -0.86499 -1.79684 66 74 89
-5.66201 -0.201172 -1.79925 69 81 107
-5.78088 -0.0114876 -1.79396 66 81 101
-2.07656 -5.23826 -1.75939 102 102 114
-2.29767 -4.92267 -1.75965 95 97 109
-2.49627 -4.67322 -1.76997 91 92 105
-2.69414 -4.36624 -1.76404 56 62 74
-2.77157 -4.2263 -1.75941 57 61 73
-3.06343 -3.97223 -1.79835 61 61 73
-3.30084 -3.53726 -1.77939 57 64 80
-3.31237 -3.52897 -1.78016 59 69 81
-3.31895 -3.51511 -1.77786 59 69 81
-4.40769 -1.98238 -1.79021 57 70 89
-4.41955 -1.96373 -1.79174 55 67 91
-4.42152 -1.94874 -1.79021 53 65 89
-4.73106 -1.5728 -1.80449 70 89 121
-4.72114 -1.55345 -1.79852 70 89 121
-4.86893 -1.24882 -1.77865 75 92 121
-5.01551 -1.09914 -1.79159 62 76 103
-5.00903 -1.08151 -1.788 65 81 107
-5.20453 -0.848648 -1.79684 86 89 101
-5.20265 -0.831721 -1.79545 78 78 94
-5.66747 -0.183579 -1.80124 71 83 108
-2.06033 -5.24199 -1.75873 101 103 115
-2.28508 -4.93432 -1.76169 87 89 102
-2.4865 -4.68873 -1.77347 95 97 109
-2.65861 -4.38048 -1.76189 61 64 76
-2.67968 -4.38757 -1.76835 56 62 74
-2.74768 -4.23026 -1.75575 58 62 74
-3.03047 -3.97619 -1.79163 63 63 71
-3.04961 -3.97804 -1.79685 60 60 72
-3.28061 -3.56829 -1.78322 58 66 79
-3.28979 -3.55729 -1.78245 59 67 80
-4.42344 -1.93375 -1.78868 53 66 85
-4.4334 -1.91423 -1.78945 44 59 82
-4.73222 -1.5413 -1.80151 70 89 121
-4.73687 -1.51887 -1.80076 70 89 121
-4.88102 -1.2359 -1.78231 75 92 123
-4.87142 -1.21757 -1.77719 75 92 122
-5.01709 -1.06714 -1.79016 60 76 102
-5.65967 -0.16562 -1.7986 62 74 96
-2.04111 -5.23674 -1.75477 101 103 116
-2.26323 -4.94564 -1.76237 89 91 103
-2.47177 -4.69412 -1.77277 96 96 106
-2.64737 -4.39133 -1.76332 60 64 76
-2.73224 -4.26193 -1.76307 59 63 74
-2.74 -4.2461 -1.75941 59 63 74
-3.00279 -4.00103 -1.79312 60 62 73
-3.01246 -3.98929 -1.79163 62 65 74
-3.2457 -3.58232 -1.77786 59 66 78
-3.26175 -3.56806 -1.77786 59 67 78
-4.43858 -1.9007 -1.78945 44 57 82
-4.45052 -1.89007 -1.79251 44 58 81
-4.45904 -1.87792 -1.79404 57 70 93
-4.71969 -1.49732 -1.7918 70 89 121
-4.73944 -1.48797 -1.79853 71 89 121
-4.8889 -1.19785 -1.78231 76 93 123
-5.02672 -1.0449 -1.79231 62 76 102
-5.2168 -0.808862 -1.79965 75 68 71
-5.20924 -0.791106 -1.79615 65 60 59
-2.24353 -4.93977 -1.75762 87 89 102
-2.45865 -4.70283 -1.77347 96 95 107
-2.62828 -4.40427 -1.76404 57 64 76
-2.71212 -4.25695 -1.75722 59 63 74
-2.98019 -4.01984 -1.79387 58 60 72
-2.99308 -4.01276 -1.79462 59 60 72
-3.21776 -3.61485 -1.78016 59 62 77
-3.22473 -3.60121 -1.77786 60 66 80
-3.23762 -3.5946 -1.77939 56 64 77
-4.46533 -1.85677 -1.79328 52 63 85
-4.47375 -1.84454 -1.79481 51 58 77
-4.74913 -1.46721 -1.80002 71 89 122
-4.88098 -1.18002 -1.77792 74 91 121
-5.01823 -1.02694 -1.788 60 74 100
-5.20718 -0.774199 -1.79475 88 81 69
-5.6313 -0.138431 -1.7887 66 81 99
-2.01611 -5.24125 -1.75346 103 103 115
-2.23083 -4.95127 -1.75966 83 85 98
-2.43647 -4.71158 -1.77277 93 95 107
-2.61345 -4.40845 -1.76261 58 67 77
-2.6766 -4.26983 -1.7543 61 60 76
-2.6929 -4.26857 -1.75722 61 58 75
-2.92759 -4.00718 -1.77744 56 60 72
-2.96199 -4.03268 -1.79387 56 60 72
-3.18617 -3.63249 -1.7771 61 65 78
-3.20031 -3.62746 -1.77939 63 66 78
-4.48726 -1.8344 -1.79864 71 77 92
-4.4711 -1.80404 -1.78793 88 92 104
-4.75468 -1.45315 -1.80077 71 90 122
-4.76373 -1.44017 -1.80301 71 90 122
-4.88563 -1.16523 -1.77866 75 92 122
-4.89206 -1.15083 -1.78012 76 93 123
-5.01152 -1.00942 -1.78441 62 77 103
-5.61017 -0.120417 -1.78144 61 76 96
-2.00458 -5.2591 -1.75808 102 101 115
-2.4185 -4.71003 -1.76928 87 89 101
-2.59946 -4.41422 -1.76189 59 63 74
-2.66493 -4.27908 -1.75503 64 69 80
-2.9239 -4.02798 -1.78342 57 61 73
-3.16032 -3.65701 -1.77786 64 67 80
-3.17555 -3.64175 -1.7771 60 62 77
-3.69081 -2.95628 -1.79546 62 73 92
-3.69935 -2.94515 -1.79546 64 76 95
-3.70363 -2.93045 -1.79312 63 76 95
-3.71774 -2.92398 -1.79624 55 66 85
-3.73221 -2.90831 -1.79702 63 74 92
-3.73916 -2.89588 -1.79624 63 75 95
-3.74893 -2.88575 -1.79702 58 70 92
-3.76036 -2.8676 -1.79624 57 68 88
-3.7571 -2.84704 -1.79001 59 70 88
-3.7797 -2.84713 -1.79781 55 68 87
-3.79238 -2.82998 -1.79781 62 73 91
-3.80632 -2.82305 -1.80092 61 72 92
-3.8057 -2.80476 -1.79625 60 73 92
-3.81813 -2.79661 -1.79859 63 75 91
-3.83056 -2.77927 -1.79859 62 75 92
-3.83266 -2.76322 -1.79547 63 76 95
-3.84941 -2.75826 -1.80015 60 72 96
-3.86462 -2.74296 -1.80171 61 73 95
-3.8636 -2.72467 -1.79704 66 78 100
-3.87289 -2.71405 -1.79782 61 76 99
-3.88047 -2.69317 -1.79548 61 73 97
-3.90456 -2.69329 -1.80405 64 76 100
-3.89285 -2.66746 -1.79392 67 79 103
-3.91394 -2.66528 -1.80094 62 77 100
-3.91522 -2.64001 -1.79548 69 81 104
-3.9318 -2.63448 -1.80016 69 81 105
-3.95741 -2.63519 -1.80951 66 80 105
-3.94636 -2.60143 -1.79783 63 78 102
-3.95833 -2.59257 -1.80017 70 85 110
-3.96419 -2.5795 -1.79939 67 82 111
-3.96695 -2.56435 -1.79705 55 70 101
-3.97982 -2.54727 -1.79783 49 66 96
-3.99013 -2.53721 -1.79939 93 108 137
-4.4845 -1.79384 -1.79176 87 89 104
-4.49275 -1.7815 -1.79329 88 90 105
-4.75504 -1.42164 -1.79779 70 89 121
-4.88935 -1.1263 -1.7772 75 92 122
-5.02637 -0.988257 -1.78873 77 84 101
-5.01767 -0.970411 -1.78441 104 106 118
-5.21922 -0.750928 -1.79825 105 96 71
-5.22259 -0.734766 -1.79895 103 91 71
-5.61349 -0.102869 -1.78277 63 78 99
-1.98542 -5.25363 -1.75412 102 102 114
-2.2082 -4.96058 -1.75966 99 98 112
-2.40372 -4.71518 -1.76858 80 81 91
-2.56451 -4.42928 -1.76046 60 64 79
-2.58972 -4.44512 -1.77051 57 65 78
-2.64836 -4.2953 -1.75722 56 62 76
-2.88569 -4.03642 -1.77744 57 61 72
-2.90364 -4.03744 -1.78192 56 60 72
-3.13309 -3.66811 -1.77404 61 63 75
-3.15076 -3.66762 -1.77863 63 65 77
-3.61153 -3.046 -1.79311 59 72 91
-3.62377 -3.02847 -1.79234 71 81 98
-3.64084 -3.02487 -1.79701 62 73 89
-3.64958 -3.01391 -1.79701 61 73 94
-3.66583 -2.99982 -1.79857 58 70 90
-3.66893 -2.98397 -1.79546 61 73 92
-3.67615 -2.97172 -1.79468 61 72 90
-4.00654 -2.53117 -1.80407 136 151 171
-4.01155 -2.50884 -1.80095 132 148 171
-4.01712 -2.49562 -1.80017 128 144 169
-4.00873 -2.4734 -1.79238 129 147 171
-4.03204 -2.46301 -1.79862 134 150 176
-4.03434 -2.44777 -1.79628 135 151 176
-4.0506 -2.44137 -1.80096 149 164 189
-4.06219 -2.43196 -1.8033 158 174 198
-4.50029 -1.76088 -1.79329 59 76 104
-4.49467 -1.74306 -1.7887 63 80 108
-4.50966 -1.73332 -1.79329 67 84 114
-4.7591 -1.39912 -1.79704 71 90 122
-4.76091 -1.38391 -1.7963 71 90 122
-4.89022 -1.11064 -1.77647 74 91 119
-5.02356 -0.955512 -1.78585 104 93 101
-5.22591 -0.718588 -1.79966 98 90 67
-1.97263 -5.26782 -1.75742 104 104 116
-2.1947 -4.97023 -1.76102 99 98 112
-2.38465 -4.73045 -1.77068 73 75 87
-2.56497 -4.46309 -1.77195 62 64 77
-2.63113 -4.29476 -1.75357 55 61 75
-2.87778 -4.05093 -1.78043 56 60 71
-3.09839 -3.70411 -1.77634 60 64 75
-3.11035 -3.69656 -1.7771 61 62 75
-3.12116 -3.68751 -1.7771 60 61 74
-3.55432 -3.11714 -1.79389 62 75 92
-3.56201 -3.10522 -1.79311 61 74 91
-3.56967 -3.09327 -1.79233 61 74 91
-3.58759 -3.08089 -1.79467 59 72 89
-3.59925 -3.07258 -1.79623 61 74 93
-3.60679 -3.06053 -1.79545 61 72 92
-4.0635 -2.40756 -1.79862 146 162 189
-4.06715 -2.39324 -1.79707 144 161 189
-4.07705 -2.38275 -1.79863 144 161 189
-4.09223 -2.36695 -1.80097 147 164 190
-4.10521 -2.35825 -1.80408 153 169 195
-4.10711 -2.34289 -1.80175 151 167 193
-4.51427 -1.71952 -1.7933 67 84 116
-4.51461 -1.69616 -1.79024 67 85 117
-4.7733 -1.37189 -1.80003 70 89 121
-4.89829 -1.09658 -1.77867 75 92 120
-5.03853 -0.942359 -1.79089 82 60 70
-5.67154 -0.0769775 -1.80323 67 79 101
-2.18116 -4.97984 -1.76238 100 100 114
-2.36904 -4.73379 -1.76928 75 77 90
-2.53985 -4.44709 -1.7619 61 65 77
-2.6221 -4.30873 -1.75649 60 64 76
-2.84348 -4.06518 -1.77745 57 61 73
-2.87832 -4.09302 -1.79462 57 61 72
-3.08301 -3.70724 -1.77328 60 62 75
-3.49852 -3.18052 -1.79389 61 72 89
-3.51012 -3.16223 -1.79233 63 74 91
-3.52064 -3.15298 -1.79311 65 76 95
-3.5298 -3.14242 -1.79311 60 71 90
-3.53893 -3.13183 -1.79311 62 73 91
-4.11581 -2.32314 -1.80097 151 168 197
-4.12233 -2.31058 -1.80097 153 167 197
-4.13042 -2.29891 -1.80175 152 166 195
-4.12411 -2.27893 -1.79552 152 169 196
-4.52604 -1.68494 -1.7933 69 86 116
-4.52185 -1.66785 -1.78948 69 86 116
-4.77358 -1.34825 -1.79779 71 90 122
-4.77344 -1.33249 -1.7963 71 90 122
-4.90076 -1.07325 -1.77794 73 90 118
-4.90329 -1.05795 -1.77794 75 92 120
-5.02563 -0.915697 -1.78442 77 65 62
-5.23214 -0.694403 -1.80106 103 94 86
-5.23162 -0.67771 -1.80036 105 104 102
-5.65022 -0.0590591 -1.79597 68 81 101
-1.94865 -5.27556 -1.75743 101 102 114
-2.15639 -4.98364 -1.76034 102 102 114
-2.35574 -4.74217 -1.76998 90 94 105
-2.52465 -4.46784 -1.76621 60 66 80
-2.58631 -4.32078 -1.75357 59 63 74
-2.60624 -4.32639 -1.75942 56 63 73
-2.83442 -4.07802 -1.77969 57 60 73
-3.05229 -3.74859 -1.77863 61 61 73
-3.05764 -3.7324 -1.77481 59 61 73
-3.07192 -3.72792 -1.7771 62 61 75
-3.45479 -3.22601 -1.7931 62 74 90
-3.46811 -3.21956 -1.79544 60 72 88
-3.4773 -3.19882 -1.79233 60 72 88
-3.48924 -3.19097 -1.79388 56 67 85
-4.15326 -2.27097 -1.80487 158 175 204
-4.15803 -2.25737 -1.80409 160 176 207
-4.15151 -2.23744 -1.79786 160 175 206
-4.17575 -2.22645 -1.80488 163 180 206
-4.17231 -2.20834 -1.8002 163 179 205
-4.53753 -1.65025 -1.7933 68 87 118
-4.53843 -1.63508 -1.79177 68 87 119
-4.78748 -1.32084 -1.80079 70 89 121
-4.90758 -1.04302 -1.77867 75 90 119
-5.02769 -0.900045 -1.78442 171 148 144
-5.21804 -0.659448 -1.79476 117 116 122
-5.64391 -0.0413085 -1.79399 68 81 103
-1.93124 -5.27526 -1.75545 103 103 115
-2.14014 -4.98611 -1.75899 104 104 116
-2.33266 -4.7487 -1.76859 93 95 108
-2.50636 -4.46497 -1.7619 57 65 78
-2.5789 -4.3379 -1.75796 56 60 71
-2.82239 -4.08612 -1.77969 58 60 72
-3.03205 -3.75736 -1.77634 61 61 72
-3.41302 -3.27346 -1.79388 59 67 86
-3.42127 -3.26195 -1.7931 62 71 85
-3.43336 -3.25434 -1.79466 60 69 84
-3.44407 -3.23502 -1.79232 61 69 88
-4.18008 -2.19646 -1.80098 163 180 206
-4.20745 -2.18692 -1.80956 159 179 206
-4.21356 -2.17404 -1.80956 172 187 215
-4.53926 -1.61992 -1.79025 69 87 117
-4.77857 -1.29466 -1.79481 71 90 122
-4.91547 -1.02882 -1.78087 74 90 119
-5.03335 -0.885053 -1.78586 83 53 72
-5.22857 -0.644125 -1.79826 87 87 89
-2.12521 -4.99203 -1.75899 99 98 112
-2.3216 -4.7621 -1.77138 96 95 109
-2.50137 -4.48875 -1.76908 57 65 78
-2.57409 -4.3599 -1.76455 58 62 73
-2.78497 -4.09511 -1.77446 57 61 72
-2.80191 -4.09503 -1.7782 59 61 72
-3.00999 -3.77482 -1.77634 62 60 71
-3.01772 -3.76166 -1.77404 59 59 69
-3.36546 -3.31495 -1.79154 58 67 83
-3.37641 -3.30624 -1.79232 59 69 85
-3.38734 -3.29749 -1.7931 57 67 84
-3.39574 -3.2757 -1.7892 57 69 85
-4.22123 -2.16201 -1.81034 167 183 210
-4.22724 -2.14908 -1.81034 167 181 208
-4.23823 -2.13051 -1.81112 175 186 212
-4.23926 -2.11498 -1.80878 171 182 208
-4.553 -1.60152 -1.79331 67 86 118
-4.56767 -1.59123 -1.7979 68 87 119
-4.81753 -1.28987 -1.80975 73 89 122
-4.81539 -1.27352 -1.80751 73 90 120
-4.90849 -1.0036 -1.77648 71 90 122
-5.03849 -0.861852 -1.78658 117 86 101
-5.03854 -0.845831 -1.78587 106 64 85
-5.22145 -0.618383 -1.79477 102 105 108
-5.66585 -0.0146891 -1.80191 61 76 99
-2.10833 -4.99262 -1.75695 97 99 112
-2.30594 -4.7652 -1.76999 97 98 110
-2.46698 -4.47084 -1.75687 58 66 77
-2.54558 -4.35446 -1.75723 58 62 74
-2.77769 -4.11096 -1.7782 60 63 72
-2.98076 -3.79493 -1.77558 61 61 71
-2.99077 -3.78483 -1.77481 61 61 71
-3.33471 -3.35388 -1.79388 62 70 83
-3.342 -3.34126 -1.79232 59 67 80
-3.34923 -3.32861 -1.79076 58 67 82
-4.24185 -2.1003 -1.80723 161 172 199
-4.25917 -2.08498 -1.81113 160 166 190
-4.2633 -2.07109 -1.81035 154 160 183
-4.55264 -1.57055 -1.78949 68 87 119
-4.56373 -1.55899 -1.79255 69 88 120
-4.83466 -1.26304 -1.81424 72 89 119
-4.7932 -1.22822 -1.79482 70 89 121
-4.90897 -0.987904 -1.77575 73 90 120
-4.91306 -0.972919 -1.77648 76 93 121
-5.04955 -0.831703 -1.78946 85 64 76
-5.2337 -0.603174 -1.79897 121 124 130
-2.29102 -4.76996 -1.76929 96 96 108
-2.46917 -4.50966 -1.77052 58 64 77
-2.51117 -4.3524 -1.74992 74 76 88
-2.52835 -4.35346 -1.75358 53 57 69
-2.74117 -4.1211 -1.77372 60 62 74
-2.76192 -4.12758 -1.78044 59 61 73
-2.95845 -3.81204 -1.77558 58 62 71
-2.96854 -3.80201 -1.77481 60 63 72
-3.29853 -3.38704 -1.7931 59 68 83
-3.30844 -3.37723 -1.7931 57 69 83
-3.30833 -3.35653 -1.78686 57 69 83
-4.26573 -2.05637 -1.80879 156 164 184
-4.2879 -2.05149 -1.81659 159 167 183
-4.57373 -1.53917 -1.79408 67 86 118
-4.56898 -1.5222 -1.79026 67 86 118
-4.807 -1.21626 -1.7993 71 89 121
-4.90762 -0.948162 -1.77282 75 92 116
-5.22547 -0.585701 -1.79547 121 121 121
-2.09124 -5.01722 -1.76307 98 100 113
-2.27083 -4.78302 -1.77069 85 87 100
-2.45576 -4.51661 -1.77053 60 66 78
-2.49408 -4.36796 -1.75212 64 67 79
-2.71398 -4.13184 -1.77148 59 62 73
-2.73466 -4.13846 -1.7782 58 60 71
-2.92788 -3.83021 -1.77405 60 63 72
-2.94124 -3.82478 -1.77558 60 64 73
-3.25466 -3.41151 -1.78764 59 67 78
-3.26834 -3.40595 -1.78998 58 67 81
-3.27749 -3.38453 -1.78608 61 68 83
-4.26765 -2.00161 -1.80022 101 111 137
-4.27979 -1.99173 -1.80334 25 34 68
-4.28341 -1.96964 -1.80101 36 45 79
-4.57293 -1.50818 -1.79026 68 87 119
-4.81537 -1.20281 -1.80155 73 89 121
-4.90974 -0.932822 -1.77283 82 91 115
-5.05444 -0.808394 -1.79018 76 65 82
-5.02859 -0.788126 -1.7794 75 60 69
-2.07431 -5.01769 -1.76103 98 100 113
-2.25515 -4.78594 -1.76929 89 90 103
-2.43199 -4.52021 -1.76765 59 62 75
-2.47861 -4.37004 -1.74992 62 64 77
-2.69803 -4.14818 -1.77372 58 60 73
-2.91981 -3.84314 -1.77634 63 63 74
-3.23282 -3.4397 -1.78998 60 66 78
-3.25197 -3.42943 -1.79232 60 69 78
-4.28715 -1.9557 -1.80023 44 56 78
-4.29751 -1.94489 -1.80257 43 55 71
-4.30255 -1.92354 -1.80101 42 53 68
-4.5827 -1.48826 -1.79179 68 87 119
-4.57951 -1.47192 -1.78873 68 87 119
-4.80762 -1.17729 -1.79632 74 91 121
-4.80689 -1.16154 -1.79483 72 89 119
-4.9228 -0.919475 -1.77722 80 92 114
-5.05231 -0.775985 -1.78803 124 94 92
-2.05551 -5.01278 -1.75696 99 101 116
-2.24091 -4.79225 -1.76929 92 93 106
-2.40348 -4.53045 -1.76622 53 57 74
-2.41932 -4.52873 -1.76837 60 62 77
-2.47167 -4.38858 -1.75504 62 65 79
-2.88589 -3.8564 -1.77252 59 60 69
-2.89825 -3.84962 -1.77329 65 65 73
-3.20002 -3.46551 -1.78842 60 68 79
-3.21259 -3.4588 -1.78998 57 64 78
-3.22513 -3.45205 -1.79154 59 67 79
-4.3028 -1.90801 -1.79867 41 51 65
-4.31806 -1.89939 -1.80335 41 48 65
-4.31655 -1.88308 -1.80024 39 46 65
-4.58331 -1.45786 -1.78873 69 88 121
-4.59059 -1.4449 -1.79027 69 88 121
-4.8169 -1.14847 -1.79782 71 88 118
-4.92441 -0.896059 -1.77649 70 82 103
-5.04287 -0.758492 -1.78372 124 85 84
-2.03754 -5.03541 -1.7624 97 99 112
-2.21841 -4.79989 -1.7686 94 98 110
-2.39157 -4.54056 -1.76766 67 69 84
-2.45618 -4.39058 -1.75285 62 64 77
-2.68916 -4.19078 -1.78642 60 65 71
-2.71358 -4.20401 -1.79613 58 61 72
-2.86424 -3.8744 -1.77329 58 62 70
-2.8735 -3.86313 -1.77176 58 61 70
-3.17529 -3.49049 -1.7892 62 68 80
-3.19148 -3.4881 -1.79309 61 69 80
-4.32631 -1.86393 -1.80102 39 48 65
-4.59654 -1.42374 -1.79027 69 88 121
-4.81429 -1.13226 -1.79558 72 89 119
-4.92637 -0.880657 -1.77649 82 90 118
-5.03823 -0.733775 -1.78084 93 76 80
-2.01692 -5.02503 -1.75628 98 100 112
-2.2063 -4.81126 -1.7707 93 96 109
-2.43632 -4.40092 -1.75285 62 65 74
-2.63953 -4.17741 -1.77149 57 62 68
-2.67562 -4.21186 -1.7909 59 63 72
-2.84572 -3.88513 -1.77252 59 63 72
-3.15624 -3.52236 -1.79387 60 67 77
-3.16503 -3.49987 -1.7892 61 67 79
-4.35157 -1.85959 -1.81037 39 48 65
-4.33978 -1.83879 -1.80258 49 58 75
-4.33584 -1.81363 -1.79712 45 52 71
-4.60549 -1.41124 -1.79256 69 88 120
-4.60204 -1.39494 -1.78951 69 88 120
-4.81156 -1.10821 -1.79259 74 89 118
-4.83044 -1.09718 -1.79932 74 88 117
-4.92098 -0.863996 -1.77357 80 92 118
-5.04891 -0.719429 -1.78444 97 87 95
-2.00248 -5.03233 -1.75696 97 99 112
-2.1927 -4.81914 -1.7714 89 95 109
-2.35655 -4.55551 -1.76694 85 86 100
-2.37553 -4.56075 -1.77197 73 73 87
-2.42332 -4.40776 -1.75285 61 63 75
-2.6326 -4.19457 -1.77597 58 62 73
-2.81977 -3.89673 -1.77023 59 62 71
-2.83017 -3.88712 -1.76947 58 61 70
-3.1203 -3.52244 -1.78374 62 66 77
-3.13884 -3.52315 -1.7892 60 66 76
-4.34921 -1.80394 -1.80102 56 65 76
-4.34394 -1.78622 -1.79635 85 84 90
-4.60952 -1.37425 -1.79027 70 89 121
-4.61832 -1.36165 -1.79257 69 88 120
-4.82404 -1.08014 -1.79558 74 89 118
-4.93017 -0.84983 -1.7765 82 92 119
-5.04112 -0.702331 -1.78085 79 70 74
-2.34222 -4.56039 -1.76623 93 96 111
-2.42519 -4.4445 -1.76603 59 63 74
-2.60997 -4.19921 -1.77299 57 62 73
-2.8032 -3.91032 -1.771 57 64 72
-3.09158 -3.56452 -1.7892 59 66 76
-3.09741 -3.54966 -1.78608 59 66 76
-3.11131 -3.54479 -1.78842 60 67 77
-3.60832 -2.88062 -1.806 61 72 93
-3.61373 -2.8674 -1.8044 69 81 102
-3.61765 -2.85301 -1.802 64 77 101
-3.63455 -2.84003 -1.8044 62 75 99
-3.64983 -2.83475 -1.8084 62 75 94
-3.65218 -2.81915 -1.8052 63 74 92
-3.65878 -2.80696 -1.8044 61 74 93
-3.67552 -2.79371 -1.8068 60 72 94
-3.67624 -2.77696 -1.8028 59 71 95
-3.6856 -2.76694 -1.8036 59 71 95
-3.70656 -2.75684 -1.80841 61 73 95
-3.70856 -2.74117 -1.80521 60 72 94
-3.71489 -2.72882 -1.80441 59 72 91
-3.7284 -2.713 -1.80521 61 73 95
-3.74199 -2.70605 -1.80841 61 73 97
-3.74526 -2.69143 -1.80601 60 75 98
-3.74848 -2.67681 -1.80361 60 75 98
-3.76174 -2.6608 -1.80441 57 72 95
-3.7663 -2.64723 -1.80281 62 77 100
-3.78575 -2.6443 -1.80922 59 71 93
-3.79288 -2.62385 -1.80682 62 74 96
-3.80031 -2.61232 -1.80682 59 74 97
-3.82124 -2.61019 -1.81402 57 74 99
-3.81008 -2.57712 -1.80202 43 58 87
-3.82189 -2.56863 -1.80442 115 130 158
-3.83824 -2.56319 -1.80922 127 143 169
-3.83485 -2.54431 -1.80362 125 139 165
-3.85362 -2.53188 -1.80762 127 143 168
-3.85924 -2.51912 -1.80683 134 150 178
-3.86634 -2.50735 -1.80683 140 157 184
-3.87733 -2.48966 -1.80683 142 159 187
-3.87205 -2.46985 -1.80043 142 158 185
-4.36173 -1.77046 -1.80103 67 63 76
-4.36482 -1.75633 -1.80025 43 47 58
-4.36785 -1.74219 -1.79947 41 49 60
-4.61292 -1.34486 -1.78875 69 88 120
-4.83189 -1.05858 -1.79708 72 89 118
-4.93695 -0.827286 -1.77796 79 95 119
-5.04173 -0.678471 -1.78013 86 77 68
-1.98185 -5.04764 -1.75968 98 102 114
-2.16727 -4.8196 -1.7679 98 96 110
-2.38787 -4.41967 -1.75066 61 65 77
-2.60023 -4.21144 -1.77523 57 64 72
-2.78017 -3.92625 -1.771 59 63 73
-2.7927 -3.91985 -1.77176 58 63 72
-3.06374 -3.58575 -1.78842 58 64 76
-3.08222 -3.57505 -1.78998 59 66 76
-3.50064 -2.97768 -1.79559 58 71 88
-3.52438 -2.98039 -1.80439 58 69 87
-3.53205 -2.95965 -1.80119 62 75 92
-3.55861 -2.96452 -1.81159 60 72 96
-3.56851 -2.95498 -1.81239 60 72 95
-3.54802 -2.91042 -1.79319 60 71 89
-3.56196 -2.90443 -1.79639 62 74 90
-3.58998 -2.91011 -1.8076 59 70 88
-3.59266 -2.89459 -1.8044 60 71 91
-3.88053 -2.45904 -1.80123 144 160 187
-3.90827 -2.45211 -1.81003 146 163 190
-3.90743 -2.43528 -1.80603 146 163 189
-3.91736 -2.4253 -1.80763 146 163 191
-3.92416 -2.41334 -1.80764 151 166 197
-3.93003 -2.39246 -1.80524 153 168 196
-4.38444 -1.73364 -1.80493 40 46 62
-4.38501 -1.71062 -1.80181 38 43 63
-4.61662 -1.32306 -1.78798 68 87 119
-4.61817 -1.30836 -1.78722 68 87 119
-4.83619 -1.04404 -1.79783 72 89 119
-4.92954 -0.810369 -1.7743 78 93 120
-4.92941 -0.794651 -1.77357 77 88 110
-5.04488 -0.662987 -1.78085 93 84 70
-1.96494 -5.04771 -1.75765 99 102 114
-2.13858 -4.8316 -1.76791 88 90 103
-2.15504 -4.83083 -1.77 90 89 103
-2.32523 -4.57869 -1.76982 92 94 108
-2.35933 -4.42797 -1.74847 60 63 75
-2.37889 -4.4347 -1.75432 61 64 77
-2.57878 -4.23256 -1.77822 57 64 74
-2.58598 -4.2155 -1.77373 57 64 72
-2.76644 -3.94431 -1.77406 59 61 73
-3.04258 -3.60372 -1.78842 58 65 75
-3.05318 -3.59475 -1.78842 59 65 76
-3.46758 -3.04872 -1.80439 61 69 87
-3.4709 -3.03338 -1.80119 58 69 87
-3.48098 -3.02416 -1.80199 60 71 88
-3.49515 -3.01856 -1.80519 59 70 88
-3.50443 -2.99912 -1.80279 58 70 87
-3.94297 -2.38429 -1.80844 154 170 196
-3.94339 -2.36842 -1.80524 154 170 196
-3.95686 -2.35223 -1.80684 159 176 204
-3.97443 -2.34672 -1.81244 159 176 206
-3.98098 -2.33457 -1.81244 159 176 204
-3.98435 -2.32052 -1.81084 157 174 204
-4.38959 -1.69711 -1.80181 41 46 65
-4.39755 -1.68495 -1.80337 42 47 66
-4.61256 -1.29166 -1.7834 68 87 120
-4.83322 -1.02788 -1.79559 71 88 118
-5.05167 -0.647984 -1.78301 98 89 72
-1.951 -5.05663 -1.75901 95 97 109
-2.12422 -4.83752 -1.76791 88 90 102
-2.29121 -4.57622 -1.76336 76 79 94
-2.3116 -4.58516 -1.76982 83 82 98
-2.55346 -4.23197 -1.77299 58 63 74
-2.74714 -3.96623 -1.77712 56 58 71
-2.75383 -3.95061 -1.7733 59 61 73
-3.01221 -3.6216 -1.78608 62 65 75
-3.01948 -3.60836 -1.78374 62 65 74
-3.37391 -3.09186 -1.78598 60 72 88
-3.40813 -3.10564 -1.80118 60 69 86
-3.43044 -3.10795 -1.80918 61 70 87
-3.43353 -3.0825 -1.80278 56 69 88
-3.44105 -3.07094 -1.80198 56 69 88
-3.4526 -3.06307 -1.80359 57 68 86
-3.9897 -2.29945 -1.80845 160 176 202
-3.98978 -2.28356 -1.80525 162 179 205
-4.00726 -2.27775 -1.81085 163 180 208
-4.01238 -2.25661 -1.80845 163 180 210
-4.02502 -2.24793 -1.81165 159 176 206
-4.40128 -1.66328 -1.80182 48 54 70
-4.41087 -1.65172 -1.80416 36 41 63
-4.62113 -1.27894 -1.78569 69 88 120
-4.83901 -1.00584 -1.79634 71 88 118
-4.83953 -0.990475 -1.79559 73 90 120
-4.9341 -0.771779 -1.77431 79 86 110
-4.93753 -0.756603 -1.77504 81 82 103
-5.04278 -0.622885 -1.7787 96 84 68
-1.93525 -5.06015 -1.75833 92 94 107
-2.2865 -4.60311 -1.77198 84 92 105
-2.32617 -4.44435 -1.74847 58 66 77
-2.34248 -4.44454 -1.7514 58 66 77
-2.54355 -4.24405 -1.77523 57 64 74
-2.73054 -3.96621 -1.7733 57 61 70
-2.98284 -3.64067 -1.78452 60 62 73
-3.0004 -3.62897 -1.7853 61 63 75
-3.35662 -3.16008 -1.80038 60 69 84
-3.37496 -3.15896 -1.80598 60 69 86
-3.35506 -3.12084 -1.78838 60 69 86
-3.36273 -3.10952 -1.78758 63 72 89
-4.02169 -2.23021 -1.80685 163 180 206
-4.02976 -2.21083 -1.80605 167 183 209
-4.02304 -2.1914 -1.79965 163 178 207
-4.02751 -2.17819 -1.79885 164 179 206
-4.41355 -1.63746 -1.80338 36 44 65
-4.41619 -1.6232 -1.8026 29 40 60
-4.63165 -1.25906 -1.78799 68 87 119
-4.63657 -1.24528 -1.78876 69 88 120
-4.83457 -0.973972 -1.79261 71 88 116
-4.93538 -0.740603 -1.77358 79 81 102
-5.055 -0.608541 -1.78301 99 92 74
-2.10222 -4.84631 -1.76791 80 79 93
-2.31619 -4.45755 -1.7514 59 65 77
-2.53011 -4.24954 -1.77449 56 63 73
-2.70478 -3.96527 -1.76718 56 60 69
-2.95913 -3.65516 -1.78296 59 61 73
-2.97432 -3.65236 -1.78608 62 64 76
-3.32794 -3.19892 -1.80278 60 69 84
-3.32809 -3.17992 -1.79718 60 69 84
-3.3451 -3.17768 -1.80198 60 69 84
-4.04802 -2.17371 -1.80606 165 179 206
-4.0542 -2.15334 -1.80446 167 179 207
-4.06824 -2.14521 -1.80846 168 182 209
-4.06444 -2.12758 -1.80366 167 182 209
-4.42131 -1.60212 -1.80182 30 38 61
-4.42038 -1.58655 -1.79949 32 42 68
-4.63786 -1.23053 -1.78799 68 87 119
-4.86403 -0.964639 -1.80381 71 88 118
-5.06532 -0.593892 -1.78661 90 84 68
-1.91151 -5.06622 -1.75765 96 98 111
-2.08779 -4.85212 -1.76791 80 79 93
-2.2567 -4.59205 -1.76336 92 96 107
-2.29908 -4.45558 -1.74775 61 69 82
-2.51595 -4.27003 -1.77897 58 63 74
-2.68627 -3.98841 -1.77101 55 62 72
-2.69993 -3.98392 -1.77254 56 60 69
-2.935 -3.68119 -1.7853 59 63 75
-2.95603 -3.67418 -1.78842 61 63 75
-3.27406 -3.23153 -1.79558 59 67 81
-3.29238 -3.23092 -1.80118 59 68 83
-3.30431 -3.22369 -1.80278 60 69 84
-3.31104 -3.2112 -1.80118 60 69 84
-4.07687 -2.11056 -1.80526 166 180 207
-4.08269 -2.09804 -1.80526 171 187 212
-4.09172 -2.08718 -1.80687 169 185 211
-4.42286 -1.57228 -1.79871 32 44 68
-4.64995 -1.21096 -1.79106 69 88 120
-4.63325 -1.19159 -1.78264 70 87 117
-4.8659 -0.941679 -1.80307 71 87 116
-4.93614 -0.717153 -1.77285 77 87 108
-4.94308 -0.702447 -1.77505 72 81 100
-5.05156 -0.576292 -1.78086 99 93 83
-1.89575 -5.06961 -1.75698 94 96 109
-2.07135 -4.85263 -1.76582 82 82 98
-2.23076 -4.60794 -1.7648 89 91 104
-2.24813 -4.61031 -1.76839 91 93 106
-2.49566 -4.26224 -1.77225 58 62 71
-2.66919 -4.00136 -1.77177 57 61 69
-2.92304 -3.68828 -1.78452 57 60 71
-3.24829 -3.27348 -1.80038 59 68 83
-3.25269 -3.25849 -1.79718 56 66 78
-3.26849 -3.25538 -1.80118 59 67 80
-4.10072 -2.06832 -1.80687 168 181 211
-4.11459 -2.05985 -1.81087 170 186 212
-4.11532 -2.04475 -1.80847 171 185 214
-4.11764 -2.03046 -1.80687 171 183 210
-4.43811 -1.55496 -1.80261 35 44 70
-4.43354 -1.53814 -1.79871 38 48 76
-4.65407 -1.18185 -1.79029 71 87 120
-4.95364 -0.688192 -1.77871 68 75 96
-5.06267 -0.553683 -1.78446 99 94 90
-1.87998 -5.07295 -1.7563 96 95 109
-2.27113 -4.48329 -1.75287 53 62 74
-2.29213 -4.49382 -1.76019 58 65 78
-2.48471 -4.27251 -1.77374 58 62 71
-2.64275 -4.01165 -1.76948 57 59 71
-2.6555 -4.00574 -1.77024 56 59 69
-2.89538 -3.70955 -1.78452 59 61 73
-2.91864 -3.70577 -1.7892 59 61 73
-3.20823 -3.30044 -1.79637 58 67 80
-3.22906 -3.30292 -1.80358 58 67 80
-3.23613 -3.29062 -1.80198 57 66 79
-4.12145 -2.00904 -1.80447 171 186 211
-4.11211 -1.98914 -1.79727 174 187 212
-4.14063 -1.98766 -1.80848 173 185 210
-4.44279 -1.52632 -1.80105 33 47 74
-4.65342 -1.159 -1.788 67 86 118
-4.94206 -0.670979 -1.77359 75 81 100
-5.05246 -0.536617 -1.78015 123 118 117
-2.04929 -4.86117 -1.76582 90 95 107
-2.21335 -4.62578 -1.7684 86 87 104
-2.26169 -4.49804 -1.75653 52 60 73
-2.467 -4.28621 -1.77524 58 62 73
-2.62743 -4.02757 -1.77178 57 60 70
-2.87556 -3.72942 -1.78608 60 58 72
-2.88548 -3.7195 -1.7853 61 61 73
-3.19121 -3.33231 -1.80117 64 68 80
-3.19716 -3.31876 -1.79878 59 66 77
-4.12933 -1.95907 -1.79887 171 188 208
-4.15122 -1.95421 -1.80688 174 186 211
-4.15487 -1.94065 -1.80608 174 184 212
-4.4648 -1.51123 -1.80807 41 53 77
-4.45658 -1.49321 -1.80261 43 58 84
-4.65983 -1.14553 -1.78953 68 87 119
-4.66439 -1.1316 -1.7903 69 86 116
-5.04779 -0.520221 -1.77799 127 133 135
-1.85677 -5.08054 -1.7563 95 97 109
-2.03482 -4.8668 -1.76582 95 100 112
-2.1953 -4.62154 -1.76409 89 92 107
-2.44157 -4.29993 -1.77524 57 61 73
-2.45181 -4.28812 -1.773 59 63 75
-2.61557 -4.03497 -1.77178 59 63 72
-2.85229 -3.73292 -1.78141 59 59 72
-3.15553 -3.36394 -1.80037 58 67 77
-3.1755 -3.35529 -1.80357 56 64 78
-3.17906 -3.33907 -1.79957 62 68 80
-4.17316 -1.92609 -1.81088 178 184 212
-4.17672 -1.91247 -1.81008 163 167 194
-4.13357 -1.87753 -1.78688 169 169 195
-4.47963 -1.48604 -1.81119 39 54 80
-4.45912 -1.4639 -1.80028 55 69 95
-4.70485 -1.12621 -1.80637 70 87 117
-4.94251 -0.647505 -1.77286 87 95 108
-4.94554 -0.632237 -1.77359 86 90 100
-2.01904 -4.86887 -1.76442 94 97 110
-2.18646 -4.63968 -1.76912 91 95 107
-2.24664 -4.51928 -1.76166 68 75 85
-2.4239 -4.29675 -1.77076 57 61 73
-2.58897 -4.04486 -1.76949 57 59 71
-2.60275 -4.04074 -1.77102 57 61 70
-2.81599 -3.75316 -1.77907 57 59 71
-2.82916 -3.74797 -1.78063 60 60 70
-2.84441 -3.74576 -1.78374 60 60 70
-3.11227 -3.38687 -1.79477 60 66 78
-3.13593 -3.3826 -1.80037 61 67 79
-3.13965 -3.36644 -1.79637 58 66 73
-3.62291 -2.63581 -1.79382 57 72 93
-3.63598 -2.62056 -1.79464 61 73 95
-3.645 -2.59425 -1.79137 59 71 93
-3.65934 -2.57995 -1.79301 75 88 107
-3.66958 -2.57109 -1.79464 66 77 99
-4.18873 -1.88748 -1.81089 163 161 184
-4.4844 -1.44967 -1.80885 64 78 101
-4.4707 -1.43001 -1.80106 74 89 117
-4.95221 -0.617391 -1.77579 89 94 107
-5.06605 -0.498289 -1.78446 117 120 132
-2.00713 -4.88143 -1.76722 89 95 107
-2.16182 -4.64004 -1.76553 92 94 109
-2.22876 -4.51531 -1.75727 76 80 92
-2.40358 -4.30517 -1.77002 57 63 73
-2.80928 -3.78066 -1.78686 57 60 69
-3.09611 -3.4094 -1.79717 61 65 77
-3.10481 -3.39884 -1.79637 61 65 77
-3.49546 -2.80548 -1.79299 60 73 91
-3.52017 -2.80917 -1.80282 59 72 91
-3.51168 -2.77573 -1.79054 60 72 91
-3.5266 -2.77105 -1.79463 57 69 91
-3.54434 -2.76863 -1.80036 59 71 93
-3.54674 -2.74456 -1.79463 59 72 89
-3.56304 -2.74084 -1.79955 61 74 91
-3.56096 -2.7221 -1.79382 61 74 91
-3.573 -2.70605 -1.79382 63 75 97
-3.59781 -2.70897 -1.80364 65 77 100
-3.58266 -2.68002 -1.79054 60 72 94
-3.61179 -2.68619 -1.80283 64 75 97
-3.60639 -2.65642 -1.793 59 71 94
-3.63556 -2.66234 -1.80528 62 74 96
-3.65649 -2.61952 -1.80201 59 72 91
-3.67541 -2.55895 -1.79383 62 75 101
-3.6797 -2.54571 -1.79219 43 58 87
-3.71602 -2.54724 -1.80611 129 146 175
-3.69807 -2.51792 -1.79219 130 146 171
-3.70666 -2.50782 -1.79301 138 155 179
-3.73703 -2.50472 -1.80366 135 153 179
-3.7277 -2.48189 -1.79465 138 155 181
-3.73918 -2.47376 -1.79711 140 157 183
-3.73116 -2.45207 -1.78892 141 158 184
-3.75245 -2.44237 -1.79465 144 161 187
-3.74878 -2.42383 -1.78892 144 161 187
-3.76163 -2.41659 -1.7922 144 161 188
-4.19678 -1.86811 -1.81089 158 159 179
-4.20351 -1.85591 -1.81169 142 142 166
-4.16492 -1.82378 -1.79089 19 24 54
-4.47266 -1.41563 -1.80028 78 93 119
-5.06678 -0.482451 -1.78446 121 121 136
-1.98492 -4.88964 -1.76723 94 98 110
-2.14454 -4.63732 -1.76194 91 93 106
-2.21464 -4.51976 -1.75654 76 80 92
-2.39567 -4.32186 -1.7745 60 64 75
-2.55965 -4.06456 -1.77025 60 60 72
-2.57253 -4.05895 -1.77102 58 60 72
-2.7981 -3.78882 -1.78686 59 60 72
-3.05844 -3.43848 -1.79557 62 65 77
-3.06606 -3.42664 -1.79397 63 65 77
-3.07721 -3.41894 -1.79477 63 67 77
-3.4196 -2.89724 -1.79217 68 79 97
-3.43607 -2.89434 -1.79708 61 74 93
-3.4294 -2.87071 -1.78807 57 72 91
-3.46946 -2.87949 -1.80445 58 71 90
-3.45855 -2.85226 -1.79299 60 71 89
-3.4832 -2.85631 -1.80282 59 71 87
-3.47655 -2.82395 -1.79135 61 72 90
-3.49986 -2.82662 -1.80036 58 69 87
-3.83424 -2.3367 -1.80203 157 171 198
-3.85214 -2.32414 -1.80613 158 173 202
-3.83729 -2.28334 -1.79139 160 174 203
-4.20292 -1.81765 -1.80529 40 48 82
-4.21454 -1.80758 -1.80849 39 51 75
-4.47677 -1.39432 -1.79951 76 91 118
-4.48737 -1.38272 -1.80262 72 87 115
-4.93764 -0.592181 -1.7692 49 55 76
-5.06377 -0.466246 -1.78303 128 131 147
-1.96912 -4.89154 -1.76583 90 94 106
-2.13688 -4.6588 -1.76841 92 96 107
-2.19788 -4.53742 -1.7602 76 80 95
-2.37804 -4.31847 -1.77002 60 64 75
-2.54492 -4.06691 -1.76796 57 61 72
-2.7676 -3.80598 -1.78531 60 60 70
-2.79613 -3.81072 -1.79387 60 60 72
-3.04369 -3.4419 -1.79237 64 68 80
-3.37222 -2.96166 -1.79462 64 73 90
-3.38138 -2.94284 -1.79217 62 71 88
-3.40323 -2.94514 -1.80035 60 69 86
-3.39424 -2.91894 -1.78971 60 69 84
-3.42339 -2.91847 -1.79954 61 73 89
-3.85556 -2.31052 -1.80449 157 172 203
-3.85189 -2.26876 -1.79385 163 179 205
-3.86287 -2.25993 -1.79631 162 179 206
-3.87852 -2.25391 -1.80122 161 178 206
-3.88677 -2.23529 -1.8004 163 180 205
-3.87422 -2.21223 -1.79058 167 183 207
-4.23121 -1.79961 -1.8141 54 62 80
-4.22253 -1.78085 -1.8077 49 55 71
-4.2267 -1.75988 -1.8061 49 54 62
-4.48215 -1.36607 -1.79873 80 94 123
-4.94604 -0.577518 -1.77213 53 56 82
-5.08666 -0.452516 -1.79165 120 126 143
-1.95394 -4.89514 -1.76513 93 97 109
-2.12231 -4.66292 -1.76769 91 95 107
-2.18299 -4.54005 -1.75874 86 89 105
-2.35921 -4.33001 -1.77077 59 66 76
-2.52471 -4.07436 -1.76643 63 67 76
-2.75533 -3.81247 -1.78453 61 61 71
-3.01735 -3.48448 -1.79877 58 65 75
-3.02399 -3.47133 -1.79637 59 66 76
-3.03526 -3.4638 -1.79717 58 64 76
-3.32128 -2.99513 -1.78725 57 69 87
-3.33649 -2.99156 -1.79134 59 71 87
-3.36831 -2.99424 -1.80281 57 68 86
-3.35836 -2.96667 -1.79135 59 68 86
-3.90858 -2.21725 -1.80532 161 178 204
-3.90376 -2.19888 -1.79959 164 182 208
-3.91803 -2.18383 -1.80205 168 182 209
-3.92567 -2.17283 -1.80287 168 181 209
-4.23649 -1.74894 -1.8085 62 61 67
-4.25642 -1.74212 -1.8157 101 92 98
-4.48777 -1.34528 -1.79873 72 88 118
-4.49121 -1.3314 -1.79873 68 84 117
-4.95254 -0.562603 -1.77433 63 63 92
-5.06194 -0.426313 -1.78159 129 132 151
-2.16881 -4.54434 -1.75801 91 93 106
-2.34873 -4.34157 -1.77301 55 64 73
-2.50244 -4.09167 -1.76797 56 60 71
-2.51629 -4.08788 -1.76949 57 61 71
-2.73173 -3.82685 -1.78375 60 58 69
-2.74909 -3.82816 -1.78842 62 60 71
-2.99032 -3.50521 -1.79797 63 67 76
-3.00516 -3.50206 -1.80117 58 64 76
-3.28557 -3.04309 -1.78971 64 71 89
-3.30992 -3.04871 -1.79953 60 67 85
-3.31047 -3.02118 -1.79134 59 68 85
-3.33356 -3.02532 -1.80035 58 69 87
-3.51926 -2.7141 -1.79399 55 67 88
-3.5213 -2.69904 -1.79068 54 67 86
-3.53755 -2.69528 -1.79565 57 69 89
-3.53663 -2.67794 -1.79068 58 69 90
-3.55705 -2.66876 -1.79565 64 76 98
-3.56176 -2.65587 -1.79399 60 71 92
-3.56642 -2.64299 -1.79234 62 72 92
-3.5795 -2.62804 -1.79316 60 72 93
-3.57681 -2.60963 -1.78737 61 73 95
-3.59292 -2.60546 -1.79234 59 72 95
-3.59739 -2.5925 -1.79068 70 81 103
-3.60734 -2.57522 -1.78986 57 72 93
-3.61315 -2.56331 -1.78903 56 71 94
-3.6351 -2.56318 -1.79731 58 73 95
-3.63457 -2.53827 -1.79069 63 76 101
-3.66687 -2.54537 -1.80477 47 62 91
-3.65036 -2.51745 -1.79152 126 142 170
-3.66588 -2.50413 -1.794 135 151 177
-3.67741 -2.49623 -1.79649 134 151 177
-3.67847 -2.48101 -1.79317 136 153 180
-3.69594 -2.47718 -1.79897 138 155 183
-3.69178 -2.4502 -1.79069 140 157 183
-3.69716 -2.43805 -1.78987 142 159 187
-3.93959 -2.16545 -1.80696 167 179 209
-3.94424 -2.14475 -1.80451 169 185 211
-3.95019 -2.13275 -1.80451 168 184 210
-3.96085 -2.1234 -1.80697 167 184 212
-4.26208 -1.7217 -1.8149 73 71 81
-4.21396 -1.6874 -1.7901 52 52 62
-4.48579 -1.31483 -1.79484 69 84 115
-4.50145 -1.30466 -1.80029 70 86 118
-4.94693 -0.53852 -1.7714 72 71 97
-5.05875 -0.410155 -1.78016 123 125 142
-1.93105 -4.90133 -1.76444 89 93 102
-2.0997 -4.66814 -1.76626 92 94 107
-2.15682 -4.55372 -1.75947 92 94 108
-2.33665 -4.34974 -1.77376 59 66 76
-2.48771 -4.0938 -1.76567 56 60 69
-2.71334 -3.83714 -1.78297 62 62 70
-2.96199 -3.52426 -1.79637 63 63 75
-2.97433 -3.50686 -1.79397 64 64 74
-3.24529 -3.08665 -1.7897 61 70 85
-3.26572 -3.08872 -1.79707 64 73 90
-3.26181 -3.06607 -1.78889 58 65 85
-3.29483 -3.07088 -1.80117 62 69 87
-3.44047 -2.82773 -1.79729 60 71 89
-3.42778 -2.79977 -1.78487 66 77 96
-3.43995 -2.79308 -1.78736 59 70 88
-3.46485 -2.7882 -1.79481 59 70 88
-3.45603 -2.76389 -1.78488 59 70 88
-3.47794 -2.76517 -1.79316 56 67 85
-3.49578 -2.75419 -1.79647 58 71 90
-3.48952 -2.73226 -1.78819 64 77 96
-3.5058 -2.72869 -1.79316 59 71 93
-3.71157 -2.43201 -1.79401 144 161 189
-3.72372 -2.41623 -1.79484 145 162 190
-3.71989 -2.39796 -1.78904 145 162 190
-3.73118 -2.38975 -1.79153 148 165 191
-3.74162 -2.37285 -1.79153 155 169 195
-3.75132 -2.36354 -1.79318 154 168 194
-3.761 -2.35419 -1.79484 157 171 197
-3.75839 -2.33695 -1.78987 155 169 195
-3.96686 -2.10354 -1.80533 168 181 208
-3.97267 -2.09145 -1.80533 170 182 210
-3.98004 -2.08023 -1.80615 168 182 209
-3.98416 -2.06723 -1.80533 169 180 210
-4.23206 -1.6798 -1.7965 54 56 68
-4.23913 -1.66018 -1.7965 37 45 56
-4.5068 -1.28376 -1.8003 67 86 117
-4.95519 -0.523738 -1.77433 80 81 99
-5.06849 -0.395103 -1.78375 116 114 134
-1.91768 -4.91011 -1.76584 91 93 106
-2.0811 -4.66168 -1.76123 92 93 108
-2.13548 -4.56086 -1.75874 92 94 107
-2.31362 -4.33431 -1.76406 59 65 77
-2.47711 -4.1188 -1.77256 61 63 71
-2.69059 -3.85279 -1.78297 61 61 68
-2.70397 -3.84809 -1.78453 60 63 68
-2.94363 -3.54451 -1.79797 65 65 77
-2.94715 -3.52721 -1.79317 62 62 74
-3.19811 -3.12298 -1.78561 58 68 80
-3.23364 -3.14119 -1.8028 60 69 84
-3.22247 -3.11058 -1.7897 57 66 81
-3.24923 -3.11937 -1.80117 59 68 83
-3.36166 -2.89781 -1.78984 63 72 89
-3.36861 -2.8866 -1.78901 60 69 86
-3.37825 -2.87779 -1.78984 59 70 88
-3.38419 -2.85669 -1.7857 57 68 88
-3.39647 -2.85022 -1.78818 56 68 90
-3.41148 -2.84608 -1.79233 57 69 85
-3.42547 -2.83201 -1.79315 59 71 87
-3.79012 -2.33354 -1.80147 154 173 197
-3.80281 -2.32595 -1.80478 154 173 197
-3.79772 -2.2838 -1.79319 167 180 212
-3.79479 -2.26661 -1.78822 160 173 205
-3.8244 -2.26932 -1.80065 163 177 206
-3.83383 -2.25963 -1.8023 163 177 204
-3.99631 -2.05073 -1.80697 169 180 208
-4.00677 -2.04113 -1.80943 167 181 210
-3.99465 -2.01952 -1.80042 168 182 209
-4.2367 -1.64443 -1.7933 38 48 60
-4.25301 -1.63594 -1.79891 36 46 58
-4.49237 -1.26465 -1.7925 66 85 117
-4.95229 -0.507823 -1.77287 83 92 102
-1.90307 -4.9153 -1.76584 91 93 106
-2.07251 -4.68131 -1.76698 92 92 108
-2.12268 -4.56842 -1.75948 88 90 103
-2.30241 -4.3624 -1.77227 56 64 75
-2.4597 -4.11594 -1.76797 60 60 72
-2.67209 -3.86286 -1.78219 60 60 68
-2.8926 -3.53415 -1.78037 60 64 75
-2.93214 -3.5517 -1.79717 62 64 76
-3.17085 -3.16122 -1.78888 59 65 81
-3.17876 -3.15051 -1.78806 58 64 80
-3.20413 -3.15837 -1.79871 58 68 80
-3.30106 -2.94846 -1.78404 57 68 85
-3.32215 -2.94118 -1.78901 59 68 87
-3.32793 -2.92886 -1.78735 61 70 86
-3.34035 -2.92266 -1.78984 59 70 86
-3.34066 -2.90539 -1.78487 56 65 82
-4.00498 -2.00209 -1.80124 172 182 211
-4.00398 -1.98651 -1.79797 171 180 209
-4.02725 -1.98348 -1.80698 173 184 212
-4.00508 -1.95708 -1.79306 171 182 210
-4.25734 -1.62279 -1.79891 37 45 60
-4.99558 -0.496284 -1.78971 83 88 104
-5.06762 -0.371165 -1.78304 49 53 81
-2.0492 -4.68451 -1.76483 92 94 109
-2.10845 -4.5725 -1.75875 83 85 98
-2.28871 -4.36705 -1.77153 58 64 77
-2.45713 -4.14071 -1.77639 60 60 72
-2.66456 -3.87682 -1.78531 60 60 70
-2.89194 -3.57728 -1.79477 63 62 76
-2.87891 -3.53827 -1.77797 61 63 75
-3.14745 -3.18452 -1.78888 60 68 81
-3.17522 -3.19534 -1.80117 62 70 83
-3.26218 -2.99215 -1.78404 58 67 84
-3.27604 -2.98753 -1.78735 54 63 80
-3.29459 -2.97796 -1.79066 58 67 82
-3.31376 -2.97818 -1.79729 58 69 83
-4.0379 -1.95107 -1.80534 171 182 209
-4.01389 -1.92403 -1.7906 172 182 211
-4.29159 -1.61334 -1.81171 37 44 60
-4.25806 -1.58601 -1.79411 35 44 59
-4.26393 -1.57348 -1.79491 35 44 61
-5.08469 -0.356567 -1.78951 43 46 74
-1.8807 -4.92301 -1.76584 81 84 99
-2.03457 -4.68833 -1.76411 93 97 109
-2.27271 -4.36658 -1.76854 57 63 77
-2.42718 -4.1297 -1.76644 59 60 74
-2.63347 -3.89281 -1.78375 60 60 69
-2.65403 -3.88607 -1.78609 62 62 71
-2.87584 -3.58996 -1.79477 60 59 73
-3.1076 -3.2287 -1.79052 60 66 78
-3.10967 -3.21138 -1.78561 58 66 79
-3.12141 -3.20492 -1.78725 59 67 80
-3.15784 -3.21537 -1.80198 60 68 81
-3.22784 -3.04037 -1.78735 58 67 82
-3.23661 -3.03083 -1.78735 59 68 83
-3.24403 -3.01999 -1.78652 62 71 85
-3.26007 -3.00811 -1.78818 59 68 85
-3.96856 -2.13688 -1.83047 170 185 211
-3.93295 -2.10216 -1.80894 169 183 212
-3.93076 -2.08588 -1.8048 173 182 211
-3.91089 -2.05251 -1.7899 170 184 210
-4.042 -1.92314 -1.80207 173 184 214
-4.05679 -1.90783 -1.80535 172 183 211
-4.0423 -1.88584 -1.79552 171 182 210
-4.26018 -1.54993 -1.79011 37 46 61
-4.28319 -1.54356 -1.79892 36 45 60
-4.99334 -0.472421 -1.78824 82 88 97
-5.07011 -0.339573 -1.78376 36 38 67
-1.86545 -4.92631 -1.76514 87 91 103
-2.02188 -4.69736 -1.76555 92 94 107
-2.08633 -4.57767 -1.75729 85 87 100
-2.25512 -4.381 -1.77078 60 64 76
-2.41669 -4.1397 -1.76798 58 62 74
-2.62192 -3.90039 -1.78375 60 60 70
-2.85042 -3.60088 -1.79157 59 61 73
-2.86643 -3.59984 -1.79557 59 62 71
-3.08126 -3.24872 -1.78888 60 67 77
-3.10062 -3.24056 -1.79216 61 68 78
-3.18256 -3.07774 -1.78404 57 68 84
-3.19526 -3.07224 -1.78652 56 65 82
-3.21311 -3.07184 -1.79232 54 63 80
-3.21647 -3.04731 -1.78569 58 67 82
-3.92616 -2.04575 -1.79487 171 185 211
