-6.34829 13.7079 -1.87766 101 95 92
-6.30156 13.7165 -1.87645 102 94 91
-5.58409 14.7681 -1.86745 92 79 73
-5.53963 14.7913 -1.86872 96 86 78
-14.7915 1.2492 -1.92118 91 103 120
-14.7905 1.31244 -1.9219 93 102 118
-13.8622 2.67861 -1.9237 93 100 116
-13.8625 2.71975 -1.92517 95 102 118
-13.8627 2.76092 -1.92665 93 101 114
-13.8564 2.82119 -1.92775 93 102 119
-13.0403 4.64193 -1.98364 90 96 112
-13.012 4.67324 -1.98117 90 96 112
-13.0109 4.7367 -1.985 89 97 110
-12.9842 4.76857 -1.98287 88 95 111
-12.9974 4.81693 -1.9881 90 96 112
-12.9632 4.84566 -1.98463 91 94 111
-12.9884 4.92074 -1.99349 91 97 111
-12.9593 4.95162 -1.99102 89 95 109
-12.9465 4.9894 -1.99157 92 95 110
-11.048 8.63566 -2.05231 73 71 86
-10.9931 8.66944 -2.04915 68 67 80
-10.9825 8.71553 -2.05303 84 88 96
-10.9528 8.74444 -2.05259 106 111 117
-10.9171 8.76793 -2.05081 118 121 125
-10.8835 8.82095 -2.05264 116 117 121
-10.8708 8.86562 -2.05619 111 110 116
-10.8118 8.86726 -2.04909 107 107 113
-10.7648 8.90773 -2.04793 110 110 112
-8.55604 10.297 -1.88262 102 100 104
-8.51941 10.3149 -1.88158 101 98 105
-8.48275 10.3328 -1.88054 106 100 108
-8.44827 10.3537 -1.88014 107 101 106
-7.93483 12.0583 -1.94913 103 101 106
-7.9218 12.1712 -1.96305 103 101 104
-6.70874 12.9354 -1.86789 103 95 93
-6.65885 12.9325 -1.86459 105 96 95
-6.25824 13.7343 -1.87666 105 97 95
-6.18851 13.7467 -1.87484 101 96 93
-5.4619 14.787 -1.86512 94 83 77
-5.41351 14.7965 -1.86452 93 84 77
-14.8149 1.10353 -1.92285 96 106 125
-14.7968 1.16527 -1.92083 88 94 116
-14.7982 1.20759 -1.92162 89 98 118
-13.8732 2.49687 -1.91945 93 100 118
-13.8722 2.53749 -1.92061 92 99 117
-13.8749 2.57896 -1.9224 92 99 115
-13.8716 2.61923 -1.92324 93 100 116
-13.1149 4.33228 -1.97658 93 96 113
-13.0911 4.36551 -1.97478 93 96 111
-13.0783 4.40281 -1.975 93 95 110
-13.0584 4.45834 -1.97515 90 98 112
-13.0527 4.49838 -1.9767 90 98 111
-13.056 4.54202 -1.97992 91 94 111
-13.0355 4.59747 -1.98008 90 96 112
-10.7573 8.95763 -2.05281 109 109 112
-10.7212 8.98036 -2.05104 114 114 117
-10.668 9.0149 -2.04855 124 120 123
-10.6416 9.0469 -2.0491 119 114 119
-10.6179 9.08159 -2.05032 103 100 104
-10.584 9.1349 -2.05249 80 76 86
-10.546 9.15558 -2.05039 73 69 79
-10.5191 9.18725 -2.05094 76 71 83
-8.39632 10.3841 -1.87937 108 102 102
-8.35727 10.3983 -1.87769 108 102 102
-8.31601 10.409 -1.87539 109 103 105
-7.90157 12.2268 -1.96894 107 103 104
-7.85277 12.2303 -1.96586 105 100 104
-7.403 11.7109 -1.86455 103 101 106
-7.23331 11.5224 -1.82737 106 104 109
-7.18796 11.5254 -1.8246 103 101 102
-7.16436 11.5704 -1.829 104 102 103
-6.59775 12.9597 -1.86476 103 92 90
-6.55092 12.9637 -1.86263 100 90 90
-6.49596 12.9475 -1.85728 100 91 91
-6.14643 13.7679 -1.87562 100 91 92
-6.10359 13.787 -1.87611 101 92 95
-14.8272 1.02011 -1.92372 98 105 123
-14.8329 1.06276 -1.92511 90 99 116
-13.8852 2.29591 -1.91526 92 101 118
-13.8753 2.35486 -1.91539 89 95 111
-13.8709 2.39465 -1.91591 94 100 118
-13.8683 2.43482 -1.91675 95 100 119
-13.1384 4.19431 -1.97232 94 97 112
-13.1428 4.23773 -1.97555 92 98 112
-13.1267 4.27382 -1.97509 95 101 117
-10.5004 9.22723 -2.05349 72 69 81
-10.4477 9.26191 -2.05134 83 79 92
-10.4274 9.30034 -2.05356 87 84 95
-10.3945 9.32604 -2.05279 85 79 91
-10.3578 9.37715 -2.05462 86 79 95
-10.3247 9.40262 -2.05385 88 82 96
-10.2943 9.43083 -2.05374 87 83 97
-8.26274 10.4371 -1.8743 111 100 106
-8.22798 10.4574 -1.8739 112 101 107
-8.19639 10.4825 -1.87445 115 104 108
-8.14283 10.51 -1.87336 110 99 101
-7.78291 12.2404 -1.96214 102 98 101
-7.72957 12.2347 -1.95757 104 102 106
-6.43624 12.9776 -1.85803 104 96 94
-6.3975 13.0013 -1.85913 106 96 94
-6.03372 13.7987 -1.87429 104 95 93
-5.98426 13.7989 -1.87196 105 96 95
-14.8639 0.87499 -1.92782 98 107 124
-14.8523 0.916446 -1.92647 95 102 120
-14.8426 0.957976 -1.92543 93 101 120
-13.8889 2.15493 -1.91184 91 98 114
-13.8817 2.21421 -1.9123 90 97 116
-13.8932 2.25683 -1.91538 86 97 113
-10.2448 9.46868 -2.05258 84 82 93
-10.2182 9.50095 -2.05348 85 83 94
-10.2022 9.54469 -2.05702 86 85 93
-10.1536 9.58351 -2.0562 85 86 90
-10.1186 9.60684 -2.0551 85 84 90
-8.10679 10.5282 -1.87264 112 97 100
-8.07494 10.553 -1.87319 114 100 99
-8.02427 10.5849 -1.87306 110 98 98
-7.43223 12.235 -1.93673 103 102 102
-6.36156 13.0322 -1.8614 109 98 92
-6.30851 13.0801 -1.86509 104 94 91
-5.94386 13.825 -1.87358 100 95 92
-5.89823 13.8361 -1.87294 100 95 91
-14.8622 0.769447 -1.92662 96 105 124
-14.8635 0.832764 -1.92734 95 104 123
-13.8651 1.96976 -1.90309 90 98 111
-13.856 2.00842 -1.90264 91 100 115
-13.8767 2.07212 -1.9076 93 100 118
-13.8887 2.11449 -1.91068 92 99 115
-10.0875 9.63442 -2.055 85 84 93
-10.059 9.66483 -2.05555 85 82 92
-10.0217 9.71615 -2.05772 86 84 91
-9.99162 9.7449 -2.05795 87 82 92
-9.94963 9.76029 -2.05519 85 81 87
-9.91179 9.81121 -2.05736 81 79 83
-7.98908 10.6044 -1.87265 109 97 99
-7.95173 10.6205 -1.87162 108 96 100
-7.89762 10.6468 -1.87054 108 96 100
-7.86432 10.6693 -1.87077 111 101 100
-7.38127 12.2315 -1.93277 105 104 104
-7.33568 12.2383 -1.93059 107 105 108
-7.28574 12.2362 -1.92693 110 108 111
-6.26159 13.0831 -1.86296 101 92 93
-6.22734 13.1192 -1.86611 100 94 96
-5.83522 13.8674 -1.87424 99 93 94
-5.78262 13.8575 -1.87049 101 92 95
-14.9158 0.62445 -1.93377 91 102 122
-14.9099 0.687547 -1.93327 89 100 118
-14.9324 0.73102 -1.9371 90 102 118
-13.8729 1.83084 -1.90095 98 104 119
-13.8692 1.89024 -1.90174 94 99 118
-13.8467 1.92676 -1.89904 94 99 115
-13.3062 3.38575 -1.95747 87 93 111
-9.88654 9.84558 -2.05892 83 81 86
-9.84954 9.86649 -2.05748 91 87 87
-9.79824 9.9021 -2.05633 124 117 105
-9.76494 9.9272 -2.0559 121 115 103
-9.75835 9.98375 -2.06244 101 94 84
-7.83093 10.6916 -1.871 111 101 100
-7.7944 10.7088 -1.87028 112 102 103
-7.74707 10.7463 -1.87142 110 99 99
-7.21224 12.2344 -1.92172 109 104 110
-7.16333 12.2336 -1.91835 104 99 103
-7.11879 12.2415 -1.91648 97 95 96
-6.16668 13.1482 -1.86687 102 94 92
-6.11693 13.1433 -1.86357 102 94 92
-5.74373 13.8887 -1.87296 100 91 91
-5.6688 13.8836 -1.86889 103 93 91
-14.9015 0.539408 -1.93099 94 102 121
-14.9225 0.582478 -1.93451 93 104 122
-13.8929 1.69393 -1.90106 99 105 119
-13.882 1.75223 -1.90056 97 100 115
-13.8795 1.79182 -1.90108 100 106 120
-11.9061 5.65631 -1.98243 92 96 108
-11.8892 5.69023 -1.98267 88 92 106
-11.8735 5.74625 -1.98495 88 93 107
-11.8666 5.78581 -1.98729 91 96 111
-11.8613 5.82636 -1.98998 90 95 110
-11.8209 5.86882 -1.98735 90 90 104
-11.7776 5.88788 -1.98233 88 88 101
-11.7736 5.92929 -1.98537 87 86 98
-11.7448 5.97813 -1.9852 82 81 94
-11.7285 6.0126 -1.98579 81 79 94
-11.7138 6.04803 -1.98673 80 79 94
-11.6888 6.07741 -1.98556 81 78 94
-11.661 6.12688 -1.98574 84 83 97
-11.6493 6.16419 -1.98738 79 78 92
-11.6206 6.19128 -1.98551 78 81 94
-11.5989 6.24457 -1.9871 86 90 102
-11.5801 6.27765 -1.98733 87 91 103
-11.5829 6.32421 -1.99212 87 89 102
-11.5505 6.37113 -1.9916 86 91 103
-11.5345 6.40619 -1.99254 86 90 102
-11.5185 6.44122 -1.99348 87 91 103
-11.4856 6.48783 -1.99296 86 89 104
-11.4676 6.52168 -1.99354 87 90 105
-11.4446 6.55224 -1.99308 86 88 102
-11.4198 6.58165 -1.99227 86 87 105
-11.4158 6.64742 -1.99805 79 82 98
-11.3875 6.67452 -1.99654 75 79 94
-11.3542 6.69822 -1.99398 86 89 102
-11.3412 6.75845 -1.99801 111 114 124
-11.3289 6.79639 -2 110 110 121
-11.3147 6.83321 -2.00163 106 106 117
-11.2897 6.8856 -2.00321 105 105 116
-11.2446 6.90086 -1.99821 104 102 113
-11.2156 6.92728 -1.9967 107 105 114
-11.2026 6.96501 -1.99868 107 107 115
-11.1737 7.01469 -1.99957 120 117 125
-11.1539 7.04775 -2.00016 129 126 135
-11.1373 7.08308 -2.00144 118 115 123
-11.0998 7.12668 -2.00058 76 74 86
-11.086 7.16424 -2.00257 71 70 84
-11.0563 7.19002 -2.00106 82 81 94
-11.0199 7.2344 -2.00055 86 88 101
-10.9916 7.26111 -1.99939 87 86 101
-10.9726 7.29489 -2.00033 86 85 99
-9.71417 10.028 -2.06328 113 108 99
-9.67671 10.0482 -2.06185 101 98 91
-9.62661 10.0532 -2.0571 117 114 105
-9.58786 10.0717 -2.05534 93 90 87
-7.71243 10.7666 -1.87133 102 92 91
-7.67972 10.7902 -1.87188 98 88 89
-7.62994 10.8237 -1.87239 81 68 75
-7.0473 12.2423 -1.91187 98 92 93
-6.99689 12.2373 -1.90791 100 95 95
-6.08226 13.179 -1.86672 105 96 95
-6.01655 13.1943 -1.86543 101 92 93
-5.62245 13.8919 -1.86797 100 92 90
-5.57609 13.9001 -1.86705 100 92 91
-14.9072 0.392031 -1.93113 97 109 125
-14.9011 0.433997 -1.93039 97 105 124
-14.9047 0.476273 -1.93117 100 108 127
-13.8996 1.55536 -1.89925 98 104 120
-13.8835 1.61292 -1.89778 100 104 121
-13.8912 1.6538 -1.8999 99 103 119
-12.1318 5.09417 -1.97306 87 94 110
-12.1202 5.13038 -1.974 89 95 111
-12.1103 5.16744 -1.97528 91 94 111
-12.0921 5.22128 -1.97651 87 93 109
-12.073 5.25394 -1.97605 87 94 109
-12.0733 5.29621 -1.97944 89 93 109
-12.0579 5.35174 -1.98137 87 88 106
-12.0209 5.37534 -1.9774 89 91 109
-12.0031 5.40866 -1.97728 89 92 110
-12.0047 5.47306 -1.98272 87 93 107
-11.9674 5.49629 -1.97875 89 94 105
-11.9545 5.5322 -1.97968 87 93 107
-11.9501 5.57271 -1.98237 89 95 109
-11.9316 5.62701 -1.98395 88 94 108
-10.9592 7.35689 -2.00506 87 85 100
-10.9414 7.39181 -2.00634 86 83 100
-10.9251 7.42791 -2.00798 86 83 100
-10.9024 7.45912 -2.00822 86 83 100
-10.8679 7.5052 -2.00841 87 86 104
-10.8465 7.53748 -2.009 87 84 96
-10.8266 7.57093 -2.00994 80 77 94
-10.79 7.61545 -2.00978 61 64 81
-10.7667 7.64628 -2.01002 73 77 89
-10.7479 7.68078 -2.01131 109 113 124
-10.7168 7.72996 -2.01254 127 127 135
-10.6962 7.76311 -2.01348 122 121 127
-10.68 7.8 -2.01547 114 115 119
-9.5519 10.1258 -2.05851 92 93 97
-9.50304 10.1318 -2.05409 95 95 102
-9.47031 10.1575 -2.05399 88 89 92
-9.40549 10.1758 -2.04953 80 78 87
-9.38854 10.2213 -2.05374 94 93 100
-7.59602 10.8454 -1.87262 97 85 90
-7.56599 10.8738 -1.87412 106 96 95
-6.94657 12.2321 -1.90395 102 98 99
-6.87792 12.2374 -1.90024 103 101 103
-6.83027 12.2371 -1.89718 104 103 101
-5.97488 13.2112 -1.86565 99 93 93
-5.93647 13.2372 -1.86733 100 94 93
-5.5114 13.9262 -1.86779 100 92 90
-5.46498 13.934 -1.86687 102 92 89
-14.8938 0.286436 -1.92871 100 110 127
-14.8915 0.349497 -1.92852 98 110 126
-13.9222 1.43875 -1.90058 104 107 126
-13.9128 1.47741 -1.89982 101 107 123
-13.8936 1.51481 -1.89744 100 106 122
-12.2521 4.67539 -1.96177 92 93 111
-12.2474 4.71414 -1.96376 92 93 111
-12.2371 4.75052 -1.96469 91 95 111
-12.2371 4.8119 -1.96908 92 96 111
-12.2354 4.85235 -1.97177 94 97 113
-12.1978 4.87653 -1.96744 93 96 112
-12.181 4.93058 -1.96867 91 94 109
-12.1682 4.96603 -1.96926 92 96 108
-12.1553 5.00147 -1.96984 89 95 107
-12.1397 5.05625 -1.97143 88 96 109
-10.6483 7.84894 -2.01671 113 114 118
-10.6183 7.87426 -2.01555 112 112 114
-10.5807 7.89305 -2.01265 109 108 113
-10.5506 7.91813 -2.0115 111 110 116
-10.5242 7.97174 -2.01413 116 113 124
-10.4968 7.99921 -2.01367 124 122 131
-10.4679 8.02529 -2.01287 126 125 130
-10.4394 8.07733 -2.01515 99 96 105
-10.4161 8.10847 -2.01575 73 68 80
-10.3927 8.13955 -2.01634 64 62 76
-9.34577 10.2342 -2.05099 96 95 98
-9.28324 10.2549 -2.04719 91 92 101
-9.23682 10.2628 -2.04344 90 93 102
-9.19045 10.2704 -2.03969 91 94 101
-9.11358 10.2715 -2.03191 92 92 102
-9.06254 10.2724 -2.02684 95 93 107
-7.51088 10.8982 -1.87304 87 73 76
-7.46504 10.8989 -1.86948 99 86 87
-7.42312 10.9063 -1.86719 106 94 89
-6.7835 12.2384 -1.89441 101 96 93
-6.71342 12.2393 -1.89011 85 74 71
-6.63611 12.1715 -1.876 84 75 72
-5.894 13.252 -1.86726 104 99 95
-5.41972 13.9454 -1.86652 99 89 88
-14.8833 0.202154 -1.92684 103 110 129
-13.9358 1.30125 -1.90037 100 106 120
-13.9269 1.33999 -1.8996 101 107 121
-13.9218 1.37913 -1.89948 100 106 122
-12.3439 4.29022 -1.9507 93 97 109
-12.3405 4.32887 -1.95269 93 96 111
-12.3264 4.38322 -1.95392 91 97 111
-12.3282 4.42414 -1.95696 90 96 110
-12.3207 4.46138 -1.95825 91 95 112
-12.3005 4.51344 -1.95843 91 97 113
-12.2963 4.55218 -1.96042 90 96 112
-12.2775 4.58477 -1.9596 90 96 112
-12.2731 4.62351 -1.96159 89 95 111
-10.3549 8.1834 -2.01653 67 65 78
-10.3283 8.21165 -2.01643 76 76 88
-10.2958 8.23448 -2.01492 80 82 94
-10.2575 8.2779 -2.01512 84 83 99
-10.2436 8.31798 -2.01815 81 80 96
-10.2266 8.35535 -2.02049 84 83 98
-10.2037 8.38728 -2.02143 82 81 95
-10.152 8.41804 -2.01849 84 83 98
-8.99855 10.2558 -2.01812 91 90 96
-8.94298 10.2499 -2.01172 92 91 97
-8.88315 10.2716 -2.00859 90 90 98
-8.83246 10.2715 -2.00352 90 89 97
-8.77135 10.2569 -1.99547 93 92 97
-8.71165 10.2777 -1.99234 96 94 99
-7.3756 10.9439 -1.86864 91 83 82
-7.33078 10.9458 -1.8654 97 91 93
-7.30118 10.9752 -1.86722 98 93 97
-6.59212 12.1776 -1.87413 86 75 72
-6.52658 12.1865 -1.87133 95 90 86
-5.8358 13.2888 -1.86949 101 96 93
-5.78998 13.2939 -1.86795 101 95 92
-5.74034 13.2876 -1.86466 100 95 92
-5.35021 13.9557 -1.86499 102 94 91
-5.31106 13.9876 -1.86775 101 94 88
-13.9421 1.16312 -1.89919 101 108 124
-13.9395 1.20249 -1.89939 101 109 122
-13.9388 1.24207 -1.89991 97 103 119
-12.4208 4.00229 -1.94531 77 81 95
-12.4037 4.03542 -1.94449 82 85 99
-12.4085 4.07678 -1.94788 90 94 108
-12.3884 4.12846 -1.94771 99 102 117
-12.3782 4.16428 -1.9483 101 103 120
-12.3624 4.19795 -1.94783 97 99 114
-12.338 4.24799 -1.94695 94 98 110
-10.1445 8.4648 -2.02327 85 82 99
-10.1184 8.49379 -2.02351 86 82 97
-10.0606 8.51851 -2.01917 80 80 92
-10.0498 8.56246 -2.02325 73 75 88
-10.0248 8.59255 -2.02385 67 67 82
-9.97506 8.62502 -2.0216 87 87 100
-9.9554 8.6605 -2.02359 105 103 115
-8.65199 10.2641 -1.98462 97 93 99
-8.59705 10.2567 -1.97823 95 93 99
-8.53182 10.2685 -1.97345 98 93 100
-8.48166 10.2669 -1.96838 97 91 101
-8.41803 10.2458 -1.95934 96 90 100
-7.29129 11.0409 -1.87567 106 101 105
-6.49205 12.214 -1.87304 113 109 105
-6.45039 12.2251 -1.87207 109 105 103
-6.41179 12.2433 -1.8723 106 100 96
-5.6743 13.3013 -1.86337 103 95 93
-5.26675 14.0023 -1.86796 104 95 90
-5.22294 14.0189 -1.86846 100 91 86
-13.9604 1.06579 -1.90078 100 107 123
-13.9503 1.10449 -1.89969 98 106 121
-12.5781 3.8811 -1.96445 83 87 102
-12.4518 3.87596 -1.9429 83 86 102
-12.4425 3.91188 -1.94349 81 83 102
-12.4231 3.96371 -1.94332 83 86 103
-9.94114 8.70155 -2.02698 101 100 113
-9.91843 8.73417 -2.02827 116 115 125
-9.88047 8.77875 -2.02916 114 116 121
-9.85066 8.80414 -2.02871 108 111 114
-9.83574 8.84506 -2.0321 105 108 108
-9.79043 8.88217 -2.03125 110 108 110
-8.35645 10.2615 -1.95556 98 90 97
-8.30546 10.2576 -1.95016 99 89 93
-8.25678 10.2568 -1.94543 98 88 91
-8.20706 10.2541 -1.94037 105 92 97
-8.14353 10.2653 -1.93593 102 85 94
-7.45531 11.4723 -1.9489 105 100 104
-6.34463 12.2476 -1.8689 120 111 105
-6.31053 12.2764 -1.87091 113 104 99
-5.62978 13.3097 -1.86242 105 97 95
-5.58094 13.3047 -1.85943 103 94 95
-5.14888 14.013 -1.86468 102 92 91
-13.9823 0.98841 -1.90328 97 106 121
-13.9705 1.02705 -1.90187 97 106 121
-12.5655 3.56353 -1.94431 92 95 110
-12.5535 3.59846 -1.94419 89 95 109
-12.5375 3.63212 -1.94337 87 93 107
-12.5327 3.66946 -1.94465 86 92 106
-12.5182 3.72297 -1.94519 89 92 109
-12.5242 3.76414 -1.94858 88 95 111
-12.5431 3.80989 -1.95444 90 96 112
-9.74682 8.89295 -2.02731 109 107 109
-9.71398 8.91503 -2.02616 111 109 110
-9.67106 8.95443 -2.02601 117 118 122
-9.64473 8.98349 -2.02661 125 126 130
-9.61696 9.01101 -2.02686 121 120 125
-9.57623 9.05289 -2.0274 89 84 91
-8.08852 10.254 -1.92921 115 98 108
-8.04343 10.2572 -1.92548 123 107 117
-7.9801 10.2675 -1.92103 130 117 124
-7.92007 10.2472 -1.91266 128 115 121
-6.26345 12.2741 -1.86785 107 102 99
-6.20159 12.2904 -1.86655 107 100 95
-5.51916 13.3308 -1.86019 101 94 93
-5.4776 13.348 -1.86071 103 95 94
-14.0461 0.854386 -1.91207 99 106 124
-14.0426 0.893878 -1.91195 102 109 127
-14.0251 0.932311 -1.90957 101 108 124
-12.5728 3.33439 -1.9334 87 93 107
-12.5972 3.38027 -1.93996 89 92 107
-12.5859 3.43455 -1.94085 86 92 108
-12.5536 3.46305 -1.93686 88 94 110
-12.5681 3.50629 -1.94167 89 95 109
-9.55352 9.08606 -2.02905 97 92 97
-9.5241 9.11186 -2.02895 73 68 72
-9.49198 9.13463 -2.02815 74 69 74
-9.44934 9.17449 -2.02835 84 81 91
-9.42353 9.20441 -2.0293 86 81 95
-7.88482 10.2647 -1.91192 123 111 115
-7.8217 10.2741 -1.90748 115 104 108
-7.76527 10.2579 -1.9001 111 100 104
-7.72477 10.2666 -1.8977 111 100 104
-7.6713 11.9651 -2.03482 105 100 104
-7.63375 11.9869 -2.03505 102 102 103
-7.29087 11.5623 -1.94916 105 101 100
-7.23918 11.5532 -1.94402 105 100 97
-6.15981 12.3006 -1.86558 108 100 93
-6.118 12.3105 -1.86461 111 102 95
-5.43655 13.367 -1.86152 102 94 92
-5.36447 13.3604 -1.85731 105 97 95
-14.0542 0.755608 -1.91237 97 102 121
-14.0548 0.795384 -1.91289 104 109 128
-13.3826 1.82993 -1.91331 93 98 115
-13.3642 1.8655 -1.91117 90 96 112
-12.5981 3.11281 -1.92671 83 88 104
-12.5881 3.16696 -1.9276 87 94 110
-12.5848 3.20413 -1.92888 90 96 112
-12.5625 3.23578 -1.92666 94 100 116
-9.38986 9.22535 -2.02815 86 81 95
-9.34678 9.26476 -2.02835 85 84 98
-9.3027 9.27349 -2.02442 84 82 93
-9.28418 9.312 -2.02746 80 80 86
-9.24956 9.36145 -2.0301 82 80 87
-7.66292 10.2767 -1.89359 108 96 104
-7.62142 10.2833 -1.89086 106 94 97
-7.56961 10.273 -1.88481 108 96 97
-7.53438 10.2893 -1.88407 108 96 98
-7.58091 12.0256 -2.0365 96 93 90
-7.18379 11.5813 -1.9439 120 114 112
-7.16879 11.6439 -1.95172 121 115 115
-6.05824 12.3317 -1.8642 108 99 92
-6.01711 12.3432 -1.86353 104 97 86
-5.32741 13.3922 -1.86017 103 98 95
-5.28272 13.3994 -1.85922 102 96 96
-14.0595 0.656675 -1.91236 100 106 122
-14.0573 0.716084 -1.9125 103 108 127
-13.3307 1.65047 -1.90007 95 102 118
-13.3714 1.69428 -1.90802 96 102 118
-12.5992 2.90515 -1.91715 93 99 115
-12.5911 2.94067 -1.91738 92 98 114
-12.5971 2.99881 -1.92108 91 97 115
-12.6077 3.03956 -1.92484 94 98 115
-12.5991 3.07513 -1.92507 93 96 114
-9.22941 9.39838 -2.03279 87 86 92
-9.20026 9.4247 -2.03304 87 84 91
-9.15621 9.46326 -2.03325 86 83 93
-9.1256 9.48784 -2.03315 92 89 96
-7.47371 10.3001 -1.8803 108 96 98
-7.44652 10.3297 -1.8822 113 103 102
-7.40209 10.3304 -1.87848 110 100 100
-6.71853 11.3799 -1.88163 100 90 83
-6.62853 11.2848 -1.86165 103 93 86
-5.97951 12.3638 -1.86435 109 102 95
-5.23464 13.3952 -1.85652 104 95 97
-14.067 0.577692 -1.91293 101 107 123
-14.0643 0.61724 -1.9128 105 111 125
-13.3899 1.56319 -1.9081 94 101 116
-13.3978 1.60241 -1.91033 96 103 119
-12.6253 2.743 -1.9145 95 101 117
-12.6215 2.77952 -1.91544 94 100 116
-12.6481 2.82383 -1.92201 92 98 114
-12.6529 2.88151 -1.92536 91 97 113
-9.09741 9.51538 -2.03375 88 85 94
-9.06789 9.5413 -2.034 88 86 92
-9.01956 9.57466 -2.03316 89 86 93
-8.98983 9.60036 -2.03341 95 92 99
-8.95392 9.61826 -2.03193 97 94 103
-7.36245 10.3762 -1.88167 109 99 110
-7.314 10.3697 -1.87662 113 103 112
-7.2825 10.392 -1.8772 113 103 110
-7.39621 12.1896 -2.04615 105 96 94
-7.34923 12.2414 -2.05013 102 93 87
-6.58881 11.2945 -1.86031 109 97 86
-6.53464 11.3196 -1.86019 106 96 86
-5.92516 12.3991 -1.86633 109 102 101
-5.88246 12.4064 -1.86507 113 105 98
-5.84113 12.4174 -1.8644 113 106 94
-5.17395 13.4254 -1.85817 109 101 100
-5.13309 13.4454 -1.85927 105 97 94
-14.0555 0.438493 -1.91014 104 115 133
-14.065 0.478475 -1.91194 102 109 128
-14.0705 0.51836 -1.91311 102 109 128
-13.4338 1.397 -1.912 98 104 118
-12.6242 2.57497 -1.90728 93 99 115
-12.6171 2.61049 -1.90752 91 98 114
-12.6367 2.65243 -1.91268 93 101 114
-12.6198 2.68567 -1.91115 94 100 116
-8.91012 9.65726 -2.03248 91 86 87
-8.88495 9.68885 -2.03413 90 86 92
-8.85365 9.71259 -2.03403 81 78 85
-8.80338 9.74335 -2.03284 101 93 91
-7.2198 10.398 -1.87277 112 102 109
-7.19208 10.4269 -1.87468 114 103 108
-7.15259 10.4352 -1.87261 115 104 108
-7.30463 12.2499 -2.04815 108 99 90
-7.26006 12.2583 -2.04617 108 100 89
-7.20859 12.2522 -2.04166 108 100 87
-6.4957 11.3308 -1.85917 97 85 72
-6.45018 11.3275 -1.85562 88 79 67
-5.79978 12.4282 -1.86373 117 103 91
-5.08777 13.45 -1.85804 107 100 94
-5.0208 13.4587 -1.85647 108 99 94
-14.0583 0.339651 -1.91012 104 112 128
-14.0222 0.397768 -1.90447 102 112 129
-13.4324 1.30167 -1.90994 102 104 122
-13.4548 1.34221 -1.91453 98 104 120
-12.6455 2.39466 -1.90398 90 95 114
-12.6505 2.45118 -1.90698 92 98 114
-12.6323 2.48416 -1.9051 93 99 115
-12.6466 2.52451 -1.90921 94 101 114
-11.0638 5.55098 -1.97313 91 93 108
-11.0502 5.60446 -1.97594 93 93 110
-11.0249 5.6309 -1.97436 95 94 112
-11.0198 5.66915 -1.97722 91 90 108
-10.9926 5.69446 -1.97526 78 77 93
-10.9698 5.74277 -1.97623 99 99 112
-10.9609 5.77899 -1.97835 126 126 138
-10.9418 5.80911 -1.97825 125 125 134
-10.9101 5.85213 -1.97736 116 116 124
-10.8891 5.88107 -1.97688 117 116 122
-10.878 5.91615 -1.97864 119 116 123
-10.8541 5.96406 -1.9796 117 114 121
-10.8394 5.997 -1.98061 116 115 123
-10.8147 6.0236 -1.97939 115 113 124
-10.7919 6.07234 -1.98073 123 120 130
-10.7669 6.09875 -1.97951 121 118 130
-10.7501 6.13043 -1.98015 106 104 117
-10.7315 6.16099 -1.98042 85 83 97
-10.7048 6.20729 -1.98102 84 83 97
-10.6876 6.23881 -1.98166 89 88 104
-10.6719 6.27139 -1.98267 86 87 103
-10.6414 6.31525 -1.98252 88 90 105
-10.6319 6.35216 -1.98502 88 90 105
-10.6256 6.3913 -1.98825 87 90 105
-10.5896 6.43159 -1.98699 90 89 105
-10.5717 6.46284 -1.98763 87 89 104
-10.5585 6.49744 -1.98939 86 88 103
-10.5236 6.53851 -1.9885 88 92 104
-8.77428 9.76998 -2.03345 86 77 77
-8.74629 9.79809 -2.0344 72 66 71
-8.69451 9.82674 -2.03286 103 102 94
-8.66276 9.8499 -2.03277 143 140 122
-7.10823 10.4731 -1.87448 109 98 103
-7.0725 10.488 -1.87374 112 101 108
-7.03484 10.4992 -1.87234 111 102 107
-6.39586 11.352 -1.85551 100 92 89
-6.35769 11.3645 -1.8548 105 103 103
-6.32108 11.3806 -1.85473 104 100 97
-5.74087 12.4515 -1.86392 116 106 96
-5.70146 12.4676 -1.86415 123 111 97
-5.65331 12.4593 -1.8605 119 106 91
-4.97338 13.4554 -1.85406 107 99 94
-14.0067 0.259341 -1.90135 106 112 128
-14.0168 0.298993 -1.90316 107 114 130
-12.6372 2.22733 -1.8964 86 92 108
-12.6365 2.35581 -1.90093 92 99 117
-11.3412 4.87856 -1.95927 121 121 129
-11.3373 4.91587 -1.96177 121 121 131
-11.3209 4.94711 -1.96166 122 120 131
-11.3053 4.99829 -1.96337 123 121 132
-11.2904 5.03032 -1.96363 120 118 130
-11.2772 5.0632 -1.96427 118 121 128
-11.2558 5.11158 -1.96486 131 133 142
-11.2475 5.1471 -1.96661 120 116 131
-11.2269 5.17626 -1.96577 81 79 93
-11.2033 5.22353 -1.96599 85 87 102
-11.1928 5.25806 -1.96737 90 93 109
-11.1858 5.29446 -1.96949 89 93 109
-11.1734 5.32806 -1.9705 89 92 107
-11.1593 5.38078 -1.97295 90 93 108
-11.138 5.40959 -1.9721 89 93 108
-11.1269 5.44406 -1.97349 89 93 106
-11.0951 5.48708 -1.97222 90 92 107
-11.0872 5.52341 -1.97434 91 93 108
-10.5037 6.56846 -1.98877 86 90 102
-10.4885 6.6018 -1.99015 87 89 104
-10.47 6.6328 -1.99079 87 88 106
-10.4393 6.67691 -1.99102 82 83 101
-10.4269 6.71245 -1.99314 76 78 91
-10.4017 6.73862 -1.9923 84 86 99
-10.3721 6.78361 -1.99289 109 109 121
-10.3639 6.8226 -1.99613 113 115 127
-10.3306 6.84261 -1.99344 109 109 117
-10.2926 6.88134 -1.99218 107 106 114
-10.2701 6.90945 -1.99208 104 104 112
-10.249 6.93869 -1.99235 105 103 115
-10.2214 6.98548 -1.99369 105 103 114
-10.197 7.01215 -1.99322 103 102 110
-10.1725 7.03875 -1.99275 114 112 122
-10.1586 7.07385 -1.99488 125 124 129
-10.1319 7.12155 -1.99659 115 114 124
-8.63563 9.87929 -2.03407 89 81 75
-8.59906 9.89593 -2.03259 96 85 88
-8.55384 9.93338 -2.03314 99 93 95
-8.52062 9.95451 -2.0327 70 64 67
-6.98439 10.5263 -1.87222 106 100 102
-6.94759 10.539 -1.87114 107 101 102
-6.26571 11.4026 -1.8543 81 72 73
-6.23136 11.4238 -1.85518 81 73 71
-5.59358 12.4802 -1.8604 125 115 97
-4.93547 13.4862 -1.85692 104 96 93
-14.0303 0.200718 -1.90507 110 116 132
-12.642 2.06371 -1.89163 93 96 115
-12.6346 2.09881 -1.89151 94 97 116
-12.6392 2.15444 -1.89416 86 92 108
-12.6392 2.19107 -1.89546 93 101 114
-11.4876 4.50146 -1.95377 94 95 110
-11.4707 4.53234 -1.9533 93 96 111
-11.4644 4.56801 -1.95505 94 96 111
-11.4383 4.61378 -1.95415 91 94 109
-11.4372 4.6519 -1.95702 91 97 112
-11.4234 4.68426 -1.95729 89 93 112
-11.4056 4.73399 -1.95825 78 80 100
-11.3898 4.76544 -1.95815 85 88 106
-11.3987 4.8087 -1.96324 122 126 136
-11.3756 4.83671 -1.96165 129 132 138
-10.1055 7.14669 -1.99575 120 118 130
-10.0897 7.18045 -1.9975 90 89 100
-10.0579 7.22417 -1.9981 72 71 82
-10.0177 7.23775 -1.99393 77 75 89
-10.009 7.27763 -1.99754 89 86 100
-9.97822 7.32228 -1.9985 87 85 98
-9.95874 7.35325 -1.99952 87 86 98
-9.93917 7.38418 -2.00053 86 85 99
-9.91227 7.43241 -2.00261 85 87 97
-9.89241 7.46323 -2.00363 84 85 97
-8.49536 9.98673 -2.0347 72 70 71
-8.43941 10.0093 -2.03213 71 67 72
-8.41165 10.0381 -2.03343 76 69 74
-6.90984 10.5499 -1.86974 108 103 107
-6.87207 10.5606 -1.86834 108 103 107
-6.82318 10.5904 -1.86889 111 109 111
-6.193 11.4358 -1.85447 84 73 73
-6.15694 11.4532 -1.85472 88 81 78
-5.55471 12.4977 -1.86093 124 115 98
-5.51254 12.5057 -1.85996 122 110 98
-13.4635 0.962908 -1.90966 105 108 125
-13.4477 0.99953 -1.90752 101 106 125
-12.6375 1.93559 -1.88674 88 92 109
-12.6363 1.97171 -1.88769 87 93 109
-12.6357 2.0261 -1.88928 91 96 112
-11.5803 4.14259 -1.94297 143 142 150
-11.5827 4.18122 -1.94621 135 133 146
-11.5656 4.23065 -1.9468 84 83 99
-11.555 4.26407 -1.94744 93 94 114
-11.5497 4.29976 -1.94919 95 98 117
-11.5245 4.32701 -1.94686 93 96 113
-11.5193 4.38168 -1.95005 94 96 108
-11.5082 4.41501 -1.95069 94 96 109
-11.497 4.44833 -1.95133 94 96 109
-9.86507 7.48754 -2.00279 84 85 99
-9.84798 7.52084 -2.00455 85 85 99
-9.81444 7.56357 -2.00515 87 84 100
-9.78679 7.58761 -2.00431 86 83 100
-9.76493 7.61681 -2.00496 79 79 93
-9.73382 7.66184 -2.0063 67 67 80
-9.70155 7.68162 -2.00435 73 76 88
-9.6837 7.71459 -2.00611 97 104 113
-8.37133 10.0491 -2.0309 83 70 69
-8.32307 10.0823 -2.03076 101 90 91
-8.29277 10.1076 -2.03137 96 84 86
-8.2468 10.11 -2.0271 98 88 92
-6.79268 10.6148 -1.87013 104 102 104
-6.75205 10.6199 -1.86774 104 102 103
-6.0982 11.4672 -1.85303 110 109 103
-6.06584 11.4933 -1.85485 105 103 99
-5.45195 12.524 -1.85956 118 108 99
-5.40911 12.5298 -1.8583 122 110 99
-13.4883 0.907956 -1.9132 102 105 122
-12.6664 1.81363 -1.8882 95 100 118
-12.7239 1.85956 -1.89971 94 97 114
-12.6405 1.89983 -1.88615 90 91 109
-11.6544 3.87311 -1.93711 125 124 132
-11.6394 3.90457 -1.93663 137 136 144
-11.639 3.94161 -1.93913 140 139 149
-11.6286 3.99334 -1.94083 147 144 155
-11.6206 4.02758 -1.94185 139 137 148
-11.6161 4.06326 -1.9436 138 136 147
-11.5942 4.1106 -1.94307 135 133 144
-9.64919 7.75663 -2.00671 107 108 120
-9.62817 7.78682 -2.00772 124 126 133
-9.60848 7.81829 -2.00911 125 124 131
-9.56633 7.85326 -2.00786 116 114 120
-9.53786 7.87645 -2.00703 112 111 116
-9.51925 7.90908 -2.00878 112 112 116
-9.49627 7.93757 -2.00943 113 113 115
-9.45082 7.96922 -2.00744 113 113 115
-8.19604 10.1394 -2.02627 98 87 91
-8.17212 10.1741 -2.02897 99 82 90
-8.1382 10.194 -2.02853 99 82 91
-8.08026 10.1778 -2.02044 103 86 92
-6.70284 10.6491 -1.86829 112 106 108
-6.664 10.6574 -1.86656 123 114 115
-6.6216 10.6585 -1.8635 123 114 111
-6.0258 11.5012 -1.85352 107 103 99
-5.96992 11.5218 -1.85309 107 103 102
-5.38071 12.5787 -1.8639 122 111 98
-12.6882 1.69043 -1.8886 99 102 117
-12.6801 1.72535 -1.88813 100 103 120
-12.6807 1.77971 -1.88972 101 104 121
-11.7312 3.64303 -1.93561 85 93 106
-11.73 3.67935 -1.93773 88 94 108
-11.7282 3.73391 -1.94093 87 91 105
-11.7045 3.76226 -1.93859 87 90 107
-11.701 3.79796 -1.94034 89 92 109
-11.7654 3.85895 -1.95587 161 158 169
-9.42203 7.99202 -2.00661 116 111 117
-9.40295 8.0244 -2.00837 121 116 122
-9.36827 8.06665 -2.00934 129 126 133
-9.33921 8.08917 -2.00851 119 116 125
-9.31145 8.11299 -2.00805 88 85 96
-9.28318 8.16188 -2.01087 72 69 79
-8.04222 10.2261 -2.02379 104 91 97
-8.00492 10.2406 -2.02231 101 87 95
-7.96866 10.2567 -2.02118 104 89 97
-6.57393 10.6907 -1.86471 120 111 108
-6.53944 10.7074 -1.86464 118 108 105
-5.93653 11.5458 -1.8546 111 106 104
-5.89493 11.5496 -1.85264 105 102 97
-5.31795 12.5907 -1.8626 122 109 98
-5.27558 12.598 -1.86164 122 109 100
-12.695 1.56508 -1.88653 100 103 120
-12.6964 1.61936 -1.88812 96 104 117
-12.6924 1.6549 -1.88836 101 104 119
-11.7857 3.44242 -1.93288 87 93 107
-11.7759 3.49373 -1.93422 89 91 106
-11.7752 3.53002 -1.93635 87 89 104
-11.7539 3.55936 -1.93438 89 90 108
-11.7472 3.61189 -1.93646 85 91 105
-9.24289 8.17285 -2.00708 68 66 79
-9.22445 8.20624 -2.00921 70 68 82
-9.1793 8.23784 -2.00759 83 82 96
-9.1457 8.25545 -2.00565 85 83 97
-9.1269 8.28863 -2.00778 85 83 96
-9.1174 8.33181 -2.0125 82 82 95
-7.89712 10.2533 -2.01374 102 89 97
-7.8524 10.2558 -2.00983 104 91 97
-7.80246 10.2497 -2.00418 104 93 99
-6.50575 10.7257 -1.86489 121 112 106
-6.4508 10.7432 -1.86346 105 94 88
-5.84103 11.5751 -1.85316 106 101 97
-5.80088 11.5822 -1.85183 105 102 97
-5.24353 12.6371 -1.86575 126 113 103
-5.19507 12.6253 -1.86181 128 116 102
-12.7044 1.4943 -1.8864 98 103 118
-12.7008 1.52983 -1.88664 97 99 116
-11.8066 3.2139 -1.92314 71 73 93
-11.7788 3.24124 -1.91968 74 79 96
-11.768 3.32784 -1.92277 87 95 111
-11.8033 3.37542 -1.93198 88 96 112
-11.788 3.40679 -1.93113 85 93 106
-9.07577 8.36715 -2.01199 83 84 96
-9.05386 8.39733 -2.01338 85 84 97
-9.0292 8.42456 -2.01403 85 83 96
-8.99112 8.46385 -2.01464 86 84 97
-8.97148 8.49674 -2.01676 86 83 97
-7.74492 10.267 -2.00127 104 93 99
-7.68995 10.2521 -1.99388 104 93 97
-7.6455 10.2538 -1.98997 104 93 97
-7.585 10.2651 -1.98602 106 96 97
-6.41186 10.7506 -1.86173 106 97 92
-6.37291 10.7579 -1.86 98 89 83
-6.33904 10.7757 -1.86026 98 88 79
-5.76287 11.5947 -1.85144 102 99 92
-5.13691 12.6516 -1.8629 124 113 97
-5.09268 12.6526 -1.86105 127 118 98
-12.7247 1.371 -1.88715 98 97 113
-12.7233 1.40682 -1.88774 100 101 117
-12.7219 1.44265 -1.88833 99 103 117
-11.8302 3.0063 -1.91594 86 88 108
-11.8236 3.04005 -1.91658 78 80 101
-11.8195 3.09234 -1.91866 80 81 101
-11.8183 3.12778 -1.92042 79 77 97
-11.8244 3.16552 -1.92367 72 70 92
-8.93462 8.51062 -2.01409 85 83 97
-8.90002 8.55389 -2.0158 82 81 98
-8.87349 8.57924 -2.01608 73 72 89
-8.84947 8.60746 -2.01711 68 67 82
-7.53963 10.2647 -1.98176 106 96 97
-7.48518 10.2489 -1.97438 106 94 99
-7.441 10.2498 -1.97047 106 94 100
-7.3828 10.2634 -1.96722 106 94 97
-6.28814 10.8013 -1.86048 93 80 67
-6.26244 10.8368 -1.86405 98 85 68
-5.708 11.6178 -1.85165 104 101 100
-5.66568 11.619 -1.84938 104 100 97
-5.62549 11.6255 -1.84805 101 98 93
-5.0514 12.6629 -1.86069 125 117 96
-11.8407 2.885 -1.91146 83 87 102
-11.8439 2.92138 -1.91396 77 80 94
-11.8367 2.97255 -1.9153 84 84 98
-8.81046 8.64598 -2.01771 70 69 85
-8.77718 8.66364 -2.01615 77 74 92
-8.75157 8.69012 -2.0168 101 101 111
-8.71979 8.73719 -2.01962 121 122 128
-8.68883 8.75752 -2.0188 116 117 121
-7.33871 10.2639 -1.96331 108 96 101
-7.28874 10.254 -1.95732 111 99 100
-7.23067 10.2668 -1.95407 98 86 97
-6.22334 10.8435 -1.86232 103 87 72
-6.16722 10.8579 -1.86055 102 89 80
-5.57046 11.648 -1.84826 105 101 98
-5.00098 12.715 -1.86595 127 114 98
-4.9595 12.7251 -1.86559 127 114 97
-11.8781 2.70087 -1.90906 93 101 114
-11.8801 2.73662 -1.91119 92 102 114
-11.8744 2.77041 -1.91183 91 98 114
-11.8812 2.82517 -1.91577 91 97 113
-11.9357 2.8755 -1.92834 92 95 111
-10.6471 4.99628 -1.95201 120 120 128
-10.6322 5.02634 -1.9523 117 120 127
-10.6207 5.05825 -1.95337 120 120 128
-10.6091 5.09014 -1.95444 131 131 139
-10.591 5.13747 -1.95585 124 124 135
-10.5671 5.16256 -1.9542 89 89 103
-10.5602 5.19726 -1.95644 74 76 90
-10.5348 5.24053 -1.95629 91 94 109
-10.5174 5.26931 -1.95619 90 93 108
-10.5067 5.30199 -1.95765 92 94 107
-10.4825 5.34601 -1.9579 90 94 106
-10.4884 5.38866 -1.96326 87 90 104
-10.4588 5.41026 -1.96043 88 92 106
-10.4458 5.46118 -1.9634 89 92 107
-10.416 5.48256 -1.96058 90 92 107
-10.4246 5.52739 -1.96671 88 90 105
-10.388 5.54451 -1.96233 89 91 106
-10.3809 5.59946 -1.96686 89 92 107
-10.3508 5.62048 -1.96404 90 93 108
-10.3372 5.65185 -1.96511 90 92 107
-10.3047 5.69095 -1.96379 84 86 101
-10.3024 5.72965 -1.96759 79 81 94
-10.2671 5.74707 -1.9636 92 91 105
-10.262 5.80405 -1.96891 124 126 133
-10.2265 5.82122 -1.96492 126 126 134
-10.2285 5.86317 -1.96988 118 119 124
-10.2076 5.88995 -1.9694 118 117 122
-10.1708 5.92614 -1.96731 117 117 119
-10.148 5.95162 -1.96643 118 117 123
-10.1397 5.98699 -1.96906 121 119 130
-10.109 6.02724 -1.96853 113 111 122
-10.0907 6.05586 -1.96882 111 110 118
-10.0725 6.08442 -1.96912 119 118 127
-10.0396 6.12322 -1.9682 116 114 125
-10.0227 6.15278 -1.96888 96 94 108
-10.0088 6.18459 -1.97034 74 72 86
-9.98192 6.22766 -1.97098 88 87 103
-9.95513 6.25016 -1.96933 90 90 106
-9.95197 6.28995 -1.97351 84 87 102
-9.92974 6.31581 -1.97303 84 90 102
-9.91472 6.36795 -1.97678 85 90 101
-9.88757 6.39015 -1.97513 88 89 103
-9.87285 6.42171 -1.97659 87 89 102
-8.66288 8.78376 -2.01945 120 120 123
-8.64064 8.81445 -2.02121 113 112 116
-8.59179 8.84149 -2.01923 107 108 110
-8.56056 8.86139 -2.01841 108 106 109
-7.18874 10.2701 -1.95086 103 92 101
-7.14296 10.2664 -1.94626 103 94 102
-7.07824 10.2665 -1.94058 91 85 89
-6.13706 10.884 -1.86247 87 74 72
-6.10678 10.9101 -1.86438 95 80 72
-5.53159 11.6579 -1.84756 122 118 117
-5.49473 11.6733 -1.84781 127 123 122
-4.9208 12.7445 -1.86672 127 111 96
-11.8923 2.52923 -1.90361 91 99 112
-11.8927 2.58172 -1.90606 96 103 119
-11.8894 2.61596 -1.90708 91 98 114
-11.8973 2.65309 -1.91033 91 97 113
-10.8382 4.47684 -1.93881 91 94 109
-10.832 4.52903 -1.94218 92 95 110
-10.831 4.56556 -1.9452 91 94 111
-10.7982 4.58659 -1.9412 91 94 111
-10.8162 4.63267 -1.94851 90 93 111
-10.7707 4.66569 -1.94329 92 95 112
-10.7761 4.70576 -1.94787 91 91 109
-10.7482 4.72905 -1.94504 75 77 92
-10.7354 4.77854 -1.94724 115 117 130
-10.7143 4.80522 -1.94597 134 134 145
-10.7296 4.85086 -1.95289 125 125 135
-10.7542 4.92053 -1.96366 121 120 128
-10.6774 4.91775 -1.94991 122 121 128
-10.6662 4.94974 -1.95098 122 120 131
-9.8572 6.47377 -1.98034 86 88 101
-9.81579 6.48497 -1.97519 85 87 102
-9.81001 6.52358 -1.97899 87 86 102
-9.76289 6.55138 -1.97496 88 87 103
-9.76607 6.59722 -1.98109 89 88 104
-9.72447 6.60786 -1.97594 87 86 102
-9.71228 6.66325 -1.98086 81 83 98
-9.6752 6.67726 -1.97687 76 78 93
-9.67616 6.72195 -1.98261 74 77 91
-9.63592 6.73328 -1.97785 93 97 109
-9.62141 6.7873 -1.98238 110 113 121
-9.58862 6.80457 -1.97957 109 111 117
-8.52679 8.87815 -2.01684 104 104 109
-8.48762 8.91681 -2.01782 107 107 112
-8.45617 8.93637 -2.017 109 108 113
-8.4382 8.9727 -2.02024 119 117 118
-7.03552 10.2675 -1.93703 92 86 90
-6.98618 10.2563 -1.93104 92 82 89
-6.92938 10.2693 -1.92814 95 85 94
-6.8859 10.268 -1.92424 100 90 100
-6.05282 10.9293 -1.86361 95 81 73
-6.00806 10.9227 -1.85957 87 76 77
-5.45918 11.6922 -1.84869 107 101 103
-5.40048 11.7046 -1.84732 102 96 96
-4.86082 12.7657 -1.86722 129 116 98
-4.81974 12.7772 -1.86716 130 118 99
-11.8737 2.33384 -1.8915 94 94 112
-11.9094 2.37651 -1.89998 93 97 112
-11.9202 2.41375 -1.9036 92 100 113
-11.904 2.46219 -1.9027 89 97 113
-11.903 2.49685 -1.90409 89 98 113
-10.9578 4.14918 -1.93322 133 133 145
-10.9391 4.19502 -1.93346 99 97 111
-10.9286 4.2266 -1.93414 85 84 100
-10.9215 4.25977 -1.93561 91 92 110
-10.9094 4.30872 -1.93741 94 97 112
-10.9092 4.34517 -1.94043 93 96 111
-10.8769 4.36683 -1.93643 91 97 111
-10.8678 4.41734 -1.93901 90 95 110
-10.8619 4.45131 -1.94086 92 95 110
-9.58892 6.84931 -1.98531 108 109 120
-9.53772 6.87303 -1.98051 106 106 115
-9.51822 6.90133 -1.98119 104 104 113
-9.49713 6.92831 -1.98149 104 104 115
-9.46354 6.96675 -1.98135 102 100 110
-9.44224 6.99358 -1.98165 102 100 110
-9.42527 7.0242 -1.98311 102 100 110
-9.38978 7.06102 -1.98259 116 113 123
-9.3711 7.09023 -1.98366 126 123 132
-9.34938 7.1168 -1.98396 115 113 120
-9.32906 7.14461 -1.98465 88 86 98
-8.3851 8.99405 -2.01715 119 118 120
-8.35709 9.0179 -2.01744 123 121 124
-8.33144 9.04477 -2.01846 121 119 124
-8.28656 9.07639 -2.01797 93 90 96
-6.84063 10.263 -1.91965 95 88 95
-6.79636 10.2597 -1.9154 103 97 101
-6.73882 10.2699 -1.91216 123 118 122
-5.97361 10.9394 -1.85983 87 79 83
-5.918 10.9543 -1.8584 87 78 79
-5.36477 11.7233 -1.84821 111 102 103
-5.33158 11.7493 -1.85035 114 104 105
-4.7738 12.7714 -1.86441 129 117 97
-11.909 2.22068 -1.89336 89 90 105
-11.045 3.89926 -1.92972 126 124 135
-11.013 3.93946 -1.92684 127 125 136
-11.0124 3.97493 -1.92948 132 130 141
-11.0044 4.00741 -1.93055 130 129 137
-10.9846 4.05267 -1.9304 122 122 133
-10.9764 4.0851 -1.93147 125 123 134
-10.9698 4.11832 -1.93293 127 126 134
-9.29589 7.1836 -1.9849 81 79 91
-9.26953 7.20599 -1.98403 73 71 84
-9.25322 7.23757 -1.98589 82 80 93
-9.21241 7.26957 -1.9842 87 86 100
-9.19297 7.29835 -1.98527 88 87 101
-9.1806 7.33379 -1.98829 87 86 100
-9.13085 7.35732 -1.98427 86 85 99
-8.26188 9.10462 -2.01936 102 97 101
-8.23351 9.12812 -2.01964 76 71 78
-8.20267 9.14839 -2.01919 71 68 79
-8.1526 9.17313 -2.01722 81 78 88
-6.69562 10.2679 -1.90826 112 110 114
-6.6534 10.2675 -1.90471 120 118 121
-5.88267 10.969 -1.85833 82 76 80
-5.84268 10.9726 -1.85628 94 90 87
-5.27398 11.7649 -1.84962 119 111 109
-5.23294 11.7683 -1.84798 114 106 104
-4.7073 12.7692 -1.86133 130 118 95
-4.6678 12.7859 -1.86217 128 119 104
-11.9255 2.06922 -1.89047 88 91 104
-11.922 2.10287 -1.89111 78 84 95
-11.926 2.13808 -1.89324 79 81 95
-11.9168 2.18781 -1.89346 78 77 93
-11.1021 3.69156 -1.92491 89 95 110
-11.0933 3.72344 -1.92559 85 93 106
-11.1007 3.76173 -1.92979 77 84 98
-11.088 3.79219 -1.92968 74 76 90
-11.0619 3.83491 -1.92797 139 139 152
-11.0744 3.87553 -1.93334 123 121 132
-9.1338 7.40752 -1.99157 88 86 100
-9.09549 7.4185 -1.98759 88 86 100
-9.07789 7.47282 -1.99251 86 84 99
-9.03526 7.47942 -1.98737 88 86 100
-9.02349 7.516 -1.99078 86 85 101
-8.9906 7.53195 -1.98836 88 87 101
-8.12754 9.20103 -2.01861 86 80 92
-8.0918 9.21466 -2.01669 92 86 98
-8.04734 9.24673 -2.01656 87 84 93
-6.59419 10.2735 -1.90077 120 120 122
-6.5485 10.2657 -1.89583 119 118 120
-6.50646 10.2647 -1.89229 112 110 113
-5.81719 11.0107 -1.86051 102 97 95
-5.75757 11.0157 -1.85743 115 110 108
-5.19193 11.7715 -1.84633 112 105 102
-11.9233 1.94897 -1.8856 89 94 113
-11.9259 1.98365 -1.88736 96 98 116
-11.9245 2.01764 -1.88838 81 83 100
-11.181 3.42333 -1.92107 82 89 105
-11.1676 3.47068 -1.9217 87 93 108
-11.1521 3.5 -1.92082 83 88 101
-11.1531 3.53533 -1.92345 86 89 104
-11.141 3.58328 -1.92448 86 93 108
-11.1251 3.61249 -1.92359 86 92 108
-11.1422 3.65412 -1.92975 86 94 106
-8.97082 7.58467 -1.99289 87 85 99
-8.95303 7.61564 -1.99474 83 82 97
-8.90611 7.61737 -1.98844 77 74 91
-8.88163 7.66569 -1.9918 63 64 83
-8.85255 7.68525 -1.99055 92 94 105
-8.84388 7.72581 -1.99512 125 126 130
-8.79158 7.74573 -1.99072 125 126 130
-8.01733 9.26801 -2.01648 89 86 96
-7.99071 9.29396 -2.01751 90 84 97
-7.94701 9.32718 -2.01775 91 86 94
-7.9236 9.35774 -2.01988 92 85 96
-6.44837 10.2717 -1.8887 111 107 108
-6.40471 10.2668 -1.88446 105 100 102
-6.36111 10.2617 -1.88022 99 97 100
-5.72876 11.0463 -1.86034 110 106 108
-5.68796 11.0475 -1.85796 105 102 99
-5.14048 11.8051 -1.84876 113 109 109
-5.09941 11.808 -1.84712 113 109 110
-11.9602 1.83611 -1.88858 87 95 109
-11.9361 1.86602 -1.88511 88 93 110
-11.9302 1.91608 -1.88571 80 84 100
-11.2093 3.20822 -1.91234 85 87 99
-11.2002 3.23961 -1.91263 75 79 95
-11.1947 3.27224 -1.9137 91 95 113
-11.1855 3.35542 -1.91736 85 93 104
-11.1907 3.39195 -1.92078 84 91 106
-8.78532 7.78906 -1.99607 128 127 133
-8.74509 7.7969 -1.99171 121 119 124
-8.72352 7.84904 -1.99624 117 112 121
-8.69395 7.86803 -1.99499 116 113 123
-8.67233 7.89553 -1.99607 113 110 117
-7.89095 9.37543 -2.01906 94 84 92
-7.84911 9.41142 -2.02005 96 86 97
-7.82083 9.43531 -2.02071 94 84 93
-6.30236 10.2662 -1.87629 103 101 103
-6.26325 10.2695 -1.87378 104 104 102
-6.21988 10.2639 -1.86954 105 103 107
-5.63347 11.0647 -1.85719 103 97 93
-5.59488 11.0711 -1.8558 114 109 106
-5.06506 11.8315 -1.84895 112 108 108
-11.9785 1.71991 -1.88819 96 99 116
-11.9586 1.75071 -1.88547 101 107 123
-11.9668 1.80311 -1.88868 90 102 114
-11.2442 3.01423 -1.90707 138 136 147
-11.2413 3.04745 -1.90854 137 136 144
-11.2316 3.09552 -1.90956 139 138 146
-11.2247 3.12755 -1.91024 139 138 146
-11.2196 3.16018 -1.91132 142 142 152
-8.63864 7.91003 -1.99366 115 113 116
-8.60309 7.94743 -1.9943 114 111 114
-8.57985 7.97325 -1.99499 116 112 115
-8.55521 7.99756 -1.9953 123 119 121
-8.51658 8.03169 -1.99517 126 124 127
-7.78797 9.45266 -2.01989 99 86 96
-7.75842 9.47476 -2.02018 99 83 93
-7.71494 9.50856 -2.02079 102 85 95
-6.16302 10.2712 -1.86631 105 101 104
-6.1215 10.2687 -1.86277 104 100 103
-5.55921 11.0848 -1.85573 130 125 122
-5.50672 11.1069 -1.85596 121 116 113
-5.00537 11.8401 -1.84727 117 113 112
-4.96607 11.8482 -1.84658 117 112 109
-11.9723 1.60009 -1.88332 96 103 121
-11.9721 1.63399 -1.88434 94 103 120
-11.977 1.68564 -1.8868 104 108 126
-11.2817 2.87274 -1.90596 141 139 150
-11.2561 2.93297 -1.90459 138 137 145
-11.2432 2.97989 -1.90483 137 135 146
-10.1217 5.06304 -1.95006 119 118 126
-10.1066 5.09147 -1.95037 123 122 132
-10.1032 5.12677 -1.95352 132 133 138
-10.0815 5.16983 -1.95419 109 109 120
-10.061 5.19516 -1.95328 80 79 95
-10.0421 5.22142 -1.95278 82 82 99
-10.0316 5.27134 -1.95629 87 90 105
-10.0141 5.29852 -1.95619 88 94 108
-9.99157 5.32257 -1.95488 87 90 105
-9.97218 5.36727 -1.95637 90 92 105
-9.96438 5.40049 -1.9587 90 92 107
-9.94653 5.42747 -1.95861 89 91 106
-9.92692 5.45334 -1.95811 90 92 107
-9.90852 5.4989 -1.96 89 91 104
-9.88213 5.5204 -1.95788 89 93 105
-9.86716 5.54927 -1.95859 89 93 105
-9.84825 5.59464 -1.96048 90 92 105
-9.8363 5.62558 -1.96201 91 93 106
-9.8161 5.65109 -1.96151 91 93 108
-9.7934 5.69414 -1.96259 86 88 103
-9.77299 5.7195 -1.96209 78 80 94
-9.74927 5.7426 -1.96078 89 89 101
-9.71805 5.77985 -1.95983 117 117 127
-9.70542 5.81054 -1.96136 122 121 131
-9.69108 5.8401 -1.96248 117 116 124
-9.66864 5.864 -1.96158 120 119 127
-9.63848 5.90197 -1.96104 120 119 126
-8.48784 8.05142 -1.99431 125 123 128
-8.46813 8.08133 -1.99617 118 115 122
-8.42781 8.11359 -1.99565 87 83 95
-8.40528 8.14041 -1.99673 75 69 84
-8.3788 8.16273 -1.99665 72 69 81
-7.6863 9.53207 -2.02145 101 84 94
-7.65209 9.54735 -2.02027 102 86 95
-7.60932 9.58232 -2.02125 100 84 91
-6.08421 10.275 -1.86096 104 102 103
-6.04444 10.2759 -1.85811 107 105 110
-5.48008 11.1442 -1.86019 107 101 101
-5.43086 11.1225 -1.85385 109 103 103
-4.92971 11.8656 -1.84746 114 109 106
-4.88803 11.866 -1.84551 111 106 103
-11.9843 1.51725 -1.88321 98 105 121
-11.9956 1.56965 -1.88679 93 100 116
-11.3059 2.72772 -1.9025 91 96 116
-11.2794 2.75397 -1.89888 92 97 116
-11.2755 2.78655 -1.89995 90 92 110
-11.2809 2.82186 -1.90298 93 92 105
-11.36 2.93003 -1.92424 139 137 146
-10.3816 4.44098 -1.93582 92 95 110
-10.3667 4.48678 -1.93731 91 94 108
-10.3395 4.50882 -1.93437 92 96 108
-10.3418 4.54573 -1.93833 88 94 106
-10.3232 4.57206 -1.93742 89 93 108
-10.3094 4.61859 -1.93931 93 95 110
-10.3009 4.65021 -1.94084 94 96 111
-10.2941 4.68272 -1.94277 92 93 111
-10.2711 4.72465 -1.94263 84 87 104
-10.2571 4.75346 -1.94294 73 79 92
-10.2412 4.78131 -1.94284 107 111 123
-10.2229 4.8258 -1.94392 125 125 133
-10.212 4.85637 -1.94504 121 121 127
-10.2044 4.88881 -1.94697 121 120 126
-10.1787 4.92938 -1.94643 122 121 129
-10.1794 4.96658 -1.95039 120 120 130
-10.1544 4.98938 -1.94826 119 119 127
-10.1463 5.02177 -1.9502 119 119 127
-9.62222 5.93024 -1.96176 119 118 123
-9.60905 5.96075 -1.96329 117 116 121
-9.58001 5.99959 -1.96315 121 120 125
-9.56026 6.0254 -1.96306 118 117 122
-9.5436 6.05348 -1.96378 114 111 117
-9.52197 6.09785 -1.96566 120 117 126
-9.50034 6.12232 -1.96517 122 120 129
-9.48022 6.1479 -1.96508 113 112 121
-9.4678 6.17932 -1.96701 88 86 97
-9.43929 6.2187 -1.96728 79 77 90
-9.41576 6.24171 -1.96638 87 84 101
-9.39989 6.27062 -1.9675 88 88 104
-9.36939 6.30851 -1.96737 89 88 104
-9.3579 6.34096 -1.96971 89 88 104
-9.34169 6.36975 -1.97083 87 89 104
-9.30156 6.40003 -1.96827 86 88 101
-8.34066 8.19754 -1.99691 74 74 86
-8.314 8.21966 -1.99683 83 82 98
-8.28601 8.2402 -1.99635 86 85 98
-8.26175 8.26516 -1.99705 86 85 98
-7.57499 9.59734 -2.02007 102 85 94
-7.54496 9.61881 -2.02036 102 86 96
-7.49859 9.64838 -2.02024 100 88 92
-5.98776 10.2822 -1.85488 103 101 104
-5.95135 10.2899 -1.85342 108 103 108
-5.91412 10.2956 -1.85162 107 104 107
-5.3837 11.1587 -1.85672 112 107 108
-4.83345 11.8907 -1.84668 112 108 108
-12.0066 1.41883 -1.88464 99 105 121
-11.9993 1.45166 -1.88416 97 103 119
-11.9996 1.48555 -1.88518 93 96 113
-11.3319 2.56713 -1.89908 89 95 111
-11.2981 2.60822 -1.89463 92 96 113
-11.3155 2.64641 -1.90001 94 97 114
-11.31 2.67851 -1.90069 92 95 112
-10.5071 4.09658 -1.9284 125 123 134
-10.4922 4.14187 -1.92948 129 127 139
-10.4819 4.17205 -1.93019 134 132 143
-10.4679 4.20056 -1.9301 106 104 118
-10.4555 4.22986 -1.9304 83 81 102
-10.4524 4.28083 -1.93432 96 95 111
-10.4309 4.30591 -1.9326 95 94 112
-10.4271 4.33933 -1.93494 96 97 114
-10.4092 4.38356 -1.93561 94 96 109
-10.3946 4.41186 -1.93551 94 96 109
-9.29428 6.43606 -1.97182 87 91 103
-9.26707 6.45608 -1.97011 86 89 103
-9.24176 6.49832 -1.9716 86 89 102
-9.21894 6.52187 -1.9711 86 89 101
-9.20809 6.55534 -1.97385 85 86 100
-9.18359 6.57752 -1.97295 87 86 103
-9.15315 6.61568 -1.97322 87 88 102
-9.1255 6.63514 -1.97151 85 87 101
-9.11565 6.66975 -1.97466 80 80 95
-9.08922 6.71145 -1.97615 77 81 94
-8.21683 8.29192 -1.99537 85 84 98
-8.2036 8.33028 -1.99956 85 83 94
-8.1778 8.35349 -1.99986 85 83 96
-8.12264 8.36765 -1.99508 84 82 96
-7.47263 9.67624 -2.02201 103 88 94
-7.44125 9.69575 -2.02193 102 87 93
-7.39452 9.72485 -2.02181 101 86 91
-5.85993 10.3067 -1.84943 102 100 104
-5.82667 10.3211 -1.84936 103 101 106
-5.34292 11.1588 -1.85434 110 106 107
-5.31307 11.1883 -1.85725 107 103 104
-4.79066 11.887 -1.84409 110 107 108
-4.75184 11.8963 -1.84372 110 106 103
-12.0191 1.33603 -1.88489 93 100 119
-12.014 1.36916 -1.88479 87 94 113
-11.341 2.38625 -1.89181 91 93 111
-11.3364 2.41832 -1.89249 92 95 114
-11.3298 2.44992 -1.89278 93 96 115
-11.3458 2.50385 -1.8985 92 98 112
-11.3275 2.53254 -1.89645 92 99 112
-10.5845 3.82026 -1.91993 134 134 143
-10.5825 3.8536 -1.92227 129 127 138
-10.5821 3.88773 -1.92501 125 123 134
-10.561 3.93016 -1.92446 127 125 136
-10.555 3.96201 -1.92599 126 124 135
-10.5434 3.99152 -1.9263 128 128 138
-10.5272 4.03613 -1.92697 126 126 134
-10.5119 4.06398 -1.92647 126 125 133
-9.06131 6.73066 -1.97444 78 81 96
-9.04516 6.76005 -1.97597 88 90 104
-9.01237 6.79632 -1.97584 107 109 119
-8.98867 6.81912 -1.97535 112 114 120
-8.9751 6.85096 -1.97769 108 109 118
-8.93751 6.88299 -1.97634 107 106 116
-8.91933 6.9108 -1.97747 106 104 116
-8.89961 6.93725 -1.97819 104 104 116
-8.10899 8.40587 -1.99927 84 83 97
-8.07433 8.41811 -1.99686 86 84 98
-8.04956 8.46999 -2.00178 86 84 97
-8.00503 8.46968 -1.99627 87 85 98
-7.36194 9.74246 -2.02137 96 84 88
-7.33348 9.76664 -2.0224 97 85 89
-7.3008 9.78406 -2.02195 101 84 90
-5.79575 10.3408 -1.85034 108 103 107
-5.74536 10.3603 -1.84988 110 105 104
-5.28172 11.2141 -1.8595 115 111 110
-5.21992 11.2108 -1.85544 114 109 106
-4.69483 11.9129 -1.84362 113 108 106
-12.017 1.1842 -1.88087 98 105 124
-12.0105 1.2171 -1.8804 95 102 121
-12.0213 1.25201 -1.88328 94 101 120
-11.339 2.2371 -1.88443 100 105 114
-11.3177 2.26511 -1.88159 82 87 101
-11.3208 2.34821 -1.88604 92 98 112
-10.6745 3.58489 -1.91867 79 82 99
-10.6495 3.60901 -1.91572 82 85 102
-10.6446 3.64088 -1.91725 85 86 104
-10.6556 3.69591 -1.92361 87 90 107
-10.6213 3.7162 -1.91864 89 93 110
-10.6015 3.74219 -1.91691 87 91 108
-10.6015 3.77623 -1.91966 78 81 97
-8.87837 6.96233 -1.97851 107 106 117
-8.84317 6.99651 -1.97797 105 104 115
-8.82172 7.02143 -1.97829 107 106 116
-8.79449 7.04093 -1.97699 109 109 115
-8.7703 7.08548 -1.97969 120 119 126
-8.75138 7.11289 -1.98082 121 119 126
-8.72391 7.13213 -1.97952 106 103 112
-7.99447 8.51236 -2.00162 86 84 97
-7.94016 8.5269 -1.99723 82 80 94
-7.91846 8.55555 -1.99909 78 76 91
-7.88591 8.57016 -1.99746 77 75 91
-7.2526 9.81084 -2.02146 121 107 103
-7.21978 9.828 -2.02102 113 102 95
-5.70807 10.3653 -1.84808 104 102 104
-5.67617 10.3829 -1.84871 106 104 107
-5.18511 11.227 -1.85603 110 104 105
-5.14891 11.2394 -1.85597 111 104 106
-4.65596 11.9219 -1.84325 113 107 106
-4.61543 11.9252 -1.84192 112 107 103
-12.0278 1.10138 -1.88113 99 106 124
-12.0234 1.13451 -1.88102 100 106 125
-11.3541 2.12551 -1.88243 138 136 142
-11.3446 2.15625 -1.88193 142 137 141
-11.3541 2.19124 -1.88536 139 139 141
-10.7157 3.36578 -1.9104 86 93 106
-10.7134 3.39832 -1.91233 83 89 103
-10.7018 3.42751 -1.91224 88 90 105
-10.6866 3.47191 -1.9125 87 86 103
