12.4805 -3.85932 -1.74258 105 105 113
12.6237 -5.79986 -1.74136 82 76 91
12.6426 -5.85758 -1.74673 74 70 82
12.024 5.37761 -1.78166 56 67 85
11.9248 3.64431 -1.75185 57 64 80
11.9198 3.57773 -1.74825 56 63 79
11.9318 3.53759 -1.7482 57 67 79
12.4193 -2.13267 -1.75566 71 63 60
12.4631 -3.92136 -1.74258 99 98 106
12.4573 -3.96438 -1.74343 101 100 109
12.4438 -4.0051 -1.74316 103 106 112
12.4585 -5.84977 -1.72346 79 73 77
12.3399 -5.8453 -1.70849 88 82 84
11.8644 3.77951 -1.74938 53 59 75
11.9114 3.7278 -1.7537 59 65 81
11.8972 3.68007 -1.74955 59 65 79
36.0171 -6.5138 -5.11475 45 55 82
36.0169 -6.63279 -5.11758 55 53 78
12.4358 -4.0475 -1.74373 98 98 103
12.4081 -4.10637 -1.74232 96 94 105
12.4092 -4.15165 -1.74431 63 63 75
12.2305 -5.84424 -1.69486 86 79 86
11.8233 3.96415 -1.75224 76 85 102
11.8347 3.92373 -1.7519 81 86 105
11.8482 3.86219 -1.75094 85 90 107
46.4367 -8.20177 -6.62406 65 54 66
36.029 -6.81387 -5.12376 45 47 75
36.086 -6.94399 -5.13507 36 46 78
12.382 -4.18798 -1.74206 63 62 76
12.3762 -4.25378 -1.74404 64 66 78
11.7859 4.10634 -1.75389 79 86 102
11.7902 4.06359 -1.75237 82 89 105
11.8043 4.00218 -1.75141 84 91 107
12.318 -2.75103 -1.75588 103 102 108
12.2851 -2.78659 -1.75207 103 101 106
12.3637 -4.29479 -1.74405 66 68 80
12.3398 -4.33204 -1.74236 74 73 87
11.7506 4.24947 -1.75612 49 57 75
11.76 4.1863 -1.75428 84 93 107
11.7665 4.14419 -1.75306 78 86 102
12.2598 -2.82367 -1.74944 94 93 98
12.2299 -2.88098 -1.74679 91 90 96
12.2217 -2.92169 -1.74679 92 91 96
12.1941 -2.95792 -1.74386 89 88 95
12.3351 -4.3984 -1.74463 68 70 82
12.2922 -4.42911 -1.74012 74 77 89
11.723 4.39562 -1.75983 59 67 88
11.7407 4.33499 -1.75916 59 68 85
11.7569 4.29602 -1.7594 61 70 88
12.156 -3.01289 -1.74005 98 97 102
12.1666 -3.05795 -1.74298 99 97 108
12.1329 -3.09239 -1.73917 106 106 118
12.3034 -4.47819 -1.7438 76 78 91
12.3014 -4.52284 -1.74551 78 80 93
11.7102 4.48053 -1.76258 56 68 84
11.7213 4.4397 -1.76194 56 67 87
12.121 -3.15343 -1.73946 60 57 69
12.1369 -3.20003 -1.74327 67 65 78
12.0874 -3.2302 -1.73712 70 70 80
12.2473 -4.57215 -1.74043 76 78 92
12.2431 -4.61604 -1.74185 71 77 89
12.2295 -4.65661 -1.74186 61 68 79
11.6688 4.62256 -1.76453 55 67 85
11.6581 4.57372 -1.76037 57 69 85
11.6733 4.53436 -1.76032 58 69 89
12.1107 -3.27881 -1.74211 71 70 80
12.2213 -4.72211 -1.74385 108 108 121
12.2055 -4.76192 -1.74358 97 97 109
11.624 4.76357 -1.7662 56 64 83
11.6194 4.71667 -1.76291 58 68 85
11.6534 4.6619 -1.76459 59 68 85
12.0823 -3.42126 -1.74299 72 72 80
12.1914 -4.80236 -1.74359 94 94 106
11.5864 4.86222 -1.76664 82 93 110
11.6118 4.80419 -1.76684 48 56 77
12.0512 -3.52011 -1.74211 77 74 85
12.0086 -3.55111 -1.73714 75 74 85
12.1806 -4.86712 -1.7453 97 93 105
12.181 -4.91309 -1.74757 91 90 102
12.1535 -4.94849 -1.74561 92 96 105
11.5576 4.94182 -1.76733 76 85 102
11.5629 4.89844 -1.76552 75 86 104
11.5067 1.30843 -1.72312 81 84 103
11.4939 1.26807 -1.72041 78 77 92
11.544 1.23425 -1.72725 106 109 124
11.5368 1.17499 -1.72511 104 107 123
11.5452 1.13677 -1.72568 110 111 129
11.5437 1.09763 -1.72476 105 110 126
11.5657 1.06059 -1.72742 107 113 129
11.5655 1.0021 -1.72648 105 114 129
11.5774 0.96407 -1.72765 102 109 125
11.5773 0.925072 -1.72703 104 110 126
11.5824 0.86703 -1.72699 83 89 105
11.6175 0.732986 -1.73048 65 66 86
11.6088 0.693493 -1.72867 81 84 101
11.6118 0.654708 -1.72865 70 75 95
11.6274 0.597135 -1.73039 83 84 106
11.6282 0.558214 -1.73008 74 75 94
11.6248 0.519126 -1.72916 72 75 92
11.6312 0.480475 -1.72974 75 77 98
11.6283 0.422015 -1.7288 72 73 93
11.6423 0.38359 -1.73057 69 71 86
11.6384 0.344554 -1.72966 78 83 103
11.6368 0.28619 -1.72902 73 82 100
11.6919 0.248533 -1.73706 83 92 107
11.6204 0.208144 -1.726 102 108 122
11.6241 0.150008 -1.72626 93 96 113
11.6313 0.111289 -1.72714 96 97 117
11.6265 0.0724371 -1.72623 112 115 130
11.6296 0.0336599 -1.72651 112 115 130
11.6344 -0.0245274 -1.72707 109 110 131
11.6371 -0.0633387 -1.72735 106 107 127
11.6338 -0.102125 -1.72674 111 112 132
12.0003 -3.61321 -1.73831 71 69 83
11.9898 -3.65314 -1.73831 72 70 83
11.9848 -3.6947 -1.7392 86 84 96
12.1351 -4.98732 -1.74506 96 99 109
11.511 5.08262 -1.7693 76 83 101
11.5241 5.04221 -1.76866 76 85 100
11.5389 5.00252 -1.76831 74 83 100
11.4582 1.75244 -1.72586 66 73 91
11.4469 1.71155 -1.72314 70 73 90
11.4492 1.67267 -1.72252 72 74 94
11.4735 1.61725 -1.72485 74 76 91
11.454 1.57549 -1.72094 63 65 86
11.4637 1.53764 -1.72151 75 79 95
11.4674 1.49902 -1.72119 69 74 93
11.4791 1.4419 -1.72173 78 81 98
11.4844 1.40348 -1.72171 67 74 92
11.4917 1.36527 -1.72198 81 83 98
11.6459 -0.160449 -1.72849 65 68 89
11.6346 -0.23791 -1.72667 77 78 98
11.6737 -0.296962 -1.73261 71 68 85
11.6657 -0.335676 -1.7314 84 83 97
11.6792 -0.37495 -1.73347 68 67 81
11.673 -0.413688 -1.73256 76 74 94
11.6875 -0.472608 -1.73492 81 83 100
11.6948 -0.511863 -1.7361 70 72 87
11.692 -0.550744 -1.73579 79 79 97
11.9493 -3.74885 -1.73627 93 93 98
11.9232 -3.78404 -1.73393 93 92 98
11.8782 -3.81333 -1.72867 101 98 105
12.1216 -5.05122 -1.74648 105 109 120
12.0827 -5.0819 -1.74282 95 96 110
12.0896 -5.13074 -1.74623 60 61 81
11.4047 2.0786 -1.72674 95 98 113
11.4075 2.01993 -1.72549 96 98 111
11.4186 1.98234 -1.72606 97 99 112
11.4217 1.94343 -1.72543 97 99 112
11.4277 1.8854 -1.72478 98 100 113
11.4462 1.84891 -1.72654 101 103 118
11.698 -0.609542 -1.73695 71 70 88
11.6871 -0.648015 -1.73545 77 74 94
11.7056 -0.688002 -1.73842 77 74 94
11.7898 -0.751526 -1.75151 112 109 126
11.6877 -0.784609 -1.73629 119 121 130
11.7019 -0.824553 -1.73866 112 110 125
11.7105 -0.883818 -1.74043 99 100 112
11.7381 -0.92495 -1.74489 99 101 114
36.1567 -6.44518 -5.33124 83 76 83
36.0108 -6.53855 -5.3122 63 57 69
11.8746 -3.85519 -1.72985 101 98 105
11.8874 -3.92391 -1.73453 102 101 107
12.0625 -5.1893 -1.74567 68 71 90
11.3486 2.32547 -1.72607 66 73 92
11.347 2.28554 -1.72455 61 68 86
11.3744 2.25112 -1.7275 47 50 69
11.378 2.19247 -1.72625 97 96 112
11.3916 2.15536 -1.72711 95 97 112
11.3953 2.11646 -1.72648 93 99 113
11.7459 -0.96477 -1.74637 117 116 129
11.7574 -1.00495 -1.74845 118 116 129
11.781 -1.06595 -1.7526 117 115 128
11.7804 -1.10532 -1.75289 115 113 127
11.7974 -1.14628 -1.75586 69 66 83
11.7751 -1.20348 -1.75315 75 75 93
36.0668 -6.66783 -5.32363 65 62 79
36.0496 -6.84383 -5.32565 56 53 74
36.0249 -6.95869 -5.32506 56 54 74
11.8439 -3.9533 -1.72956 102 101 107
11.8436 -3.99633 -1.73133 100 100 110
12.0416 -5.22702 -1.74484 71 71 88
12.0297 -5.26842 -1.74542 65 70 82
11.3625 2.60727 -1.73768 65 70 89
11.3561 2.56583 -1.73526 63 69 85
11.3302 2.52038 -1.72984 70 73 92
11.3409 2.46294 -1.72949 66 72 94
11.3359 2.42213 -1.72736 72 77 93
11.3385 2.38293 -1.72643 70 70 92
11.8232 -1.24765 -1.7609 79 78 92
11.8063 -1.28559 -1.7588 79 79 103
11.8207 -1.34656 -1.76176 68 70 85
11.8114 -1.38523 -1.76086 80 81 100
11.8078 -1.42451 -1.76085 84 84 106
36.0135 -7.07608 -5.32653 69 63 63
35.9943 -7.25195 -5.32856 66 66 63
11.8125 -4.05114 -1.72928 109 109 121
11.8306 -4.10033 -1.73397 62 59 76
11.8036 -4.1347 -1.73164 69 72 89
12.0166 -5.33275 -1.74713 67 69 84
11.9916 -5.36871 -1.74573 69 74 87
11.3304 2.74056 -1.73782 74 75 96
11.3399 2.70251 -1.73778 73 76 95
11.3592 2.64667 -1.73861 70 75 94
11.81 -1.46445 -1.76174 81 79 93
11.8098 -1.52406 -1.76262 75 73 91
11.7901 -1.56139 -1.76022 88 84 100
11.7977 -1.60208 -1.76201 91 88 95
11.7733 -1.65859 -1.7593 87 82 85
11.7475 -4.18092 -1.72578 66 68 83
11.9665 -5.40456 -1.74433 64 72 86
11.9667 -5.45122 -1.7469 69 75 90
11.2856 2.97161 -1.74015 91 94 111
11.2869 2.91144 -1.73799 92 101 113
11.3007 2.87444 -1.73855 95 102 118
11.7839 -1.73956 -1.76228 109 100 94
11.7745 -1.79803 -1.76196 86 78 67
11.7814 -1.83887 -1.76374 84 75 66
11.8025 -4.243 -1.73634 66 65 79
11.7769 -4.27775 -1.7343 70 74 86
11.7625 -4.31627 -1.73402 66 68 81
11.9418 -5.51065 -1.74691 75 80 93
11.2751 3.15147 -1.74601 88 94 110
11.2773 3.09113 -1.74385 87 96 111
11.2821 3.05176 -1.74292 86 93 109
11.283 3.01143 -1.74138 87 94 110
11.7686 -1.87687 -1.76255 83 76 60
11.7557 -1.91479 -1.76135 79 71 59
11.7689 -1.97676 -1.76461 80 72 61
11.7518 -2.014 -1.76282 86 78 67
11.7448 -4.3756 -1.73431 65 70 89
11.7468 -4.41999 -1.73667 70 73 92
11.929 -5.5518 -1.74749 73 81 94
11.8853 -5.5793 -1.74327 73 79 94
11.2334 3.32376 -1.7474 58 60 81
11.2713 3.29333 -1.75154 62 67 85
11.2628 3.22976 -1.74759 94 101 120
11.2566 3.1873 -1.74486 83 88 107
11.7443 -2.05273 -1.76252 79 69 67
11.7178 -2.10832 -1.75982 78 71 77
11.7101 -2.14692 -1.75952 67 65 68
11.7468 -4.46375 -1.73873 72 75 90
11.6987 -4.51213 -1.73434 70 71 89
11.858 -5.63753 -1.743 80 87 105
11.8772 -5.6931 -1.74868 78 84 100
11.2048 3.45907 -1.74935 58 66 85
11.2089 3.41918 -1.74811 58 66 84
11.2296 3.36366 -1.74864 59 64 82
11.7002 -4.55653 -1.7367 80 80 96
11.2087 3.6045 -1.75668 57 64 83
11.2208 3.56677 -1.75663 60 65 84
11.1967 3.49785 -1.74999 57 65 83
11.6411 -4.68828 -1.73497 107 109 124
11.1788 3.74042 -1.75893 59 66 84
11.1821 3.67927 -1.75647 60 67 83
11.1983 3.64278 -1.75702 61 67 85
11.6544 -2.59752 -1.76276 66 66 79
11.6451 -2.63582 -1.76246 64 66 78
11.6733 -4.74478 -1.74231 97 100 110
11.6188 -4.76781 -1.73587 101 105 117
11.1249 3.8688 -1.7576 85 92 110
36.2079 -6.46502 -5.51492 79 69 78
36.0185 -6.61029 -5.49043 91 85 94
11.6141 -2.68964 -1.75947 68 68 80
11.6083 -2.72864 -1.75977 71 71 83
11.5427 -2.75426 -1.75082 92 89 96
11.5751 -4.81703 -1.73237 104 108 119
11.559 -4.8548 -1.73209 103 105 118
11.092 4.00414 -1.75986 81 90 105
11.1079 3.94679 -1.75919 78 85 100
11.1212 3.90936 -1.75914 78 87 102
36.0101 -6.72777 -5.49222 77 75 86
36.0072 -6.84633 -5.49491 70 69 66
36.0097 -6.96604 -5.49849 67 65 66
11.5209 -2.80958 -1.74932 93 93 101
11.5051 -2.84607 -1.74813 97 96 103
11.4855 -2.88158 -1.74634 100 97 104
11.5372 -4.89029 -1.73093 105 104 118
11.0641 4.12064 -1.7621 78 87 102
11.0704 4.08074 -1.76085 80 89 104
11.0785 4.04148 -1.75991 80 89 104
36.055 -7.15404 -5.5104 60 57 52
11.4849 -2.92158 -1.74754 99 97 107
11.4565 -2.97506 -1.74515 96 95 101
11.4211 -3.0065 -1.74097 99 98 103
11.5369 -4.95678 -1.73446 104 103 116
11.5369 -5.00116 -1.73681 102 102 115
11.0314 4.2144 -1.76252 86 94 112
11.0474 4.17785 -1.76277 78 85 101
11.4105 -3.04397 -1.74068 99 98 104
11.395 -3.10034 -1.74038 107 107 117
11.3727 -3.13474 -1.73829 49 47 58
11.5129 -5.03573 -1.73537 98 96 109
11.4991 -5.09697 -1.73684 66 67 80
11.0203 4.31612 -1.76654 55 68 87
11.0228 4.2536 -1.76347 67 78 93
11.3914 -3.24038 -1.74485 62 62 70
11.4876 -5.13675 -1.73744 70 69 85
11.4795 -5.17805 -1.73863 69 73 92
10.9787 4.44945 -1.76822 57 68 86
10.9875 4.38898 -1.76604 59 67 86
11.0076 4.35395 -1.76689 56 68 87
11.3725 -3.27564 -1.74337 69 68 76
11.3611 -3.3129 -1.74307 69 70 76
11.3591 -3.35276 -1.74427 68 70 80
11.4587 -5.21387 -1.73777 70 76 92
10.9542 4.52558 -1.76921 56 68 87
10.9619 4.48576 -1.76797 58 70 86
11.3459 -3.40989 -1.74457 74 74 82
11.3436 -3.44975 -1.74577 77 77 89
11.4531 -5.27891 -1.74071 64 71 87
11.412 -5.30582 -1.73662 70 77 93
10.922 4.62006 -1.77025 58 69 87
10.9373 4.58316 -1.77019 57 68 86
11.3222 -3.48414 -1.74398 74 74 84
11.3141 -3.54277 -1.74518 76 76 86
11.3998 -5.34537 -1.73723 74 76 97
10.9037 4.6989 -1.77244 55 68 86
10.9102 4.65838 -1.7709 55 66 85
10.8231 1.30838 -1.726 76 82 104
10.8614 1.27545 -1.73134 73 75 93
10.8054 1.23249 -1.72152 117 119 134
10.8061 1.17723 -1.72053 105 110 126
10.8047 1.14021 -1.71956 104 109 129
10.8091 1.10377 -1.71953 101 108 127
10.8092 1.04857 -1.71854 106 113 129
10.8211 1.01279 -1.71978 103 108 127
10.8291 0.976627 -1.72038 105 112 129
10.8423 0.922462 -1.7216 105 111 128
10.844 0.885772 -1.72126 103 110 127
10.8753 0.759052 -1.72433 77 83 97
10.8923 0.723237 -1.72652 70 77 98
10.8915 0.68632 -1.72587 72 71 92
10.8954 0.631288 -1.72582 69 75 91
10.9022 0.594787 -1.72643 62 65 83
10.9029 0.557985 -1.7261 79 83 94
10.9142 0.503239 -1.72732 77 82 97
10.9323 0.467077 -1.72983 78 83 103
10.9228 0.429871 -1.72791 78 80 96
10.919 0.392919 -1.72694 79 82 97
10.9256 0.337897 -1.72754 70 73 88
10.9235 0.30103 -1.72689 71 72 90
10.9292 0.264349 -1.7275 65 64 88
10.9135 0.208904 -1.72462 106 112 128
10.8932 0.171905 -1.72113 107 109 129
10.8966 0.135266 -1.72143 105 111 130
10.9019 0.0802876 -1.72202 109 112 127
10.9049 0.0436113 -1.72232 110 113 129
10.9099 0.00690746 -1.72294 102 103 122
10.9008 -0.0480753 -1.72132 113 112 127
10.9054 -0.0847816 -1.72194 112 110 124
10.9079 -0.121487 -1.72224 115 116 132
10.9005 -0.213031 -1.72093 75 73 95
10.9125 -0.249966 -1.72281 78 80 95
10.95 -0.287662 -1.72879 80 79 93
11.2772 -3.57246 -1.74101 79 79 91
11.2744 -3.61221 -1.74221 81 79 92
11.2637 -3.67011 -1.7431 76 74 86
11.3989 -5.41276 -1.74105 72 78 94
11.3737 -5.44657 -1.7396 79 83 99
10.8815 4.84118 -1.77802 51 59 78
10.8848 4.79911 -1.77587 59 69 88
10.8824 4.75484 -1.77283 59 67 85
10.7229 1.68469 -1.71937 81 89 100
10.7603 1.65287 -1.72439 71 77 93
10.7708 1.59863 -1.72465 61 68 85
10.7668 1.56097 -1.72305 63 71 86
10.7803 1.52563 -1.72428 79 86 98
10.7942 1.47178 -1.72518 77 83 102
10.7996 1.43535 -1.72515 72 76 93
10.8029 1.39866 -1.72481 68 73 92
10.7984 1.36109 -1.7232 83 87 110
10.9513 -0.342927 -1.72907 77 80 96
10.9609 -0.380074 -1.73063 79 78 93
10.9507 -0.416532 -1.72904 78 80 94
10.9534 -0.471891 -1.72964 74 81 95
10.9547 -0.508783 -1.72995 73 74 89
10.9638 -0.546068 -1.73151 71 69 87
10.9708 -0.583305 -1.73276 74 80 98
10.9491 -0.637453 -1.72958 79 78 94
10.9696 -0.675527 -1.73303 73 75 90
10.9742 -0.712735 -1.73397 74 75 91
11.2813 -3.71629 -1.74759 79 80 86
11.3157 -3.76793 -1.75475 104 103 111
10.6798 1.93805 -1.71991 95 97 112
10.6819 1.88264 -1.71859 97 99 111
10.7037 1.77457 -1.71882 67 75 86
10.7226 1.72176 -1.72034 75 77 95
10.9913 -0.769337 -1.7371 87 86 104
10.9444 -0.803022 -1.72983 117 120 135
10.9506 -0.840353 -1.73108 109 111 125
10.9454 -0.895338 -1.73074 78 74 91
10.9887 -0.935793 -1.73799 111 110 126
10.9964 -0.973507 -1.73955 119 118 131
11.2048 -3.7739 -1.73895 105 104 112
11.1896 -3.83032 -1.73925 97 94 105
10.6448 2.19312 -1.72268 97 99 112
10.6519 2.13839 -1.72199 94 97 112
10.6614 2.10271 -1.72227 95 98 113
10.663 2.06562 -1.72129 93 99 111
10.6735 2.01154 -1.72124 93 99 113
10.6787 1.97512 -1.72089 97 99 114
11 -1.01093 -1.74049 119 119 131
11.0274 -1.06921 -1.74551 115 113 126
11.0229 -1.10601 -1.74519 119 119 129
11.0223 -1.14317 -1.7455 83 78 100
11.0176 -1.19861 -1.74547 84 87 103
11.0598 -1.24041 -1.75272 86 83 99
11.1784 -3.8675 -1.73926 98 96 109
11.1633 -3.9034 -1.73867 97 95 108
10.6395 2.39874 -1.72919 66 73 89
10.6459 2.36235 -1.72884 62 68 84
10.6519 2.30715 -1.72783 67 70 85
10.6871 2.27642 -1.73222 61 68 84
10.6466 2.23096 -1.72429 102 105 120
11.0822 -1.28031 -1.75682 72 69 89
11.0632 -1.33443 -1.75459 76 78 91
11.0794 -1.37384 -1.75773 73 71 88
11.0662 -1.40977 -1.75615 69 68 84
11.1513 -3.96089 -1.73957 98 96 107
11.1303 -3.99477 -1.73809 97 95 108
10.626 2.566 -1.73346 64 75 91
10.6272 2.52835 -1.73216 74 77 92
10.6282 2.49072 -1.73086 71 72 90
10.6407 2.43675 -1.7308 62 67 88
11.0525 -1.4644 -1.75487 82 80 101
11.0721 -1.50449 -1.75865 87 85 106
11.0741 -1.54236 -1.75959 81 79 88
11.1129 -4.02984 -1.7372 97 97 109
11.1002 -4.08714 -1.7381 100 99 113
10.6019 2.75049 -1.73713 70 78 95
10.6099 2.69528 -1.73612 61 67 83
10.6018 2.65537 -1.73324 70 75 94
10.611 2.61948 -1.73321 65 70 89
11.0357 -1.76293 -1.75764 88 81 74
11.031 -1.79989 -1.75763 80 70 58
11.0789 -4.12075 -1.73662 46 48 63
10.5442 2.85091 -1.73251 105 112 128
10.5483 2.77571 -1.72991 64 71 89
10.9794 -1.82942 -1.75006 81 73 62
10.9832 -1.88649 -1.75193 76 69 59
11.0034 -1.92749 -1.75603 75 68 61
11.006 -1.96566 -1.75729 79 71 69
11.0842 -4.20495 -1.74141 67 70 84
11.067 -4.26083 -1.74172 63 67 79
10.5213 3.0362 -1.73714 87 94 111
10.5363 2.98269 -1.73708 89 96 114
10.5388 2.94501 -1.73577 89 96 112
10.5394 2.90687 -1.73415 92 99 116
11.2494 -2.0456 -1.79768 68 61 63
11.0396 -4.29216 -1.73934 68 70 86
11.0362 -4.33225 -1.74085 67 68 86
10.5169 3.16976 -1.74266 87 95 109
10.5098 3.11004 -1.7388 86 96 108
10.5146 3.07287 -1.73781 86 95 110
11.022 -4.3893 -1.74175 66 68 84
11.0182 -4.42941 -1.74325 69 73 84
10.4593 3.26949 -1.73868 61 67 83
10.4989 3.24207 -1.74337 59 66 82
10.4985 3.20326 -1.74144 90 98 114
11.0014 -4.46459 -1.74267 69 75 91
10.9885 -4.52224 -1.74387 76 81 97
10.4598 3.40531 -1.74547 57 66 83
10.4581 3.36589 -1.74321 58 68 80
10.4675 3.32985 -1.74285 59 68 82
36.0615 -6.52173 -5.83127 73 65 65
10.9305 -2.48213 -1.75912 69 69 78
10.9178 -2.51744 -1.75817 67 70 79
10.9659 -4.55514 -1.74239 72 73 91
10.9634 -4.59592 -1.74419 73 75 90
10.4474 3.53809 -1.75036 55 64 81
10.4367 3.49565 -1.74653 55 60 79
10.4805 3.46998 -1.75186 57 64 83
36.0398 -6.63699 -5.83096 73 68 63
35.9674 -7.04104 -5.83093 75 70 74
10.9088 -2.55355 -1.75786 63 63 75
10.886 -2.60567 -1.75596 66 66 78
10.8632 -2.63855 -1.75343 62 64 77
10.9424 -4.62941 -1.74301 71 72 90
10.4288 3.63021 -1.75238 58 65 82
10.409 3.58468 -1.74696 56 64 80
35.9286 -7.15292 -5.8281 73 73 72
10.8692 -2.67804 -1.75564 66 68 80
10.8593 -2.73304 -1.75595 78 76 87
10.9451 -4.69352 -1.7469 56 59 74
10.9202 -4.7254 -1.74513 115 117 129
10.3856 3.75388 -1.75254 60 63 81
10.4095 3.72228 -1.75439 60 66 80
10.3921 3.65769 -1.74831 57 64 80
10.84 -2.76659 -1.75406 91 88 94
10.7766 -2.78922 -1.74491 94 92 98
10.7745 -2.82672 -1.74586 94 92 98
10.8769 -4.74965 -1.74037 105 104 118
10.7313 -2.87303 -1.7408 97 96 104
10.7289 -2.91042 -1.74175 100 99 104
10.7129 -2.94434 -1.74049 94 94 103
10.8644 -4.80763 -1.74187 99 97 111
10.8264 -4.83377 -1.738 97 95 109
10.3241 3.95055 -1.75438 77 84 100
10.3299 3.91285 -1.75307 78 87 104
10.3448 3.87837 -1.75334 80 89 104
10.6884 -2.99507 -1.73859 105 103 114
10.6665 -3.02725 -1.73639 104 104 114
10.8284 -4.87667 -1.7407 93 97 108
10.8007 -4.92827 -1.73982 89 91 104
10.2929 4.03882 -1.75482 78 90 104
10.3026 4.00248 -1.75414 79 91 107
10.3532 0.952252 -1.73307 102 108 123
10.3747 0.918727 -1.73602 101 108 124
10.3523 0.863896 -1.73135 101 110 128
10.4548 0.21634 -1.74051 106 112 128
10.413 0.180254 -1.73322 107 113 129
10.4124 0.145069 -1.73287 100 105 124
10.4176 0.109967 -1.73351 106 107 125
10.4327 0.0573192 -1.73579 106 109 128
10.412 0.0220193 -1.73214 108 106 128
10.4208 -0.0131178 -1.73344 108 111 130
10.4353 -0.0659185 -1.73572 110 116 130
10.4162 -0.100993 -1.7324 116 116 133
10.6559 -3.06244 -1.73608 99 101 113
10.646 -3.11697 -1.7367 94 94 106
10.6333 -3.15154 -1.73608 64 62 73
10.7932 -4.96729 -1.74103 89 91 103
10.7603 -4.99523 -1.73806 90 94 106
10.2702 4.13027 -1.75685 77 87 100
10.2793 4.07379 -1.75487 82 91 108
10.3314 1.23338 -1.73527 108 116 129
10.3204 1.19669 -1.7326 109 115 131
10.3484 1.14655 -1.73619 105 110 127
10.3195 1.10812 -1.73055 106 112 128
10.3434 1.07514 -1.73383 105 112 129
10.3397 1.03939 -1.73248 101 106 125
10.3591 0.98816 -1.73475 107 113 125
10.4305 -0.136273 -1.7347 127 130 146
10.6129 -3.18389 -1.73419 66 70 81
10.6346 -3.24756 -1.74018 74 72 85
10.7707 -5.04214 -1.74225 93 97 108
10.2479 4.20213 -1.75789 83 91 110
10.2582 4.16587 -1.75721 79 88 103
10.4865 -0.791342 -1.74597 110 114 128
10.4357 -0.823152 -1.73769 125 124 142
10.6063 -3.27761 -1.73703 63 64 71
10.5969 -3.3131 -1.73704 70 70 77
10.7296 -5.08773 -1.73928 82 85 100
10.7163 -5.12419 -1.7396 65 68 87
10.2257 4.29412 -1.76023 54 68 85
10.2356 4.23767 -1.75826 79 87 106
10.2153 1.8758 -1.73386 98 101 116
10.4346 -0.876026 -1.738 112 114 128
10.4896 -0.915685 -1.74757 121 124 138
10.5268 -0.954238 -1.75417 115 114 131
10.4917 -1.00464 -1.74886 121 121 137
10.5011 -1.04102 -1.75083 116 114 128
10.5124 -1.07765 -1.75313 115 113 125
10.5949 -3.35082 -1.73831 74 75 81
10.578 -3.40341 -1.73799 73 71 83
10.5568 -3.43531 -1.7361 81 82 87
10.2096 4.36867 -1.76255 58 69 87
10.2297 4.33604 -1.76345 57 68 86
10.1788 2.06642 -1.73437 94 99 113
10.1745 2.02969 -1.73235 97 100 113
10.1914 1.99693 -1.73397 93 98 111
10.1907 1.96094 -1.73262 96 97 110
10.2027 1.90941 -1.7329 95 97 110
10.5532 -1.13513 -1.76071 110 109 123
10.5374 -3.4677 -1.73453 80 79 85
10.1824 4.4591 -1.76426 57 69 84
10.1899 4.42148 -1.76294 56 67 85
10.1702 2.28099 -1.74087 53 54 74
10.2071 2.25242 -1.7458 101 104 119
10.1625 2.18913 -1.73615 91 97 111
10.1625 2.15309 -1.73479 93 98 113
10.17 2.11858 -1.73476 90 94 106
10.5444 -3.52772 -1.73832 76 74 87
10.5304 -3.5618 -1.73769 77 75 88
10.5182 -3.59642 -1.73738 80 80 92
10.1693 4.49449 -1.76463 56 67 85
10.4927 -3.64611 -1.73581 77 78 91
10.5027 -3.68805 -1.73929 66 68 82
10.5181 -3.73198 -1.74371 112 115 122
10.481 -3.75828 -1.7393 101 101 112
10.4343 -3.80058 -1.73426 101 100 114
10.4195 -3.83419 -1.73363 100 102 115
10.0619 2.83882 -1.7471 55 58 80
10.3897 -3.8625 -1.73049 98 99 112
10.0445 2.96314 -1.75022 89 95 111
10.0432 2.92585 -1.7482 90 96 111
10.0684 2.89575 -1.75081 96 100 116
10.3834 -3.91861 -1.73238 97 95 108
10.3849 -3.95803 -1.7346 98 98 108
10.3622 -3.98872 -1.73272 101 100 114
10.0105 3.08312 -1.7507 90 97 114
10.0305 3.05171 -1.75231 88 95 111
10.021 2.9936 -1.74795 88 94 113
36.0417 -6.5845 -6.12021 68 62 57
36.017 -6.75886 -6.12116 71 62 53
10.3386 -4.03865 -1.73178 98 98 110
10.0243 3.21744 -1.75979 87 96 113
10.0012 3.17325 -1.75379 88 96 112
10.0131 3.12103 -1.75306 90 99 116
10.3379 -4.07738 -1.73368 108 107 121
10.3167 -4.10848 -1.73211 60 59 73
9.99885 3.30324 -1.76023 55 61 80
10.0435 3.26067 -1.76512 92 99 118
10.2748 -4.19043 -1.73024 63 65 79
9.9402 3.3975 -1.75605 57 66 79
9.99883 3.34079 -1.76226 57 66 80
10.314 -4.24483 -1.73909 65 73 86
10.307 -4.28149 -1.74004 76 79 94
10.2674 -4.32515 -1.73658 69 71 85
9.9464 3.62607 -1.7699 54 63 79
9.92124 3.57961 -1.76323 56 63 80
10.309 -2.78776 -1.76209 98 95 104
10.2762 -2.81606 -1.7578 103 102 108
10.2675 -4.36464 -1.7388 69 69 87
10.2583 -4.40046 -1.73944 76 77 95
10.2675 -2.86878 -1.75845 102 100 107
10.2555 -2.90225 -1.75779 98 96 107
10.2396 -2.93465 -1.75648 95 93 104
10.2365 -4.45115 -1.73914 67 70 89
10.2198 -2.96596 -1.7545 98 98 106
10.1933 -3.01376 -1.75218 101 101 112
10.2106 -4.4801 -1.73694 72 70 91
10.201 -4.51577 -1.73758 69 72 87
9.86439 3.86456 -1.77123 49 55 73
10.1847 -3.04799 -1.75218 102 102 114
10.1816 -3.08378 -1.75318 103 103 115
10.1913 -4.55142 -1.73823 68 73 92
9.83259 3.92977 -1.77033 78 87 104
9.79767 3.87854 -1.76167 92 98 118
9.74531 0.971683 -1.72569 110 116 132
9.73886 0.920846 -1.72357 105 112 130
9.75239 0.888448 -1.72528 103 110 128
9.76386 0.855826 -1.72664 87 83 100
9.7602 0.771803 -1.72449 72 76 94
9.77131 0.739078 -1.72586 72 77 93
9.79212 0.706921 -1.72896 79 82 96
9.80211 0.657248 -1.72996 74 77 92
9.81286 0.624308 -1.73132 67 75 89
9.8117 0.590691 -1.73061 65 68 87
9.80149 0.539923 -1.72814 65 67 87
9.82171 0.507345 -1.73124 79 80 101
9.83001 0.474166 -1.73226 74 75 95
9.82643 0.440485 -1.7312 78 84 100
9.8214 0.39006 -1.72978 73 77 90
9.82737 0.356758 -1.73045 78 81 98
9.82539 0.323214 -1.72974 78 84 98
9.84539 0.27348 -1.73282 77 78 95
9.87265 0.240506 -1.73731 111 114 129
9.81911 0.206002 -1.72758 103 105 120
9.81494 0.155833 -1.72651 109 112 129
9.81231 0.122415 -1.72579 109 111 126
9.81549 0.0890452 -1.72612 106 112 126
9.81267 0.0556555 -1.72541 106 108 121
9.81171 0.00560973 -1.72503 114 115 129
9.81256 -0.0277517 -1.72501 114 116 131
9.81528 -0.0611339 -1.72534 105 104 122
9.8118 -0.11113 -1.72462 113 117 132
9.81819 -0.144582 -1.72564 59 59 77
9.80078 -0.22758 -1.72247 88 90 104
9.84812 -0.262168 -1.73078 73 71 93
9.84813 -0.295622 -1.73077 79 77 100
10.1432 -3.12799 -1.74888 118 120 132
10.1323 -3.1615 -1.74856 51 53 65
10.1671 -4.60098 -1.73761 66 73 91
10.1643 -4.63967 -1.73952 66 68 87
9.78676 4.00869 -1.76813 80 88 106
9.80203 3.97593 -1.76842 79 88 105
9.70358 1.32032 -1.72667 72 74 91
9.71836 1.27157 -1.72801 76 73 92
9.72318 1.23842 -1.72799 109 112 129
9.71029 1.20328 -1.72484 107 110 127
9.72062 1.154 -1.72549 99 105 119
9.72115 1.12044 -1.72477 103 107 121
9.72941 1.08768 -1.72544 108 113 128
9.73136 1.03753 -1.7247 108 112 129
9.73741 1.00453 -1.72502 109 116 133
9.86323 -0.346355 -1.73351 74 77 92
9.84132 -0.379024 -1.72968 77 77 90
9.85867 -0.413177 -1.73279 83 81 102
9.85819 -0.446651 -1.73278 75 72 91
9.85489 -0.49676 -1.7324 71 72 91
9.8581 -0.530421 -1.73308 71 73 89
9.86315 -0.564215 -1.73411 74 75 96
9.85537 -0.614074 -1.73304 71 68 88
10.165 -4.67995 -1.74205 49 55 71
9.77158 4.09929 -1.77157 79 86 109
9.7898 4.04846 -1.77116 82 90 109
9.67117 1.53551 -1.72721 68 75 92
9.6846 1.50358 -1.72857 67 65 86
9.68039 1.46917 -1.7268 74 76 91
9.69588 1.42062 -1.72814 66 73 91
9.69724 1.38702 -1.72742 63 71 89
9.70241 1.35392 -1.7274 67 70 89
9.86213 -0.648019 -1.73442 76 75 89
9.8511 -0.680831 -1.73267 79 80 98
9.88989 -0.733905 -1.73993 98 99 117
9.90413 -0.76863 -1.74269 110 114 129
9.84955 -0.798108 -1.73331 117 115 129
9.85965 -0.832471 -1.73538 116 115 131
9.87023 -0.883802 -1.73779 116 118 133
10.151 -4.7341 -1.74333 100 109 122
10.1622 -4.77926 -1.74776 98 103 115
9.75485 4.17034 -1.77366 78 87 105
9.75043 4.12979 -1.77029 79 88 105
9.59276 1.76013 -1.72083 74 78 93
9.60104 1.72764 -1.72115 69 71 86
9.61118 1.69545 -1.72182 65 67 84
9.64521 1.65008 -1.72628 70 73 92
9.65509 1.61772 -1.72694 72 74 87
9.66295 1.58502 -1.72726 72 74 89
9.87024 -0.917452 -1.73812 113 116 135
9.87602 -0.95164 -1.7395 103 104 122
9.86251 -1.00092 -1.73774 115 118 127
9.87978 -1.03631 -1.7412 114 116 128
9.90869 -1.07303 -1.74674 112 112 125
10.0706 -4.77855 -1.7342 94 100 112
9.71272 4.25063 -1.77246 89 96 115
9.71775 4.21372 -1.77075 78 87 104
9.58274 1.911 -1.72445 94 96 111
9.59538 1.87925 -1.72546 96 98 111
9.91811 -1.12486 -1.74914 96 98 111
9.87236 -1.15369 -1.74151 88 90 103
9.89109 -1.18961 -1.74531 75 72 94
9.89994 -1.2415 -1.74772 66 66 80
9.70026 4.28457 -1.77284 55 63 84
9.55185 2.07534 -1.72532 93 96 113
9.56238 2.02631 -1.72526 99 102 117
9.57343 1.99431 -1.72592 91 95 107
9.58051 1.96156 -1.72589 90 91 106
9.91324 -1.311 -1.75117 81 83 96
9.9451 -1.34909 -1.7574 83 85 101
9.9239 -1.39751 -1.75461 76 77 92
9.9184 -1.43084 -1.75426 79 81 95
9.92254 -1.46551 -1.75564 81 78 96
9.52573 2.22382 -1.72686 95 101 113
9.53544 2.1916 -1.72718 93 96 111
9.54652 2.14262 -1.72712 92 98 114
9.55214 2.10956 -1.72674 94 97 114
9.91445 -1.51561 -1.75527 87 86 100
9.9261 -1.55147 -1.75804 82 80 93
9.91428 -1.58389 -1.75665 81 79 90
9.51859 2.37684 -1.73223 64 65 83
9.52303 2.34338 -1.7315 65 71 87
9.53673 2.29486 -1.73179 64 65 86
9.53706 2.26055 -1.73037 78 81 97
9.90175 -1.6333 -1.75559 80 76 89
9.90134 -1.66743 -1.75628 81 82 83
9.91249 -1.70346 -1.75905 69 65 64
9.90991 -1.73732 -1.75939 79 80 77
9.50647 2.49488 -1.73549 66 73 92
9.50938 2.46096 -1.73441 63 70 85
9.51979 2.41163 -1.734 65 72 88
9.88504 -1.78463 -1.75625 81 79 76
9.88028 -1.81807 -1.75625 69 64 70
9.87539 -1.8515 -1.75624 67 62 58
9.9964 -3.76636 -1.75589 105 108 118
9.94823 -3.78676 -1.74929 95 95 107
9.4873 2.61156 -1.7377 69 75 91
9.49441 2.57856 -1.73732 67 72 88
9.49964 2.52789 -1.73587 69 75 91
9.87908 -1.90371 -1.75831 83 80 71
9.86426 -1.93534 -1.75657 79 75 64
9.86481 -1.9698 -1.75761 73 70 63
9.92047 -3.81419 -1.74633 96 95 110
9.92045 -3.85151 -1.74832 93 93 103
9.4649 2.72768 -1.73958 64 69 85
9.48232 2.67995 -1.74021 63 69 85
9.48009 2.64454 -1.73809 68 72 84
9.86598 -2.0217 -1.75933 77 69 66
9.85275 -2.05356 -1.75794 77 74 69
9.85485 -2.08842 -1.75933 80 77 74
9.85297 -2.12252 -1.76002 68 67 69
9.90861 -3.90347 -1.74932 99 99 109
9.89349 -3.93536 -1.74866 96 99 108
9.43253 2.78895 -1.73722 64 73 89
9.46873 2.76364 -1.74205 65 70 89
9.83605 -2.17089 -1.75862 67 67 67
9.86904 -3.96375 -1.74636 99 99 112
9.41761 2.90732 -1.74084 90 99 112
9.41237 2.87079 -1.73802 98 105 121
9.86216 -4.01761 -1.74835 99 101 113
9.84669 -4.04931 -1.7477 103 102 116
9.3919 3.02298 -1.74272 86 93 109
9.40409 2.99127 -1.74303 90 97 113
9.38969 2.95197 -1.73847 89 96 114
9.82063 -2.35787 -1.76207 69 68 73
9.77578 -2.39969 -1.75582 68 66 80
9.77866 -2.43498 -1.75755 66 66 79
9.85687 -4.09087 -1.75167 98 100 112
9.38875 3.11028 -1.74699 87 96 111
9.38234 3.07299 -1.74383 86 93 109
9.78909 -2.47213 -1.76067 65 64 75
9.77058 -2.51989 -1.75928 63 65 77
9.81083 -4.12971 -1.74672 89 87 101
9.35887 3.22525 -1.74853 92 99 114
9.36729 3.17468 -1.74708 85 94 109
9.36866 3.13964 -1.7453 86 95 112
9.74247 -2.54775 -1.75546 58 61 74
9.72958 -2.57926 -1.75443 66 68 81
9.7185 -2.61119 -1.75373 61 63 75
9.31793 3.2835 -1.74514 58 67 82
9.3347 3.25323 -1.74614 42 47 66
9.70316 -2.65947 -1.75303 60 61 73
9.69755 -2.69277 -1.75338 57 57 69
9.30509 3.36835 -1.74803 58 67 83
9.31647 3.33635 -1.74799 58 65 81
9.70136 -2.72856 -1.75546 99 99 107
9.66266 -2.77057 -1.7506 95 94 100
9.29525 3.4545 -1.75162 55 62 80
9.29733 3.40156 -1.74877 58 65 81
9.62822 -2.79599 -1.74575 96 97 102
9.59372 -2.82122 -1.7409 98 98 108
9.26977 3.51771 -1.75136 53 60 78
9.27977 3.48518 -1.75097 55 63 80
9.59636 -2.87412 -1.74367 104 102 113
9.57114 -2.90173 -1.74055 99 96 107
9.57801 -2.93844 -1.74333 95 93 104
9.26797 3.60713 -1.75669 50 57 75
9.28384 3.55862 -1.75627 56 64 81
9.53937 -2.96202 -1.73778 98 97 105
9.54509 -3.01598 -1.74125 99 97 110
9.25821 3.67616 -1.75956 57 65 83
9.26314 3.64164 -1.75813 55 63 79
9.27557 0.535204 -1.73221 70 70 94
9.27809 0.503862 -1.73219 70 68 92
9.26555 0.456082 -1.72921 73 75 95
9.29722 0.426109 -1.73472 78 81 96
9.28568 0.39413 -1.73213 62 65 84
9.30202 0.3476 -1.73467 75 77 97
9.29807 0.315989 -1.73355 76 77 97
9.30186 0.284656 -1.7339 72 72 95
9.37066 0.239308 -1.74639 102 107 119
9.28593 0.205689 -1.73018 106 109 124
9.28545 0.174303 -1.72979 109 111 126
9.28093 0.142861 -1.72867 87 92 109
9.28631 0.0959218 -1.72938 107 108 128
9.29135 0.0646182 -1.7301 105 106 124
9.28453 0.0332203 -1.72861 96 99 116
9.5176 -3.0426 -1.73778 96 95 108
9.507 -3.07422 -1.73744 105 108 117
9.19223 3.74277 -1.75308 56 65 80
9.23254 3.72121 -1.75824 52 59 76
9.20435 1.0021 -1.72811 97 103 116
9.21225 0.971338 -1.72882 102 108 124
9.22152 0.924941 -1.72952 91 98 116
9.23111 0.894278 -1.73061 95 100 119
9.2289 0.862521 -1.72948 100 103 122
9.25805 0.754587 -1.73272 69 74 93
9.25652 0.707195 -1.73158 77 76 92
9.26739 0.67645 -1.73303 62 65 82
9.27232 0.645253 -1.73338 70 73 91
9.26929 0.613535 -1.73226 72 73 91
9.27295 0.566541 -1.73223 81 79 100
9.29135 -0.0137626 -1.72969 119 118 133
9.28036 -0.045085 -1.72747 114 113 127
9.29281 -0.076454 -1.72966 111 112 130
9.29519 -0.123489 -1.73001 113 119 133
9.30741 -0.154991 -1.7322 65 64 82
9.27856 -0.217192 -1.72665 67 67 90
9.31362 -0.264971 -1.73326 82 84 97
9.30772 -0.296207 -1.73214 71 71 84
9.32331 -0.328058 -1.73507 81 84 103
9.31665 -0.374981 -1.73394 69 71 86
9.30844 -0.406079 -1.73246 76 74 97
9.32172 -0.438015 -1.73503 66 68 85
9.50083 -3.12474 -1.73883 104 106 119
9.47495 -3.15159 -1.73571 61 63 77
9.19062 3.77852 -1.75521 57 64 80
9.2399 1.26005 -1.74155 119 119 138
9.1746 1.21992 -1.72827 104 107 124
9.18503 1.17376 -1.72897 105 111 127
9.18565 1.14219 -1.72821 103 104 124
9.19592 1.11175 -1.72929 102 108 124
9.19804 1.0646 -1.72852 106 111 130
9.20223 1.03346 -1.7285 104 111 127
9.3263 -0.485395 -1.73611 77 79 94
9.33735 -0.517393 -1.7383 78 78 88
9.32087 -0.548023 -1.73535 83 83 93
9.32978 -0.579964 -1.73718 75 77 92
9.318 -0.626504 -1.73532 82 81 99
9.31491 -0.657762 -1.73494 83 82 100
9.32738 -0.690044 -1.73751 78 79 98
9.44148 -3.17594 -1.73121 69 68 82
9.16795 3.89756 -1.75955 78 87 105
9.18285 3.86665 -1.75985 87 94 112
9.11325 1.46488 -1.72442 70 73 93
9.11899 1.41823 -1.72401 79 82 100
9.15343 1.39149 -1.72951 69 74 93
9.16447 1.36128 -1.73059 66 69 86
9.16958 1.33021 -1.73057 71 71 91
9.17858 1.28385 -1.7309 66 67 88
9.30922 -0.736032 -1.73454 117 115 136
9.38209 -0.772918 -1.74852 120 123 141
9.31789 -0.799629 -1.73673 118 117 131
9.31096 -0.846354 -1.73598 104 105 124
9.32282 -0.878869 -1.73855 117 117 131
9.32675 -0.910767 -1.73964 121 119 133
9.33642 -0.943233 -1.74184 112 111 129
9.48354 -3.24183 -1.74161 69 72 81
9.46672 -3.27146 -1.74023 65 68 77
9.46289 -3.3053 -1.74127 69 71 83
9.14863 3.9449 -1.75962 78 85 103
9.07426 1.63332 -1.72309 66 70 89
9.07831 1.60219 -1.7227 76 82 98
9.09968 1.57391 -1.72562 67 72 91
9.09431 1.52544 -1.723 77 78 96
9.10964 1.49609 -1.72481 68 69 87
9.3386 -0.990917 -1.74293 115 116 128
9.34801 -1.02351 -1.74513 112 112 124
9.34951 -1.05535 -1.74586 111 109 123
9.35701 -1.10378 -1.74805 107 109 128
9.42532 -3.32802 -1.73608 73 75 88
9.13107 4.01152 -1.76146 80 89 104
9.13166 3.97498 -1.75898 78 85 101
9.07857 1.79355 -1.72986 56 54 76
9.06077 1.74241 -1.72466 71 75 95
9.06322 1.71095 -1.7239 64 64 88
9.06363 1.67916 -1.72277 73 75 96
9.36022 -1.1359 -1.74915 79 82 97
9.38779 -1.21874 -1.75575 72 70 85
9.38284 -1.25006 -1.75538 73 71 85
9.37778 -1.28136 -1.755 70 71 91
9.42724 -3.38144 -1.7392 70 69 83
9.42304 -3.41521 -1.74025 75 74 88
9.11574 4.04225 -1.76116 79 88 103
9.0371 1.92975 -1.72778 94 98 112
9.04892 1.88405 -1.7281 91 97 113
9.06916 1.85589 -1.73065 56 60 77
9.37639 -1.32914 -1.75572 74 73 87
9.38277 -1.36195 -1.75756 74 75 93
9.37541 -1.39295 -1.75682 77 76 92
9.36408 -1.42337 -1.75534 81 81 91
9.39827 -3.44195 -1.73748 70 71 89
9.38657 -3.49089 -1.73818 74 73 87
9.02028 2.03872 -1.72936 93 96 112
9.02877 1.99231 -1.72894 95 99 114
9.02817 1.96005 -1.72744 91 95 107
9.38144 -1.47393 -1.75975 82 80 93
9.39897 -1.5086 -1.76379 89 87 98
9.38147 -1.53812 -1.76121 73 71 85
9.3653 -3.5187 -1.7361 75 77 90
9.37179 -3.5563 -1.73923 72 76 88
8.99454 2.17821 -1.73097 91 97 111
9.00224 2.14761 -1.73094 92 95 110
9.01508 2.10209 -1.73126 92 95 110
9.0206 2.07102 -1.73086 90 96 110
9.35945 -1.58297 -1.75825 75 73 87
9.36692 -1.61626 -1.76046 75 74 88
9.35491 -1.64646 -1.75898 73 72 78
9.36325 -3.60647 -1.74062 72 75 89
8.95014 2.28105 -1.72776 65 69 84
9.02667 2.25049 -1.74024 91 96 112
8.95808 2.20219 -1.72547 92 98 112
9.36146 -1.69585 -1.76155 84 82 83
9.35694 -1.72729 -1.76154 57 54 60
9.362 -1.76039 -1.76338 96 90 90
9.34183 -1.78909 -1.76044 72 67 64
9.34166 -3.63408 -1.73855 68 71 83
9.3625 -3.6772 -1.74445 73 75 88
8.9332 2.39037 -1.73009 66 69 84
8.95289 2.34659 -1.73151 60 66 80
8.95158 2.3138 -1.72964 65 74 87
9.34573 -1.83824 -1.76263 72 69 66
9.34077 -1.86962 -1.76263 70 63 59
9.32993 -1.89989 -1.76153 67 64 59
9.33889 -3.70404 -1.74203 59 61 76
8.96182 2.46287 -1.73899 61 66 86
8.97231 2.43282 -1.73933 65 70 89
9.32365 -1.94724 -1.76188 77 76 72
9.32605 -1.98006 -1.76336 72 69 64
9.30526 -2.00829 -1.76041 68 63 60
9.31485 -3.7486 -1.74065 101 103 116
9.25239 -3.76049 -1.73095 100 101 113
8.9485 2.57408 -1.74243 70 76 92
8.94417 2.54007 -1.73982 63 68 87
8.95299 2.50959 -1.73978 56 62 81
9.30999 -2.05789 -1.76298 78 75 68
9.31395 -2.09113 -1.76482 74 70 64
9.29474 -2.11956 -1.76224 97 96 98
9.25981 -3.79883 -1.73442 97 97 109
9.2317 -3.84149 -1.73235 100 102 115
8.91879 2.68113 -1.74292 63 69 86
8.92051 2.64862 -1.74141 64 70 86
8.93535 2.61976 -1.74248 62 69 85
9.239 -2.14005 -1.75267 65 64 65
9.22231 -3.87342 -1.7327 102 104 117
8.92014 2.7641 -1.7478 66 67 89
8.91131 2.71204 -1.74332 66 72 87
9.20551 -3.90242 -1.73167 105 105 117
9.20435 -3.9557 -1.7348 106 105 119
8.90079 2.82485 -1.74787 63 68 88
9.24776 -2.3042 -1.76039 62 60 63
9.24325 -2.33568 -1.76076 72 69 76
9.23481 -2.36625 -1.76039 70 65 69
9.17089 -3.97794 -1.73065 107 107 120
8.8608 2.92917 -1.74689 87 96 112
8.85772 2.89492 -1.74427 90 97 113
8.8658 2.86413 -1.74387 75 81 97
9.23394 -2.41503 -1.76223 69 68 74
9.22527 -2.44555 -1.76186 71 70 75
9.17565 -4.01566 -1.73378 105 107 122
8.84505 3.00761 -1.74882 83 90 106
8.84599 2.97448 -1.74695 89 96 112
9.20506 -2.47318 -1.75929 74 73 79
9.1962 -2.50359 -1.75892 72 73 76
9.16995 -2.54594 -1.75597 65 66 77
9.14479 -4.05689 -1.73136 96 98 113
9.15106 -4.09541 -1.73484 100 104 119
8.82976 3.06975 -1.75 88 96 109
8.83091 3.03659 -1.74812 86 93 107
9.17035 -2.5787 -1.75745 66 66 76
9.15168 -2.60646 -1.75524 64 64 76
9.12273 -4.11946 -1.73173 51 57 69
9.08346 -4.13873 -1.72654 64 70 86
8.8203 3.15058 -1.75342 87 94 112
8.81987 3.11677 -1.75117 87 94 112
9.15718 -2.6571 -1.75855 61 60 78
9.12881 -2.68214 -1.75451 68 68 80
9.06657 -4.18557 -1.72689 66 74 87
8.83803 3.24098 -1.76236 88 97 112
8.80574 3.17944 -1.75272 87 94 110
9.10985 -2.70964 -1.7523 55 57 64
9.09027 -2.75336 -1.75083 96 96 103
9.0976 -4.23508 -1.73523 70 73 90
8.77489 3.2871 -1.75433 51 60 74
8.74338 3.2424 -1.74581 83 92 106
9.0692 -2.7801 -1.74826 95 94 102
9.03677 -2.80347 -1.74348 94 92 103
9.10317 -4.27375 -1.73871 67 77 89
8.72662 3.35472 -1.75037 57 64 80
8.78244 3.34054 -1.75918 62 68 84
9.04197 -2.83765 -1.74606 99 97 108
9.02744 -2.88259 -1.74569 94 92 103
9.08202 -4.31909 -1.73837 67 74 92
9.06931 -4.34979 -1.73839 66 73 91
8.72384 3.42172 -1.75451 57 64 80
8.73361 3.3912 -1.7541 55 62 77
8.75808 0.782078 -1.73457 67 70 88
8.7645 0.73739 -1.73492 68 73 88
8.75787 0.706784 -1.73297 69 71 91
8.77264 0.677705 -1.73527 68 72 92
8.76293 0.631942 -1.73253 74 73 89
8.77159 0.602405 -1.73367 67 73 89
8.77822 0.572712 -1.73442 68 69 87
8.77779 0.527602 -1.73362 75 79 91
8.78809 0.498058 -1.73515 71 72 92
8.80027 0.46855 -1.73706 64 65 85
8.79279 0.43813 -1.73511 80 82 100
8.80736 0.393626 -1.7374 70 68 90
8.79182 0.36299 -1.7339 72 70 90
8.80749 0.333469 -1.73659 69 71 86
8.78829 0.287864 -1.73231 75 78 95
8.78612 0.257824 -1.73152 95 101 123
8.89937 0.230249 -1.75354 107 110 128
8.78764 0.182948 -1.73109 108 111 126
8.80276 0.153194 -1.73378 110 112 127
8.79233 0.123095 -1.73144 113 115 130
8.80135 0.0932051 -1.73298 108 110 125
8.80257 0.0482501 -1.73295 107 115 128
8.79964 0.0182818 -1.73216 99 98 114
8.79464 -0.0116542 -1.73099 104 106 121
8.78949 -0.0565126 -1.7298 113 114 132
8.79995 -0.0865504 -1.73172 115 116 133
8.81616 -0.116737 -1.7348 114 116 131
8.80464 -0.161502 -1.73245 68 70 83
8.79714 -0.191282 -1.73089 81 78 101
8.81694 -0.221725 -1.73475 76 77 98
8.81668 -0.266711 -1.73472 75 74 90
8.81863 -0.296765 -1.7351 66 69 84
8.81852 -0.326756 -1.73508 59 61 78
8.82421 -0.35698 -1.73623 82 85 101
8.98912 -2.90387 -1.7398 98 95 109
8.99396 -2.93803 -1.74239 99 96 108
8.71221 3.46849 -1.75568 56 65 82
8.69208 1.0471 -1.72819 108 117 133
8.69618 1.0174 -1.72817 104 110 128
8.7115 0.973805 -1.73006 109 117 135
8.72124 0.944616 -1.7312 94 104 122
8.71917 0.914274 -1.73002 104 113 128
8.72621 0.869783 -1.73037 116 122 138
8.72587 0.839652 -1.72958 64 67 86
8.82331 -0.401981 -1.73621 78 77 94
8.83654 -0.432636 -1.7389 81 84 99
8.83407 -0.46257 -1.73851 71 73 90
8.83854 -0.507932 -1.73964 84 83 101
8.8143 -0.536578 -1.73499 60 65 84
8.82518 -0.567265 -1.7373 76 79 95
8.83697 -0.613159 -1.73999 77 76 92
8.81243 -0.641533 -1.73534 68 69 90
8.97334 -2.98098 -1.74091 101 101 109
8.96667 -3.01168 -1.74129 102 103 109
8.7068 3.53495 -1.75944 57 65 84
8.69118 3.49486 -1.75387 55 62 80
8.66348 1.25495 -1.72874 110 113 128
8.67212 1.22582 -1.72949 104 108 125
8.68256 1.18182 -1.73023 103 109 125
8.68905 1.15236 -1.73059 94 100 116
8.68764 1.12199 -1.72941 104 110 124
8.68981 1.07701 -1.7286 90 93 110
8.83078 -0.672906 -1.7392 79 80 101
8.82365 -0.702452 -1.73803 79 77 98
8.82696 -0.747878 -1.73917 98 101 121
8.91913 -0.785766 -1.75771 120 119 135
8.81214 -0.806797 -1.73683 114 115 133
8.79741 -0.850597 -1.73449 108 114 126
8.96363 -3.04355 -1.7424 102 102 112
8.66593 3.6051 -1.75734 54 61 77
8.66893 3.57191 -1.75545 54 63 78
8.6457 1.41911 -1.73081 72 73 91
8.6568 1.39037 -1.73195 70 71 87
8.67752 1.36295 -1.73502 73 76 92
8.66141 1.31524 -1.73034 70 76 92
8.67608 1.2869 -1.73225 64 71 88
8.83262 -0.884011 -1.74183 103 105 120
8.82873 -0.9138 -1.74143 116 118 130
8.81155 -0.957333 -1.73871 113 114 132
8.83859 -0.990359 -1.7445 103 104 124
8.8149 -1.018 -1.74024 112 111 125
8.94068 -3.08566 -1.74056 100 104 115
8.9318 -3.11566 -1.74056 115 117 132
8.65548 3.63547 -1.75774 56 61 81
8.61099 1.596 -1.73059 63 64 84
8.6149 1.56619 -1.73017 64 64 86
8.63658 1.52409 -1.73284 64 65 85
8.64413 1.49483 -1.7332 67 69 87
8.64385 1.46435 -1.73202 70 69 86
8.83783 -1.05077 -1.74526 110 112 124
8.84728 -1.09734 -1.74795 112 118 131
8.83495 -1.12618 -1.74601 61 60 78
8.89296 -3.13586 -1.73468 45 48 63
8.89322 -3.1688 -1.73653 66 69 81
8.63028 3.71165 -1.75896 56 63 79
8.67931 3.69646 -1.76629 55 62 78
8.59557 1.73061 -1.73303 64 69 88
8.60955 1.70253 -1.73455 67 74 92
8.58554 1.65258 -1.72793 62 65 84
8.61084 1.62646 -1.73177 60 64 82
8.8606 -1.20533 -1.75256 69 71 86
8.8596 -1.23563 -1.75294 73 72 90
8.85072 -1.26488 -1.75177 70 69 86
8.84554 -1.30988 -1.75176 83 82 100
8.8995 -3.22044 -1.74058 58 62 74
8.89391 -3.25157 -1.74132 66 68 80
8.62859 3.74559 -1.76121 56 61 80
8.54531 1.79757 -1.72614 59 62 82
8.58152 1.75861 -1.73151 67 73 89
8.87523 -1.34459 -1.75833 75 75 92
8.87892 -3.27951 -1.74023 76 75 89
8.64263 3.80322 -1.76792 56 66 78
8.52315 1.93077 -1.72782 92 100 113
8.52621 1.90075 -1.72701 92 95 110
8.53402 1.8565 -1.72658 48 55 73
8.84864 -1.55481 -1.75828 65 62 79
8.88089 -3.33 -1.74354 68 72 83
8.86013 -3.35589 -1.74134 71 75 86
8.51406 2.03627 -1.73102 90 96 112
8.50979 2.0046 -1.72867 91 96 110
8.5181 1.96039 -1.72823 95 97 110
8.83929 -3.38168 -1.73914 68 70 82
8.4904 2.13881 -1.73151 91 97 111
8.50126 2.09508 -1.73146 91 95 114
8.49528 2.06295 -1.72872 92 96 113
8.84441 -1.76935 -1.76366 81 75 75
8.83332 -3.42949 -1.74099 72 75 87
8.81598 -3.45644 -1.73952 70 69 83
8.50182 2.24981 -1.73936 92 95 114
8.47887 2.19795 -1.73234 91 98 113
8.48661 2.16883 -1.73231 88 89 109
8.8166 -1.79486 -1.75902 87 85 90
8.8118 -1.82471 -1.75902 81 77 78
8.79922 -1.85302 -1.75747 75 71 70
8.81697 -3.4901 -1.74174 72 71 84
8.79943 -3.53377 -1.74138 74 74 89
8.46484 2.30299 -1.73516 56 63 78
8.4634 2.27159 -1.7332 61 62 80
8.78935 -1.8973 -1.75707 71 70 66
8.78615 -1.92745 -1.75746 75 72 67
8.78861 -1.95881 -1.759 75 70 64
8.7873 -3.56261 -1.74102 69 72 87
8.45153 2.40852 -1.73837 65 71 87
8.46182 2.37995 -1.73873 63 72 83
8.45872 2.34801 -1.73638 58 65 84
8.79354 -2.0063 -1.7617 70 68 60
8.77086 -2.0323 -1.75822 76 72 69
8.77874 -3.59279 -1.74139 74 77 92
8.76459 -3.62084 -1.74067 75 77 92
8.43816 2.48307 -1.74001 57 62 82
8.43356 2.43508 -1.73647 59 66 84
8.78253 -2.06579 -1.7617 79 76 71
8.77357 -2.11036 -1.76169 102 99 107
8.76969 -2.14048 -1.76208 56 54 59
8.74277 -3.6628 -1.73957 66 67 83
8.42279 2.58863 -1.74322 58 64 84
8.41685 2.54 -1.7393 58 66 83
8.41809 2.509 -1.73772 55 63 81
8.74664 -2.16615 -1.7586 62 64 54
8.74119 -3.69573 -1.74142 59 61 74
8.73403 -3.72651 -1.74217 112 112 124
8.40647 2.64704 -1.74368 58 65 80
8.40619 2.61546 -1.74171 59 66 81
8.69536 -3.76166 -1.73775 103 102 116
8.39684 2.72311 -1.74647 57 61 82
8.39493 2.69093 -1.74412 61 63 86
8.67161 -3.78567 -1.73519 107 107 121
8.65325 -3.8118 -1.73373 100 99 113
8.36468 2.7769 -1.74383 66 73 90
8.37422 2.74809 -1.7438 62 69 87
8.63966 -3.85685 -1.73447 98 102 114
8.36516 2.85632 -1.74896 55 62 81
8.64644 -3.89344 -1.73816 96 100 115
8.32578 2.92349 -1.74595 86 95 109
8.34968 2.88335 -1.74783 86 95 111
8.37191 0.319521 -1.73007 69 74 93
8.35812 0.290289 -1.72683 67 73 91
8.4502 0.250031 -1.74531 98 104 120
8.38338 0.219273 -1.73121 101 107 123
8.3849 0.190563 -1.7312 109 110 128
8.38634 0.16185 -1.73118 109 108 126
8.38396 0.118718 -1.73035 108 107 125
8.38517 0.0900137 -1.73033 110 113 130
8.37847 0.0612343 -1.72871 107 112 131
8.62959 -3.92016 -1.73707 98 101 115
8.6235 -3.95144 -1.73819 94 96 109
8.31854 2.98503 -1.74873 86 95 112
8.32873 2.95635 -1.7487 87 96 113
8.31648 0.776413 -1.72716 80 81 96
8.32755 0.748532 -1.72875 59 64 83
8.33657 0.720435 -1.72994 73 79 93
8.34075 0.677529 -1.7299 71 77 91
8.34761 0.649197 -1.73069 67 67 92
8.34072 0.619873 -1.72866 73 73 97
8.34936 0.591662 -1.72985 65 70 88
8.36269 0.549329 -1.73183 68 67 86
8.34571 0.519484 -1.72778 70 67 91
8.35598 0.491312 -1.72938 73 79 100
8.36689 0.448747 -1.73095 72 77 95
8.35545 0.419398 -1.72812 74 76 99
8.36737 0.391207 -1.73011 69 73 92
8.35436 0.347558 -1.72686 72 75 94
8.38148 0.0182227 -1.72908 108 109 127
8.39214 -0.0104492 -1.73108 105 109 126
8.38512 -0.0391562 -1.72946 106 105 121
8.37593 -0.0821341 -1.72742 112 114 129
8.38825 -0.110906 -1.72982 112 114 129
8.40086 -0.168482 -1.73221 76 75 96
8.38325 -0.211218 -1.72856 73 74 92
8.40102 -0.240304 -1.73217 63 66 83
8.39131 -0.268768 -1.73014 67 68 89
8.39279 -0.311864 -1.73052 73 78 94
8.39656 -0.340692 -1.73132 75 76 94
8.40608 -0.369763 -1.73332 86 85 104
8.39536 -0.412438 -1.73128 58 59 77
8.62869 -2.60284 -1.75512 65 68 77
8.63454 -2.63581 -1.75783 62 66 75
8.58397 -3.98548 -1.73378 98 100 114
8.30421 3.06032 -1.75115 85 94 109
8.30908 3.02984 -1.74995 85 94 109
8.31129 1.00713 -1.73217 88 95 111
8.3075 0.977724 -1.73053 102 108 126
8.31919 0.950026 -1.73212 105 109 128
8.32299 0.921459 -1.7321 101 107 123
8.32812 0.878587 -1.73207 108 112 132
8.34299 0.82212 -1.73364 77 82 102
8.38708 -0.440774 -1.72966 76 75 89
8.39629 -0.469913 -1.73166 88 90 103
8.39174 -0.498399 -1.73084 72 71 89
8.39408 -0.541623 -1.73163 67 70 85
8.40296 -0.570882 -1.73363 90 89 103
8.40396 -0.599706 -1.73402 75 71 94
8.39802 -0.642489 -1.7332 80 79 95
8.39487 -0.671029 -1.73278 68 71 86
8.60411 -2.67411 -1.75396 63 65 77
8.59654 -2.70321 -1.75396 53 53 65
8.58845 -4.02136 -1.7371 98 101 116
8.29184 3.08831 -1.7508 83 95 109
8.26111 1.17486 -1.72708 106 109 126
8.27921 1.14821 -1.72987 102 104 125
8.28927 1.10601 -1.73064 104 109 124
8.29941 1.07823 -1.73182 104 112 125
8.30363 1.04971 -1.7318 109 115 129
8.39556 -0.699839 -1.73318 75 74 93
8.45739 -0.747899 -1.74643 119 120 139
8.40908 -0.772923 -1.73677 115 114 131
8.41139 -0.801956 -1.73756 108 112 125
8.4084 -0.84501 -1.73755 75 77 91
8.60016 -2.73564 -1.75629 108 107 118
8.58381 -4.05334 -1.73859 96 102 114
8.28036 3.1648 -1.754 82 95 114
8.28929 3.13559 -1.75357 85 97 113
8.23105 1.34473 -1.72682 63 71 90
8.24009 1.30253 -1.72719 73 74 95
8.23534 1.27279 -1.72515 66 67 88
8.26341 1.24773 -1.72996 101 102 120
8.28169 1.20668 -1.73233 104 110 126
8.42215 -0.875151 -1.74076 107 104 121
8.4183 -0.903697 -1.74035 112 114 126
8.42019 -0.932801 -1.74114 102 100 121
8.43991 -0.978308 -1.74595 106 107 120
8.43183 -1.00646 -1.74474 109 108 122
8.57119 -2.77413 -1.75281 99 99 111
8.54832 -2.79851 -1.74972 95 97 106
8.55647 -4.09254 -1.73676 107 109 123
8.33433 3.24855 -1.76995 87 96 113
8.27323 3.19464 -1.75481 84 96 112
8.23271 1.47621 -1.73217 56 59 76
8.22114 1.43057 -1.72811 66 71 89
8.22646 1.40227 -1.72808 76 77 95
8.22784 1.37334 -1.72725 88 94 106
8.43923 -1.03629 -1.74674 104 106 118
8.44678 -1.08078 -1.74914 108 109 122
8.44811 -1.11003 -1.74994 118 117 133
8.50858 -2.81754 -1.74315 97 100 107
8.523 -2.85337 -1.74779 98 98 110
8.26443 3.30498 -1.76114 57 66 82
8.25165 3.26786 -1.75607 45 53 71
8.18821 1.60007 -1.72827 71 76 95
8.18444 1.57014 -1.72623 78 79 99
8.21189 1.53118 -1.73021 67 65 89
8.20017 1.49995 -1.72656 68 72 92
8.43699 -1.1815 -1.74911 73 72 90
8.43218 -1.21 -1.7487 71 72 90
8.47769 -1.24518 -1.75875 75 74 92
8.46686 -1.273 -1.75714 71 78 88
8.48048 -2.88707 -1.74161 94 93 101
8.47039 -2.91515 -1.74123 91 89 100
8.23656 3.32744 -1.75769 57 66 83
8.16168 1.69757 -1.72716 69 70 88
8.18323 1.67234 -1.73035 69 72 89
8.17073 1.62613 -1.72588 67 68 88
8.46745 -1.31706 -1.75833 85 83 97
8.43318 -1.34144 -1.75189 70 71 88
8.43754 -1.3713 -1.75349 79 78 94
8.4658 -2.94502 -1.74201 98 96 107
8.23594 3.40871 -1.7636 56 63 79
8.23828 3.37685 -1.76163 56 63 81
8.1226 1.79239 -1.72363 51 57 73
8.16636 1.75723 -1.73083 58 63 80
8.14968 1.72456 -1.72598 63 69 83
8.42413 -1.41322 -1.75187 70 67 86
8.46692 -1.44911 -1.76152 79 82 94
8.44967 -1.47579 -1.7587 67 68 87
8.457 -1.52114 -1.76151 65 64 80
8.43967 -2.98365 -1.7393 99 99 109
8.44415 -3.01656 -1.74201 99 101 114
8.21881 3.43505 -1.76248 56 61 80
8.13224 1.89733 -1.73058 89 95 110
8.14671 1.82675 -1.7301 71 70 88
8.45306 -1.54992 -1.7615 70 70 82
8.44709 -1.57836 -1.7611 72 73 78
8.44876 -1.60811 -1.7623 79 79 79
8.41696 -3.03884 -1.73815 96 100 111
8.39972 -3.08027 -1.73738 96 99 108
8.16058 3.49461 -1.75639 54 61 80
8.20165 3.47759 -1.76255 51 62 79
8.09869 1.99323 -1.72867 90 96 110
8.10885 1.95128 -1.72862 92 102 114
8.11772 1.9237 -1.729 88 98 110
8.44775 -1.65226 -1.7635 66 64 78
