21.365 -5.49286 -1.77781 119 111 123
21.391 -5.57295 -1.7817 105 104 111
21.2701 -5.61568 -1.77235 62 59 70
19.2954 -7.06491 -1.58188 104 98 110
19.2496 -7.11887 -1.57973 103 97 109
19.198 -7.20583 -1.57812 103 97 111
21.2404 -5.71822 -1.77209 87 85 99
21.2386 -5.79125 -1.77354 83 80 99
21.175 -5.84781 -1.76941 81 78 85
21.1558 -5.95299 -1.7702 73 66 73
19.1668 -7.26475 -1.57732 104 98 108
19.1 -7.31046 -1.57331 103 97 109
19.074 -7.37109 -1.57302 104 98 108
21.1091 -6.01369 -1.76763 91 82 82
20.9817 -6.05162 -1.75775 100 91 90
20.6474 -6.06646 -1.72994 98 87 87
20.3707 -6.05904 -1.70645 98 86 89
20.1078 -6.05385 -1.68418 103 91 91
19.8355 -6.04424 -1.66104 106 94 94
19.5674 -6.06881 -1.63915 112 102 103
19.3319 -6.0665 -1.61931 112 102 108
19.2451 -6.10836 -1.61308 105 96 104
19.0233 -7.45763 -1.57157 100 97 108
18.969 -7.50735 -1.56875 103 97 107
18.9258 -7.56108 -1.56693 104 98 110
16.6509 -7.18715 -1.37578 105 99 109
26.5868 -6.70539 -2.247 89 83 88
19.1713 -6.18804 -1.60898 103 95 106
19.1185 -6.23965 -1.60588 104 98 108
19.0712 -6.2928 -1.60332 103 95 110
19.0214 -6.37913 -1.60147 106 97 113
18.8834 -7.65035 -1.56633 103 100 111
18.8343 -7.70146 -1.56401 103 97 107
18.7813 -7.75085 -1.56135 94 78 84
18.7104 -7.82818 -1.55821 82 66 76
16.6416 -7.27856 -1.37803 107 100 104
16.5774 -7.31497 -1.37418 103 99 100
16.5827 -7.38075 -1.37675 102 99 105
19.9277 3.55269 -1.80306 67 72 92
19.9259 3.48535 -1.80179 67 71 91
19.9409 3.38753 -1.8017 70 69 94
19.913 3.31614 -1.79795 68 73 93
19.9103 3.24902 -1.79668 73 75 96
19.9164 3.15007 -1.79582 67 74 92
19.9329 3.08602 -1.79647 68 71 90
19.9 3.01464 -1.79233 74 77 98
19.8944 2.94746 -1.79086 75 77 100
19.9305 2.85316 -1.79307 76 77 98
19.9582 2.55877 -1.79204 108 109 127
19.8722 2.48216 -1.78292 100 101 119
19.8334 2.31337 -1.77734 105 94 102
19.9599 2.26183 -1.78889 108 96 94
19.8828 2.18763 -1.78073 80 73 89
19.8941 1.95933 -1.77962 79 80 104
19.8841 1.86024 -1.77781 71 69 91
19.8729 1.79385 -1.77615 87 80 92
19.9683 1.73668 -1.78483 106 90 90
19.8602 1.62963 -1.77363 98 87 98
19.9391 1.50516 -1.78027 99 100 118
19.887 1.43609 -1.77478 101 102 120
19.8754 1.27254 -1.77265 78 80 101
18.9681 -6.42988 -1.59838 104 99 106
18.9185 -6.4816 -1.59564 100 94 102
18.8989 -6.54319 -1.59568 94 88 95
18.6534 -7.87545 -1.55521 73 66 71
18.6165 -7.93074 -1.55407 99 99 104
19.8379 4.8549 -1.81946 72 78 99
19.8307 4.78472 -1.81724 72 78 102
19.8499 4.68673 -1.81696 70 78 101
19.8381 4.61581 -1.81436 72 77 99
19.8553 4.5515 -1.81462 74 80 100
19.8547 4.48329 -1.81316 71 77 99
19.8647 4.38359 -1.81212 72 76 101
19.8714 4.31712 -1.81143 71 76 98
19.874 4.24986 -1.81035 73 75 100
19.8965 4.15297 -1.81065 70 78 99
19.879 4.08184 -1.80766 68 76 98
19.8828 4.01505 -1.80678 70 75 95
19.9042 3.91811 -1.80707 71 76 98
19.8918 3.8484 -1.80466 69 69 93
19.8713 3.77737 -1.80148 70 68 92
19.9074 3.7168 -1.80384 72 70 92
19.9313 3.62041 -1.80452 71 74 97
19.9357 1.2111 -1.77807 72 77 97
19.9321 1.11311 -1.77721 74 76 99
19.9522 1.049 -1.77881 73 78 98
19.9681 0.98458 -1.78002 75 77 100
19.9833 0.887436 -1.78107 72 75 98
20.0126 0.8234 -1.78363 72 74 95
20.0258 0.75859 -1.78465 67 72 91
20.038 0.661009 -1.78551 68 70 91
20.0348 0.595567 -1.785 65 67 90
20.0712 0.531226 -1.78832 64 66 89
20.0577 0.465485 -1.78685 61 68 87
20.0783 0.367845 -1.78867 62 68 92
20.0779 0.237028 -1.78841 64 69 91
18.8499 -6.62903 -1.59401 102 96 108
18.7922 -6.67745 -1.59057 99 95 107
18.7645 -6.73601 -1.58992 97 91 105
18.6978 -6.81504 -1.58668 103 97 107
19.7148 5.68567 -1.82772 69 76 95
19.7123 5.61547 -1.82569 70 76 98
19.7325 5.55162 -1.82595 70 76 102
19.74 5.4498 -1.82415 68 76 98
19.7597 5.38585 -1.82442 68 76 95
19.7581 5.31631 -1.82258 68 76 97
19.7678 5.24982 -1.82189 69 75 97
19.7969 5.15395 -1.82238 71 78 101
19.7964 5.085 -1.82073 71 77 101
19.8111 5.0199 -1.82061 73 77 103
19.8373 4.92332 -1.82091 71 81 101
20.051 0.0734367 -1.78569 62 69 93
20.0559 0.00815738 -1.78613 60 67 93
20.0665 -0.0898225 -1.78719 64 68 93
20.053 -0.155067 -1.78591 64 68 92
20.0513 -0.220331 -1.78578 64 67 92
20.0421 -0.448612 -1.78522 70 74 96
20.0335 -0.51366 -1.78452 71 70 94
20.0098 -0.610849 -1.7825 79 82 101
18.6471 -6.86523 -1.58393 100 95 102
18.5963 -6.91516 -1.58118 101 98 107
18.557 -7.00322 -1.58056 100 97 108
18.3476 -8.24018 -1.54318 102 95 106
18.3097 -8.29421 -1.54204 99 95 106
18.2644 -8.34487 -1.54022 102 96 106
19.6418 6.22374 -1.83533 72 75 96
19.6563 6.15783 -1.83484 72 74 101
19.6554 6.08734 -1.83281 68 75 99
19.658 6.01804 -1.83117 70 76 100
19.6774 5.91892 -1.83032 69 75 99
19.689 5.85245 -1.82963 67 74 102
19.6966 5.78488 -1.82856 68 74 100
20.0603 -0.677588 -1.78754 79 77 99
20.0291 -0.741842 -1.78473 82 80 101
18.5115 -7.05469 -1.57833 103 98 113
18.4733 -7.10871 -1.57681 97 91 101
18.4425 -7.16536 -1.57598 100 95 101
18.1822 -8.4144 -1.53623 101 94 106
18.1402 -8.46612 -1.53475 101 95 107
19.5968 6.81161 -1.84825 67 73 97
19.6181 6.71177 -1.84722 68 76 95
19.6247 6.64271 -1.84577 69 75 99
19.6349 6.57489 -1.8447 67 75 98
19.638 6.46958 -1.84195 68 75 94
19.6401 6.39944 -1.84011 68 74 95
19.6399 6.32877 -1.83809 68 74 100
20.108 -1.43292 -1.7957 87 85 106
18.3703 -7.24052 -1.57238 114 108 115
18.3391 -7.29676 -1.57155 108 102 116
18.2668 -7.33702 -1.56688 107 101 116
18.0908 -8.51438 -1.53259 99 94 106
18.0468 -8.56488 -1.53094 102 96 106
17.9981 -8.64863 -1.53016 110 101 101
19.5405 7.25914 -1.85711 63 71 94
19.5621 7.1946 -1.857 67 74 94
19.5573 7.12075 -1.85421 66 74 95
19.5559 7.04831 -1.8518 67 74 93
19.5765 6.94788 -1.85058 67 73 97
19.5858 6.87942 -1.84932 66 74 97
18.2293 -7.42476 -1.5666 77 71 85
18.2049 -7.48338 -1.56647 76 66 76
18.1563 -7.53229 -1.56407 83 68 63
16.6842 -7.2273 -1.43439 72 64 75
19.4865 7.74844 -1.8684 64 72 93
19.4837 7.67412 -1.86562 65 72 91
19.4954 7.6055 -1.86436 64 70 92
19.5224 7.50638 -1.86352 64 72 96
19.5243 7.43431 -1.86131 64 72 95
19.524 7.36163 -1.8589 64 72 95
18.1123 -7.61719 -1.56327 68 59 64
18.067 -7.66711 -1.56121 76 71 78
18.0143 -7.71377 -1.55846 81 69 83
16.649 -7.30823 -1.43428 85 76 84
16.5847 -7.34465 -1.4303 73 63 66
16.5753 -7.40432 -1.43156 128 122 115
19.4439 8.06307 -1.87549 62 70 91
19.4551 7.99359 -1.87404 63 70 91
19.4587 7.92123 -1.87183 64 73 90
19.4768 7.85471 -1.87115 64 72 93
19.3853 8.4855 -1.88551 63 71 93
19.3998 8.41671 -1.88426 65 72 91
19.4142 8.31083 -1.8817 62 69 95
19.4171 8.23753 -1.8793 63 71 94
19.4363 8.17102 -1.87862 63 71 94
17.7661 -8.01923 -1.54876 124 113 108
17.7308 -8.07229 -1.54775 126 118 112
19.3487 8.73302 -1.89153 66 74 93
19.3494 8.65789 -1.88875 65 73 92
19.3797 8.55819 -1.88772 63 71 90
18.8957 3.60852 -1.79582 65 70 90
18.8901 3.54355 -1.79408 69 74 94
18.8859 3.44709 -1.79198 67 68 88
18.9052 3.38664 -1.79285 71 72 92
18.897 3.32152 -1.79091 68 70 92
18.9151 3.22911 -1.79121 68 70 91
18.9102 3.16473 -1.78968 70 73 92
18.8836 3.09703 -1.78594 69 70 90
18.9105 3.00616 -1.78724 71 71 95
18.9187 2.94402 -1.78711 70 72 94
18.9129 2.87986 -1.78557 74 79 101
18.8755 2.8113 -1.78083 77 78 98
18.9011 2.72031 -1.78213 80 82 105
18.8985 2.65691 -1.781 77 78 99
18.8485 2.58737 -1.77506 62 61 82
18.9282 2.50335 -1.78196 93 92 112
18.8777 2.43419 -1.77602 103 101 122
18.9806 2.28933 -1.78459 103 93 92
18.8622 2.21317 -1.77184 109 95 104
18.8541 1.99382 -1.76866 77 79 101
18.8987 1.93582 -1.77253 81 84 103
18.8738 1.87106 -1.76939 71 71 89
18.8219 1.773 -1.76327 112 103 106
18.9528 1.72222 -1.77595 105 90 89
18.8778 1.65353 -1.7678 111 101 103
18.967 1.50487 -1.77557 100 99 117
18.8873 1.43674 -1.76702 101 102 120
18.8945 1.37514 -1.76728 68 66 87
18.9241 1.2218 -1.76924 78 78 102
18.9445 1.16087 -1.77091 75 75 99
18.9506 1.068 -1.771 73 78 98
18.9547 1.00607 -1.77106 77 78 98
18.9645 0.944408 -1.77172 73 76 97
18.9576 0.850949 -1.77061 73 75 100
17.6843 -8.12036 -1.5457 123 113 113
17.6414 -8.20428 -1.54524 114 108 118
18.8122 4.62355 -1.80853 71 77 101
18.8236 4.56108 -1.8082 71 77 102
18.8185 4.46249 -1.8055 70 76 104
18.8254 4.39917 -1.80477 69 77 98
18.8418 4.33798 -1.80504 67 75 98
18.8426 4.27337 -1.80371 68 74 98
18.8496 4.17797 -1.80241 68 76 95
18.8615 4.11588 -1.80228 67 75 96
18.8751 4.05417 -1.80234 68 74 98
18.8597 3.95447 -1.79885 67 75 98
18.8825 3.89468 -1.79991 65 72 91
18.8584 3.82572 -1.79618 68 73 93
18.873 3.73242 -1.79588 70 72 93
18.8855 3.67066 -1.79595 70 71 92
18.9809 0.789776 -1.77268 71 73 94
19.0198 0.729036 -1.77635 70 71 92
19.0307 0.667158 -1.77721 69 72 91
19.0245 0.573623 -1.7763 68 75 92
19.037 0.51172 -1.77736 69 71 90
19.0512 0.449791 -1.77862 67 74 92
19.046 0.35631 -1.77791 67 72 93
19.0419 0.294017 -1.77737 68 74 94
19.0177 0.231549 -1.77483 65 70 90
19.0155 0.138346 -1.77452 65 72 91
19.0008 0.0761939 -1.77297 64 72 92
19.0097 0.0141291 -1.77383 65 72 92
19.0143 -0.0790222 -1.77432 67 71 91
17.6037 -8.25599 -1.54405 112 106 116
17.5333 -8.29266 -1.53973 94 91 100
17.5135 -8.35227 -1.54029 97 94 103
18.7168 5.35336 -1.81732 69 75 99
18.7382 5.29311 -1.81779 69 75 99
18.7559 5.199 -1.81709 70 78 99
18.7576 5.13356 -1.81557 71 79 99
18.7667 5.07016 -1.81484 71 79 99
18.7736 5.00625 -1.81391 72 79 99
18.7997 4.91452 -1.81421 69 79 98
18.7946 4.84775 -1.81208 74 79 99
18.797 4.78294 -1.81075 72 77 99
18.8046 4.68692 -1.80926 73 79 103
19.0247 -0.141201 -1.77539 65 71 93
19.0091 -0.203144 -1.77384 66 73 94
19.0052 -0.265159 -1.7735 70 72 95
18.9987 -0.358128 -1.77298 69 74 96
18.9884 -0.419935 -1.77204 73 75 96
19.0215 -0.482796 -1.77551 76 78 101
19.002 -0.575395 -1.77379 79 77 99
19.0208 -0.638089 -1.77585 86 84 106
18.9838 -0.698863 -1.7723 83 81 102
19.6393 -4.39806 -1.79036 91 88 103
19.6321 -4.46311 -1.79098 84 80 95
18.6356 5.86119 -1.82355 72 80 103
18.6337 5.79391 -1.82142 69 77 98
18.6507 5.7323 -1.82129 68 74 98
18.6687 5.63789 -1.8204 69 77 98
18.6832 5.57565 -1.82007 69 77 96
18.7071 5.51606 -1.82074 67 77 96
18.7183 5.4199 -1.81925 69 77 98
19.0287 -0.793779 -1.7772 80 81 102
19.0131 -0.855261 -1.77586 85 83 104
19.0211 -0.917782 -1.77691 82 80 100
19.011 -0.979448 -1.77617 83 81 99
19.0368 -1.07415 -1.77926 79 81 100
19.0599 -1.13777 -1.78193 78 78 102
19.0412 -1.19897 -1.78038 81 79 101
19.0461 -1.2928 -1.78147 79 79 101
19.5613 -4.54742 -1.78607 76 73 91
19.5768 -4.61754 -1.789 76 73 90
19.5515 -4.67842 -1.78789 77 74 93
19.555 -4.74596 -1.78967 75 74 88
18.5789 6.3809 -1.83376 64 75 97
18.5731 6.31142 -1.83103 69 75 97
18.5766 6.24508 -1.82931 67 79 103
18.597 6.15076 -1.82842 67 74 101
18.6075 6.08686 -1.82749 71 78 97
18.6121 6.02119 -1.82596 84 91 109
18.6184 5.95614 -1.82464 86 91 114
19.0413 -1.41718 -1.78178 76 76 97
19.0432 -1.51095 -1.78267 75 76 95
19.059 -1.57466 -1.78473 82 81 102
19.0192 -1.63381 -1.78118 85 85 104
19.047 -1.79247 -1.78533 84 85 105
19.4269 -4.81581 -1.77919 72 68 85
18.5396 6.77564 -1.84271 67 75 98
18.5428 6.70838 -1.84079 67 73 97
18.5542 6.61014 -1.8387 66 77 97
18.5662 6.54615 -1.83777 67 74 98
18.5573 6.47525 -1.83465 65 71 97
18.4681 7.12789 -1.8479 64 72 93
18.4837 7.06462 -1.84717 62 73 93
18.4935 6.99929 -1.84585 63 74 96
18.5157 6.90432 -1.84476 64 72 95
18.5231 6.83832 -1.84324 65 73 96
18.41 7.52222 -1.85644 63 74 94
18.4398 7.46399 -1.85711 64 70 94
18.4384 7.3591 -1.85323 63 70 96
18.4454 7.29232 -1.85151 64 72 94
18.4559 7.22696 -1.85018 65 73 94
19.2779 -5.61349 -1.78439 103 97 109
19.2878 -5.68366 -1.78713 71 68 77
19.2541 -5.77532 -1.78643 90 82 104
19.2539 -5.84282 -1.78821 87 83 99
18.358 7.88765 -1.86521 63 71 92
18.3853 7.82818 -1.86549 63 71 92
18.3718 7.75227 -1.86137 62 69 95
18.3959 7.65669 -1.86008 61 72 92
18.404 7.58981 -1.85836 60 70 93
19.2172 -5.89967 -1.78633 83 79 93
19.1482 -5.98059 -1.78217 95 85 94
19.1264 -6.04157 -1.78183 94 83 92
18.8972 -6.03874 -1.76055 98 88 97
18.6531 -6.02979 -1.73773 99 88 94
18.2983 8.21735 -1.87242 61 73 91
18.3192 8.11951 -1.87054 60 71 93
18.3252 8.05094 -1.86842 60 71 91
18.3328 7.98318 -1.8665 61 73 90
18.4074 -6.05167 -1.71571 101 89 93
18.1694 -6.04123 -1.69346 105 92 92
17.9393 -6.03178 -1.67198 103 91 90
17.7038 -6.051 -1.65091 110 98 98
17.5025 -6.04782 -1.63231 111 102 103
17.39 -6.07314 -1.62274 109 101 106
17.379 -6.16377 -1.62453 103 97 106
17.3228 -6.20738 -1.62073 103 96 105
17.2703 -6.25199 -1.61731 103 97 109
17.2102 -6.29369 -1.61311 103 98 105
17.1382 -6.36232 -1.60876 103 96 112
17.0872 -6.40664 -1.60553 104 100 109
17.0416 -6.45274 -1.60287 103 99 107
18.5843 -4.4525 -1.78055 75 73 90
18.5807 -4.51526 -1.7816 75 75 94
16.9877 -6.52697 -1.60043 107 100 108
16.9531 -6.57671 -1.59893 102 96 110
18.5544 -4.60456 -1.78107 77 74 93
18.5176 -4.65929 -1.77871 75 72 91
18.5345 -4.72719 -1.78197 72 69 87
18.488 -4.81132 -1.77943 74 69 89
16.9313 -6.63119 -1.59878 103 96 110
16.8692 -6.70178 -1.59557 101 95 109
16.8378 -6.7524 -1.59445 104 96 109
16.8211 -6.80864 -1.59487 103 97 105
17.3188 -7.06674 -1.64873 103 100 109
17.564 2.22655 -1.78558 103 92 90
17.5878 2.02473 -1.78557 81 83 104
17.5929 1.96687 -1.78542 83 85 108
17.5919 1.90839 -1.78462 66 65 89
17.5936 1.82111 -1.78384 69 59 77
17.6178 1.76521 -1.78584 111 97 90
17.5786 1.70318 -1.78095 106 92 92
17.5932 1.61731 -1.78168 80 77 97
45.6935 -12.1603 -4.41266 71 66 85
45.7156 -12.3217 -4.41873 74 69 89
45.6872 -12.4699 -4.4198 77 72 92
17.4008 -7.19674 -1.66071 104 101 110
17.4104 -7.2659 -1.66401 103 100 107
17.5746 3.64974 -1.81144 68 69 90
17.542 3.58325 -1.80655 62 69 88
17.5812 3.53101 -1.80963 67 72 93
17.5575 3.43674 -1.8052 69 75 94
17.5866 3.38242 -1.8072 66 71 91
17.5433 3.31474 -1.80124 65 72 90
17.5915 3.26387 -1.80539 64 70 90
17.582 3.17288 -1.80269 70 68 90
17.5809 3.11322 -1.80146 65 66 87
17.5719 3.05228 -1.79937 68 70 89
17.5731 2.96358 -1.79795 68 69 87
17.5773 2.90502 -1.79737 68 70 88
17.5793 2.84616 -1.79657 79 82 101
17.5893 2.7591 -1.79623 75 77 102
17.5889 2.69997 -1.79522 74 76 97
17.5843 2.64031 -1.79377 63 63 84
17.5875 2.58181 -1.79318 98 99 117
17.5648 2.49046 -1.7894 104 107 126
17.5537 2.43022 -1.7873 75 73 94
17.6191 2.29206 -1.79241 102 86 82
17.6145 1.50285 -1.78288 101 99 117
17.6143 1.41565 -1.7821 97 96 114
17.6075 1.241 -1.77991 84 82 104
17.6535 1.15705 -1.78431 81 83 104
17.6559 1.09911 -1.78415 74 77 96
17.672 1.04198 -1.7855 77 79 100
17.6854 0.955596 -1.78645 76 79 98
17.6931 0.897891 -1.78694 76 81 100
17.7006 0.840151 -1.78743 74 77 96
17.723 0.753963 -1.78946 76 77 98
17.7182 0.695636 -1.78866 75 77 98
17.7449 0.638493 -1.7913 69 74 93
17.7456 0.580343 -1.79114 69 73 94
17.747 0.493156 -1.79101 73 75 96
17.7513 0.435119 -1.79129 69 74 93
17.7395 0.376715 -1.78983 70 75 97
17.7459 0.289693 -1.79035 71 77 98
17.7376 0.231476 -1.78933 70 72 97
45.6333 -12.6112 -4.41837 88 84 101
18.3336 -5.5068 -1.78237 100 96 102
17.3994 -7.32696 -1.6652 101 95 107
17.3987 -7.42536 -1.66872 99 96 107
16.636 -7.23858 -1.59362 101 99 109
17.5137 4.3316 -1.82082 99 104 123
17.5203 4.2723 -1.82002 87 90 107
17.5267 4.21301 -1.81922 85 88 105
17.5413 4.1254 -1.81868 82 89 108
17.5375 4.06394 -1.8168 55 61 83
17.5374 4.0034 -1.81536 67 72 91
17.5449 3.94459 -1.81478 69 69 95
17.5679 3.85906 -1.81531 68 66 88
17.5613 3.79737 -1.81322 64 68 87
17.5389 3.73256 -1.80941 65 68 87
17.7251 0.173275 -1.78787 74 73 98
17.7325 0.0862999 -1.78861 72 74 95
17.7216 0.0282351 -1.78737 71 76 96
17.7185 -0.0297562 -1.78699 70 72 92
17.7053 -0.0876901 -1.78554 74 76 97
17.7094 -0.174622 -1.78605 74 74 96
17.7017 -0.232477 -1.78524 76 79 99
17.7235 -0.290702 -1.78767 73 78 93
17.7387 -0.377972 -1.78948 73 79 98
17.7263 -0.435733 -1.78824 80 78 99
17.7217 -0.493614 -1.78787 78 81 100
18.3838 -5.58609 -1.78945 103 101 113
18.2472 -5.61012 -1.77683 66 61 77
18.25 -5.70779 -1.77991 89 85 97
18.2252 -5.76482 -1.77915 82 79 95
17.4 -7.4918 -1.67125 105 99 109
16.577 -7.30891 -1.59098 102 96 106
16.5731 -7.37067 -1.59294 97 91 103
17.4544 4.89822 -1.82966 72 78 100
17.4513 4.83578 -1.82758 72 80 100
17.465 4.74731 -1.8266 72 76 103
17.4749 4.68847 -1.82602 69 75 97
17.4615 4.62374 -1.82286 75 73 97
17.4934 4.54015 -1.82403 69 75 96
17.5065 4.48226 -1.82388 81 85 105
17.5193 4.42431 -1.82373 96 102 123
17.7101 -0.580261 -1.78687 79 80 101
17.7209 -0.638578 -1.78822 79 80 100
17.7157 -0.696387 -1.78784 82 84 100
17.725 -0.783773 -1.78922 84 82 103
17.7153 -0.841382 -1.78841 80 78 102
17.7273 -0.899963 -1.78997 81 82 103
17.747 -0.959022 -1.7924 75 74 92
17.7431 -1.04605 -1.79248 76 77 98
18.2174 -5.82704 -1.7802 82 79 97
18.1867 -5.88213 -1.77883 80 77 88
18.1672 -5.97324 -1.77971 85 77 74
17.3379 -7.76376 -1.67584 101 95 107
17.3772 5.37189 -1.83558 69 77 98
17.4005 5.31649 -1.83629 71 78 97
17.386 5.21916 -1.83188 69 77 98
17.4069 5.16314 -1.83237 70 78 99
17.4258 5.10651 -1.83266 74 82 101
17.4179 5.01164 -1.8291 74 80 101
17.44 4.95601 -1.82981 72 79 99
17.7564 -1.10497 -1.79426 78 79 100
17.7478 -1.16265 -1.79367 81 80 99
17.7568 -1.25057 -1.79526 74 75 96
17.7497 -1.30833 -1.79488 80 83 102
17.7503 -1.36663 -1.79537 80 80 99
17.7544 -1.4544 -1.79653 79 77 98
17.7565 -1.51289 -1.79723 77 79 94
18.1134 -6.02075 -1.77593 109 97 97
17.9329 -6.02675 -1.75868 101 91 94
17.6942 -6.04432 -1.73623 104 92 96
17.4689 -6.03259 -1.71416 104 93 91
17.2589 -6.02459 -1.69369 108 97 92
17.0453 -6.04504 -1.67385 103 87 90
16.832 -6.03289 -1.65298 105 93 93
17.2942 -7.81137 -1.67376 105 100 107
17.2472 -7.89083 -1.67266 107 101 113
17.2992 5.78575 -1.8407 68 76 95
17.327 5.70046 -1.8408 68 76 97
17.3286 5.63817 -1.83893 69 77 98
17.3394 5.57888 -1.83814 68 76 97
17.3386 5.5161 -1.83606 65 76 96
17.3689 5.43178 -1.83659 69 77 98
17.7525 -1.57091 -1.79728 82 83 102
17.7601 -1.62994 -1.79863 81 82 102
17.763 -1.71787 -1.79979 80 81 99
17.7524 -1.77534 -1.79919 80 78 99
17.7298 -1.83159 -1.7973 89 88 106
17.7436 -1.92069 -1.79975 88 86 105
16.6415 -6.02733 -1.63452 105 93 95
16.4755 -6.02925 -1.61868 111 99 100
16.3918 -6.08968 -1.6127 104 94 105
16.3641 -6.13976 -1.61173 104 98 112
17.225 -7.94768 -1.67289 103 97 109
17.1936 -8.0004 -1.67215 102 99 110
16.3523 -7.8476 -1.59189 102 96 108
17.234 6.11148 -1.84506 67 74 93
17.2821 6.06435 -1.84835 82 90 108
17.2416 5.98742 -1.84154 85 89 110
17.2798 5.90547 -1.84272 68 73 92
17.2688 5.83886 -1.83934 69 76 95
17.7284 -1.9776 -1.79872 123 120 137
17.7821 -2.04196 -1.80525 116 111 127
17.6667 -2.11693 -1.79367 87 84 103
17.6528 -2.23208 -1.79355 87 85 106
17.6859 -2.29459 -1.79792 88 89 108
16.3177 -6.18289 -1.60875 106 98 109
16.2558 -6.25025 -1.60519 105 98 105
16.1998 -6.28932 -1.60121 103 95 106
17.162 -8.08664 -1.67279 101 98 107
17.1193 -8.13413 -1.6709 100 97 108
17.1846 6.47649 -1.85303 68 75 94
17.2157 6.39169 -1.85313 68 74 98
17.2065 6.3245 -1.84976 69 75 99
17.2176 6.26465 -1.84876 70 75 97
17.2286 6.2048 -1.84775 64 70 92
17.6601 -2.3792 -1.79627 82 83 103
17.6474 -2.43609 -1.79567 85 83 104
17.6307 -2.49239 -1.79464 82 85 102
17.6157 -2.57818 -1.79429 90 88 109
17.628 -2.6385 -1.7965 87 84 105
16.1568 -6.33301 -1.59863 101 93 105
16.1184 -6.40849 -1.59768 98 92 102
16.075 -6.45173 -1.5951 98 90 101
17.1441 6.81589 -1.86168 67 75 98
17.1476 6.75246 -1.8596 65 72 98
17.1658 6.69466 -1.85924 66 75 97
17.1588 6.59551 -1.85483 66 74 97
17.182 6.53976 -1.85511 67 74 93
17.6264 -2.69691 -1.79719 89 86 105
17.6085 -2.78233 -1.79662 87 88 108
17.5985 -2.83951 -1.79646 84 82 101
17.5962 -2.89788 -1.79715 85 83 105
17.582 -2.95438 -1.79655 88 87 103
16.0426 -6.49911 -1.59373 104 98 105
15.9972 -6.54123 -1.59094 105 97 109
17.0834 7.11748 -1.86735 67 73 97
17.1045 7.02803 -1.86595 68 72 97
17.1051 6.96309 -1.86344 67 73 95
17.1314 6.90824 -1.86394 68 75 94
17.5864 -3.04336 -1.79857 90 88 110
17.5717 -3.09977 -1.79797 88 86 107
17.555 -3.15578 -1.79715 86 83 104
17.5388 -3.24136 -1.79701 85 84 102
17.5196 -3.29685 -1.79598 88 86 107
15.9561 -6.61506 -1.58979 97 91 103
15.9343 -6.66637 -1.58963 104 98 110
15.8939 -6.7101 -1.58745 98 92 102
17.0348 7.39322 -1.87369 81 93 110
17.0517 7.30155 -1.87165 64 72 95
17.0662 7.24168 -1.87065 63 71 94
17.0749 7.17956 -1.869 64 72 93
16.6656 2.61504 -1.78157 55 57 71
16.6647 2.55876 -1.78051 107 106 124
16.6381 2.49888 -1.77651 92 93 110
16.6427 2.44358 -1.77612 116 117 136
16.718 2.3138 -1.78257 94 85 89
16.6414 2.24798 -1.77295 101 85 85
16.6447 2.16484 -1.77214 84 79 99
16.63 2.05183 -1.76888 78 80 103
16.6738 1.97349 -1.77279 89 90 111
16.6748 1.91798 -1.77218 67 67 87
16.6342 1.85812 -1.76683 65 71 90
16.6427 1.80359 -1.76711 73 64 73
16.7288 1.72896 -1.77598 108 93 89
16.6579 1.66666 -1.76725 109 94 89
16.6681 1.52928 -1.76695 105 106 124
16.7606 1.4817 -1.77691 102 101 117
16.6928 1.4207 -1.76864 105 106 125
16.7197 1.22916 -1.76996 78 79 103
16.7302 1.17457 -1.77069 76 77 97
16.7542 1.09312 -1.77281 78 76 98
16.7564 1.03792 -1.77264 74 79 98
16.7703 0.983365 -1.77382 75 80 100
16.7834 0.901056 -1.7748 74 81 95
17.5159 -3.35509 -1.79667 87 85 106
17.5105 -3.44265 -1.79783 86 83 104
17.4869 -3.49718 -1.79636 95 92 111
17.4611 -3.55121 -1.79468 89 86 105
15.8594 -6.78634 -1.5871 99 93 105
15.8041 -6.82355 -1.58331 99 93 105
15.767 -6.86818 -1.58153 101 94 110
16.9829 7.60299 -1.87731 66 68 93
17.0083 7.51444 -1.87613 83 88 108
17.0143 7.45075 -1.87405 82 89 108
16.6163 3.54023 -1.79453 67 74 92
16.6316 3.45775 -1.79439 70 71 92
16.649 3.40412 -1.79513 71 72 92
16.6273 3.34298 -1.79137 71 73 92
16.6475 3.26156 -1.79191 67 74 89
16.635 3.20247 -1.78927 67 69 88
16.636 3.14595 -1.7882 67 68 88
16.6466 3.09117 -1.78826 70 71 91
16.6461 3.00627 -1.78656 69 73 92
16.6562 2.95147 -1.78662 67 69 86
16.6623 2.896 -1.78623 64 69 89
16.6393 2.80775 -1.78204 78 80 103
16.641 2.75175 -1.7812 80 81 102
16.666 2.69938 -1.78306 77 80 99
16.7929 0.846162 -1.77554 74 75 96
16.7943 0.790874 -1.77537 73 78 98
16.8086 0.708434 -1.77658 75 78 98
16.8215 0.653543 -1.77776 74 81 100
16.8242 0.598258 -1.77781 75 75 99
16.8268 0.542957 -1.77787 74 73 98
16.8241 0.459858 -1.77728 71 74 95
16.8401 0.404862 -1.77891 74 77 96
16.8402 0.349488 -1.77874 73 74 95
16.8206 0.266172 -1.77634 71 71 97
16.8262 0.210943 -1.77685 72 77 99
16.8375 0.15573 -1.77803 72 77 99
16.8071 0.0726395 -1.7745 73 74 95
16.818 0.0174135 -1.77568 75 78 96
16.8129 -0.0378249 -1.77506 74 75 96
16.8214 -0.0931165 -1.77602 77 78 99
17.4604 -3.61011 -1.79581 88 85 104
17.4402 -3.69477 -1.79545 84 82 103
17.4216 -3.75007 -1.79463 79 77 98
17.4145 -3.80772 -1.7951 87 84 101
45.5538 -12.6585 -4.6306 72 67 87
45.5119 -12.8811 -4.63259 83 81 95
15.7208 -6.93909 -1.57998 101 95 109
15.6761 -6.98019 -1.57739 102 96 110
16.9782 7.6675 -1.87961 63 71 92
16.5938 4.10992 -1.80605 69 75 97
16.6016 4.05391 -1.80544 70 74 99
16.6112 3.99833 -1.80505 75 77 102
16.6186 3.9423 -1.80444 70 68 92
16.6281 3.85804 -1.80341 95 98 117
16.6138 3.79738 -1.80032 91 98 116
16.6167 3.74059 -1.79926 94 99 118
16.631 3.65768 -1.7989 56 63 82
16.6218 3.59852 -1.79649 64 71 89
16.8117 -0.175898 -1.77497 74 79 99
16.8059 -0.231039 -1.77435 75 75 99
16.806 -0.286244 -1.7744 75 76 100
16.8172 -0.369312 -1.77583 73 75 97
16.8048 -0.424241 -1.77453 77 79 100
16.8181 -0.479828 -1.77616 77 77 102
16.8185 -0.562735 -1.77647 80 80 99
16.8234 -0.618177 -1.7772 82 78 101
16.8242 -0.673492 -1.77747 75 76 95
17.3759 -3.88836 -1.7928 84 81 97
17.3838 -3.94926 -1.79501 86 82 96
17.3644 -4.00426 -1.79419 83 78 97
17.354 -4.09097 -1.79512 79 76 95
15.635 -7.02264 -1.57521 105 99 111
15.5919 -7.0641 -1.57283 105 99 113
16.5532 4.65269 -1.8167 91 96 116
16.5512 4.59359 -1.81474 76 79 100
16.5485 4.50529 -1.81191 64 69 89
16.5575 4.44929 -1.8113 69 74 99
16.5626 4.39231 -1.81024 73 78 98
16.5838 4.31043 -1.81033 73 78 97
16.6096 4.25859 -1.81174 73 75 98
16.5774 4.19276 -1.80641 71 75 99
16.8288 -0.728981 -1.7782 73 74 92
16.828 -0.811941 -1.77851 82 81 99
16.842 -0.867983 -1.78036 81 79 100
16.8361 -0.923049 -1.77996 80 78 100
16.8344 -1.00605 -1.78027 78 79 94
16.8558 -1.06276 -1.78303 78 79 97
16.8611 -1.11858 -1.78398 81 79 100
17.3265 -4.14403 -1.79344 79 76 93
17.3181 -4.20145 -1.79391 78 75 92
17.3211 -4.26158 -1.79569 78 77 93
17.2825 -4.34167 -1.79359 73 71 85
15.5503 -7.13637 -1.57188 101 96 110
15.4997 -7.17415 -1.56869 103 99 110
15.4599 -7.21657 -1.56671 101 95 107
16.4784 5.04375 -1.82052 73 78 100
16.5065 4.96331 -1.82107 66 71 91
16.5189 4.90782 -1.82068 73 78 98
16.5064 4.84539 -1.81737 86 91 113
16.5431 4.76742 -1.81904 99 104 123
16.5473 4.70978 -1.81776 91 99 118
16.8505 -1.20115 -1.78338 78 79 97
16.8475 -1.25644 -1.78343 83 82 100
16.8621 -1.31306 -1.78551 83 81 102
16.8507 -1.39555 -1.78491 78 79 99
16.8569 -1.45165 -1.78609 82 82 100
16.8492 -1.5066 -1.78569 79 77 98
16.8551 -1.56275 -1.78687 83 82 100
17.2599 -4.39568 -1.79256 73 70 88
17.2643 -4.45626 -1.79455 74 71 91
17.2401 -4.53974 -1.79418 76 75 93
15.405 -7.28232 -1.56435 105 102 108
15.3721 -7.32761 -1.56317 104 101 107
16.4278 5.41457 -1.82729 72 74 97
16.4379 5.35805 -1.82646 69 77 96
16.4232 5.29397 -1.8227 71 78 96
16.45 5.24269 -1.82389 71 78 96
16.4771 5.16186 -1.82421 70 75 97
16.4921 5.10697 -1.82405 71 77 99
16.8464 -1.64547 -1.78672 83 81 102
16.8381 -1.70032 -1.78632 87 85 106
16.8473 -1.75694 -1.78795 79 77 99
16.8141 -1.83707 -1.78509 84 82 103
16.8367 -1.89522 -1.7883 91 92 110
16.8177 -1.94886 -1.78677 112 110 126
17.2209 -4.59449 -1.79358 74 71 90
17.2207 -4.65413 -1.79513 76 75 91
17.1994 -4.73835 -1.7952 75 73 89
17.1815 -4.79341 -1.79481 71 68 85
15.3337 -7.37026 -1.56139 106 100 112
16.3491 5.74855 -1.8305 68 74 98
16.3565 5.69087 -1.82921 69 77 96
16.3782 5.60807 -1.82864 69 75 97
16.3965 5.55404 -1.8287 71 77 99
16.4052 5.49695 -1.82764 70 76 99
16.8821 -2.0401 -1.79519 116 114 128
16.7564 -2.08096 -1.78148 124 116 136
16.7506 -2.19155 -1.78225 83 84 102
16.7508 -2.2752 -1.78345 85 83 104
16.7562 -2.33169 -1.78485 85 83 104
17.1222 -4.89703 -1.79144 78 76 90
17.1342 -4.99036 -1.7954 79 77 91
16.262 6.08092 -1.83347 67 74 95
16.28 5.99646 -1.83222 82 87 107
16.3163 5.94856 -1.83431 84 89 111
16.3226 5.89022 -1.8328 69 71 92
16.3283 5.8018 -1.83021 70 78 101
16.7496 -2.38661 -1.7849 85 83 104
16.7312 -2.46781 -1.78407 91 90 106
16.736 -2.52436 -1.78547 88 87 105
16.719 -2.57774 -1.78439 83 84 102
17.1212 -5.04677 -1.79565 79 77 91
17.1061 -5.10259 -1.79569 84 82 96
16.2328 6.34446 -1.84059 68 74 96
16.2613 6.26337 -1.84046 71 78 97
16.263 6.20294 -1.83828 71 77 99
16.272 6.14523 -1.837 65 71 93
16.6978 -2.65839 -1.78334 89 91 106
16.7098 -2.71618 -1.78564 89 88 103
16.6786 -2.76716 -1.78298 83 82 98
16.6824 -2.82372 -1.78438 89 87 103
16.6678 -2.90536 -1.78422 93 90 108
17.054 -5.38899 -1.79894 89 75 72
16.1884 6.60415 -1.84635 69 76 95
16.1801 6.53934 -1.84282 67 73 95
16.2189 6.46197 -1.84382 66 74 93
16.2287 6.40424 -1.84254 67 75 98
16.6439 -2.95727 -1.78246 91 90 104
16.6569 -3.01556 -1.78499 96 95 111
16.6238 -3.09387 -1.78281 82 79 98
16.6227 -3.14975 -1.78376 89 86 105
16.6136 -3.20419 -1.7838 86 85 101
17.0898 -5.52127 -1.8068 98 93 85
16.9577 -5.54077 -1.79365 98 94 95
16.1455 6.86615 -1.85278 65 73 96
16.1549 6.80767 -1.85128 66 74 96
16.1603 6.74774 -1.84933 68 74 96
16.1797 6.6626 -1.84785 68 77 94
16.6011 -3.28617 -1.7841 86 83 102
16.5838 -3.33902 -1.78324 86 83 101
16.5683 -3.39217 -1.78261 86 85 103
16.5643 -3.4476 -1.78333 89 85 103
16.9077 -5.61584 -1.7909 96 90 99
16.9154 -5.67887 -1.79375 70 67 78
16.9135 -5.73892 -1.79552 88 86 99
16.0961 7.06446 -1.85614 71 78 98
16.1043 7.00523 -1.85441 62 69 88
16.1268 6.92092 -1.85317 66 74 95
16.5546 -3.53015 -1.78407 93 91 105
16.5404 -3.58354 -1.78367 102 98 112
16.5202 -3.63563 -1.78258 91 89 105
16.498 -3.71548 -1.78197 78 75 94
16.8796 -5.8191 -1.79472 86 84 97
16.8414 -5.8672 -1.79238 85 81 96
16.8162 -5.91956 -1.79155 81 77 91
16.0661 7.20875 -1.85934 88 96 115
16.0804 7.12064 -1.85697 72 77 96
16.4871 -3.7695 -1.78202 84 82 95
16.4664 -3.8213 -1.78093 81 77 92
16.4549 -3.90348 -1.78168 74 70 87
16.7872 -6.00111 -1.7914 82 73 92
16.7185 -6.03829 -1.7856 98 88 96
16.5149 -6.02788 -1.76422 91 80 88
16.3209 -6.01955 -1.74392 102 91 94
16.4434 -3.95734 -1.78172 75 76 92
16.4299 -4.01071 -1.78154 77 75 93
16.4972 -4.0834 -1.79084 79 76 95
16.39 -4.14274 -1.78052 75 77 92
16.1252 -6.03907 -1.7245 106 92 91
15.9372 -6.03016 -1.70485 109 95 92
15.7681 -6.02694 -1.68736 112 97 92
15.5768 -6.04337 -1.66838 111 96 91
15.4062 -6.03713 -1.65067 114 99 94
16.372 -4.19495 -1.77988 75 77 92
16.3673 -4.25047 -1.78083 78 77 91
16.3404 -4.32884 -1.77999 69 68 85
15.2488 -6.03479 -1.63447 113 99 99
15.1174 -6.06971 -1.62241 109 98 107
15.101 -6.11986 -1.62266 109 99 107
16.3333 -4.3838 -1.78071 71 69 88
16.3319 -4.44028 -1.7821 76 73 89
16.3002 -4.51735 -1.78082 73 70 86
16.2887 -4.57121 -1.78108 75 72 91
15.0511 -6.15695 -1.61901 107 98 111
15.0178 -6.20034 -1.61731 106 99 108
15.5569 2.532 -1.78579 103 104 122
15.5186 2.47348 -1.78008 111 109 128
15.5512 2.29487 -1.78075 102 87 84
15.5277 2.23923 -1.77696 101 87 83
15.5928 1.93443 -1.77994 64 62 83
15.5956 1.8826 -1.77951 72 68 91
15.5826 1.82899 -1.77716 55 49 62
15.578 1.75047 -1.77556 107 93 92
15.5606 1.69665 -1.77273 107 93 84
15.5588 1.64458 -1.77182 82 74 88
15.7032 1.52877 -1.78783 101 100 118
15.5784 1.46513 -1.77201 98 100 115
15.5936 1.4147 -1.77327 97 96 114
16.2713 -4.62346 -1.78067 73 70 91
16.2634 -4.67829 -1.78139 72 73 93
16.2439 -4.75863 -1.78168 71 68 88
14.9856 -6.27251 -1.61694 102 99 110
14.9447 -6.3126 -1.61437 105 101 109
14.9238 -6.36072 -1.61418 104 99 111
15.5632 3.2226 -1.80138 73 76 95
15.5702 3.09049 -1.79912 69 71 91
15.565 3.03621 -1.79726 72 73 94
15.5695 2.98379 -1.79659 73 75 97
15.5342 2.6073 -1.7845 92 90 110
16.2279 -4.81123 -1.78149 73 67 86
16.185 -4.85604 -1.77814 86 79 95
16.1933 -4.94443 -1.78182 75 71 86
14.8671 -6.42254 -1.61099 107 99 112
14.8404 -6.46811 -1.61016 105 98 108
14.7989 -6.50742 -1.60759 102 94 105
15.5065 3.74803 -1.80824 72 70 97
15.5035 3.6933 -1.80638 74 72 94
15.5294 3.64519 -1.80812 65 66 86
15.5184 3.58878 -1.80529 69 74 93
15.5593 3.46318 -1.80688 68 73 92
15.536 3.40448 -1.80262 66 71 90
15.5624 3.32958 -1.80391 68 71 90
15.5639 3.27627 -1.80276 65 65 86
16.1824 -4.99853 -1.78231 77 75 89
16.1561 -5.04803 -1.781 80 77 91
16.1084 -5.11973 -1.77812 83 77 89
14.7544 -6.57377 -1.60591 105 97 108
14.7181 -6.61498 -1.60399 106 98 111
15.5037 4.12782 -1.81887 93 99 115
15.5193 4.07712 -1.81917 95 101 117
15.5078 4.01966 -1.81611 96 101 121
15.5081 3.93814 -1.8138 77 79 96
15.5251 3.88788 -1.81433 60 62 82
15.5052 3.82885 -1.81031 64 64 87
14.6745 -6.65286 -1.60121 106 98 109
14.6525 -6.70006 -1.60102 106 98 109
15.4502 4.55307 -1.82607 91 94 113
15.4576 4.4999 -1.82517 90 91 111
15.4801 4.45095 -1.82619 88 89 109
15.4749 4.36698 -1.82292 74 81 100
15.4855 4.31485 -1.8225 63 67 91
15.4864 4.26017 -1.82088 65 72 91
15.5043 4.21003 -1.82142 84 89 108
16.0378 -5.47185 -1.78222 109 99 95
14.5963 -6.76068 -1.59804 106 99 107
14.556 -6.79953 -1.59569 108 101 108
15.3992 4.87101 -1.83098 74 80 101
15.3563 4.80247 -1.82361 72 77 98
15.372 4.72408 -1.82274 69 75 97
15.3742 4.66939 -1.82112 72 76 101
15.3782 4.61529 -1.81974 72 75 98
15.9658 -5.53478 -1.77663 105 99 103
15.9755 -5.59589 -1.77983 78 72 83
14.5245 -6.84225 -1.59442 104 97 105
14.4659 -6.90115 -1.59122 109 102 110
14.4234 -6.93853 -1.58865 108 103 110
15.3482 5.16281 -1.83568 70 75 96
15.3501 5.10725 -1.83383 70 74 99
15.3725 5.05828 -1.83461 71 77 101
15.3683 5.00097 -1.83203 70 74 99
15.383 4.92185 -1.83092 72 80 98
15.091 2.51302 -1.77664 96 94 115
15.0839 2.46066 -1.77473 110 111 129
15.0693 2.35613 -1.7709 92 85 103
15.187 2.29635 -1.78426 100 85 82
15.0928 2.2319 -1.77153 100 86 85
15.1286 2.0582 -1.77295 79 82 101
15.1339 2.00788 -1.77276 72 72 96
15.1105 1.92874 -1.76866 65 66 86
15.1173 1.87874 -1.76871 63 67 86
15.0884 1.8247 -1.76434 67 63 78
15.1686 1.75749 -1.77328 104 88 88
15.1039 1.69982 -1.76448 103 91 87
15.1178 1.65065 -1.76551 85 76 88
15.2247 1.53433 -1.77721 98 98 116
15.1473 1.47641 -1.76693 101 98 115
15.1408 1.42527 -1.76551 111 110 126
15.1472 1.29955 -1.7649 79 84 104
15.1896 1.25234 -1.76963 75 76 97
15.1902 1.17656 -1.76897 79 82 101
15.1986 1.1266 -1.76951 78 79 105
15.191 1.07556 -1.76809 76 77 98
15.1931 1.02521 -1.7679 80 84 103
15.2243 0.951346 -1.77117 78 80 103
15.23 0.901128 -1.77147 80 77 104
15.2178 0.849967 -1.76956 74 75 95
15.2403 0.775331 -1.77185 78 79 100
15.2375 0.724701 -1.77116 78 79 100
15.2385 0.67426 -1.77097 73 75 96
15.2443 0.598786 -1.77129 71 76 96
15.2529 0.548596 -1.77208 70 75 95
15.2633 0.498429 -1.77312 76 77 98
15.2478 0.447517 -1.77095 77 80 99
15.2624 0.3722 -1.77251 73 80 98
15.2683 0.32184 -1.77305 74 75 96
15.2641 0.271307 -1.77236 75 73 94
15.6923 -1.99332 -1.79006 116 114 128
15.6868 -2.04481 -1.79011 113 110 127
15.6831 -2.09653 -1.7904 122 120 134
15.9756 -5.6539 -1.7819 64 59 72
15.9366 -5.7277 -1.78038 87 85 100
15.9138 -5.77784 -1.77974 85 83 97
15.2713 5.41896 -1.83658 66 74 97
15.2862 5.33939 -1.83523 69 73 98
15.3093 5.29069 -1.83601 70 76 100
15.3248 5.23945 -1.83583 70 77 97
15.0812 3.18289 -1.79041 67 68 89
15.0831 3.10531 -1.78878 65 63 84
15.0936 3.05533 -1.78883 71 72 93
15.0981 3.00425 -1.78815 70 75 97
15.0907 2.95102 -1.786 64 65 86
15.0954 2.87428 -1.78485 65 70 89
15.0876 2.8212 -1.78269 72 74 95
15.0835 2.76888 -1.78103 83 85 109
15.0893 2.69262 -1.78013 70 75 96
15.1005 2.64297 -1.78043 67 69 88
15.1741 2.60341 -1.7886 110 111 128
15.2561 0.195557 -1.77121 75 77 98
15.2575 0.145158 -1.77126 74 76 97
15.2666 0.0947759 -1.77229 81 82 103
15.2598 0.0191335 -1.77139 77 78 98
15.2645 -0.0312843 -1.77193 77 80 99
15.2811 -0.0818117 -1.77395 79 80 98
15.2657 -0.132122 -1.77203 79 75 98
15.2875 -0.208063 -1.77481 82 80 101
15.2857 -0.258506 -1.77461 71 72 93
15.2697 -0.308653 -1.77269 82 80 102
15.2729 -0.384375 -1.77326 80 78 100
15.8909 -5.8279 -1.7791 85 81 95
15.8772 -5.8812 -1.77959 84 79 93
15.216 5.6549 -1.83965 70 77 100
15.2289 5.60258 -1.839 69 77 98
15.2522 5.52568 -1.83861 71 77 99
15.259 5.47135 -1.83723 68 76 99
15.0423 3.64557 -1.798 70 71 94
15.0487 3.59441 -1.79732 68 69 90
15.0549 3.54326 -1.79665 69 73 93
15.0547 3.46463 -1.79452 63 68 88
15.0644 3.41434 -1.79433 67 72 91
15.0584 3.36075 -1.79218 66 68 88
15.067 3.2843 -1.79128 71 70 88
15.0917 3.23713 -1.79306 68 73 91
15.2705 -0.434738 -1.77306 77 78 98
15.258 -0.48477 -1.77163 75 76 94
15.2801 -0.561199 -1.77466 76 78 95
15.2494 -0.610455 -1.77102 80 77 98
15.276 -0.661971 -1.77451 82 81 99
15.2687 -0.712117 -1.77382 81 82 100
15.2759 -0.788194 -1.77513 82 80 101
15.29 -0.839457 -1.77715 76 76 97
15.8446 -5.95702 -1.77897 86 79 92
15.8025 -5.99997 -1.77606 80 71 80
15.6691 -6.009 -1.76209 112 100 103
15.4967 -6.03152 -1.74452 107 93 90
15.1007 5.92666 -1.83787 74 81 102
15.1691 5.83755 -1.84183 72 80 100
15.1916 5.76018 -1.84121 69 77 100
15.2011 5.70654 -1.84007 70 78 101
14.9959 4.05723 -1.80466 63 65 82
15.0017 4.00557 -1.80374 59 60 81
15.0227 3.95774 -1.80478 76 76 99
15.0246 3.87881 -1.80266 68 70 92
15.0414 3.82994 -1.80321 71 69 93
15.0753 3.78511 -1.80597 73 74 95
15.088 3.7088 -1.80532 66 67 91
15.3 -0.890577 -1.77867 79 78 97
15.3084 -0.967023 -1.78022 80 79 95
15.2923 -1.01662 -1.77855 74 78 97
15.2918 -1.06719 -1.77884 78 77 96
15.3092 -1.14444 -1.78162 81 79 100
15.3064 -1.19493 -1.78167 87 89 110
15.2797 -1.24353 -1.77876 74 76 96
15.3228 -6.02323 -1.72556 110 95 92
15.1491 -6.01389 -1.70661 112 98 93
14.9791 -6.03308 -1.68926 114 99 92
14.8077 -6.02216 -1.67053 110 95 90
15.108 6.13059 -1.84748 72 77 101
15.1002 6.0699 -1.84395 85 88 107
15.0922 6.00931 -1.84042 81 90 107
14.9689 4.42378 -1.81334 72 75 96
14.9816 4.3736 -1.81315 91 91 112
14.9673 4.31612 -1.80953 89 89 110
14.9959 4.24369 -1.8106 94 95 115
14.985 4.18741 -1.80746 91 92 112
15.0162 4.1422 -1.80973 73 76 96
15.3082 -1.29652 -1.78275 75 73 94
15.3007 -1.37205 -1.78258 76 74 95
15.3071 -1.42339 -1.78385 75 78 97
15.2876 -1.47238 -1.78193 74 77 98
15.2892 -1.54875 -1.78299 78 76 96
15.3009 -1.60074 -1.785 87 86 103
14.6605 -6.01969 -1.65474 110 96 94
14.5097 -6.01487 -1.6385 110 97 97
14.3406 -6.02902 -1.62115 109 98 101
14.2416 -6.04312 -1.61123 105 95 103
15.0478 6.36761 -1.85128 71 76 98
15.0557 6.3126 -1.84966 68 74 97
15.0688 6.2598 -1.84877 71 77 99
15.0856 6.20844 -1.84835 67 74 93
14.9074 4.72923 -1.81666 72 78 102
14.9283 4.65446 -1.81651 72 76 103
14.9322 4.60161 -1.81509 72 78 102
14.936 4.54879 -1.81368 71 77 99
14.9503 4.47231 -1.81279 69 76 98
15.2789 -1.64933 -1.78283 86 86 107
15.258 -1.72335 -1.78118 79 79 99
15.2829 -1.77697 -1.78492 83 83 106
15.2761 -1.8271 -1.78472 85 86 105
15.2652 -1.87674 -1.78403 74 71 91
14.196 -6.07853 -1.60787 103 95 103
14.1736 -6.15068 -1.6086 102 96 108
15.0147 6.5584 -1.85633 69 77 96
15.0195 6.50183 -1.85423 68 76 96
15.0334 6.44906 -1.85334 70 76 100
14.868 4.96133 -1.82057 71 77 100
14.8767 4.90963 -1.81965 71 79 101
14.8852 4.83092 -1.81777 73 81 102
14.8992 4.78094 -1.81759 70 78 99
15.2576 -2.00321 -1.78488 118 116 131
15.2108 -2.04812 -1.77975 115 113 127
15.2136 -2.12488 -1.7813 85 82 103
15.2134 -2.22677 -1.78286 80 80 99
14.146 -6.19334 -1.6075 106 98 111
14.0945 -6.22582 -1.60346 109 100 111
14.9866 6.69341 -1.85953 67 77 97
14.9993 6.63987 -1.85839 67 75 96
14.8043 5.24125 -1.82392 69 75 97
14.8365 5.19706 -1.82594 71 76 98
14.8328 5.14104 -1.8233 71 75 98
14.8425 5.06231 -1.82143 73 75 98
14.8534 5.01122 -1.82075 75 78 99
15.2135 -2.30337 -1.78417 91 88 107
14.055 -6.29048 -1.60215 110 102 113
14.0087 -6.32477 -1.59879 107 99 108
13.9806 -6.36677 -1.59769 105 99 110
14.7375 5.49347 -1.82632 69 73 98
14.7659 5.42066 -1.82665 70 79 97
14.7705 5.36713 -1.82499 69 75 97
14.7843 5.3168 -1.82456 72 78 101
15.1886 -2.52963 -1.78511 87 89 109
15.1389 -2.62378 -1.78075 91 89 110
15.1546 -2.70325 -1.78427 88 84 105
15.3587 -3.90305 -1.79001 74 71 90
15.3236 -3.97427 -1.7879 78 80 94
15.3157 -4.02547 -1.78843 77 76 92
15.2692 -4.0669 -1.78413 77 76 90
13.9451 -6.40546 -1.59568 103 97 111
13.8904 -6.46276 -1.59257 104 98 108
14.6738 5.71992 -1.82849 70 76 98
14.7163 5.65214 -1.83055 73 80 98
14.7142 5.59589 -1.82791 68 76 99
14.7549 5.55496 -1.83092 69 76 102
15.2565 -4.14345 -1.78491 75 73 94
15.2289 -4.18944 -1.78302 77 76 94
15.2146 -4.23885 -1.78282 78 75 94
13.8709 -6.50836 -1.59259 104 99 103
13.8152 -6.53748 -1.5881 104 98 110
14.6448 5.90421 -1.83319 74 79 100
14.6472 5.82144 -1.82984 69 77 98
14.6941 5.78309 -1.83359 71 75 98
15.0534 -3.14625 -1.78145 88 87 103
15.0424 -3.19541 -1.78125 88 86 101
15.1972 -4.31416 -1.78312 74 69 89
15.171 -4.36031 -1.78147 68 66 83
15.2021 -4.42222 -1.78706 67 67 85
13.7887 -6.60714 -1.5886 106 98 109
14.6413 6.09944 -1.84156 82 89 108
14.5984 5.99853 -1.83208 81 87 106
14.6161 5.94928 -1.8319 83 89 110
15.028 -3.26967 -1.78131 93 89 106
15.0321 -3.32202 -1.78308 85 82 100
14.9992 -3.36648 -1.78016 84 79 99
15.1947 -4.47365 -1.78782 77 75 93
15.1666 -4.54615 -1.78691 71 71 89
15.1684 -4.60026 -1.78888 63 62 76
14.5247 6.30723 -1.83785 70 78 99
14.5808 6.2451 -1.84137 69 75 97
14.5569 6.17896 -1.83555 69 75 98
14.5936 6.13712 -1.83782 67 72 95
14.986 -3.44095 -1.78047 81 77 92
14.9895 -3.49331 -1.78224 82 78 95
14.9755 -3.54176 -1.78179 77 74 91
14.9537 -3.61433 -1.78111 78 74 88
15.1528 -4.64942 -1.78868 73 70 90
15.1182 -4.71993 -1.78705 79 76 95
14.507 6.49892 -1.84499 67 75 98
14.5052 6.4128 -1.84066 67 75 96
14.5334 6.36757 -1.84171 69 75 98
14.9296 -3.66036 -1.77942 88 81 100
14.9286 -3.7118 -1.7807 78 74 89
14.9138 -3.75999 -1.78024 62 58 76
15.0871 -4.76433 -1.78492 63 58 78
14.8949 -3.83311 -1.78006 77 75 88
14.8856 -3.8826 -1.78034 74 73 87
14.8684 -3.93012 -1.77964 83 82 98
14.8621 -4.00647 -1.78119 79 79 92
14.8311 -4.05034 -1.77876 77 75 89
14.823 -4.10015 -1.77929 74 72 87
14.2181 1.91928 -1.7802 68 70 85
14.1885 1.84386 -1.77502 71 69 81
14.301 1.80996 -1.78925 112 98 91
14.2034 1.7503 -1.77538 110 90 92
14.2162 1.68034 -1.77597 120 108 106
14.2399 1.63534 -1.77839 79 75 95
14.2637 1.51871 -1.77982 99 98 114
14.2456 1.46924 -1.77671 101 98 117
14.2707 1.42409 -1.77939 101 101 119
14.2879 1.25907 -1.77955 80 82 103
14.2985 1.21239 -1.78039 73 75 96
14.3127 1.14218 -1.78151 77 78 99
14.3131 1.09464 -1.78103 77 80 98
14.3094 1.04682 -1.78002 76 74 98
14.3367 0.977415 -1.78299 81 78 97
14.3267 0.929214 -1.78119 81 82 102
14.3284 0.881809 -1.78097 73 78 97
14.3437 0.835201 -1.7826 74 77 96
14.3444 0.763986 -1.78214 72 73 94
14.3673 0.717631 -1.78482 75 76 94
14.3564 0.669584 -1.78302 72 77 97
14.3622 0.598611 -1.78335 68 74 94
14.3708 0.551456 -1.78419 70 76 97
14.7968 -4.17122 -1.77836 73 70 91
14.7883 -4.22095 -1.7789 76 75 93
14.7663 -4.26695 -1.7777 76 73 90
14.7536 -4.31553 -1.77774 68 65 82
14.1787 2.61128 -1.78947 85 85 104
14.289 2.58203 -1.80318 100 99 117
14.1808 2.51481 -1.78747 109 109 127
14.2031 2.4702 -1.78936 108 109 127
14.1416 2.33967 -1.77845 107 100 107
14.2904 2.31489 -1.79741 105 91 90
14.1885 2.22686 -1.78225 113 104 105
14.1921 2.13133 -1.78077 75 78 98
14.2126 2.06231 -1.78216 89 89 110
14.2237 2.01588 -1.78273 79 82 97
14.219 1.9673 -1.7812 81 82 103
14.3851 0.504467 -1.78581 75 80 102
14.3684 0.432681 -1.78325 71 72 92
14.3665 0.385176 -1.78277 73 75 96
14.4001 0.338558 -1.78702 79 82 101
14.4103 0.267473 -1.78814 72 77 97
14.402 0.219789 -1.78687 75 77 95
14.3876 0.172085 -1.78481 79 79 102
14.3968 0.124721 -1.78591 73 74 92
14.3902 0.0534682 -1.78492 82 85 104
14.4128 0.00606962 -1.78786 75 77 98
14.3998 -0.0414359 -1.78606 76 77 98
14.3864 -0.112569 -1.78429 78 79 99
14.3967 -0.160083 -1.78565 77 78 98
14.391 -0.207469 -1.7849 78 79 99
14.7112 -4.38177 -1.77484 69 67 81
14.7039 -4.43182 -1.77561 71 71 83
14.1924 3.07717 -1.80317 68 71 88
14.1931 3.02822 -1.80191 66 69 88
14.1944 2.95507 -1.80015 63 68 89
14.2257 2.91231 -1.80309 72 69 97
14.191 2.85662 -1.7971 81 85 104
14.1973 2.78473 -1.79612 71 76 95
14.2009 2.7367 -1.79539 78 84 100
14.2044 2.68866 -1.79465 83 84 105
14.4006 -0.278786 -1.78628 83 81 102
14.4064 -0.326365 -1.78712 75 80 99
14.3804 -0.373253 -1.78374 82 83 104
14.4077 -0.421366 -1.78747 68 70 90
14.3846 -0.491907 -1.78464 83 82 100
14.4075 -0.540109 -1.78784 79 77 98
14.4086 -0.587649 -1.78814 85 84 102
14.3887 -0.658105 -1.78584 77 74 96
14.4131 -0.70666 -1.7893 74 75 96
14.6946 -4.48131 -1.77614 82 82 94
14.6913 -4.55889 -1.77842 75 73 91
14.6531 -4.59978 -1.77525 69 67 85
14.8468 -5.49746 -1.78427 112 101 95
14.834 -5.54744 -1.78478 94 92 93
14.7633 -5.57656 -1.77782 95 92 105
14.1529 3.46295 -1.80933 64 70 86
14.1664 3.41655 -1.80964 71 73 90
14.1677 3.3427 -1.80762 65 70 90
14.1712 3.2941 -1.80662 65 70 89
14.1552 3.24126 -1.80299 70 71 91
14.1769 3.17223 -1.80386 70 71 91
14.1857 3.12491 -1.80365 65 68 87
14.4136 -0.754229 -1.78961 80 79 98
14.4127 -0.82554 -1.78994 78 76 97
14.403 -0.872563 -1.78893 76 78 99
14.4128 -0.920696 -1.79055 80 80 99
14.4048 -0.967786 -1.7898 79 79 96
14.4029 -1.03906 -1.79013 88 86 107
14.4023 -1.08662 -1.79043 83 82 99
14.666 -4.65607 -1.77874 69 68 83
14.6296 -4.72372 -1.77683 72 69 86
14.6118 -4.77065 -1.77637 70 68 81
14.7712 -5.66136 -1.78222 83 79 93
14.7542 -5.70977 -1.78225 83 79 95
14.1067 3.79976 -1.81421 70 71 91
14.1157 3.72725 -1.81298 72 70 91
14.1204 3.67859 -1.81198 63 64 85
14.1558 3.63751 -1.81518 69 70 91
14.1621 3.58925 -1.81445 70 72 93
14.1431 3.51021 -1.80954 71 74 93
14.4076 -1.13462 -1.79152 79 80 96
14.4069 -1.20607 -1.79211 79 77 98
14.39 -1.25237 -1.79031 80 81 100
14.4046 -1.30123 -1.79272 74 73 91
14.3992 -1.37234 -1.79279 77 74 95
14.3917 -1.41937 -1.7923 80 81 103
14.3624 -1.46428 -1.78892 84 83 100
14.5806 -4.81332 -1.77419 72 70 83
14.5965 -4.87095 -1.77817 73 69 83
14.7314 -5.75603 -1.78156 100 102 113
14.6976 -5.82561 -1.78065 82 79 89
14.0959 4.07287 -1.82232 59 64 85
14.0789 4.01784 -1.81818 63 67 91
14.0942 3.97172 -1.81849 68 69 90
14.1039 3.89914 -1.81726 63 65 86
14.136 3.85744 -1.81993 69 70 90
14.4038 -1.51602 -1.79501 75 74 91
14.3993 -1.58731 -1.79534 83 81 99
14.3814 -1.63322 -1.79354 80 78 99
14.3868 -1.68161 -1.79489 84 83 101
14.5629 -4.93926 -1.77675 69 66 80
14.5672 -5.04625 -1.78126 76 72 86
14.6689 -5.86953 -1.77924 82 76 86
14.6679 -5.92402 -1.78144 87 80 94
14.6019 -5.98093 -1.77643 84 77 83
14.0335 4.35836 -1.82489 70 78 97
14.0527 4.28802 -1.82471 70 79 96
14.0764 4.24419 -1.82607 69 77 99
14.0829 4.19539 -1.82508 68 73 93
14.0682 4.14069 -1.82119 68 73 92
14.3914 -1.75396 -1.79653 80 77 96
14.3611 -1.79829 -1.79315 87 84 102
14.3818 -1.84862 -1.79661 82 80 99
14.358 -1.91759 -1.79457 87 88 108
14.3606 -1.96583 -1.79566 124 123 137
14.5525 -6.01642 -1.77236 97 90 97
14.3796 -6.0025 -1.75212 104 92 96
14.2474 -6.00382 -1.7372 105 91 92
14.005 4.5789 -1.8299 70 75 96
14.0258 4.53421 -1.83074 72 76 97
14.0383 4.46159 -1.8295 71 78 97
14.0398 4.41108 -1.82772 70 77 96
14.4552 -2.02629 -1.80912 113 112 126
14.3242 -2.05682 -1.79232 114 112 126
14.3015 -2.12555 -1.79053 73 68 89
14.323 -2.17652 -1.79426 82 81 99
14.3189 -2.2239 -1.79456 91 90 108
14.0709 -6.01331 -1.7177 107 92 95
13.9262 -6.00748 -1.70109 109 98 94
13.789 -6.00383 -1.68543 109 98 96
13.962 4.79587 -1.83333 72 77 97
13.959 4.74346 -1.83076 72 77 97
13.9897 4.70201 -1.83291 71 73 94
13.9841 4.62349 -1.82906 73 73 97
14.3013 -2.29333 -1.79357 87 86 102
14.291 -2.33975 -1.79308 84 80 95
14.2961 -2.38859 -1.79469 82 82 94
14.2738 -2.45717 -1.79317 91 90 108
14.2864 -2.50734 -1.79584 89 87 108
13.6407 -6.02104 -1.66955 110 97 91
13.491 -6.01014 -1.65221 112 99 93
13.3598 -6.00614 -1.63728 107 96 93
13.927 5.0165 -1.83833 70 78 100
13.9173 4.96138 -1.83471 71 79 102
13.9448 4.919 -1.83634 71 79 100
13.9347 4.86398 -1.83272 71 79 100
13.6691 2.11994 -1.77423 75 77 97
13.6843 2.07569 -1.77536 78 76 98
13.7045 2.00892 -1.77678 71 73 93
13.7077 1.96294 -1.77629 76 76 99
13.691 1.91438 -1.77309 68 70 90
13.6565 1.8637 -1.76745 71 69 91
13.6443 1.79307 -1.76455 104 90 90
13.6861 1.75204 -1.76946 106 89 81
13.7002 1.70756 -1.77059 109 91 84
13.7128 1.63984 -1.77121 79 75 94
13.7796 1.55469 -1.77888 98 96 117
13.7167 1.47902 -1.7692 100 99 115
13.728 1.43412 -1.77006 106 107 125
13.7253 1.38787 -1.76902 76 78 97
13.7216 1.27272 -1.76697 69 74 93
13.7717 1.23101 -1.77325 73 73 95
13.7645 1.18442 -1.77167 80 81 102
13.8043 1.11851 -1.77634 75 78 97
13.777 1.0705 -1.77205 77 78 99
13.8008 1.02621 -1.7748 77 76 93
13.8162 0.958245 -1.77623 77 75 99
13.8259 0.91284 -1.77708 79 78 97
13.8236 0.866699 -1.77632 77 76 98
13.831 0.821127 -1.7769 74 76 98
13.8335 0.752309 -1.7767 79 80 100
13.8485 0.707049 -1.77837 74 77 95
13.8317 0.660324 -1.77571 79 83 100
13.8592 0.592538 -1.77902 72 75 95
13.8638 0.546719 -1.77934 68 71 91
13.8683 0.500882 -1.77965 74 75 96
13.8752 0.43212 -1.78026 76 79 98
13.8793 0.386236 -1.78058 75 78 96
13.8734 0.34012 -1.77954 75 78 97
13.8851 0.294381 -1.78094 76 78 97
13.8852 0.225415 -1.78073 71 72 93
13.8827 0.179418 -1.78023 72 74 95
13.882 0.133457 -1.78001 71 74 91
14.2735 -2.55331 -1.79509 91 90 107
14.2623 -2.59956 -1.7946 95 92 110
14.2488 -2.66952 -1.7944 90 88 102
14.2393 -2.716 -1.79417 93 90 109
14.4058 -5.49512 -1.78012 106 95 98
14.4638 -5.56996 -1.79003 101 98 104
14.3411 -5.57802 -1.77599 86 84 96
13.2048 -6.01684 -1.62043 103 93 93
13.1158 -6.02931 -1.61105 107 98 101
13.1049 -6.07566 -1.61204 103 96 105
13.8593 5.17448 -1.83683 70 77 99
13.8987 5.13638 -1.84003 69 77 100
13.8856 5.07983 -1.83589 69 77 100
13.6939 2.66156 -1.79018 80 80 98
13.6581 2.60807 -1.78401 83 84 104
13.7198 2.54855 -1.79084 110 107 126
13.6622 2.49166 -1.78169 110 109 130
13.6669 2.44566 -1.7812 89 87 108
13.6618 2.32814 -1.7778 102 91 96
13.752 2.29566 -1.78922 104 89 94
13.6817 2.23803 -1.77844 103 92 90
13.8972 0.0645835 -1.78197 71 74 93
13.8882 0.0186005 -1.78066 73 79 95
13.8791 -0.0273208 -1.77935 75 78 97
13.8856 -0.0962555 -1.78023 78 79 100
13.8881 -0.142218 -1.78054 68 70 91
13.8805 -0.188048 -1.7795 76 78 99
13.8822 -0.256963 -1.77983 81 79 100
13.8604 -0.302395 -1.7769 74 80 95
13.878 -0.348697 -1.77938 80 78 100
13.8757 -0.394539 -1.77915 77 79 100
13.8824 -0.463636 -1.7803 78 75 94
14.249 -2.76602 -1.79658 99 98 114
14.2192 -2.83295 -1.79427 94 92 105
14.1897 -2.87558 -1.79141 90 88 102
14.2067 -2.92714 -1.79487 80 80 95
14.3063 -5.64522 -1.77481 74 73 87
14.3116 -5.70075 -1.77781 79 78 95
13.0666 -6.10991 -1.60941 103 97 110
