-6.96843 -2.49786 -1.84444 79 77 80
-6.97556 -2.46404 -1.84338 79 77 80
-7.42804 -1.95066 -1.86156 77 89 109
-7.44445 -1.9304 -1.86463 77 89 111
-8.76826 -0.0964154 -1.87488 80 94 120
-2.84727 -6.46042 -1.54899 129 128 127
-2.86758 -6.45408 -1.54946 130 128 129
-3.20197 -6.07957 -1.56934 128 126 127
-3.21759 -6.06504 -1.56785 126 124 127
-3.63391 -5.80278 -1.62011 161 138 118
-3.66099 -5.80877 -1.62523 159 133 107
-4.38271 -5.69265 -1.76695 166 139 118
-4.40655 -5.68884 -1.77012 152 131 115
-4.88601 -5.06088 -1.78271 77 75 91
-4.88412 -5.02783 -1.77565 74 74 89
-4.9147 -5.0301 -1.78217 75 81 97
-6.45141 -3.12165 -1.8288 69 84 107
-6.46691 -3.09271 -1.82935 73 85 107
-6.47399 -3.07196 -1.8288 72 84 106
-6.49656 -3.05874 -1.83314 75 87 111
-6.98963 -2.44486 -1.84549 80 80 80
-7.01277 -2.42876 -1.85024 79 79 79
-7.53102 -1.91585 -1.88614 74 86 108
-7.4464 -1.86932 -1.86155 75 90 111
-7.79798 -1.39712 -1.86401 77 91 118
-8.76183 -0.0688971 -1.87352 79 93 119
-8.77868 -0.0414579 -1.87758 79 91 115
-2.81669 -6.4707 -1.54851 128 127 127
-3.17081 -6.0865 -1.56735 128 128 128
-3.55637 -5.81114 -1.6114 142 129 120
-3.57755 -5.80743 -1.61345 145 129 119
-3.60357 -5.812 -1.61806 150 132 117
-4.32712 -5.74423 -1.76906 157 127 102
-4.33971 -5.7251 -1.76694 157 129 107
-4.35905 -5.71527 -1.768 160 132 110
-4.80807 -5.13197 -1.78216 111 101 107
-4.8288 -5.10749 -1.78108 79 72 82
-4.84912 -5.09873 -1.78325 103 100 111
-4.86167 -5.08135 -1.78216 89 87 101
-6.5083 -3.02789 -1.8326 69 84 107
-6.52558 -3.01198 -1.83531 73 85 109
-6.5324 -2.99106 -1.83477 73 85 107
-6.55426 -2.96492 -1.83748 73 85 107
-7.02674 -2.40941 -1.85235 89 88 87
-7.02797 -2.3735 -1.84971 87 85 84
-7.02354 -2.34795 -1.84653 100 95 91
-7.44575 -1.84462 -1.86001 84 93 106
-7.45533 -1.81015 -1.86052 124 123 126
-7.80504 -1.33549 -1.8635 73 87 113
-8.77207 -0.000181238 -1.87622 82 96 118
-2.79704 -6.47869 -1.54851 129 129 129
-3.13513 -6.10652 -1.56785 128 128 128
-3.15341 -6.09741 -1.56785 126 126 128
-3.52229 -5.8132 -1.6073 143 130 123
-4.28149 -5.77308 -1.768 159 127 102
-4.30436 -5.74924 -1.76641 158 128 100
-4.746 -5.20489 -1.78542 131 123 121
-4.76079 -5.17342 -1.78162 142 134 133
-4.77364 -5.15628 -1.78053 143 138 142
-4.79278 -5.14632 -1.78216 112 106 110
-6.56441 -2.94553 -1.83802 68 80 102
-6.57276 -2.9253 -1.83802 68 80 104
-6.60029 -2.91379 -1.844 69 81 105
-6.61482 -2.88405 -1.84454 72 84 108
-7.02815 -2.32547 -1.846 87 82 79
-7.05459 -2.29796 -1.85075 84 83 81
-7.46009 -1.78684 -1.86051 115 111 110
-7.45729 -1.7617 -1.85846 117 115 118
-2.77667 -6.48479 -1.54804 128 128 130
-3.10556 -6.11658 -1.56685 128 128 130
-3.47066 -5.80324 -1.59808 152 135 125
-3.50018 -5.81502 -1.60474 148 132 123
-4.20296 -5.79193 -1.75954 167 136 111
-4.23922 -5.78736 -1.7643 166 136 111
-4.25869 -5.7779 -1.76535 159 127 104
-4.68362 -5.24535 -1.78216 133 123 121
-4.71491 -5.23313 -1.78542 133 124 119
-4.72297 -5.21027 -1.78216 136 126 128
-6.61069 -2.85818 -1.84073 71 83 107
-6.64338 -2.84866 -1.84834 70 82 105
-6.62414 -2.80408 -1.83855 72 84 106
-7.05539 -2.27421 -1.84916 85 85 86
-7.07444 -2.2563 -1.85286 87 86 90
-7.08041 -2.22206 -1.8518 84 88 99
-7.44126 -1.73346 -1.85282 115 114 117
-7.48415 -1.70685 -1.86255 138 137 138
-8.1109 -0.905255 -1.87366 79 93 117
-8.10906 -0.883917 -1.87251 77 92 116
-2.74873 -6.50202 -1.54945 128 128 128
-3.06885 -6.13443 -1.56685 130 128 131
-3.08805 -6.12729 -1.56735 129 127 128
-3.41752 -5.81138 -1.59296 156 136 121
-3.44322 -5.81666 -1.59757 161 140 127
-4.11157 -5.79056 -1.74475 171 137 110
-4.15527 -5.79767 -1.7532 171 137 110
-4.17801 -5.79326 -1.75584 171 137 112
-4.60511 -5.29875 -1.7789 81 73 73
-4.62089 -5.28501 -1.7789 128 121 116
-4.64613 -5.26579 -1.77944 148 139 134
-4.66426 -5.25487 -1.78053 135 126 121
-5.27595 -4.36714 -1.78516 75 87 109
-5.29752 -4.35858 -1.78851 74 86 108
-5.31854 -4.33571 -1.78907 74 86 108
-5.32534 -4.31467 -1.78683 72 85 104
-5.34091 -4.30096 -1.78795 73 86 103
-5.36463 -4.28029 -1.78962 75 88 105
-5.37567 -4.2628 -1.78907 75 87 109
-5.39259 -4.2501 -1.79074 70 82 106
-5.41762 -4.23031 -1.79297 72 85 104
-5.42249 -4.20789 -1.79018 71 83 105
-5.45584 -4.20807 -1.798 74 86 108
-5.45002 -4.17726 -1.7913 70 81 103
-5.47326 -4.15593 -1.79297 73 81 100
-5.496 -4.1475 -1.79688 69 80 98
-5.50657 -4.12961 -1.79632 68 79 99
-5.53269 -4.11027 -1.79911 73 83 108
-5.53548 -4.0865 -1.79576 73 84 106
-5.55965 -4.07886 -1.80022 71 82 102
-5.56249 -4.04201 -1.79464 70 81 101
-5.58968 -4.03646 -1.80022 71 82 102
-5.58905 -4.01036 -1.79576 71 82 102
-5.60382 -3.99559 -1.79687 69 80 100
-5.63877 -3.9823 -1.80301 78 89 107
-5.62539 -3.94723 -1.79408 67 78 98
-5.64157 -3.93341 -1.79575 69 80 98
-5.66538 -3.91201 -1.79799 72 84 100
-5.67673 -3.89472 -1.79798 73 85 101
-5.68962 -3.8785 -1.79854 74 86 102
-5.7227 -3.86331 -1.80412 72 84 100
-5.74023 -3.85017 -1.80635 68 79 97
-5.72601 -3.81539 -1.79742 69 80 100
-5.7625 -3.81507 -1.80635 70 78 99
-5.76672 -3.78012 -1.80189 70 78 97
-5.78407 -3.76674 -1.80412 76 84 103
-5.79496 -3.74906 -1.80412 72 80 99
-5.82769 -3.73295 -1.8097 73 81 100
-5.82079 -3.70365 -1.80356 72 84 100
-5.84439 -3.69415 -1.80802 73 84 102
-5.84786 -3.65907 -1.80355 72 83 103
-6.65322 -2.7928 -1.84507 76 88 112
-6.67876 -2.77984 -1.8505 73 85 107
-6.68206 -2.74517 -1.84778 74 87 105
-6.6756 -2.7186 -1.84343 75 88 105
-7.06992 -2.19486 -1.84704 81 90 103
-7.08508 -2.17563 -1.84968 81 91 103
-7.47356 -1.67998 -1.85845 76 72 77
-7.46662 -1.65404 -1.85537 87 89 100
-7.83301 -1.227 -1.86694 75 89 115
-7.82639 -1.20092 -1.86446 77 91 117
-8.11851 -0.864124 -1.87485 79 93 119
-8.11784 -0.83236 -1.87371 70 84 110
-2.70718 -6.51201 -1.54803 128 128 130
-2.72898 -6.50978 -1.54945 129 129 131
-3.04721 -6.13624 -1.56487 125 125 127
-3.37089 -5.80902 -1.5863 161 141 126
-3.40013 -5.8213 -1.59296 163 139 122
-4.03294 -5.78669 -1.73154 172 138 111
-4.05769 -5.78596 -1.73524 175 141 113
-4.08675 -5.79151 -1.74105 172 138 110
-4.54553 -5.34191 -1.77726 96 86 89
-4.56982 -5.32158 -1.77727 89 80 84
-4.5893 -5.31243 -1.7789 95 87 85
-5.1303 -4.52593 -1.78237 75 87 111
-5.15776 -4.50907 -1.78516 75 90 111
-5.16956 -4.4922 -1.7846 72 84 106
-5.19136 -4.48421 -1.78795 75 87 109
-5.20718 -4.45683 -1.78628 75 90 113
-5.22169 -4.44234 -1.78684 77 89 110
-5.23617 -4.42779 -1.78739 77 88 109
-5.24877 -4.39773 -1.7846 68 80 104
-5.26311 -4.38308 -1.78516 73 85 109
-5.86331 -3.64425 -1.80523 75 86 104
-5.89006 -3.63651 -1.81081 72 83 101
-5.88753 -3.61035 -1.80634 72 83 101
-5.92151 -3.59437 -1.81248 70 82 98
-5.9057 -3.5602 -1.80355 73 85 101
-5.9225 -3.54609 -1.80578 72 83 101
-5.9563 -3.52974 -1.81192 73 84 102
-5.95164 -3.50263 -1.80689 72 83 103
-5.9815 -3.49613 -1.81359 72 83 103
-6.69211 -2.70168 -1.84615 75 88 104
-6.70033 -2.66921 -1.84506 74 86 103
-6.71849 -2.65286 -1.84831 79 88 104
-7.09098 -2.15353 -1.84967 78 90 104
-7.09645 -2.11925 -1.84861 77 88 106
-7.47532 -1.61939 -1.85588 86 95 111
-7.82917 -1.1637 -1.86396 72 86 112
-8.10628 -0.809837 -1.86966 70 84 110
-8.1193 -0.790427 -1.87316 72 86 112
-2.67839 -6.52709 -1.54897 130 129 129
-3.01435 -6.13881 -1.5619 128 128 130
-3.31797 -5.81623 -1.58118 145 132 124
-3.34165 -5.81853 -1.58476 157 139 128
-3.9724 -5.79049 -1.72308 176 140 112
-3.99811 -5.79162 -1.72731 174 140 112
-4.51953 -5.37637 -1.77998 122 112 113
-4.53076 -5.3569 -1.77781 117 107 108
-5.03955 -4.62297 -1.78125 73 88 109
-5.04895 -4.60382 -1.77958 76 88 110
-5.06667 -4.59252 -1.78125 74 86 108
-5.08299 -4.57984 -1.78237 74 86 108
-5.10922 -4.562 -1.7846 75 87 108
-5.11554 -4.54009 -1.78181 73 85 108
-5.99203 -3.46569 -1.81191 75 86 102
-6.00198 -3.44731 -1.81191 76 88 104
-6.00855 -3.42698 -1.81079 73 84 102
-6.02039 -3.39741 -1.80968 74 86 104
-6.03179 -3.37988 -1.81023 71 87 104
-6.04147 -3.36136 -1.81023 72 85 103
-6.06116 -3.34844 -1.81358 72 85 104
-6.72949 -2.63355 -1.8494 80 88 101
-6.73507 -2.61205 -1.84885 79 87 99
-6.74821 -2.58153 -1.84939 83 89 101
-7.11326 -2.10036 -1.85178 80 91 109
-7.10598 -2.07441 -1.84808 77 88 108
-7.47762 -1.59558 -1.85536 84 96 111
-7.48737 -1.57339 -1.85689 82 95 112
-7.84915 -1.14151 -1.86841 72 88 113
-8.11638 -0.758465 -1.87144 67 83 108
-8.10837 -0.736523 -1.86855 63 79 102
-2.66185 -6.54378 -1.55133 129 127 130
-2.97592 -6.15253 -1.56091 129 129 131
-2.99913 -6.15451 -1.56388 129 129 131
-3.305 -5.83439 -1.58374 137 128 127
-3.91202 -5.79367 -1.71463 182 141 112
-3.94776 -5.79087 -1.71938 176 139 111
-4.46152 -5.42152 -1.77943 116 105 101
-4.4765 -5.40674 -1.77889 112 101 98
-4.49853 -5.401 -1.78161 105 95 96
-4.9395 -4.7254 -1.78014 78 86 104
-4.95888 -4.71591 -1.78237 77 86 103
-4.96864 -4.69695 -1.78069 76 84 104
-4.99807 -4.68249 -1.78405 78 88 106
-5.01322 -4.66876 -1.7846 78 89 107
-5.02141 -4.64834 -1.78237 78 89 107
-6.07091 -3.31772 -1.8119 71 85 109
-6.08376 -3.30092 -1.81302 72 84 108
-6.08984 -3.28039 -1.8119 70 82 106
-6.10599 -3.25322 -1.81246 73 85 109
-6.11865 -3.23627 -1.81357 73 85 107
-6.1262 -3.21656 -1.81301 71 83 105
-6.75185 -2.55928 -1.8483 88 91 97
-6.76973 -2.54256 -1.85156 88 89 91
-7.12588 -2.04431 -1.85124 79 91 110
-7.13878 -2.02416 -1.85335 76 88 107
-7.1034 -1.99051 -1.84172 73 84 107
-7.49003 -1.53743 -1.85586 82 95 113
-7.49773 -1.51475 -1.85688 77 90 108
-7.83525 -1.0895 -1.86345 86 99 125
-8.11358 -0.71612 -1.86973 69 84 107
-2.64786 -6.56777 -1.55558 128 126 131
-2.94859 -6.16708 -1.5614 129 128 130
-3.25994 -5.85644 -1.58322 133 127 131
-3.27657 -5.84526 -1.58271 134 128 132
-3.8253 -5.79284 -1.70142 203 160 125
-3.85987 -5.78893 -1.70564 194 150 118
-3.89058 -5.79867 -1.71251 191 147 118
-4.40072 -5.46292 -1.7778 120 108 110
-4.41584 -5.44832 -1.77726 126 114 116
-4.43792 -5.44284 -1.77997 118 108 109
-4.87183 -4.78764 -1.77846 75 87 103
-4.8873 -4.77435 -1.77902 75 84 101
-4.90542 -4.76374 -1.78069 81 90 107
-4.91673 -4.74627 -1.77958 80 91 109
-6.13867 -3.1874 -1.81245 68 80 104
-6.14774 -3.16853 -1.81245 72 86 112
-6.16018 -3.15138 -1.81356 71 86 109
-6.17427 -3.13506 -1.81523 71 86 109
-6.18291 -3.10395 -1.81356 71 86 109
-6.79511 -2.51664 -1.8559 84 84 82
-6.79853 -2.49427 -1.85481 83 85 82
-6.80366 -2.47257 -1.85427 85 85 83
-7.14894 -1.96739 -1.85229 74 86 108
-7.15047 -1.94406 -1.85123 73 86 105
-7.50348 -1.49166 -1.85739 82 95 114
-7.50913 -1.46854 -1.85789 81 96 118
-7.86243 -1.05551 -1.86939 79 92 117
-7.86099 -1.03027 -1.86839 68 82 108
-8.10839 -0.684034 -1.86743 80 95 117
-8.10394 -0.662608 -1.8657 82 94 117
-2.61811 -6.58074 -1.55605 131 129 134
-2.90924 -6.17858 -1.55991 133 128 134
-2.93242 -6.18083 -1.56288 130 125 131
-3.21128 -5.87121 -1.58066 134 128 128
-3.2337 -5.84862 -1.5781 134 125 128
-3.77447 -5.78899 -1.69296 205 162 126
-3.79784 -5.7877 -1.69613 199 156 122
-4.34293 -5.50822 -1.7778 119 110 104
-4.35822 -5.4938 -1.77725 119 109 107
-4.38552 -5.47747 -1.77834 123 113 114
-4.76831 -4.88604 -1.77734 81 84 101
-4.79855 -4.88846 -1.78404 77 83 99
-4.80371 -4.86433 -1.78013 73 80 96
-4.82963 -4.84683 -1.78181 77 84 102
-4.83594 -4.82405 -1.77846 77 84 102
-4.86754 -4.82739 -1.78572 75 82 98
-6.23457 -3.10649 -1.82751 72 87 108
-6.24682 -3.08901 -1.82863 73 85 107
-6.25694 -3.05845 -1.82751 69 84 107
-6.27081 -3.04171 -1.82918 74 89 112
-6.81256 -2.44034 -1.85372 98 93 87
-6.81753 -2.41861 -1.85317 88 84 74
-6.82603 -2.39817 -1.85371 91 87 88
-7.14076 -1.91777 -1.847 79 92 111
-7.14323 -1.88284 -1.84541 76 88 110
-7.50184 -1.43066 -1.8543 83 97 123
-7.88061 -1.00767 -1.87284 82 95 119
-8.10131 -0.641403 -1.86456 72 84 108
-8.09101 -0.619472 -1.86109 76 90 116
-2.62112 -6.65427 -1.57303 130 128 131
-2.88101 -6.19103 -1.55991 134 129 135
-3.19284 -5.87873 -1.58015 133 129 130
-3.71777 -5.7951 -1.68609 205 165 128
-3.75315 -5.79347 -1.69085 208 165 130
-4.29445 -5.53083 -1.77454 124 112 106
-4.32303 -5.51639 -1.77617 113 102 96
-4.70115 -4.94839 -1.77678 77 80 95
-4.72225 -4.94137 -1.77957 77 79 94
-4.73164 -4.92159 -1.77734 79 79 95
-4.75532 -4.91723 -1.78125 77 77 94
-6.25701 -3.01149 -1.82192 73 86 108
-6.26675 -2.98091 -1.8208 74 86 108
-6.27346 -2.96077 -1.82024 71 83 106
-6.29396 -2.94718 -1.82415 75 88 107
-6.29708 -2.92534 -1.82247 73 85 107
-6.83446 -2.3777 -1.85425 95 92 88
-6.84835 -2.34724 -1.85534 92 87 83
-7.12212 -1.85379 -1.838 75 87 110
-7.15687 -1.83915 -1.84645 66 78 95
-7.52057 -1.41006 -1.8584 82 94 120
-7.52787 -1.38721 -1.85942 83 95 119
-7.84596 -0.965843 -1.86293 79 93 116
-7.87114 -0.94382 -1.86887 76 91 114
-8.10252 -0.589175 -1.86401 64 78 104
-8.09013 -0.567154 -1.85997 76 91 114
-2.61798 -6.71132 -1.58577 129 127 130
-2.86242 -6.19925 -1.55991 130 128 133
-3.14747 -5.89985 -1.57963 131 127 126
-3.17863 -5.89484 -1.5822 132 128 127
-3.66631 -5.78868 -1.67711 186 156 126
-3.69051 -5.78947 -1.68081 203 162 132
-4.23924 -5.57962 -1.77616 131 118 111
-4.26131 -5.55611 -1.77453 129 117 108
-4.27903 -5.54506 -1.77508 125 114 106
-4.6492 -4.9973 -1.77678 80 79 89
-4.67166 -4.99194 -1.78013 75 77 87
-4.69287 -4.98507 -1.78292 77 81 93
-6.32729 -2.90426 -1.82805 73 85 109
-6.33199 -2.88315 -1.82693 71 83 107
-6.34884 -2.8676 -1.82972 73 85 109
-6.86932 -2.33111 -1.85968 87 82 79
-6.85576 -2.30294 -1.8537 92 89 82
-6.87658 -2.27481 -1.85696 87 86 84
-7.17294 -1.8196 -1.84962 122 126 137
-7.14874 -1.77814 -1.84063 125 123 126
-7.53535 -1.35217 -1.85992 80 92 116
-7.86359 -0.917938 -1.86639 81 96 119
-8.09862 -0.547025 -1.8623 70 82 106
-2.84308 -6.20564 -1.55941 129 127 131
-3.13482 -5.91932 -1.5827 131 128 127
-3.58484 -5.79094 -1.66601 156 131 116
-3.60698 -5.78875 -1.66866 164 138 115
-3.63405 -5.79476 -1.67394 172 147 116
-4.19587 -5.59035 -1.77127 140 125 112
-4.22808 -5.59996 -1.77888 134 120 111
-4.57511 -5.06756 -1.77734 97 90 98
-4.60053 -5.04993 -1.77845 111 106 112
-4.62052 -5.04194 -1.78069 112 109 116
-4.63417 -5.02669 -1.78013 84 82 93
-6.39461 -2.85316 -1.84033 74 86 110
-6.39388 -2.82952 -1.83753 72 84 106
-6.41236 -2.81445 -1.84088 76 88 112
-6.881 -2.2529 -1.85641 87 87 89
-6.88716 -2.23159 -1.85641 87 86 92
-7.16649 -1.75898 -1.84433 123 121 124
-7.19544 -1.74241 -1.85119 119 118 122
-7.53108 -1.32718 -1.85787 83 95 119
-7.54573 -1.30559 -1.86094 80 92 116
-7.87079 -0.881198 -1.86737 77 91 117
-8.09645 -0.515485 -1.86116 82 94 119
-8.08382 -0.49362 -1.85711 84 96 122
-2.63082 -6.81632 -1.61077 130 129 132
-2.79235 -6.21683 -1.55694 129 127 130
-2.81173 -6.21062 -1.55743 132 130 133
-3.09515 -5.92853 -1.58014 136 130 132
-3.11457 -5.92309 -1.58117 135 131 132
-3.55171 -5.79489 -1.66231 145 127 113
-4.15789 -5.62744 -1.77344 132 117 110
-4.18024 -5.60427 -1.77181 143 126 114
-4.53236 -5.11118 -1.77845 79 71 78
-4.54499 -5.09474 -1.77734 81 74 85
-4.56507 -5.08699 -1.77957 78 74 86
-6.43168 -2.78782 -1.84311 75 87 107
-6.4307 -2.76415 -1.84032 76 87 105
-6.45255 -2.75034 -1.84478 76 88 104
-6.46028 -2.73041 -1.84478 75 87 103
-6.88761 -2.19659 -1.85369 82 85 98
-6.90091 -2.17763 -1.85586 81 87 102
-6.91782 -2.15977 -1.85911 80 89 104
-7.20266 -1.70866 -1.85119 122 119 124
-7.19397 -1.6831 -1.84749 121 119 128
-7.53381 -1.26716 -1.85632 77 92 115
-7.5559 -1.24675 -1.86144 73 87 113
-8.10544 -0.474428 -1.86351 82 97 120
-2.61908 -6.88641 -1.62586 129 128 133
-2.77075 -6.2176 -1.55495 129 127 130
-3.06396 -5.93307 -1.57758 131 126 125
-3.50278 -5.79038 -1.65439 150 131 114
-3.52865 -5.79519 -1.65914 147 129 115
-4.09723 -5.66835 -1.77289 93 76 64
-4.12198 -5.64863 -1.77235 108 89 75
-4.13994 -5.63807 -1.7729 132 116 102
-4.4811 -5.16107 -1.77957 151 141 140
-4.49638 -5.14771 -1.77957 131 120 125
-4.51285 -5.13578 -1.78012 82 70 80
-6.47746 -2.7027 -1.84645 78 87 102
-6.47262 -2.67753 -1.84254 79 86 102
-6.48721 -2.66045 -1.84477 79 88 103
-6.92371 -2.13833 -1.85911 78 90 106
-6.92916 -2.10499 -1.85802 74 86 108
-7.17582 -1.65546 -1.84114 90 89 102
-7.55509 -1.22243 -1.86041 71 85 111
-8.08957 -0.441939 -1.85831 66 81 104
-8.08433 -0.420753 -1.85658 81 95 121
-2.75283 -6.22726 -1.55545 128 126 127
-3.02512 -5.94353 -1.57553 129 127 132
-3.04699 -5.94359 -1.57809 128 123 127
-3.44871 -5.7972 -1.64857 189 150 125
-3.46884 -5.79218 -1.65016 165 138 116
-4.06109 -5.68913 -1.77181 102 80 65
-4.07383 -5.67078 -1.76963 94 74 60
-4.42806 -5.20889 -1.78012 141 130 129
-4.44227 -5.19423 -1.77956 135 124 123
-4.4674 -5.19285 -1.78403 145 134 132
-6.4952 -2.62892 -1.84365 79 87 101
-6.50253 -2.60884 -1.84365 79 86 98
-6.51871 -2.5923 -1.84644 83 88 97
-6.94222 -2.08578 -1.86019 75 88 107
-6.94236 -2.06258 -1.85856 78 89 107
-7.21269 -1.6285 -1.84959 87 96 111
-7.21876 -1.60635 -1.85011 84 96 112
-7.55993 -1.19904 -1.86092 80 94 120
-7.57032 -1.16438 -1.86245 84 98 124
-8.08665 -0.400089 -1.85717 83 97 123
-2.7042 -6.24306 -1.55445 129 129 131
-2.72363 -6.23715 -1.55495 128 128 128
-3.00275 -5.96701 -1.5786 129 127 131
-3.39734 -5.78675 -1.63906 199 157 120
-3.42298 -5.79203 -1.64382 196 152 119
-4.01691 -5.71716 -1.77126 167 140 117
-4.03929 -5.71338 -1.77398 144 117 102
-4.37207 -5.25311 -1.77956 140 128 130
-4.39003 -5.24311 -1.78068 136 126 126
-4.40076 -5.22408 -1.77844 138 127 124
-6.52815 -2.56135 -1.84588 88 89 88
-6.55313 -2.54814 -1.85146 86 85 81
-6.55127 -2.52441 -1.84866 87 86 74
-6.96032 -2.03304 -1.86127 79 92 109
-6.95107 -2.00709 -1.85692 76 89 107
-7.22289 -1.58376 -1.85011 84 95 113
-7.2307 -1.56196 -1.85116 79 92 111
-7.57307 -1.14063 -1.86244 79 93 119
-8.09333 -0.369232 -1.85894 79 93 119
-2.68547 -6.2507 -1.55445 129 128 130
-2.96614 -5.98231 -1.57809 130 126 130
-2.97772 -5.95974 -1.57399 131 129 132
-3.34447 -5.79427 -1.63378 188 152 124
-3.36635 -5.79302 -1.63642 206 162 127
-3.97979 -5.75615 -1.77452 165 133 108
-4.00709 -5.74021 -1.77506 171 144 120
-4.3121 -5.29213 -1.77732 117 109 108
-4.32661 -5.27782 -1.77677 150 140 140
-4.35288 -5.26154 -1.77788 142 129 131
-6.56364 -2.5062 -1.85034 93 91 72
-6.58702 -2.48047 -1.85424 101 99 82
-6.96754 -1.98877 -1.86018 74 86 108
-6.97411 -1.95581 -1.85963 77 89 113
-7.21635 -1.52369 -1.84534 76 88 110
-7.21268 -1.49956 -1.84323 82 94 118
-7.56812 -1.11571 -1.86039 76 91 114
-8.0974 -0.348629 -1.86011 75 89 115
-8.09377 -0.327589 -1.85896 76 90 116
-2.65407 -6.25484 -1.55247 129 127 130
-2.93412 -5.98437 -1.57501 129 127 128
-3.28988 -5.79788 -1.62744 134 124 113
-3.32625 -5.80223 -1.63325 144 122 107
-3.937 -5.76635 -1.77017 153 121 98
-3.95014 -5.74832 -1.768 159 128 104
-4.27224 -5.32389 -1.77732 95 85 92
-4.29635 -5.30487 -1.77732 125 115 113
-6.5903 -2.45874 -1.85312 95 91 81
-6.5917 -2.43634 -1.85144 100 96 89
-6.60579 -2.40704 -1.85256 96 92 84
-6.97934 -1.93417 -1.85962 77 89 111
-6.99377 -1.91512 -1.86234 77 90 107
-7.22778 -1.47926 -1.84639 80 93 116
-7.58387 -1.08176 -1.86346 74 89 114
-7.59017 -1.05851 -1.86448 72 87 110
-8.092 -0.306666 -1.85839 81 95 122
-2.64086 -6.27677 -1.55643 129 127 132
-2.91385 -5.9874 -1.57347 128 127 126
-3.24364 -5.79459 -1.62057 129 119 109
-3.26719 -5.79713 -1.62427 136 124 112
-3.88616 -5.78355 -1.76636 173 137 110
-3.91869 -5.77622 -1.76962 157 123 98
-4.20588 -5.35399 -1.77229 119 108 113
-4.23706 -5.34448 -1.77565 116 105 110
-4.25293 -5.33193 -1.77565 107 97 97
-6.61426 -2.38723 -1.85311 98 92 82
-6.62444 -2.36805 -1.85423 100 94 83
-6.61833 -2.33151 -1.8492 96 92 81
-7.0803 -1.91607 -1.88624 76 89 106
-6.95866 -1.84767 -1.8482 66 78 95
-6.93947 -1.81957 -1.84113 119 127 136
-7.23756 -1.44606 -1.84744 81 93 117
-7.2393 -1.42303 -1.84691 82 94 116
-7.58113 -1.03309 -1.8614 78 93 116
-8.09632 -0.275602 -1.85957 74 88 113
-8.10011 -0.254924 -1.86075 71 86 109
-2.61927 -6.27698 -1.55445 132 130 135
-2.87866 -6.00567 -1.57398 127 127 127
-2.89434 -5.99214 -1.57245 129 129 129
-3.21368 -5.80171 -1.61845 128 117 108
-3.8404 -5.78811 -1.76038 182 143 109
-3.86277 -5.78506 -1.7631 177 138 108
-4.17738 -5.38336 -1.77397 124 116 114
-4.19566 -5.37408 -1.77508 119 111 112
-6.63922 -2.31607 -1.85366 94 92 80
-6.65282 -2.29801 -1.85589 88 83 77
-6.97026 -1.80495 -1.84874 119 117 119
-6.96294 -1.76859 -1.84439 113 108 111
-7.24852 -1.40144 -1.84849 83 95 118
-7.58886 -0.997902 -1.86242 83 97 123
-7.58534 -0.973322 -1.86087 71 85 111
-7.84028 -0.543928 -1.85195 73 87 113
-8.0962 -0.233917 -1.8596 70 84 110
-2.59191 -6.29163 -1.55544 134 132 137
-2.84969 -6.01433 -1.57296 127 127 128
-3.16592 -5.79436 -1.61053 136 127 118
-3.19022 -5.79894 -1.61475 131 121 112
-3.75638 -5.78902 -1.74789 200 155 116
-3.77866 -5.7863 -1.7506 197 151 115
-3.79996 -5.78184 -1.75278 194 149 115
-4.11956 -5.42463 -1.77341 120 111 106
-4.1402 -5.41867 -1.77564 119 109 107
-4.1563 -5.40644 -1.77564 119 109 107
-5.1463 -4.0156 -1.78685 71 82 100
-5.15654 -3.99862 -1.78627 72 85 102
-5.18645 -3.98441 -1.7909 72 83 101
-5.18304 -3.95665 -1.78511 71 79 100
-5.20662 -3.95018 -1.78974 71 82 102
-5.2364 -3.93558 -1.79437 72 83 101
-5.24332 -3.916 -1.79263 73 81 100
-5.25624 -3.90107 -1.79321 73 81 102
-5.26913 -3.87337 -1.79147 72 80 101
-5.28193 -3.85833 -1.79205 71 79 98
-5.29009 -3.83981 -1.79089 72 81 98
-5.3028 -3.82469 -1.79147 76 84 103
-5.32297 -3.8025 -1.79262 79 90 108
-5.3371 -3.78839 -1.79378 73 81 100
-5.34192 -3.76748 -1.79146 74 83 98
-5.37271 -3.75288 -1.79667 71 82 100
-5.39918 -3.74747 -1.80246 73 84 102
-5.39135 -3.71756 -1.79551 75 84 101
-5.40949 -3.69376 -1.79609 77 86 101
-5.42333 -3.67929 -1.79724 71 79 98
-5.43243 -3.6615 -1.79666 74 82 103
-5.4456 -3.63423 -1.7955 76 85 102
-5.44979 -3.61314 -1.79318 79 88 103
-6.66447 -2.26769 -1.85645 91 87 83
-6.65433 -2.24152 -1.85142 90 89 87
-6.97318 -1.74841 -1.84601 112 110 113
-6.98335 -1.72818 -1.84764 113 112 116
-7.25036 -1.36668 -1.84743 78 90 112
-7.24427 -1.34224 -1.84478 78 90 114
-7.59323 -0.950246 -1.8624 71 86 109
-7.84677 -0.52435 -1.85377 78 92 118
-8.08489 -0.202254 -1.85614 78 92 118
-2.55479 -6.30794 -1.55593 128 127 132
-2.5737 -6.30072 -1.55593 132 130 135
-2.82864 -6.01528 -1.57091 127 127 129
-3.11099 -5.79454 -1.60366 139 131 128
-3.14513 -5.79656 -1.60841 134 125 118
-3.69107 -5.7797 -1.73593 197 156 117
-3.71815 -5.7855 -1.74136 199 154 115
-4.07757 -5.45324 -1.77284 129 120 113
-4.10787 -5.44298 -1.77564 118 109 104
-5.00958 -4.19668 -1.78803 72 83 105
-5.02332 -4.18261 -1.7886 69 80 102
-5.06973 -4.18315 -1.79961 72 83 103
-5.08344 -4.16887 -1.80018 71 82 100
-5.06786 -4.12987 -1.78918 68 79 99
-5.07611 -4.09799 -1.78512 69 82 99
-5.10282 -4.09467 -1.79091 68 81 100
-5.10593 -4.07173 -1.78744 72 83 101
-5.12715 -4.05067 -1.78859 68 79 97
-5.14196 -4.03737 -1.78975 68 81 100
-5.47926 -3.60923 -1.80013 75 84 99
-5.48335 -3.58807 -1.79781 76 85 102
-5.50568 -3.56694 -1.80012 72 84 100
-5.50962 -3.54574 -1.7978 74 82 101
-5.51666 -3.52665 -1.79664 71 82 102
-5.53715 -3.50424 -1.79838 72 83 103
-5.54727 -3.48716 -1.79838 76 87 107
-5.57342 -3.48038 -1.80417 75 86 104
-5.58082 -3.44943 -1.80127 73 85 101
-6.68591 -2.22939 -1.85923 86 87 91
-6.68652 -2.20686 -1.85755 85 86 90
-6.685 -2.17219 -1.8542 82 86 98
-6.97005 -1.69051 -1.84166 140 137 142
-7.25893 -1.32158 -1.84795 79 92 116
-7.25268 -1.29716 -1.8453 70 84 107
-7.59291 -0.914002 -1.86137 72 87 110
-7.84181 -0.503878 -1.85198 81 95 121
-7.84514 -0.473958 -1.8526 83 97 122
-8.10947 -0.182217 -1.86369 70 85 108
-8.09004 -0.160788 -1.8579 83 98 121
-2.53186 -6.3042 -1.55296 131 130 135
-2.80837 -6.01794 -1.56937 130 128 131
-3.09027 -5.79653 -1.60154 138 132 126
-3.64289 -5.77774 -1.72832 180 155 113
-3.6718 -5.78708 -1.73484 188 157 118
-4.04834 -5.48185 -1.77452 119 106 98
-4.06573 -5.47149 -1.77508 124 111 108
-4.89177 -4.36935 -1.79441 71 82 104
-4.91002 -4.34565 -1.79383 76 84 107
-4.91995 -4.32808 -1.79267 72 84 105
-4.93691 -4.31691 -1.7944 69 82 102
-4.95917 -4.29684 -1.79556 70 82 103
-4.97321 -4.28296 -1.79614 72 84 104
-4.98435 -4.26649 -1.79556 71 83 104
-5.01502 -4.25373 -1.80019 69 82 103
-5.02893 -4.23965 -1.80077 71 83 105
-5.63122 -3.45772 -1.81575 73 81 100
-5.63146 -3.43424 -1.81227 75 82 101
-5.62185 -3.40472 -1.80531 73 81 102
-5.64023 -3.38066 -1.80647 72 83 103
-5.64994 -3.36324 -1.80647 73 86 105
-5.6547 -3.3428 -1.80473 77 89 111
-5.68101 -3.32347 -1.80878 76 88 112
-5.71519 -3.3206 -1.81746 75 87 109
-5.72801 -3.30488 -1.81862 71 83 105
-6.7055 -2.15615 -1.85867 82 88 102
-6.69673 -2.1307 -1.8542 78 88 100
-7.01923 -1.67989 -1.85469 80 76 82
-7.01986 -1.65717 -1.8536 92 92 101
-7.26731 -1.26469 -1.84794 77 92 115
-7.61403 -0.892471 -1.86649 76 91 114
-7.59102 -0.865626 -1.85983 71 84 108
-7.84382 -0.453783 -1.85201 79 91 115
-8.08793 -0.12949 -1.85734 71 83 109
-2.50238 -6.31298 -1.55246 131 131 133
-2.75908 -6.02872 -1.56681 127 125 128
-2.78451 -6.03873 -1.57193 130 128 131
-3.03723 -5.79944 -1.59573 135 130 129
-3.06617 -5.79153 -1.59732 137 130 125
-3.58673 -5.78225 -1.72126 159 133 112
-3.61072 -5.78352 -1.72506 171 140 114
-3.98301 -5.5121 -1.77061 123 110 104
-4.00808 -5.51302 -1.77507 126 113 105
-4.01685 -5.49018 -1.77117 116 104 95
-4.7999 -4.45868 -1.79152 75 86 104
-4.81025 -4.44141 -1.79036 78 89 109
-4.83161 -4.43467 -1.79383 79 92 111
-4.8502 -4.41125 -1.79325 71 82 100
-4.87153 -4.40432 -1.79673 73 84 102
-4.88307 -4.38815 -1.79615 73 84 106
-5.74761 -3.2812 -1.82036 73 85 110
-5.76363 -3.26726 -1.82267 70 82 106
-5.76139 -3.24274 -1.81861 67 79 101
-5.77567 -3.22776 -1.82035 68 82 101
-5.79493 -3.20377 -1.82208 72 84 108
-5.7941 -3.1802 -1.8186 73 85 109
-6.70763 -2.1001 -1.85475 77 89 105
-6.67665 -2.06794 -1.84358 80 91 109
-6.69506 -2.05115 -1.84749 76 89 108
-7.02977 -1.6367 -1.85523 83 90 105
-7.03654 -1.60392 -1.85523 83 95 110
-7.26656 -1.24127 -1.84688 76 91 116
-7.27714 -1.21974 -1.84899 71 85 111
-7.60241 -0.842876 -1.86238 73 88 111
-7.84814 -0.433982 -1.85322 81 93 117
-7.83403 -0.402985 -1.84844 75 90 113
-8.08935 -0.108697 -1.85794 75 89 115
-2.48213 -6.31632 -1.55147 132 132 132
-2.74679 -6.0508 -1.5709 126 126 128
-2.99012 -5.79062 -1.58781 135 130 131
-3.01491 -5.79768 -1.59256 138 131 130
-3.56088 -5.77754 -1.71637 148 126 109
-3.96329 -5.53751 -1.7734 126 113 107
-4.70324 -4.55709 -1.79037 75 84 103
-4.71531 -4.54143 -1.78979 72 84 100
-4.72057 -4.51898 -1.78631 74 85 103
-4.75865 -4.51489 -1.79384 73 84 102
-4.76238 -4.49102 -1.78978 74 85 105
-4.78518 -4.48588 -1.79384 76 87 105
-5.8149 -3.16879 -1.82266 72 84 110
-5.82051 -3.13715 -1.81976 72 87 110
-5.83785 -3.12372 -1.82265 72 87 110
-5.84173 -3.10289 -1.82091 74 86 108
-5.86383 -3.08026 -1.8238 71 86 109
-6.68908 -2.01555 -1.84302 72 87 108
-6.70367 -1.99752 -1.8458 79 92 109
-7.03505 -1.58075 -1.85359 82 94 110
-7.03911 -1.55888 -1.85359 82 94 112
-7.27432 -1.1843 -1.84687 76 88 112
-7.59199 -0.805573 -1.85879 73 85 110
-7.58979 -0.781309 -1.85776 78 91 115
-7.8477 -0.383712 -1.85266 79 91 115
-8.10409 -0.0881226 -1.86259 76 90 116
-8.08626 -0.0669947 -1.85738 74 88 114
-2.46443 -6.32689 -1.55246 129 129 129
-2.71196 -6.04445 -1.56578 127 126 128
-2.95963 -5.79465 -1.58516 136 127 130
-3.4802 -5.77787 -1.70496 159 135 115
-3.50589 -5.78294 -1.70985 149 128 111
-3.52882 -5.78286 -1.71311 148 125 113
-3.91048 -5.56734 -1.77172 128 113 105
-3.92491 -5.55268 -1.7706 129 114 107
-3.94891 -5.55229 -1.77451 129 116 110
-4.5958 -4.61566 -1.77937 78 87 102
-4.61264 -4.59057 -1.77763 75 84 101
-4.6528 -4.60405 -1.78921 78 87 104
-4.6597 -4.58306 -1.78631 75 87 103
-4.68037 -4.5618 -1.78631 76 84 103
-5.87092 -3.06119 -1.82322 70 85 108
-5.89655 -3.05195 -1.82901 71 83 105
-5.89338 -3.02744 -1.82495 69 84 107
-5.9084 -3.0009 -1.82553 72 84 106
-5.92204 -2.98521 -1.82726 73 85 107
-6.70718 -1.97617 -1.84524 78 90 106
-6.70511 -1.9532 -1.84301 72 83 104
-7.04739 -1.52646 -1.85413 80 92 114
-7.29423 -1.16417 -1.85162 72 86 109
-7.29507 -1.141 -1.85108 72 86 111
-7.62779 -0.761227 -1.86749 76 92 117
-7.8499 -0.363744 -1.85327 79 93 116
-8.08945 -0.0357796 -1.85856 76 88 112
-2.43675 -6.34081 -1.55345 127 127 131
-2.67565 -6.05962 -1.56578 128 126 131
-2.69381 -6.05207 -1.56578 128 126 129
-2.94313 -5.8048 -1.58569 134 126 127
-3.44734 -5.78105 -1.70115 190 143 119
-3.86847 -5.5958 -1.77171 137 121 108
-3.88302 -5.58125 -1.7706 126 112 101
-4.50676 -4.67751 -1.77358 76 85 99
-4.51277 -4.65543 -1.7701 80 87 103
-4.53956 -4.65574 -1.77589 80 84 101
-4.56319 -4.63786 -1.77705 83 86 103
-4.59925 -4.64762 -1.7869 86 93 110
-5.94243 -2.97295 -1.83131 73 85 107
-5.94013 -2.93751 -1.8261 72 84 106
-5.97411 -2.93196 -1.83478 71 83 105
-5.97215 -2.9083 -1.8313 71 83 105
-6.71887 -1.92354 -1.84468 79 90 111
-6.72583 -1.90319 -1.84523 78 89 109
-7.05128 -1.50455 -1.85412 82 94 116
-7.0626 -1.48424 -1.85629 74 88 111
-7.3071 -1.10781 -1.85319 74 88 114
-7.59201 -0.72148 -1.85724 75 89 115
-7.84117 -0.333172 -1.85029 74 88 113
-7.85463 -0.313719 -1.8545 72 86 112
-8.09441 -0.0149683 -1.86031 75 87 111
-2.41645 -6.34393 -1.55245 130 127 134
-2.65747 -6.06712 -1.56578 128 126 129
-2.89475 -5.7917 -1.57671 133 129 130
-2.92173 -5.80441 -1.58305 136 130 131
-3.39902 -5.77538 -1.693 210 167 125
-3.42453 -5.7808 -1.69789 205 157 123
-3.85178 -5.60708 -1.77171 138 122 110
-4.45639 -4.72354 -1.773 80 83 100
-4.47035 -4.71004 -1.773 77 83 99
-4.48426 -4.6965 -1.773 79 82 99
-5.98835 -2.88217 -1.83246 71 83 105
-6.00339 -2.86695 -1.83477 71 83 107
-6.01322 -2.84914 -1.83535 68 83 106
-6.01954 -2.82964 -1.83477 71 85 111
-6.7272 -1.88127 -1.84411 78 89 111
-6.74248 -1.85193 -1.84634 76 84 101
-7.0555 -1.4485 -1.85248 79 92 111
-7.06855 -1.42851 -1.8552 75 87 111
-7.30204 -1.08378 -1.85107 73 87 113
-7.30453 -1.06087 -1.85107 75 87 111
-7.61259 -0.699447 -1.86235 78 92 118
-7.83567 -0.292826 -1.84851 74 88 114
-7.83381 -0.272712 -1.84792 68 82 108
-2.39801 -6.35247 -1.55295 130 127 134
-2.63315 -6.08727 -1.56833 129 128 132
-2.87232 -5.81274 -1.57935 134 130 131
-3.34628 -5.78263 -1.68757 186 152 125
-3.37719 -5.77664 -1.69028 209 165 125
-3.79161 -5.64453 -1.77115 135 116 101
-3.81047 -5.63667 -1.77227 150 132 118
-3.82829 -5.62714 -1.77283 141 125 112
-4.38257 -4.77217 -1.76837 78 80 95
-4.40425 -4.76753 -1.77185 78 79 96
-4.41835 -4.7542 -1.77185 78 79 95
-4.44239 -4.73698 -1.773 78 82 96
-6.05613 -2.81307 -1.84287 70 85 108
-6.04676 -2.78611 -1.83708 76 90 111
-6.05114 -2.7657 -1.83591 75 88 107
-6.75663 -1.83348 -1.84913 114 119 128
-6.76334 -1.81298 -1.84968 108 108 112
-7.07589 -1.40729 -1.85628 82 94 118
-7.31078 -1.03848 -1.85212 77 89 113
-7.58123 -0.672505 -1.85364 73 88 113
-2.61556 -6.09643 -1.56885 131 130 135
-2.82813 -5.80782 -1.57301 133 128 132
-2.8502 -5.81032 -1.57618 133 127 130
-3.29654 -5.77271 -1.67833 141 125 112
-3.31827 -5.77176 -1.68105 148 125 107
-3.77096 -5.66919 -1.77394 135 113 96
-4.33617 -4.82254 -1.77011 81 80 94
-4.34419 -4.80219 -1.76722 80 79 95
-4.36843 -4.80063 -1.77185 81 81 96
-6.08061 -2.7455 -1.8417 77 89 104
-6.08659 -2.72581 -1.84112 76 88 102
-6.09948 -2.70926 -1.84285 75 84 99
-6.76533 -1.77998 -1.84801 115 112 110
-6.77743 -1.76087 -1.85023 115 112 113
-7.07593 -1.37312 -1.85464 83 95 119
-7.08499 -1.35221 -1.85627 79 91 113
-7.30325 -1.00253 -1.84895 74 89 112
-7.60265 -0.638431 -1.85876 76 91 114
-7.56531 -0.611283 -1.84851 68 80 104
-7.87032 -0.243883 -1.85935 77 91 117
-7.84733 -0.223024 -1.85216 80 94 120
-2.58912 -6.08206 -1.5627 134 134 136
-2.79778 -5.81096 -1.57036 132 130 133
-3.26838 -5.78339 -1.67724 138 125 113
-3.72905 -5.678 -1.76947 103 81 61
-3.75001 -5.67363 -1.77171 138 116 98
-4.26983 -4.87941 -1.76953 79 79 92
-4.28304 -4.86507 -1.76895 80 79 93
-4.2999 -4.85507 -1.77011 80 82 94
-4.3217 -4.85085 -1.77359 80 82 94
-6.11655 -2.68315 -1.84459 78 87 99
-6.10834 -2.65714 -1.83937 78 86 98
-6.12104 -2.64046 -1.84111 80 86 98
-6.13956 -2.61494 -1.84342 82 88 99
-6.7709 -1.73695 -1.84688 120 119 116
-7.094 -1.33125 -1.85789 82 94 116
-7.32456 -0.982105 -1.85422 71 85 111
-7.31529 -0.957649 -1.85105 76 88 112
-7.59325 -0.589676 -1.85567 73 85 107
-7.84143 -0.20278 -1.85037 79 91 115
-2.56463 -6.1019 -1.56526 130 128 133
-2.78193 -5.82236 -1.57142 131 128 130
-3.22068 -5.77624 -1.66909 134 121 111
-3.24319 -5.77729 -1.67235 136 121 110
-3.68816 -5.70824 -1.77058 138 108 82
-3.71409 -5.69209 -1.77059 99 74 54
-4.21612 -4.92114 -1.76838 82 80 94
-4.23554 -4.91436 -1.77069 80 79 93
-4.2513 -4.90307 -1.77127 81 80 94
-6.14512 -2.59508 -1.84284 80 84 89
-6.16293 -2.58048 -1.84631 79 80 82
-6.15782 -2.55607 -1.84225 79 80 78
-6.80488 -1.68979 -1.85357 92 83 75
-7.10295 -1.31025 -1.85952 82 94 118
-7.11384 -1.27812 -1.86115 75 90 113
-7.31883 -0.923196 -1.85104 71 85 111
-7.57111 -0.563996 -1.84952 77 89 113
-7.85857 -0.173069 -1.85579 72 84 108
-2.52929 -6.11974 -1.56628 128 127 133
-2.54565 -6.10723 -1.56474 129 128 134
-2.76224 -5.82489 -1.56983 131 128 129
-3.1658 -5.77665 -1.66202 131 119 107
-3.19082 -5.78309 -1.66691 134 120 109
-3.65599 -5.73286 -1.7717 195 170 139
-3.67211 -5.72058 -1.77114 148 120 98
-4.18145 -4.95567 -1.76954 80 80 92
-4.19494 -4.94159 -1.76896 80 79 93
-6.17068 -2.52805 -1.84283 85 86 78
-6.18655 -2.51251 -1.84572 85 87 76
-6.18648 -2.49034 -1.8434 97 99 87
-6.81302 -1.66953 -1.85469 88 83 80
-6.80616 -1.64564 -1.85133 89 88 86
-7.10183 -1.25321 -1.85679 77 92 116
-7.11432 -1.23279 -1.85951 77 91 117
-7.31125 -0.899075 -1.8484 74 86 110
-7.59206 -0.529677 -1.85464 69 83 108
-7.56587 -0.503905 -1.84746 76 90 116
-7.84678 -0.152715 -1.8522 76 88 112
-7.85399 -0.13275 -1.85461 75 87 111
-2.71821 -5.84419 -1.56983 133 128 130
-2.73492 -5.83474 -1.5693 130 128 129
-3.12355 -5.77903 -1.65713 131 119 107
-3.14423 -5.77702 -1.65931 131 119 107
-3.63279 -5.75368 -1.77337 190 158 134
-4.13168 -5.00236 -1.77069 80 78 92
-4.1465 -4.98993 -1.77069 81 79 93
-4.16673 -4.96821 -1.76954 81 81 91
-4.88566 -4.00002 -1.78625 70 81 99
-4.90024 -3.98753 -1.78745 68 79 97
-4.92802 -3.98588 -1.79405 68 79 97
-4.93253 -3.95243 -1.78865 73 84 102
-4.94107 -3.93494 -1.78745 71 82 100
-4.95992 -3.92581 -1.79044 68 76 95
-4.99829 -3.91968 -1.79884 72 81 98
-4.9888 -3.8878 -1.79044 79 88 105
-5.01805 -3.88668 -1.79764 75 84 99
-5.01134 -3.84486 -1.78804 73 81 100
-5.04811 -3.84937 -1.79823 76 85 102
-5.04417 -3.82227 -1.79223 77 86 101
-5.05374 -3.80566 -1.79163 72 81 98
-5.06615 -3.77896 -1.78983 74 83 98
-5.08318 -3.76801 -1.79223 76 85 100
-5.11087 -3.76498 -1.79882 72 81 96
-5.1062 -3.72557 -1.79043 72 79 95
-5.11851 -3.71104 -1.79102 73 80 98
-5.15847 -3.7167 -1.80242 73 81 100
-5.14877 -3.67393 -1.79222 70 79 96
-5.15938 -3.65813 -1.79222 77 84 102
-5.1746 -3.64561 -1.79402 77 84 102
-5.18981 -3.63302 -1.79581 75 84 99
-5.20283 -3.6069 -1.79461 77 84 102
-5.23667 -3.60726 -1.80361 83 90 108
-5.22203 -3.5738 -1.79401 76 83 99
-5.24574 -3.55509 -1.797 73 82 99
-5.25283 -3.53681 -1.7958 74 81 100
-5.26934 -3.52493 -1.7982 76 84 103
-5.2818 -3.49847 -1.797 73 85 101
-5.29979 -3.4875 -1.8 72 80 99
-5.2987 -3.46383 -1.79579 74 82 103
-5.32777 -3.46007 -1.80299 76 84 105
-5.32711 -3.42506 -1.79699 74 82 103
-5.33536 -3.40762 -1.79639 77 88 106
-6.22031 -2.47078 -1.85092 95 94 82
-6.2112 -2.44499 -1.84571 97 98 84
-6.20555 -2.42069 -1.84165 110 108 92
-6.82973 -1.61782 -1.85635 84 89 95
-6.82644 -1.59483 -1.85412 86 94 107
-7.12864 -1.20119 -1.86222 72 87 110
-7.32465 -0.877449 -1.85156 79 91 115
-7.57039 -0.480359 -1.84848 81 95 121
-7.85176 -0.102548 -1.85403 72 86 112
-2.479 -6.12627 -1.5632 128 128 130
-2.49672 -6.11753 -1.56269 129 129 131
-2.697 -5.84293 -1.56719 132 128 131
-3.0896 -5.7767 -1.65224 130 117 108
-3.59067 -5.76138 -1.7689 155 130 106
-3.61173 -5.75757 -1.77114 175 144 122
-4.09604 -5.01949 -1.7678 82 80 94
-4.11446 -5.01171 -1.76954 82 78 93
-4.76217 -4.15687 -1.78746 69 80 98
-4.7786 -4.14615 -1.78926 67 78 96
-4.79144 -4.11926 -1.78686 74 83 102
-4.79914 -4.10089 -1.78506 72 81 101
-4.81686 -4.09124 -1.78746 74 82 103
-4.84818 -4.08036 -1.79286 71 80 102
-4.84847 -4.05567 -1.78806 69 82 99
-4.87337 -4.05196 -1.79345 71 83 99
-4.87689 -4.01736 -1.78745 70 82 98
-5.35155 -3.39529 -1.79878 73 86 103
-5.36978 -3.37258 -1.79998 72 83 101
-5.37948 -3.35603 -1.79998 73 84 102
-5.40363 -3.34855 -1.80538 73 86 103
-5.40546 -3.31551 -1.80058 73 86 105
-5.43769 -3.31281 -1.80897 74 87 106
-5.45205 -3.29902 -1.81077 73 85 107
-5.46498 -3.27278 -1.81017 73 85 107
-6.22491 -2.39518 -1.84454 103 97 83
-6.23509 -2.37717 -1.84569 100 95 80
-6.82865 -1.57315 -1.85355 83 95 109
-7.11257 -1.17575 -1.85678 77 89 113
-7.3259 -0.842727 -1.85103 81 93 115
-7.31998 -0.818885 -1.84891 71 86 107
-7.58134 -0.445221 -1.85103 77 91 117
-7.84166 -0.0823521 -1.85104 75 89 115
-2.46187 -6.13676 -1.56423 128 127 132
-2.68323 -5.85936 -1.56983 132 127 131
-3.04753 -5.77849 -1.64735 130 120 111
-3.06731 -5.77503 -1.64898 133 120 112
-3.5462 -5.78554 -1.76834 134 117 101
-3.56059 -5.77027 -1.76667 136 119 102
-4.04321 -5.06217 -1.7678 80 77 85
-4.06982 -5.06526 -1.77359 81 78 89
-4.07438 -5.03937 -1.76838 83 81 94
-4.6515 -4.26105 -1.78267 71 82 100
-4.6542 -4.23781 -1.77847 69 80 100
-4.6774 -4.22044 -1.78027 70 81 99
-4.68973 -4.20621 -1.78027 73 84 102
-4.70624 -4.19579 -1.78207 67 78 96
-4.72363 -4.173 -1.78147 66 79 96
-4.74716 -4.1688 -1.78626 69 80 98
-5.46944 -3.25297 -1.80836 70 82 106
-5.49511 -3.24584 -1.81436 73 85 109
-5.50765 -3.23081 -1.81556 73 85 109
-5.52027 -3.20432 -1.81496 71 83 107
-5.52775 -3.18631 -1.81435 73 85 107
-5.53848 -3.17018 -1.81495 73 85 107
-5.55411 -3.14544 -1.81555 70 82 104
-6.25417 -2.36255 -1.84974 101 99 76
-6.25532 -2.34102 -1.848 101 98 78
-6.2672 -2.31243 -1.84858 98 97 79
-6.83322 -1.54084 -1.85299 86 95 112
-6.84652 -1.52163 -1.85578 82 93 111
-7.11348 -1.15327 -1.85623 78 90 114
-7.12744 -1.12156 -1.85894 78 93 116
-7.33505 -0.7973 -1.8526 70 85 108
-7.30983 -0.771516 -1.8452 83 98 121
-7.56835 -0.420567 -1.84744 74 88 114
-7.84865 -0.0623099 -1.85346 78 92 118
-7.80799 -0.0321064 -1.84086 70 82 106
-2.44469 -6.14721 -1.56525 130 129 134
-2.65649 -5.87059 -1.56982 129 127 128
-3.01457 -5.77745 -1.643 132 122 113
-3.50593 -5.79591 -1.76499 148 124 105
-3.52416 -5.78743 -1.76555 136 116 102
-4.00964 -5.09842 -1.77012 76 68 75
-4.02821 -5.091 -1.77185 85 79 86
-4.5472 -4.34421 -1.77608 75 83 104
-4.56265 -4.33307 -1.77728 72 79 100
-4.58896 -4.31889 -1.78028 71 78 97
-4.60435 -4.30759 -1.78148 72 80 101
-4.61557 -4.29229 -1.78087 72 80 101
-4.62929 -4.266 -1.77847 70 82 98
-5.58462 -3.14048 -1.82334 72 84 106
-5.57196 -3.11107 -1.81554 70 85 108
-5.59233 -3.08892 -1.81794 70 85 108
-5.60444 -3.07346 -1.81914 72 86 106
-5.60648 -3.05246 -1.81673 73 86 105
-5.62018 -3.03785 -1.81853 74 85 105
-6.2664 -2.29022 -1.84626 90 88 76
-6.28166 -2.27399 -1.84915 87 86 81
-6.28066 -2.24067 -1.84567 91 92 97
-6.84288 -1.49868 -1.85354 82 94 112
-6.85042 -1.47817 -1.85465 80 92 114
-7.13575 -1.10025 -1.86057 76 91 114
-7.5938 -0.398143 -1.85409 82 94 119
-2.41094 -6.14087 -1.56064 130 129 137
-2.61991 -5.8818 -1.56877 129 127 128
-2.64038 -5.88158 -1.57088 130 128 129
-2.97106 -5.77519 -1.63703 132 122 113
-2.99401 -5.77898 -1.64083 133 123 114
-3.47578 -5.80433 -1.76275 173 138 113
-3.96269 -5.14939 -1.77359 151 141 141
-3.98476 -5.14679 -1.77706 104 97 99
-4.00128 -5.11963 -1.77359 75 66 73
-4.51312 -4.43013 -1.78688 76 85 102
-4.50323 -4.39352 -1.77668 72 79 98
-4.5189 -4.369 -1.77488 71 78 96
-4.54122 -4.36466 -1.77908 74 81 100
-5.65198 -3.02167 -1.82513 70 83 105
-5.64709 -2.997 -1.82032 73 85 109
-5.66232 -2.98308 -1.82272 67 81 107
-5.6754 -2.95677 -1.82272 70 85 108
-6.29221 -2.22303 -1.8474 85 88 99
-6.3109 -2.20791 -1.85145 83 88 100
-6.85079 -1.44497 -1.85298 74 86 110
-6.84877 -1.42247 -1.8513 81 93 115
-7.13262 -1.07712 -1.85894 74 89 112
-7.14269 -1.05605 -1.8611 71 86 109
-7.33549 -0.739297 -1.85153 74 89 112
-7.32733 -0.715339 -1.84889 69 84 107
-7.58896 -0.36199 -1.85255 84 99 122
-7.85862 -0.0120082 -1.85709 74 89 113
-2.39745 -6.16213 -1.56473 129 128 133
-2.5952 -5.89808 -1.57035 129 127 128
-2.94461 -5.78772 -1.63702 133 122 115
-3.42814 -5.80073 -1.75494 200 152 114
-3.45286 -5.80426 -1.75941 191 143 116
-3.93197 -5.17297 -1.77359 150 138 138
-3.94175 -5.15345 -1.7707 157 146 147
-4.40839 -4.48512 -1.77549 76 84 102
-4.44575 -4.48293 -1.78328 75 84 100
-4.46157 -4.4722 -1.78448 77 85 103
-4.46271 -4.44642 -1.77908 77 86 102
-4.49606 -4.4397 -1.78508 74 83 100
-5.68038 -2.93743 -1.82152 70 83 107
-5.70055 -2.92595 -1.82571 72 84 107
-5.71675 -2.90117 -1.82691 75 87 110
-5.72153 -2.88174 -1.82571 69 84 106
-5.73137 -2.86485 -1.8263 71 84 110
-6.30231 -2.17202 -1.84566 78 87 102
-6.3245 -2.15801 -1.85087 76 88 102
-6.85984 -1.40266 -1.85353 77 90 110
-7.14291 -1.02208 -1.86001 74 86 110
-7.32866 -0.692309 -1.84888 79 93 117
-2.37586 -6.15957 -1.56217 129 129 131
-2.57685 -5.90351 -1.56982 128 128 128
-2.9241 -5.78898 -1.63485 133 123 114
-3.37521 -5.80834 -1.74935 193 149 117
-3.39895 -5.81041 -1.75326 205 159 123
-3.89406 -5.20372 -1.77417 144 133 127
-3.90732 -5.18896 -1.77301 142 132 124
-4.37255 -4.52904 -1.77729 75 82 100
-4.37539 -4.50473 -1.77249 77 84 103
-4.3965 -4.4998 -1.77609 76 83 101
-5.74456 -2.84963 -1.8281 72 84 106
-5.75701 -2.8229 -1.8281 74 86 109
-5.75984 -2.80254 -1.82629 72 87 109
-6.3141 -2.13266 -1.84565 76 88 105
-6.34162 -2.12036 -1.8526 77 89 105
-6.86361 -1.37021 -1.85296 75 90 113
-6.86135 -1.34772 -1.85128 75 90 113
-7.15283 -1.00091 -1.86218 80 92 114
-7.32138 -0.65692 -1.84623 78 90 114
-7.68336 -0.117235 -1.84529 78 93 116
-2.34465 -6.16016 -1.55961 128 128 130
-2.55919 -5.91066 -1.56982 128 128 128
-2.90125 -5.7849 -1.63105 132 122 112
-3.35063 -5.80449 -1.74489 146 119 102
-3.85481 -5.2326 -1.77417 140 130 128
-3.88295 -5.22158 -1.77649 144 133 129
-4.2879 -4.57612 -1.76949 78 87 100
-4.30977 -4.5581 -1.77009 75 82 96
-4.32833 -4.55069 -1.77249 75 83 97
-4.35079 -4.54739 -1.77669 74 81 97
-5.80031 -2.80044 -1.83769 74 86 107
-5.79361 -2.7644 -1.83109 79 90 105
-5.80827 -2.74969 -1.83348 82 89 106
-5.82632 -2.73652 -1.83708 81 88 103
-6.34343 -2.08823 -1.85027 71 82 102
-6.35816 -2.07143 -1.85317 75 87 109
-6.34559 -2.04561 -1.84737 74 86 107
-6.8835 -1.32993 -1.85686 75 90 113
-7.15127 -0.978067 -1.86109 73 88 111
-7.15304 -0.944344 -1.86054 77 91 117
-7.3072 -0.632626 -1.842 83 95 119
-7.27949 -0.607351 -1.83407 69 81 105
-7.69231 -0.0979894 -1.84838 78 92 118
-2.32974 -6.17759 -1.56268 129 128 133
-2.53013 -5.91589 -1.56823 130 129 131
-2.84661 -5.78048 -1.62344 131 121 111
-2.87244 -5.79181 -1.62941 133 123 113
-3.2952 -5.80628 -1.73763 132 118 109
-3.31969 -5.81037 -1.74209 134 120 111
-3.82034 -5.25073 -1.77243 139 125 124
-3.82944 -5.22988 -1.76896 139 128 123
-4.22766 -4.63522 -1.7701 76 82 98
-4.24384 -4.62533 -1.77129 76 82 98
-4.26848 -4.61038 -1.77309 78 81 98
-4.27948 -4.59467 -1.77189 75 81 95
-5.82268 -2.70216 -1.83168 80 87 102
-5.84411 -2.69046 -1.83647 80 87 100
-5.85336 -2.6731 -1.83707 85 92 100
-5.86083 -2.65492 -1.83707 82 88 100
-6.36886 -2.02058 -1.852 75 86 107
-6.36883 -1.99894 -1.85026 79 90 110
-6.88882 -1.29773 -1.85686 73 87 113
-6.89387 -1.2766 -1.85741 72 84 108
-7.15701 -0.922288 -1.86108 73 88 111
-7.28907 -0.573584 -1.83618 71 83 107
-7.67464 -0.0782366 -1.84285 70 84 110
-2.50627 -5.90671 -1.56348 131 129 132
-2.80733 -5.78574 -1.62018 132 123 114
-2.8285 -5.78667 -1.62289 132 122 113
-3.24081 -5.80924 -1.73093 130 118 109
-3.27342 -5.80718 -1.73484 133 120 111
-3.77751 -5.27423 -1.77069 142 131 127
-3.79643 -5.26773 -1.77243 139 128 124
-4.18665 -4.6881 -1.7737 77 80 97
-4.20402 -4.66487 -1.7719 78 81 97
-4.21775 -4.65221 -1.7719 75 81 96
-4.86548 -3.82562 -1.79513 75 82 98
-4.89361 -3.80086 -1.79759 72 81 98
-4.91656 -3.78333 -1.80005 73 82 99
-4.9246 -3.76603 -1.79882 74 83 98
-4.93555 -3.75108 -1.79882 74 83 100
-4.95245 -3.7408 -1.80128 74 83 100
-4.97067 -3.71938 -1.80189 74 86 100
-4.97247 -3.69728 -1.7982 75 84 99
-4.99375 -3.69029 -1.8025 77 86 101
-5.01174 -3.66866 -1.80312 74 83 98
-5.02995 -3.65916 -1.80619 78 85 103
-5.03907 -3.64271 -1.80558 74 83 100
-5.05076 -3.61628 -1.80373 77 84 102
-5.06429 -3.60317 -1.80496 75 82 100
-5.05485 -3.5731 -1.79696 74 81 99
-5.08206 -3.57005 -1.80372 74 83 100
-5.09951 -3.54794 -1.80434 72 80 99
-5.09746 -3.52352 -1.79941 76 83 101
-5.12155 -3.51793 -1.80495 70 77 96
-5.15272 -3.50548 -1.8111 72 80 101
-5.13802 -3.47228 -1.80125 74 80 102
-5.16206 -3.4664 -1.80679 74 82 103
-5.16342 -3.43304 -1.80125 75 83 102
-5.18116 -3.42266 -1.80432 70 81 99
-5.18632 -3.40364 -1.80248 72 83 103
-5.87238 -2.6276 -1.83706 79 85 94
-5.87622 -2.6078 -1.83586 85 89 101
-5.88523 -2.59031 -1.83646 84 88 96
-6.37968 -1.98078 -1.85199 77 89 106
-6.37895 -1.94802 -1.84909 73 85 106
-6.8913 -1.25408 -1.85573 77 89 113
-6.89056 -1.23192 -1.85461 80 92 116
-7.17043 -0.901453 -1.86433 74 89 113
-7.30533 -0.551766 -1.8404 70 82 106
-7.68736 -0.049276 -1.84718 74 86 110
-7.68472 -0.0298027 -1.84658 79 91 115
-2.49199 -5.92264 -1.56612 129 129 131
-2.77634 -5.78685 -1.61692 132 123 114
-3.21908 -5.80993 -1.72814 125 113 105
-3.75133 -5.30457 -1.77359 142 131 127
-3.76498 -5.29021 -1.77243 150 139 135
-4.12406 -4.71583 -1.7671 82 81 97
-4.14656 -4.69867 -1.7677 82 83 101
-4.17404 -4.70211 -1.7743 75 81 97
-4.72842 -3.98879 -1.7933 73 80 98
-4.75152 -3.98453 -1.79822 69 78 95
-4.75744 -3.96516 -1.79576 68 79 97
-4.77763 -3.95823 -1.79945 69 80 98
-4.78963 -3.93157 -1.79699 74 83 100
-4.80255 -3.9183 -1.7976 75 84 101
-4.81688 -3.90621 -1.79883 71 82 100
-4.83149 -3.88186 -1.7976 72 80 99
-4.8501 -3.87331 -1.80067 72 80 99
-4.84531 -3.84525 -1.7939 75 82 100
-4.88986 -3.82168 -1.80067 70 78 97
-5.20556 -3.3942 -1.80617 74 85 103
-5.21277 -3.36505 -1.80309 73 84 102
-5.23985 -3.36072 -1.80986 77 89 105
-5.2321 -3.33318 -1.80308 76 88 104
-5.25326 -3.31335 -1.80554 73 86 103
-5.27074 -3.30248 -1.80862 70 86 102
-5.27544 -3.28327 -1.80677 71 83 105
-5.30602 -3.2693 -1.81292 73 86 105
-5.30097 -3.2439 -1.80738 73 85 107
-5.3167 -3.23174 -1.80984 75 87 109
-5.33083 -3.2185 -1.81168 74 86 108
-5.90346 -2.5659 -1.83885 84 88 98
-5.92285 -2.55282 -1.84305 85 91 102
-5.9019 -2.52243 -1.83345 86 92 100
-6.37868 -1.9264 -1.84735 71 83 105
-6.38933 -1.90814 -1.84908 75 88 107
-6.90484 -1.2013 -1.8574 76 88 112
-7.15848 -0.865971 -1.85998 72 84 108
-7.15459 -0.842932 -1.85835 76 88 112
-7.30616 -0.528785 -1.84039 68 80 103
-7.6896 -0.0103866 -1.84844 76 88 112
-2.44454 -5.9325 -1.564 127 128 132
-2.46026 -5.92031 -1.56242 129 129 131
-2.75898 -5.79458 -1.61691 129 122 114
-3.17056 -5.80079 -1.7192 113 101 95
-3.19566 -5.80712 -1.72423 115 102 95
-3.68914 -5.33362 -1.77012 126 112 109
-3.7071 -5.32585 -1.77127 115 104 100
-3.71769 -5.30683 -1.76838 128 115 110
-4.07955 -4.76474 -1.7695 80 79 93
-4.10104 -4.74635 -1.7695 80 79 95
-4.11136 -4.72964 -1.7677 80 79 95
-4.6276 -4.11004 -1.79392 72 84 100
-4.64328 -4.08649 -1.79269 71 83 99
-4.65246 -4.0699 -1.79146 72 80 99
-4.68121 -4.07123 -1.79884 71 78 97
-4.69527 -4.04618 -1.79699 70 81 100
-4.7043 -4.02945 -1.79576 73 84 102
-4.71467 -4.01397 -1.79515 73 83 100
-5.337 -3.18901 -1.80861 77 89 111
-5.33966 -3.16868 -1.80614 73 85 107
-5.35036 -3.15333 -1.80675 73 85 107
-5.37406 -3.13464 -1.81045 73 85 107
-5.37976 -3.11622 -1.80921 73 85 107
-5.3952 -3.10363 -1.81167 71 86 107
-5.404 -3.07592 -1.80982 70 85 108
-5.92162 -2.49859 -1.83644 89 87 88
-5.94436 -2.48678 -1.84184 89 89 85
-5.95653 -2.47048 -1.84363 96 97 91
-6.39444 -1.88817 -1.84908 77 90 109
-6.38772 -1.85383 -1.84444 65 77 98
-6.9077 -1.17975 -1.85739 73 87 111
-7.16778 -0.82197 -1.8616 74 86 111
-7.30769 -0.494304 -1.84039 78 90 112
-2.42349 -5.93018 -1.56136 129 128 134
-2.73198 -5.77918 -1.60985 127 120 114
-3.11824 -5.80599 -1.71362 124 114 105
-3.14153 -5.80912 -1.71753 119 106 97
-3.65656 -5.33709 -1.76548 130 119 113
-4.03596 -4.79972 -1.7689 79 78 92
-4.05375 -4.79205 -1.7707 80 79 93
-4.07272 -4.78578 -1.7731 79 78 92
-4.50983 -4.20165 -1.78531 74 83 100
-4.54373 -4.19584 -1.79208 77 86 103
-4.5492 -4.17555 -1.789 77 85 104
-4.57928 -4.17896 -1.797 73 81 102
-4.58294 -4.14383 -1.79023 71 79 98
-4.60475 -4.13915 -1.79454 68 79 97
-4.61274 -4.12136 -1.79269 69 80 98
-5.42261 -3.06511 -1.81351 71 86 107
-5.41987 -3.0418 -1.8092 74 86 108
-5.43511 -3.02898 -1.81166 72 84 106
-5.44682 -3.00302 -1.81104 72 84 106
-5.47025 -2.99475 -1.81658 74 86 108
-5.47877 -2.97796 -1.81658 71 83 105
-5.95633 -2.44905 -1.84123 92 92 82
-5.97395 -2.42409 -1.84363 94 92 79
-5.97711 -2.40408 -1.84242 93 91 78
-6.37061 -1.82741 -1.83748 126 131 139
-6.38281 -1.80961 -1.8398 121 123 122
