14.7267 -5.45111 -1.64165 81 80 98
14.7253 -5.50473 -1.64343 81 79 95
14.1393 4.77903 -1.69792 76 80 100
14.1643 4.7093 -1.69815 81 79 101
14.1704 4.65937 -1.69692 79 79 100
14.1895 4.61358 -1.6974 78 80 101
14.0551 2.67171 -1.6657 73 69 94
14.0524 2.62301 -1.6642 74 70 93
14.034 2.57167 -1.66071 73 75 90
14.08 2.50733 -1.6649 79 78 92
14.0534 2.45483 -1.66042 104 103 119
14.0637 2.40851 -1.66065 102 100 121
14.0661 2.36091 -1.65989 101 99 120
14.0739 2.29029 -1.65937 59 60 78
14.0504 2.19114 -1.65438 108 99 105
14.079 2.1237 -1.65659 101 90 96
14.3215 0.339216 -1.66451 75 76 97
14.3154 0.291672 -1.66349 77 75 96
14.3253 0.220704 -1.66446 78 79 99
14.3089 0.173117 -1.6622 73 74 94
14.3141 0.125771 -1.66267 79 77 98
14.3153 0.0783978 -1.66265 79 77 98
14.3004 0.00736003 -1.66064 75 73 94
14.3031 -0.0399731 -1.66086 77 75 96
14.2978 -0.0872657 -1.66009 80 78 99
14.3079 -0.158353 -1.6613 77 76 94
14.3002 -0.205568 -1.66028 77 76 94
14.2765 -0.252446 -1.65729 75 73 95
14.2919 -0.323656 -1.65924 77 78 98
14.2836 -0.370723 -1.65822 76 77 95
14.2832 -0.41797 -1.65819 77 78 98
14.5768 -2.25922 -1.66523 116 110 123
14.6908 -5.57367 -1.64225 85 87 102
14.6778 -5.62317 -1.64267 81 83 98
14.6646 -5.67265 -1.64309 77 76 92
14.0843 5.04752 -1.70234 76 77 98
14.0934 4.99826 -1.70136 78 79 100
14.1154 4.95341 -1.70207 80 78 102
14.1168 4.87573 -1.69915 78 85 104
14.1498 4.83446 -1.70132 79 81 102
14.0024 3.17059 -1.67231 77 76 93
13.9897 3.1192 -1.66932 80 77 98
14.0022 3.07313 -1.66955 74 72 94
13.9959 2.99907 -1.6668 75 73 91
14.0235 2.95606 -1.66902 77 76 94
14.0238 2.9076 -1.66776 75 74 90
14.042 2.83848 -1.66824 75 74 93
14.0477 2.79113 -1.66772 75 72 93
14.0455 2.74236 -1.66622 71 70 87
14.2918 -0.48918 -1.6594 74 73 91
14.2989 -0.536742 -1.66037 76 75 91
14.2841 -0.583465 -1.65861 72 73 91
14.3028 -0.631564 -1.66106 78 77 95
14.2906 -0.702019 -1.65979 74 73 91
14.297 -0.749675 -1.66075 79 80 98
14.2835 -0.796297 -1.65924 77 76 94
14.2963 -0.868065 -1.66119 82 79 98
14.2884 -0.914948 -1.66042 75 77 92
14.6368 -5.74398 -1.64281 76 78 95
14.6177 -5.79122 -1.64255 85 84 102
14.5892 -5.83483 -1.64115 88 88 101
14.0442 5.21724 -1.70479 76 76 100
14.0632 5.1713 -1.70503 76 77 98
14.0596 5.1175 -1.70235 75 80 99
13.9628 3.55343 -1.67887 81 78 97
13.9689 3.50567 -1.67811 77 74 93
13.9883 3.46104 -1.67908 73 71 93
13.9994 3.39001 -1.67833 73 73 94
13.9953 3.34004 -1.67633 71 72 90
14.0026 3.29269 -1.67581 76 75 93
14.0148 3.22208 -1.6753 72 73 91
14.304 -0.963345 -1.66262 78 75 94
14.2883 -1.03341 -1.6611 78 76 91
14.2878 -1.08078 -1.66132 79 77 90
14.295 -1.12876 -1.66253 79 81 96
14.2844 -1.19912 -1.66176 78 77 95
14.2952 -1.24749 -1.66346 79 76 95
14.292 -1.29472 -1.66344 79 76 94
14.5458 -5.9 -1.63907 103 101 114
14.5447 -5.9542 -1.64107 91 89 104
13.9658 5.42628 -1.70484 77 76 100
13.9892 5.38197 -1.70555 78 78 100
14.0087 5.33622 -1.70578 77 79 98
14.0075 5.283 -1.70335 76 78 99
13.8688 3.87515 -1.67797 77 76 94
13.8779 3.82805 -1.67746 77 74 93
13.8848 3.78044 -1.6767 77 74 93
13.8955 3.70926 -1.67569 77 76 94
13.8983 3.66068 -1.67444 76 73 95
13.9625 3.62718 -1.68111 79 75 92
14.2788 -1.34104 -1.66217 81 80 94
14.2969 -1.41405 -1.66511 74 70 93
14.2853 -1.4605 -1.66409 79 78 94
14.2834 -1.50788 -1.66431 77 76 92
14.2651 -1.57737 -1.66279 71 69 89
14.2688 -1.62535 -1.66375 74 76 93
14.4218 -3.18831 -1.66442 83 80 99
14.512 -5.99597 -1.63922 97 95 111
14.4793 -6.0376 -1.63738 85 82 99
13.8941 5.66443 -1.70729 76 79 98
13.9325 5.59946 -1.70874 77 78 99
13.9434 5.55038 -1.70776 75 80 100
13.9616 5.50408 -1.70775 77 79 102
13.8467 4.16717 -1.68548 74 75 96
13.8344 4.08907 -1.68125 75 73 95
13.8556 4.04515 -1.68223 73 70 89
13.8479 3.99337 -1.67948 74 71 92
13.8635 3.92327 -1.67897 71 68 89
14.2802 -1.67426 -1.6657 86 85 101
14.2651 -1.74404 -1.66468 79 77 92
14.2683 -1.7921 -1.66564 81 82 102
14.2496 -1.8375 -1.66388 83 82 100
14.2416 -1.90805 -1.66384 77 74 93
14.4016 -3.25809 -1.66366 81 80 99
14.3456 -3.29525 -1.65782 79 78 96
14.336 -3.34238 -1.65779 78 79 99
14.3112 -3.4108 -1.65654 78 80 95
14.4644 -6.11395 -1.63891 88 87 104
14.4387 -6.15832 -1.63797 80 80 97
14.4128 -6.20258 -1.63703 79 81 96
13.8286 5.82549 -1.70732 84 85 105
13.864 5.75948 -1.70828 73 74 95
13.8625 5.70546 -1.70561 79 77 98
13.7782 4.42256 -1.68678 78 80 101
13.8042 4.38011 -1.68826 81 79 101
13.7825 4.32354 -1.68353 80 79 100
13.8168 4.2586 -1.68526 75 76 96
13.806 4.20555 -1.68202 75 80 100
14.2541 -1.95741 -1.66604 82 80 98
14.2369 -2.00287 -1.66453 75 73 92
14.2254 -2.04905 -1.66376 79 78 92
14.2204 -2.12003 -1.66422 121 119 133
14.2871 -2.17763 -1.67335 112 109 121
14.1712 -2.20829 -1.65945 112 109 123
14.3128 -3.46047 -1.65796 79 78 96
14.2988 -3.50658 -1.65744 80 83 100
14.2656 -3.57288 -1.65523 82 80 101
14.4044 -6.28181 -1.63947 85 82 99
14.3745 -6.32435 -1.63808 93 90 104
13.8052 6.00405 -1.71316 73 76 95
13.8103 5.92547 -1.71 87 89 110
13.8204 5.87584 -1.70878 95 97 117
13.7096 4.65292 -1.68757 80 83 102
13.7415 4.58741 -1.6888 81 84 103
13.7415 4.53698 -1.68681 81 78 100
13.7469 4.48834 -1.68555 78 79 99
14.1457 -2.27601 -1.65744 73 69 86
14.1771 -2.44843 -1.66427 75 72 93
14.1389 -2.4899 -1.66028 78 75 94
14.2667 -3.62252 -1.65665 85 84 102
14.2522 -3.66844 -1.65613 83 81 102
14.2395 -3.71477 -1.65586 85 82 101
14.2207 -3.78441 -1.65557 79 79 97
14.3609 -6.37378 -1.63872 90 87 104
14.308 -6.43406 -1.63573 91 88 105
13.7748 6.15375 -1.71706 75 78 98
13.7894 6.10564 -1.71633 77 78 99
13.8001 6.05599 -1.71511 65 71 90
13.6769 4.87028 -1.69258 79 82 101
13.6948 4.8001 -1.69183 76 76 100
13.6936 4.74897 -1.68958 75 80 99
13.7149 4.70521 -1.69031 78 81 100
14.1284 -2.60788 -1.6612 72 71 89
14.1153 -2.70144 -1.66139 71 70 84
14.2134 -3.8321 -1.65603 82 79 98
14.1963 -3.87728 -1.65527 68 69 87
14.219 -3.95785 -1.66031 77 74 89
14.3067 -6.48886 -1.63796 92 90 104
14.2781 -6.53172 -1.63679 87 85 99
13.6523 5.09166 -1.69907 76 82 104
13.6465 5.03839 -1.69608 74 79 99
13.6689 4.96956 -1.69583 78 81 100
13.6777 4.92149 -1.69482 76 81 100
14.0881 -2.74436 -1.65888 72 72 88
14.0719 -2.81331 -1.65835 70 70 83
14.0736 -2.86163 -1.65956 71 68 84
14.044 -2.90381 -1.6568 71 69 83
14.2054 -4.00402 -1.66003 76 76 94
14.1629 -4.04235 -1.65613 87 90 109
14.1407 -4.11103 -1.6556 75 80 99
14.2535 -6.60426 -1.63742 83 81 95
14.2209 -6.64525 -1.6358 91 89 105
13.582 5.24635 -1.69761 75 77 98
13.6159 5.20712 -1.69983 78 78 100
13.613 5.12915 -1.6961 77 76 100
14.0523 -2.97764 -1.65949 72 69 86
14.0321 -3.02158 -1.65797 69 66 85
14.0331 -3.0699 -1.65918 67 64 83
14.0154 -3.13847 -1.65865 71 70 85
14.119 -4.15479 -1.65436 75 76 95
14.1009 -4.19953 -1.6536 77 78 98
14.0837 -4.26952 -1.6538 78 77 98
14.1882 -6.68609 -1.63418 93 89 105
14.1409 -6.72019 -1.63074 97 94 108
13.5126 5.45288 -1.69889 77 77 104
13.5397 5.41131 -1.70012 76 78 101
13.5425 5.36066 -1.69812 74 79 99
13.587 5.29975 -1.7006 72 77 97
14.016 -3.18681 -1.65985 80 79 97
13.9796 -3.22703 -1.65636 79 81 96
13.9748 -3.29836 -1.65756 77 78 98
14.071 -4.31576 -1.65377 77 79 97
14.0658 -4.36421 -1.6547 72 77 96
14.0395 -4.40642 -1.65298 73 75 98
14.0686 -6.77047 -1.62549 84 83 96
13.468 5.61735 -1.70139 76 78 101
13.4956 5.57601 -1.70262 73 78 100
13.5206 5.50779 -1.70237 76 79 98
13.9555 -3.34222 -1.65629 79 77 98
13.9477 -3.3887 -1.6565 78 79 100
13.9398 -3.43515 -1.65672 81 79 100
13.9262 -3.50454 -1.65693 85 82 101
14.0327 -4.47958 -1.65463 78 75 97
13.9966 -4.51867 -1.65169 77 75 96
14.0021 -4.57051 -1.65408 74 75 93
13.4307 5.78524 -1.70514 72 75 94
13.4349 5.73454 -1.70314 75 76 96
13.4717 5.67095 -1.70438 76 77 98
13.9121 -3.54952 -1.6564 81 79 99
13.8979 -3.59443 -1.65587 79 80 97
13.8855 -3.66412 -1.65633 86 83 100
13.9812 -4.63944 -1.65404 76 75 93
13.9617 -4.68354 -1.65328 79 77 98
13.9459 -4.72877 -1.653 77 76 94
13.4665 5.98431 -1.71904 96 99 118
13.387 5.89851 -1.70565 90 94 113
13.4081 5.82849 -1.70465 88 89 112
13.869 -3.70842 -1.65555 82 78 95
13.8504 -3.75215 -1.65453 79 77 95
13.8354 -3.82114 -1.65474 70 70 88
13.8241 -3.86675 -1.65471 72 71 90
13.9224 -4.7968 -1.65272 74 75 93
13.8986 -4.83939 -1.65147 74 77 96
13.372 5.99766 -1.70889 73 76 95
13.8108 -3.9118 -1.65443 76 73 94
13.7912 -3.97954 -1.65414 79 78 97
13.7871 -4.02714 -1.6551 83 84 104
13.8936 -4.88817 -1.65265 78 76 97
13.8677 -4.92997 -1.65116 78 75 94
13.8414 -4.99695 -1.65064 82 81 97
13.3571 1.56759 -1.67007 106 91 88
13.3627 1.52339 -1.67005 110 96 94
13.3725 1.45728 -1.67029 70 68 82
13.3522 1.4104 -1.66683 80 76 101
13.4597 1.37638 -1.68057 100 97 118
13.3822 1.3016 -1.66917 102 101 118
13.4067 1.25913 -1.6718 88 85 106
13.4023 1.10229 -1.66909 71 69 91
13.4499 1.06131 -1.67488 74 72 93
13.4638 1.01757 -1.67619 73 71 93
13.4653 0.950525 -1.67563 77 75 93
13.4749 0.9064 -1.6764 78 76 98
13.4864 0.862351 -1.67744 78 79 100
13.4871 0.795256 -1.67689 76 74 94
13.5042 0.751437 -1.67872 79 77 98
13.5231 0.707625 -1.68081 76 73 94
13.533 0.640876 -1.68158 76 74 95
13.5298 0.5959 -1.68076 72 70 91
13.5364 0.551357 -1.68127 73 72 90
13.7809 -4.07421 -1.65581 79 80 101
13.7727 -4.12073 -1.65627 79 80 99
13.7331 -4.18268 -1.65351 77 78 98
13.832 -5.04434 -1.65133 82 80 101
13.8076 -5.08647 -1.65009 80 81 101
13.3159 2.28329 -1.67933 69 67 88
13.3843 2.20342 -1.68644 101 90 92
13.2956 2.12163 -1.67293 101 92 89
13.3089 2.07848 -1.6737 106 97 103
13.3224 1.9677 -1.67314 74 73 94
13.3136 1.92141 -1.671 76 75 93
13.3165 1.8768 -1.67045 76 74 94
13.3133 1.83141 -1.66911 71 73 88
13.3539 1.76931 -1.67332 77 79 94
13.3425 1.72291 -1.67092 76 75 95
13.3467 1.6785 -1.67064 71 65 83
13.424 1.62026 -1.67988 105 92 86
13.5487 0.507006 -1.68257 75 73 94
13.5458 0.439677 -1.68175 79 77 98
13.5598 0.395282 -1.68332 80 77 95
13.54 0.349916 -1.68038 79 76 95
13.5324 0.282618 -1.67904 76 74 97
13.5478 0.238178 -1.68086 82 81 99
13.5434 0.193341 -1.68005 80 79 97
13.537 0.126168 -1.67896 78 75 95
13.5421 0.0814917 -1.67947 79 76 95
13.5273 0.0367014 -1.67733 77 76 94
13.5301 -0.0303004 -1.67757 72 70 91
13.5367 -0.0749971 -1.67834 80 82 102
13.5213 -0.119587 -1.6762 75 73 95
13.5276 -0.164287 -1.67697 80 81 101
13.5354 -0.231385 -1.678 74 72 94
13.5117 -0.275647 -1.6748 77 78 99
13.5274 -0.320578 -1.67689 76 75 92
13.7283 -4.2302 -1.65446 75 80 99
13.7177 -4.27601 -1.65468 76 79 98
13.7861 -5.15511 -1.65028 83 81 99
13.7651 -5.19836 -1.64953 82 79 96
13.7495 -5.24355 -1.64949 82 80 101
13.2667 2.75302 -1.68505 74 73 91
13.2644 2.70677 -1.68344 74 73 89
13.2486 2.63526 -1.67946 73 71 92
13.2887 2.59719 -1.68367 83 84 104
13.249 2.54418 -1.67704 73 74 92
13.2791 2.50416 -1.67993 66 64 83
13.3655 2.45121 -1.68997 99 100 119
13.2785 2.39042 -1.67699 101 102 120
13.2925 2.34742 -1.67776 106 108 126
13.5285 -0.387595 -1.67713 77 74 95
13.5142 -0.431847 -1.67525 75 74 92
13.5235 -0.476761 -1.67655 76 77 97
13.5199 -0.543621 -1.67626 74 72 93
13.5367 -0.588937 -1.67861 77 76 94
13.5336 -0.633514 -1.67832 79 78 96
13.5254 -0.700198 -1.6775 78 75 95
13.5397 -0.745617 -1.67959 80 79 97
13.5282 -0.789746 -1.67824 81 80 95
13.6888 -4.34092 -1.6534 78 76 98
13.6816 -4.38778 -1.65411 77 76 97
13.6572 -4.42934 -1.65259 77 78 98
13.7161 -5.3078 -1.64824 81 79 100
13.6928 -5.35007 -1.64724 77 78 98
13.2205 3.11113 -1.68966 75 74 92
13.2136 3.06343 -1.68726 71 72 90
13.2143 3.0175 -1.68592 73 72 90
13.2484 2.95591 -1.68855 77 75 96
13.2255 2.90506 -1.68404 75 72 91
13.2431 2.86282 -1.68508 70 67 88
13.2572 2.79696 -1.68506 71 69 90
13.5285 -0.83448 -1.67848 77 74 94
13.5351 -0.90201 -1.67978 77 74 91
13.5349 -0.946774 -1.68001 79 81 94
13.5386 -0.99181 -1.68078 85 84 101
13.5287 -1.05833 -1.67996 82 78 101
13.532 -1.10339 -1.68073 80 77 96
13.5214 -1.14738 -1.67964 83 82 100
13.6427 -4.49863 -1.65329 78 76 97
13.6124 -4.53816 -1.65103 77 75 96
13.6083 -4.58606 -1.65224 62 63 83
13.673 -5.39363 -1.64672 82 79 100
13.6334 -5.45529 -1.64474 83 82 98
13.1421 3.41663 -1.68949 78 76 98
13.1651 3.37585 -1.69106 77 75 97
13.161 3.32846 -1.68893 74 75 95
13.185 3.26478 -1.68997 76 74 96
13.1921 3.22014 -1.68943 74 74 91
13.1991 3.1755 -1.68888 75 77 92
13.5206 -1.21456 -1.68014 81 78 97
13.5235 -1.25965 -1.68091 85 83 104
13.5242 -1.30458 -1.68141 84 79 101
13.5187 -1.37143 -1.68138 81 78 97
13.5171 -1.41618 -1.68162 76 74 89
13.5174 -1.46113 -1.68212 75 73 87
13.5855 -4.65269 -1.65195 76 74 95
13.5717 -4.69746 -1.65191 76 74 95
13.5577 -4.74218 -1.65188 76 74 95
13.6244 -5.5029 -1.64567 84 81 98
13.606 -5.54691 -1.6454 84 83 99
13.5838 -5.58941 -1.64464 83 86 103
13.1001 3.68523 -1.69353 73 72 93
13.1123 3.61848 -1.69272 75 74 95
13.1186 3.57347 -1.69191 76 73 91
13.1593 3.53732 -1.69586 72 72 90
13.1555 3.46649 -1.69294 73 71 92
13.5273 -1.50711 -1.68394 80 76 96
13.5051 -1.57224 -1.6818 79 75 97
13.5088 -1.61762 -1.68283 71 68 89
13.5182 -1.66372 -1.68465 78 75 92
13.5071 -1.73004 -1.68409 77 72 94
13.4966 -1.77381 -1.68327 82 79 96
13.5361 -4.78431 -1.65086 76 74 96
13.5049 -4.84797 -1.64958 77 76 94
13.5673 -5.65994 -1.6458 91 88 105
13.5429 -5.70153 -1.6448 87 82 102
13.0495 3.9292 -1.69624 77 78 99
13.0682 3.88749 -1.69702 78 75 96
13.0697 3.84088 -1.69542 72 70 91
13.0751 3.7721 -1.69355 74 72 91
13.0953 3.73077 -1.6946 71 69 90
13.4976 -1.81901 -1.68404 80 78 99
13.478 -1.88414 -1.68242 83 81 95
13.4885 -1.93065 -1.68451 80 76 97
13.4851 -1.97534 -1.68474 77 75 97
13.453 -2.03859 -1.68154 84 82 101
13.4923 -4.89312 -1.64979 76 74 95
13.4683 -4.9343 -1.64852 77 78 98
13.4477 -5.00151 -1.64873 71 72 90
13.5478 -5.75492 -1.64767 88 87 103
13.4883 -5.80806 -1.64327 89 86 105
13.0349 4.13749 -1.70264 80 77 98
13.0562 4.09646 -1.70369 74 75 95
13.0394 4.04411 -1.69944 74 72 93
13.0377 3.99635 -1.69731 78 75 96
13.4532 -2.08375 -1.6823 81 78 98
13.5667 -2.14588 -1.6984 123 119 134
13.4141 -2.16816 -1.67855 110 106 121
13.4221 -2.23717 -1.68089 117 113 128
13.4234 -5.04247 -1.64746 78 75 96
13.4084 -5.0867 -1.64742 84 82 103
13.4928 -5.86145 -1.64614 86 83 101
13.4623 -5.9004 -1.64441 90 88 102
12.992 4.2905 -1.70347 77 80 99
13.0118 4.24908 -1.70425 75 80 100
13.0183 4.20352 -1.70318 77 77 101
13.4212 -2.32746 -1.68242 78 75 92
13.3875 -2.38977 -1.67922 79 77 91
13.4041 -2.43787 -1.68236 74 72 86
13.3836 -2.47961 -1.68048 72 71 87
13.3646 -5.1454 -1.64466 83 82 101
13.3548 -5.19151 -1.64537 82 81 99
13.3374 -5.23482 -1.64509 82 81 99
13.437 -5.96744 -1.64461 80 82 97
13.399 -6.00299 -1.64191 84 86 99
13.3754 -6.04463 -1.64115 87 84 102
12.9574 4.51817 -1.70881 81 79 101
12.9548 4.44556 -1.70536 80 81 99
12.9883 4.40858 -1.70799 76 79 98
12.9972 4.36361 -1.70719 80 78 100
12.8451 1.78942 -1.66534 67 65 87
12.8856 1.72931 -1.66968 70 67 84
12.8662 1.68338 -1.66612 73 72 86
12.9607 1.65113 -1.67836 118 109 115
12.8767 1.57602 -1.66554 115 104 101
12.8843 1.53345 -1.66579 111 99 102
12.882 1.4898 -1.66468 82 72 75
12.9008 1.38337 -1.66546 111 108 127
12.896 1.33957 -1.66408 108 105 126
12.9167 1.29821 -1.66624 110 107 126
12.9352 1.23492 -1.66785 63 60 78
12.9562 1.14997 -1.66944 74 72 94
12.9287 1.08285 -1.66479 79 76 93
12.9525 1.04139 -1.66749 68 67 83
12.9842 1.00036 -1.67129 75 72 91
12.9856 0.935461 -1.67072 77 76 94
12.9893 0.892355 -1.6707 75 73 94
13.0027 0.849842 -1.67204 74 74 95
13.0093 0.785232 -1.67229 73 70 89
13.0323 0.743098 -1.67499 75 72 91
13.0373 0.699959 -1.67524 76 73 93
13.0462 0.656982 -1.67604 67 65 86
13.0341 0.59142 -1.67383 78 75 95
13.0505 0.548712 -1.67572 75 74 95
13.0648 0.505841 -1.67733 73 71 92
13.0738 0.441032 -1.67813 78 76 97
13.0858 0.397946 -1.67947 75 77 97
13.0759 0.354274 -1.67781 78 80 98
13.0743 0.289168 -1.67724 81 79 99
13.0759 0.24582 -1.67722 85 85 106
13.0853 0.20257 -1.67828 77 75 96
13.0592 0.137281 -1.67444 78 77 96
13.0644 0.0940063 -1.67497 78 75 96
13.392 -2.54918 -1.68309 68 67 85
13.3809 -2.59255 -1.68254 72 69 86
13.3657 -2.63514 -1.68145 70 70 83
13.3427 -2.67618 -1.67931 74 73 87
13.3106 -5.27455 -1.64357 80 79 97
13.2865 -5.34031 -1.64352 82 79 98
13.3785 -6.12396 -1.64522 88 87 105
12.9152 4.72054 -1.71256 77 77 101
12.9046 4.66857 -1.70884 75 76 97
12.9459 4.61054 -1.71148 77 78 98
12.9255 4.55553 -1.70644 80 78 100
12.8085 2.33037 -1.6729 78 76 91
12.8165 2.28777 -1.67288 81 81 101
12.8338 2.22478 -1.67368 76 72 91
12.9002 2.19141 -1.68184 87 77 87
12.8276 2.13605 -1.67065 95 85 96
12.8324 2.07119 -1.66981 86 76 90
12.8259 2.0265 -1.66789 73 70 87
12.8086 1.93676 -1.66349 71 69 89
12.8164 1.87262 -1.6632 66 65 83
12.8661 1.83576 -1.66918 75 73 95
13.0555 0.0506799 -1.67358 79 76 97
13.0663 0.00738895 -1.67492 81 80 98
13.0551 -0.057498 -1.67326 73 69 92
13.0537 -0.10075 -1.67296 75 77 97
13.0462 -0.143915 -1.67185 76 79 96
13.0659 -0.2091 -1.67455 74 77 96
13.0522 -0.252115 -1.67262 73 71 93
13.0462 -0.295224 -1.67178 80 77 98
13.0554 -0.360335 -1.67311 77 75 96
13.0451 -0.403277 -1.67173 78 76 97
13.0465 -0.44656 -1.67198 85 82 101
13.0609 -0.511997 -1.67413 78 76 97
13.3385 -2.74355 -1.68033 73 71 87
13.3578 -2.79283 -1.684 72 71 86
13.3168 -2.83015 -1.67948 69 68 84
13.2687 -5.38338 -1.64324 86 85 103
13.2414 -5.42275 -1.64173 81 84 101
13.3327 -6.1559 -1.64156 85 84 101
13.3323 -6.20772 -1.64394 84 83 99
13.2827 -6.23772 -1.63979 82 79 98
12.8714 4.87452 -1.71418 78 80 101
12.8763 4.80364 -1.71152 76 80 99
12.8977 4.76278 -1.71231 77 78 98
12.7907 2.6802 -1.6801 66 67 87
12.7668 2.63127 -1.67546 75 74 90
12.7933 2.59211 -1.67789 82 79 96
12.8022 2.52753 -1.67733 75 72 93
12.7778 2.47893 -1.67268 83 80 98
12.794 2.43781 -1.67375 74 68 86
12.7945 2.37194 -1.6721 58 49 70
13.062 -0.555339 -1.67437 78 75 96
13.057 -0.598418 -1.67381 77 74 95
13.0777 -0.642713 -1.67678 82 81 96
13.0634 -0.707026 -1.67511 78 75 92
13.058 -0.750057 -1.67455 75 74 89
13.0604 -0.793525 -1.67507 77 76 93
13.0612 -0.858627 -1.67558 88 84 98
13.0553 -0.901596 -1.67501 77 74 96
13.3235 -2.89986 -1.68209 71 68 85
13.3075 -2.94208 -1.681 68 67 83
13.2932 -2.98464 -1.68018 67 66 82
13.2798 -3.05023 -1.68014 67 68 84
13.2166 -5.48818 -1.64168 83 81 100
13.1928 -5.52877 -1.64066 87 84 103
13.2649 -6.30803 -1.6412 82 79 98
12.8351 5.03159 -1.71712 76 78 99
12.8408 4.96068 -1.71446 74 79 99
12.8589 4.91864 -1.71472 77 79 100
12.7387 3.02526 -1.68376 73 71 92
12.7258 2.97777 -1.68047 72 70 94
12.7591 2.94041 -1.68373 75 74 92
12.7464 2.87097 -1.6799 75 77 98
12.793 2.83618 -1.68506 75 72 93
12.7483 2.78252 -1.67741 78 79 99
12.7597 2.74048 -1.67767 67 69 85
13.0749 -0.946344 -1.67798 86 85 104
13.0771 -1.01169 -1.67877 81 80 98
13.0569 -1.05357 -1.67629 72 73 93
13.0543 -1.09678 -1.67627 86 84 97
13.0518 -1.16174 -1.67651 78 73 93
13.0509 -1.2051 -1.67676 87 85 99
13.0636 -1.24975 -1.67891 83 82 97
13.269 -3.0935 -1.67985 63 62 79
13.235 -3.13153 -1.67639 66 65 79
13.2306 -3.19904 -1.67767 73 72 90
13.2271 -3.24391 -1.67844 80 77 98
13.1781 -5.57299 -1.64087 88 87 101
13.158 -5.64035 -1.64157 82 81 97
13.2241 -6.34169 -1.63826 81 82 100
12.7988 5.18922 -1.72032 75 80 99
12.8146 5.12178 -1.71899 76 78 99
12.8277 5.07774 -1.71845 76 78 99
12.687 3.28188 -1.68547 87 82 102
12.7077 3.24191 -1.68682 72 71 92
12.6966 3.17211 -1.68299 75 71 90
12.7015 3.12849 -1.68215 71 72 90
12.7062 3.08486 -1.68132 80 79 97
13.0565 -1.29259 -1.67834 75 72 93
13.0609 -1.35835 -1.67967 78 75 94
13.0554 -1.40135 -1.67937 85 81 96
13.0616 -1.44559 -1.68071 81 80 98
13.0515 -1.50993 -1.68013 74 75 93
13.0515 -1.55355 -1.68065 79 78 96
13.2138 -3.28652 -1.67788 78 76 97
13.1946 -3.32769 -1.67653 79 77 98
13.1777 -3.39231 -1.67623 76 77 95
13.1283 -5.6784 -1.6398 83 80 100
13.1094 -5.72089 -1.63952 100 97 116
12.7423 5.33938 -1.72088 77 78 99
12.7662 5.27499 -1.7206 73 78 98
12.7853 5.23321 -1.72086 73 80 98
12.6397 3.5177 -1.68772 77 78 96
12.6688 3.48002 -1.69016 70 70 88
12.6459 3.42903 -1.68524 80 76 97
12.6689 3.38979 -1.68686 75 72 94
12.7047 3.33118 -1.68957 74 72 93
13.0493 -1.59694 -1.6809 74 73 91
13.0503 -1.66262 -1.68196 79 78 92
13.0419 -1.70527 -1.68139 77 77 95
13.0393 -1.74864 -1.68163 79 76 100
13.0219 -1.81197 -1.68024 72 70 89
13.1813 -3.43899 -1.67805 82 79 99
13.1655 -3.4809 -1.67723 83 84 102
13.1478 -3.54535 -1.67692 84 87 101
13.0832 -5.78566 -1.63948 86 83 100
13.0621 -5.82721 -1.63895 87 85 102
13.0373 -5.86712 -1.63793 95 94 112
12.6982 5.47011 -1.72223 73 80 98
12.7124 5.42632 -1.72169 76 76 100
12.7247 5.38176 -1.72088 79 79 103
12.592 3.77664 -1.69133 73 69 90
12.6122 3.73677 -1.69241 75 74 92
12.6113 3.66849 -1.68967 75 71 94
12.6216 3.62593 -1.68938 73 70 91
12.628 3.58234 -1.68855 78 74 94
13.0091 -1.85394 -1.67912 78 75 91
13.0099 -1.89778 -1.67991 74 73 89
12.9969 -1.93965 -1.6788 76 74 95
12.9904 -2.00437 -1.67904 80 78 97
12.9927 -2.0485 -1.6801 77 74 91
13.1355 -3.5881 -1.67663 83 82 100
13.1269 -3.63181 -1.67687 84 83 99
13.1048 -3.69501 -1.67604 84 84 104
13.0233 -5.91165 -1.63839 86 85 103
12.6459 5.62234 -1.72384 75 80 100
12.6643 5.5802 -1.72383 75 80 100
12.6752 5.53496 -1.72276 75 82 100
12.5437 3.9679 -1.69274 73 74 94
12.5797 3.93273 -1.696 73 76 95
12.5623 3.88197 -1.69163 77 78 99
12.6155 3.82887 -1.69652 74 71 90
12.9733 -2.08932 -1.67817 58 55 72
13.0638 -2.16956 -1.69202 109 105 120
12.9601 -2.19678 -1.67838 108 104 119
12.9442 -2.23798 -1.67699 106 102 117
13.0825 -3.73501 -1.67442 80 80 98
13.0715 -3.77804 -1.67439 79 82 99
13.0506 -3.84144 -1.67383 82 84 103
12.9998 -5.97759 -1.63884 88 87 105
12.9673 -6.01399 -1.63682 84 83 99
12.9438 -6.05429 -1.63605 83 82 100
12.5267 4.16922 -1.69906 77 78 98
12.5216 4.1216 -1.69632 77 76 94
12.5503 4.08444 -1.69849 70 67 88
12.5468 4.03744 -1.69603 73 71 90
12.961 -2.35065 -1.68156 73 74 92
12.9329 -2.38967 -1.67854 71 70 88
12.9223 -2.45374 -1.6785 74 73 91
13.0279 -3.88113 -1.67221 80 82 95
13.0108 -3.92234 -1.67139 73 70 87
13.0106 -3.96843 -1.67294 73 70 89
12.9069 -6.11415 -1.63477 86 83 100
12.4928 4.32005 -1.70128 74 80 96
12.4882 4.27232 -1.69854 77 79 100
12.5099 4.23304 -1.69962 79 77 99
12.9057 -2.49463 -1.67711 71 70 88
12.8927 -2.53616 -1.67627 70 69 87
12.9011 -2.58175 -1.67842 70 70 86
12.8799 -2.64374 -1.67703 72 71 87
12.9793 -4.02867 -1.67106 70 73 88
12.9599 -4.06909 -1.66997 87 88 106
12.9459 -4.11114 -1.66967 83 84 105
12.8903 -6.1575 -1.63498 86 85 101
12.4259 4.52979 -1.70213 78 78 103
12.4553 4.47005 -1.70322 77 80 103
12.4513 4.42223 -1.70048 76 78 99
12.4809 4.38561 -1.70265 81 79 100
12.8821 -2.68823 -1.67836 69 68 86
12.8724 -2.73038 -1.67806 72 71 85
12.8622 -2.79455 -1.6783 67 66 82
12.8581 -2.83785 -1.67881 69 68 86
12.9235 -4.17382 -1.66911 78 80 100
12.9168 -4.21807 -1.66987 77 76 97
12.8987 -4.25877 -1.66905 75 82 101
12.4196 4.69114 -1.70898 80 78 99
12.405 4.6159 -1.70352 79 81 102
12.4389 4.58092 -1.70623 83 81 101
12.8325 -2.87656 -1.67633 69 68 86
12.8274 -2.94182 -1.67739 67 64 81
12.8131 -2.98288 -1.67654 67 64 83
12.8718 -4.31996 -1.66795 77 75 97
12.8646 -4.36411 -1.66872 76 77 97
12.3948 4.82344 -1.71228 76 76 100
12.3921 4.77532 -1.70955 78 74 102
12.391 4.72792 -1.70708 78 79 100
12.8084 -3.02607 -1.67706 66 64 82
12.7822 -3.06437 -1.67458 65 64 82
12.7762 -3.12948 -1.67563 77 79 94
12.7402 -3.16524 -1.6718 75 76 94
12.8347 -4.40089 -1.66631 78 79 99
12.8128 -4.46355 -1.66601 78 76 97
12.3406 4.96868 -1.71258 74 79 99
12.3606 4.92882 -1.71312 76 78 99
12.3527 4.87859 -1.70956 75 77 100
12.7368 -3.2087 -1.67258 79 78 97
12.7262 -3.27272 -1.67309 81 80 98
12.7148 -3.31425 -1.67279 75 76 96
12.794 -4.5038 -1.66518 78 79 97
12.7787 -4.54523 -1.66489 73 79 95
12.7596 -4.58533 -1.66406 77 78 98
12.3013 5.11983 -1.71533 75 78 99
12.3107 5.07585 -1.71423 74 79 99
12.3033 5.0255 -1.71068 76 78 101
12.7128 -3.35818 -1.67385 78 79 99
12.6919 -3.41963 -1.673 78 81 100
12.6762 -3.46003 -1.67215 81 79 100
12.7349 -4.64694 -1.6635 71 72 92
12.7137 -4.68619 -1.66241 75 76 96
12.6997 -4.72799 -1.66238 75 76 96
12.2574 5.22168 -1.71508 77 78 99
12.2616 5.1756 -1.71316 77 78 100
12.6699 -3.50289 -1.67267 83 81 102
12.6465 -3.56354 -1.67154 81 78 97
12.6399 -3.60634 -1.67206 82 81 98
12.6763 -4.78993 -1.66208 75 76 96
12.6564 -4.82959 -1.66125 76 77 97
12.2079 5.36927 -1.71673 77 80 99
12.2053 5.32021 -1.71373 75 80 102
12.2456 5.26485 -1.7159 78 80 101
12.1991 1.73376 -1.67668 71 67 84
12.1935 1.69154 -1.67493 67 66 84
12.1996 1.65092 -1.67492 67 65 84
12.2237 1.59191 -1.6772 62 60 79
12.2255 1.55071 -1.6766 71 68 85
12.2311 1.50999 -1.67658 69 65 83
12.252 1.409 -1.6777 69 67 88
12.2944 1.37221 -1.68314 66 62 79
12.2543 1.32656 -1.67651 69 68 84
12.2671 1.26595 -1.67735 74 72 93
12.2747 1.12227 -1.67614 72 69 88
12.2967 1.08292 -1.67871 72 72 91
12.3126 1.04297 -1.68042 77 74 91
12.3339 0.982735 -1.68269 75 73 94
12.322 0.940531 -1.68037 78 76 98
12.3533 0.901499 -1.68438 83 80 98
12.3582 0.839853 -1.68436 76 75 93
12.3655 0.798999 -1.68491 71 69 90
12.3727 0.758112 -1.68547 74 72 93
12.3699 0.716631 -1.68458 72 70 91
12.3956 0.656059 -1.68772 73 71 93
12.3648 0.613204 -1.68281 66 67 87
12.3636 0.571904 -1.68222 72 71 89
12.4162 0.512269 -1.68938 76 77 95
12.4225 0.471148 -1.68994 80 77 95
12.4169 0.429586 -1.68877 74 71 92
12.4235 0.367806 -1.68932 80 79 99
12.4155 0.326244 -1.68786 76 74 95
12.4271 0.285217 -1.68927 79 76 93
12.4252 0.223202 -1.68868 79 77 95
12.4187 0.181789 -1.6875 72 71 92
12.4102 0.140398 -1.68604 76 76 96
12.4094 0.0991441 -1.68573 74 72 93
12.4184 0.0373407 -1.68686 79 79 98
12.4173 -0.00391938 -1.68655 77 75 97
12.4081 -0.0451559 -1.68509 73 72 93
12.4125 -0.107003 -1.68564 66 65 86
12.3951 -0.148067 -1.68303 72 71 89
12.6236 -3.64647 -1.67121 82 83 101
12.611 -3.68761 -1.67091 82 83 103
12.581 -3.74623 -1.66897 81 80 98
12.6402 -4.87052 -1.66096 77 78 97
12.6179 -4.93283 -1.66092 84 81 98
12.1943 5.45997 -1.72002 78 79 99
12.1975 5.41309 -1.71783 78 80 100
12.1765 2.16769 -1.68403 71 68 87
12.1723 2.12514 -1.68228 73 70 89
12.1739 2.08361 -1.6814 79 76 95
12.2129 1.98546 -1.68453 73 71 91
12.1788 1.9385 -1.67848 67 65 84
12.1984 1.87905 -1.67989 77 75 96
12.1894 1.83614 -1.67758 79 82 101
12.2233 1.79938 -1.68158 64 60 82
12.4053 -0.189361 -1.68445 78 80 95
12.407 -0.25119 -1.68471 74 73 91
12.403 -0.292311 -1.68411 77 76 94
12.3989 -0.333405 -1.68351 78 77 95
12.4079 -0.395432 -1.68492 76 72 95
12.4015 -0.436442 -1.68404 79 75 98
12.3969 -0.477477 -1.68344 82 79 97
12.4021 -0.518854 -1.68428 74 71 89
12.4062 -0.580848 -1.68511 83 80 97
12.411 -0.622294 -1.68595 83 82 99
12.5776 -3.78995 -1.67003 81 82 100
12.5627 -3.83036 -1.66946 80 79 97
12.6013 -4.97362 -1.66062 80 77 96
12.5846 -5.01435 -1.66033 78 77 94
12.1241 2.49392 -1.68587 75 76 94
12.1366 2.45423 -1.68643 74 71 90
12.1702 2.41852 -1.69015 74 74 95
12.1531 2.35225 -1.68582 88 86 107
12.1729 2.31384 -1.68753 75 74 91
12.1381 2.26562 -1.68118 78 77 98
12.1766 2.20962 -1.68519 67 66 83
12.4197 -0.663963 -1.68737 73 72 91
12.4093 -0.725354 -1.68619 80 76 96
12.4137 -0.766865 -1.68703 81 78 96
12.4022 -0.807464 -1.68557 77 74 93
12.405 -0.869559 -1.6864 73 72 90
12.4286 -0.912445 -1.69011 79 76 97
12.4088 -0.952414 -1.6875 78 76 97
12.5377 -3.89028 -1.66833 81 80 98
12.5244 -3.93109 -1.66803 64 62 82
12.5431 -3.98164 -1.67235 70 71 89
12.558 -5.07496 -1.65976 74 75 95
12.5336 -5.11267 -1.65841 82 81 99
12.1213 2.78944 -1.69488 69 70 90
12.1327 2.7494 -1.69515 73 74 94
12.0957 2.69906 -1.68823 73 77 89
12.111 2.6389 -1.6885 72 71 89
12.1374 2.60205 -1.69108 70 67 87
12.1153 2.55532 -1.68646 73 72 89
12.4109 -1.01459 -1.68834 73 71 92
12.4143 -1.05622 -1.68917 84 82 104
12.4157 -1.09771 -1.68972 78 76 98
12.4268 -1.14005 -1.69171 76 74 95
12.426 -1.2022 -1.69226 77 75 89
12.4132 -1.24248 -1.6908 78 76 96
12.414 -1.28401 -1.69135 76 73 95
12.578 -4.06009 -1.67994 68 69 89
12.4715 -4.07205 -1.6663 80 81 101
12.4539 -4.11142 -1.66546 78 78 96
12.5184 -5.15388 -1.65838 82 79 98
12.4974 -5.19285 -1.65756 81 79 100
12.0645 3.032 -1.69524 79 77 99
12.1025 2.97697 -1.69867 70 68 92
12.0721 2.92723 -1.69262 78 76 97
12.0801 2.88649 -1.69232 82 79 98
12.0924 2.82557 -1.69201 72 72 94
12.4204 -1.34692 -1.69304 73 70 91
12.4189 -1.3883 -1.6933 73 70 91
12.3976 -1.42756 -1.69069 75 74 92
12.4033 -1.49051 -1.69239 71 70 86
12.4072 -1.53252 -1.69351 74 72 90
12.4333 -4.17245 -1.66515 77 78 96
12.4266 -4.21531 -1.66593 76 73 91
12.4682 -5.25225 -1.65672 78 80 95
12.4561 -5.29472 -1.65722 78 77 95
12.4366 -5.33417 -1.65666 75 73 94
12.0465 3.26335 -1.70135 73 73 93
12.0345 3.21727 -1.69788 78 76 97
12.0376 3.17515 -1.69672 79 81 96
12.0456 3.11295 -1.69555 74 73 93
12.0561 3.07272 -1.69554 75 76 97
12.3933 -1.57247 -1.69205 74 72 89
12.3788 -1.63309 -1.69087 75 74 92
12.3901 -1.67609 -1.69314 80 79 96
12.3836 -1.71689 -1.69283 77 76 90
12.3907 -1.75948 -1.69453 71 70 84
12.3972 -4.25077 -1.66345 78 83 99
12.3922 -4.29417 -1.66451 74 79 98
12.3576 -4.35044 -1.6623 77 78 99
12.414 -5.39623 -1.65688 76 74 95
11.9884 3.44193 -1.70025 71 70 88
11.9884 3.39878 -1.69851 70 68 88
12.0113 3.36177 -1.70022 82 81 97
12.013 3.31913 -1.69877 81 79 100
12.3909 -1.82212 -1.69565 73 73 91
12.3762 -1.86178 -1.69418 80 79 95
12.3594 -1.90109 -1.69243 70 68 86
12.3628 -1.96423 -1.69413 73 72 91
12.3281 -2.00072 -1.68979 83 81 98
12.3447 -4.39122 -1.66227 77 78 98
12.3317 -4.43196 -1.66224 77 76 97
12.385 -5.43171 -1.655 82 79 100
12.3651 -5.47089 -1.65445 83 82 98
11.9581 3.64997 -1.70461 77 76 94
11.955 3.58404 -1.70144 77 74 95
11.9917 3.55103 -1.70517 75 74 93
11.9731 3.50249 -1.70055 77 74 91
12.3441 -2.04488 -1.69292 78 76 90
12.3215 -2.10401 -1.69088 94 93 111
12.4326 -2.16392 -1.7081 110 108 122
12.2901 -2.18235 -1.68796 105 102 113
12.3022 -4.48972 -1.66084 75 76 96
12.2814 -4.52768 -1.65972 79 78 96
12.2661 -4.56755 -1.65942 79 80 98
12.3364 -5.53029 -1.65388 78 77 94
12.3234 -5.57241 -1.65437 78 83 99
11.9059 3.83057 -1.70524 75 74 92
11.9036 3.78618 -1.70292 74 76 91
11.9069 3.72195 -1.70061 73 72 93
11.9307 3.68547 -1.70233 77 72 94
12.2961 -2.24606 -1.69022 111 109 123
12.2951 -2.32954 -1.69189 77 76 92
12.271 -2.36708 -1.68928 75 72 89
12.2564 -4.63228 -1.66101 68 69 89
12.2334 -4.66933 -1.65962 73 75 95
12.3012 -5.61056 -1.65355 83 83 101
12.2665 -5.66721 -1.65219 83 82 100
11.8493 4.0099 -1.70557 71 68 89
11.8645 3.97084 -1.70585 74 72 94
11.8928 3.93586 -1.70814 73 69 91
11.9063 3.87443 -1.70726 73 70 91
12.2839 -2.43234 -1.6927 70 69 85
12.2614 -2.47007 -1.69037 74 73 91
12.2661 -2.5129 -1.69207 74 71 92
12.2213 -4.71039 -1.65986 75 74 95
12.1906 -4.76739 -1.65847 74 76 96
12.2531 -5.70914 -1.65269 78 76 97
12.2305 -5.747 -1.65186 83 82 100
11.8247 4.15585 -1.70906 76 77 98
11.8347 4.11503 -1.70847 73 70 91
11.8528 4.05499 -1.70817 88 85 104
12.2569 -2.57417 -1.69232 69 66 85
12.2205 -2.60891 -1.68799 71 70 85
12.244 -2.65568 -1.69256 71 70 85
12.2071 -2.71119 -1.68879 67 65 86
12.1671 -4.80412 -1.65708 73 76 93
12.1584 -4.84639 -1.65786 78 80 95
12.206 -5.78396 -1.65077 85 84 102
12.1777 -5.8433 -1.65047 86 83 102
11.7871 4.29793 -1.71081 76 74 98
11.8088 4.261 -1.71195 75 77 102
11.8426 4.20609 -1.71396 79 76 95
11.702 1.6158 -1.67057 68 65 84
11.7176 1.57788 -1.67204 68 66 87
11.7198 1.51839 -1.67113 71 68 89
11.7115 1.47759 -1.66902 67 63 86
11.7149 1.43821 -1.66871 68 65 86
11.7283 1.38007 -1.66958 68 66 87
11.7314 1.34066 -1.66926 67 64 84
11.7442 1.30224 -1.67044 69 68 84
11.7588 1.24412 -1.67161 70 68 89
11.7674 1.20518 -1.67219 64 62 83
11.7562 1.16442 -1.66979 68 65 84
11.7702 1.10616 -1.67096 76 76 94
11.8275 1.07125 -1.67898 70 66 88
11.8158 1.03048 -1.67658 65 66 83
11.845 0.973058 -1.68013 70 69 90
11.8429 0.933072 -1.67922 69 71 86
11.8603 0.894461 -1.68128 81 78 95
11.8717 0.855377 -1.68246 80 79 97
11.8626 0.795078 -1.68035 80 77 99
11.8796 0.756271 -1.68242 78 76 96
11.8887 0.716932 -1.68329 71 69 85
11.9006 0.657796 -1.68446 78 75 94
11.8995 0.617891 -1.68384 77 75 95
11.9159 0.578776 -1.68591 74 73 89
11.9114 0.518824 -1.68469 74 75 93
11.9375 0.479928 -1.68825 78 76 97
11.9101 0.43913 -1.68376 74 71 92
11.9208 0.379734 -1.68493 72 69 88
11.9266 0.340062 -1.6855 72 69 96
11.9205 0.300104 -1.68429 78 78 95
11.9321 0.260523 -1.68576 75 77 92
11.9419 0.200931 -1.68692 83 82 100
11.9274 0.160934 -1.68452 73 73 91
11.9326 0.121177 -1.6851 80 79 93
11.924 0.061455 -1.68358 75 72 93
11.9348 0.0216869 -1.68505 81 79 100
11.9179 -0.0180485 -1.68235 75 70 90
11.9105 -0.0775893 -1.68113 75 72 89
11.9249 -0.117469 -1.68319 78 75 94
12.1935 -2.75037 -1.6879 65 64 80
12.2011 -2.79405 -1.69017 69 67 81
12.2002 -2.85716 -1.69186 68 67 85
12.1384 -4.88437 -1.65701 76 76 94
12.1105 -4.94227 -1.65616 81 78 95
11.7554 4.44238 -1.71372 78 79 100
11.7868 4.40893 -1.7163 77 78 97
11.8064 4.34906 -1.716 79 77 100
11.6817 2.03327 -1.67787 73 71 92
11.6685 1.97095 -1.67428 72 69 88
11.691 1.9343 -1.67665 66 67 85
11.6724 1.89135 -1.67276 75 73 87
11.7054 1.83617 -1.67631 80 83 102
11.7041 1.7959 -1.6751 67 68 86
11.7202 1.7581 -1.67658 71 70 89
11.7076 1.6964 -1.67328 61 63 77
11.7059 1.6562 -1.67207 64 61 82
11.9134 -0.157055 -1.68139 73 73 90
11.9252 -0.216854 -1.68315 77 75 90
11.9075 -0.256209 -1.68045 74 71 89
11.9173 -0.296154 -1.68191 75 71 93
11.9191 -0.335931 -1.68219 78 76 95
11.9458 -0.396431 -1.68633 70 68 83
11.9334 -0.435802 -1.68452 77 75 96
11.9111 -0.474702 -1.68122 75 73 95
11.9391 -0.535541 -1.68566 75 73 89
11.9224 -0.574564 -1.68326 75 73 87
11.9194 -0.61418 -1.68294 79 78 95
12.1746 -2.89365 -1.68925 66 65 83
12.1663 -2.93394 -1.68922 67 66 82
12.1521 -2.97286 -1.68833 63 63 81
12.094 -4.98151 -1.65586 71 72 90
12.0736 -5.01922 -1.65501 78 75 94
11.7406 4.59356 -1.7195 79 81 102
11.7297 4.54471 -1.71546 76 81 99
11.7685 4.49178 -1.71804 75 77 98
11.6464 2.35 -1.68186 74 72 93
11.6309 2.28653 -1.67767 75 75 92
11.6447 2.24863 -1.67855 69 65 88
11.6408 2.20758 -1.67674 69 68 86
11.6348 2.16625 -1.67464 72 74 91
11.6534 2.10911 -1.67582 70 69 89
11.653 2.06882 -1.67461 72 70 92
11.929 -0.674385 -1.6847 81 79 94
11.9237 -0.713885 -1.68408 77 75 92
11.9281 -0.75396 -1.68495 77 75 95
11.9371 -0.814321 -1.68671 87 84 101
11.9313 -0.853792 -1.68609 77 74 93
11.9195 -0.8928 -1.68458 68 65 86
11.9313 -0.933531 -1.68664 77 74 93
12.1292 -3.0309 -1.68686 65 64 82
12.1396 -3.07562 -1.6897 65 61 84
12.123 -3.11393 -1.68853 62 60 81
12.0433 -5.076 -1.65388 81 80 97
12.0263 -5.11499 -1.65358 82 81 97
11.7377 4.68256 -1.72383 78 82 103
11.7123 4.62802 -1.7175 80 81 99
11.6006 2.62516 -1.68403 82 83 100
11.604 2.56487 -1.68253 78 76 96
11.6476 2.53303 -1.68788 70 71 91
11.6233 2.48747 -1.6828 75 74 92
11.624 2.42681 -1.68099 69 67 89
11.6343 2.38823 -1.68128 71 69 90
11.9295 -0.993259 -1.68691 75 73 92
11.9331 -1.03346 -1.68778 78 77 91
11.9227 -1.07249 -1.68656 81 78 97
11.9183 -1.13201 -1.68654 78 76 94
11.9194 -1.17204 -1.68711 73 72 89
11.9342 -1.21344 -1.68976 76 75 89
12.1052 -3.17313 -1.68792 74 75 95
12.0999 -3.21414 -1.68846 77 78 98
12.0829 -3.25223 -1.68729 82 83 101
12.0128 -5.15543 -1.65382 78 75 92
11.982 -5.21183 -1.65269 81 80 98
11.6868 4.82129 -1.72444 79 82 101
11.6916 4.77783 -1.7227 81 79 101
11.6981 4.73511 -1.72125 78 82 101
11.5688 2.84286 -1.68709 74 75 94
11.5765 2.80365 -1.68677 75 74 92
11.5976 2.76742 -1.68855 73 71 92
11.6074 2.70827 -1.68794 82 77 97
11.5915 2.66401 -1.68405 76 76 94
11.9292 -1.273 -1.68973 74 70 92
11.922 -1.31227 -1.68912 75 73 94
11.9304 -1.35322 -1.69088 79 77 98
11.909 -1.41094 -1.68847 77 75 90
11.925 -1.45286 -1.69142 76 73 93
12.051 -3.30772 -1.68467 78 81 99
12.051 -3.35009 -1.68608 80 82 98
12.0279 -3.38641 -1.68404 81 81 99
11.97 -5.2529 -1.65321 81 80 98
11.9488 -5.29008 -1.65236 79 78 96
11.6509 4.96615 -1.72762 77 79 101
11.658 4.92342 -1.72618 76 81 100
11.6503 4.87489 -1.72243 76 81 102
11.5416 3.02122 -1.68982 78 75 96
11.569 2.98667 -1.69249 76 77 99
11.5599 2.94333 -1.6895 77 75 97
11.5956 2.89009 -1.69276 75 74 92
11.9114 -1.49134 -1.68991 71 69 89
11.8957 -1.5295 -1.6881 71 70 88
11.9088 -1.59135 -1.69104 74 71 92
11.9202 -1.63301 -1.6934 83 81 102
11.8884 -1.66895 -1.68921 71 69 91
12.0275 -3.42876 -1.68545 79 80 98
12.0102 -3.4879 -1.68512 82 83 103
11.9866 -3.52394 -1.68308 80 81 101
11.9173 -5.34608 -1.65123 81 81 98
11.9086 -5.38855 -1.65229 80 77 96
11.6136 5.06513 -1.72821 76 81 101
11.6065 5.01646 -1.72446 74 82 101
11.5086 3.21925 -1.69285 73 73 94
11.5149 3.15888 -1.69135 77 74 96
11.5198 3.11881 -1.69045 71 69 91
11.5322 3.08065 -1.69073 77 75 96
11.8891 -1.72932 -1.69037 73 70 87
11.8942 -1.77025 -1.69183 72 71 87
11.9089 -1.81264 -1.69478 69 70 84
11.8854 -1.86965 -1.69237 75 74 92
11.8706 -1.90765 -1.69086 79 77 97
11.9744 -3.56305 -1.68277 88 87 103
11.9679 -3.62516 -1.68417 82 80 101
11.9591 -3.6653 -1.68443 85 86 104
11.8852 -5.42468 -1.65117 81 82 100
11.8617 -5.46071 -1.65005 77 83 99
11.5665 5.16001 -1.72736 79 77 100
11.6024 5.10631 -1.72908 78 80 102
11.4511 3.43207 -1.69351 74 75 95
11.4569 3.39205 -1.69261 78 76 97
11.4778 3.35618 -1.69408 74 76 92
11.4923 3.29789 -1.69377 76 75 93
11.5283 3.26587 -1.69764 78 76 97
11.8575 -1.94588 -1.68964 73 68 91
11.8588 -2.00657 -1.6911 81 78 97
11.8435 -2.04437 -1.68958 75 70 90
11.8398 -2.08406 -1.68986 67 64 81
11.937 -3.70152 -1.68268 85 86 104
11.9298 -3.76355 -1.68408 78 79 99
11.8385 -5.5202 -1.65029 82 84 99
11.8237 -5.56008 -1.65053 83 80 99
11.4369 3.57404 -1.69772 76 76 96
11.4583 3.53836 -1.6992 74 73 92
11.4509 3.47369 -1.69531 82 81 99
11.9644 -2.14582 -1.70977 122 120 131
11.8053 -2.17895 -1.68682 116 115 123
11.7973 -2.21783 -1.6865 118 112 124
11.7736 -2.25383 -1.6838 70 67 86
11.9055 -3.79902 -1.68204 86 85 104
11.8811 -3.83436 -1.68 77 78 96
11.8731 -3.89621 -1.6814 81 82 100
11.7962 -5.59419 -1.64886 82 81 99
11.3878 3.74812 -1.69866 73 73 94
11.4286 3.71845 -1.70312 74 76 95
11.4013 3.66817 -1.69685 75 75 93
11.4381 3.6163 -1.69982 74 73 91
11.7901 -2.3579 -1.6888 64 66 79
11.7971 -2.39971 -1.69085 69 69 83
11.8522 -3.93253 -1.67993 78 76 98
11.8576 -3.97709 -1.68249 75 72 91
11.776 -5.65503 -1.64964 78 81 98
11.3567 3.8859 -1.70078 74 75 93
11.364 3.84595 -1.69987 70 72 92
11.3711 3.80601 -1.69897 70 71 91
11.7942 -2.46002 -1.69201 72 71 87
11.7776 -2.49724 -1.6905 61 61 76
11.784 -2.53915 -1.69256 69 68 84
11.8346 -4.01269 -1.68074 79 76 93
11.8089 -4.06894 -1.67955 72 73 89
11.7856 -4.10429 -1.6778 80 87 99
11.3297 4.02535 -1.70379 77 78 99
11.3506 3.98972 -1.70497 73 74 95
11.33 3.94064 -1.6996 76 75 93
11.7631 -2.5958 -1.69104 67 66 82
11.7325 -2.6299 -1.68744 72 69 88
11.7328 -2.67055 -1.6886 66 65 81
11.7309 -2.7108 -1.68947 65 64 82
11.7735 -4.14326 -1.67777 76 76 96
11.7566 -4.20228 -1.67802 76 80 99
11.3105 4.16792 -1.70829 78 79 100
11.3074 4.12418 -1.7056 79 77 99
11.335 4.06965 -1.70678 74 79 99
11.715 -2.76835 -1.68884 62 65 80
11.7052 -2.80681 -1.68852 67 67 82
11.6971 -2.84568 -1.68849 61 63 78
11.7385 -4.23924 -1.67713 73 78 97
11.7316 -4.27999 -1.67796 75 76 97
11.2721 4.2615 -1.70771 78 78 98
11.2742 4.19817 -1.70472 75 77 97
11.6767 -2.9021 -1.68727 66 66 84
11.6646 -2.93995 -1.68664 65 66 81
11.6542 -2.97821 -1.68632 65 64 83
11.7065 -4.33621 -1.67707 79 77 99
11.6881 -4.37294 -1.67618 76 77 97
11.2334 4.39791 -1.70953 76 77 97
11.264 4.34453 -1.71101 77 79 100
11.2542 4.29805 -1.70713 77 78 98
11.6524 -3.0391 -1.68807 60 59 77
11.6263 -3.07344 -1.68537 64 65 83
11.6328 -3.11596 -1.68772 62 63 81
11.6733 -4.41093 -1.67586 80 78 99
11.6606 -4.4715 -1.67697 76 77 95
11.2151 4.4775 -1.71133 78 76 98
11.241 4.44384 -1.71311 78 81 100
11.6188 -3.17387 -1.68769 76 79 96
11.5867 -3.20639 -1.68409 81 84 103
11.585 -3.24689 -1.68525 82 80 101
11.6381 -4.50667 -1.67551 75 78 97
11.6191 -4.5431 -1.67461 74 79 99
11.6075 -4.58221 -1.67487 77 75 97
11.1998 4.62338 -1.71732 80 80 104
11.1836 4.57376 -1.71224 78 80 101
11.2042 4.5382 -1.71313 77 78 96
11.5604 -3.28122 -1.68284 80 81 99
11.5475 -3.3393 -1.68311 79 80 100
11.5245 -3.37391 -1.681 81 82 100
11.5755 -4.63556 -1.67311 73 74 93
11.1276 4.74771 -1.71436 75 80 99
11.1671 4.71961 -1.71823 75 80 99
11.1421 4.66625 -1.71166 76 81 101
11.5242 -3.41485 -1.68246 78 81 100
11.5031 -3.47058 -1.68153 82 81 99
11.5728 -4.67807 -1.67481 75 72 95
11.5515 -4.71349 -1.67363 75 73 95
11.1049 4.84788 -1.71706 75 80 100
11.143 4.7976 -1.71943 77 82 102
11.1297 1.20752 -1.68188 69 66 87
11.146 1.17162 -1.68368 73 72 91
11.1387 1.1333 -1.68185 68 67 83
11.1447 1.07761 -1.68183 64 62 83
11.1606 1.04153 -1.68363 70 71 91
11.1568 1.00366 -1.6824 75 73 94
11.1705 0.967309 -1.68389 76 77 97
11.1757 0.911483 -1.68387 73 70 89
11.1853 0.874705 -1.68477 74 73 91
11.1927 0.837732 -1.68535 75 74 94
11.1973 0.781815 -1.68533 65 64 78
11.2065 0.744914 -1.68622 75 75 95
11.2174 0.708089 -1.68742 67 65 82
11.2392 0.65309 -1.69013 73 71 90
11.2321 0.615139 -1.68859 73 71 92
11.2388 0.577953 -1.68918 75 74 96
11.2422 0.521848 -1.68916 75 75 96
11.2347 0.484012 -1.68762 74 74 93
11.2409 0.446784 -1.68821 77 80 99
11.251 0.409672 -1.6894 76 74 92
11.2812 0.354411 -1.69362 79 78 94
11.2929 0.317172 -1.69512 82 79 99
11.2848 0.279362 -1.69358 73 71 93
11.2868 0.223072 -1.69356 74 74 94
11.2981 0.185716 -1.69506 77 75 97
11.2935 0.148065 -1.69413 89 86 107
11.2949 0.0917482 -1.69411 73 68 89
11.29 0.0541597 -1.69318 81 78 97
11.2791 0.0165869 -1.69134 86 85 102
11.2936 -0.0396634 -1.69343 79 76 97
11.2429 -0.0769817 -1.68553 75 76 97
11.4911 -3.50821 -1.6812 79 79 100
11.4846 -3.54747 -1.68177 89 87 107
11.519 -4.76645 -1.67187 73 76 92
11.5085 -4.80599 -1.67241 79 78 96
11.0818 4.92633 -1.71856 76 83 101
11.1108 4.89421 -1.72064 76 79 100
11.0889 1.69267 -1.68632 68 70 88
11.0683 1.63301 -1.68175 64 61 80
11.0839 1.59742 -1.68325 69 67 82
11.0975 1.56148 -1.68445 62 61 81
11.0758 1.52084 -1.68018 70 69 83
11.0836 1.46541 -1.68017 73 70 87
11.1145 1.43159 -1.68409 69 67 88
11.1138 1.3938 -1.68317 67 64 83
11.1074 1.33661 -1.68102 69 72 88
11.1378 1.30244 -1.68495 67 66 84
11.1466 1.26573 -1.68554 69 66 88
11.2434 -0.114356 -1.68551 84 83 101
11.2458 -0.151749 -1.6858 76 75 93
11.2359 -0.207661 -1.68426 78 75 92
11.2458 -0.245187 -1.68575 80 77 94
11.2438 -0.282517 -1.68543 82 79 98
11.255 -0.33887 -1.68722 75 70 92
11.2527 -0.376208 -1.6869 75 73 95
11.2463 -0.413403 -1.68597 77 74 93
11.2589 -0.469959 -1.68806 77 75 96
11.2522 -0.507121 -1.68713 77 76 94
11.2435 -0.544155 -1.6859 72 68 88
11.4648 -3.60349 -1.68114 82 80 101
11.4486 -3.63983 -1.68022 85 84 102
11.4399 -3.67841 -1.68049 87 86 103
11.4868 -4.84112 -1.67123 78 76 98
11.4592 -4.89585 -1.67033 75 74 90
11.0337 2.02565 -1.68705 64 66 84
11.035 1.98778 -1.68613 66 69 87
11.0498 1.95224 -1.68732 74 72 89
11.0402 1.89369 -1.68427 67 70 90
11.0547 1.85807 -1.68547 77 78 99
11.0672 1.82208 -1.68637 63 60 83
11.0686 1.76545 -1.68514 66 65 81
11.073 1.72821 -1.68482 70 69 85
11.2475 -0.600457 -1.68678 69 66 86
11.2523 -0.63812 -1.68767 92 89 109
11.2589 -0.675921 -1.68886 81 78 99
11.2536 -0.713082 -1.68823 76 74 92
11.2529 -0.769254 -1.68851 83 86 101
11.2926 -0.809337 -1.69485 83 81 94
11.3065 -0.847909 -1.69726 76 74 97
11.4178 -3.71286 -1.67868 83 82 100
11.4048 -3.77088 -1.67924 81 82 102
11.3899 -3.80753 -1.67861 78 81 100
11.4446 -4.93374 -1.67031 81 79 94
11.4335 -4.97309 -1.67085 78 74 97
10.9931 2.28539 -1.68896 76 72 93
10.9816 2.24486 -1.68591 70 69 87
11.003 2.21076 -1.68802 71 69 87
11.0219 2.15703 -1.68922 68 65 86
11.0275 2.11985 -1.6889 66 61 83
11.0135 2.07915 -1.68555 70 67 84
11.2855 -0.902891 -1.6945 73 69 91
11.2932 -0.941106 -1.69599 77 76 94
11.3067 -0.979847 -1.6984 80 80 98
11.3028 -1.03612 -1.69837 81 78 97
11.2944 -1.07311 -1.69744 74 72 94
11.3035 -1.11166 -1.69923 80 78 99
11.3825 -3.84654 -1.67918 78 79 99
11.3576 -3.90073 -1.67796 82 79 99
11.4017 -5.02597 -1.66938 75 76 91
11.3885 -5.06444 -1.66963 81 78 97
10.967 2.51044 -1.69267 80 77 95
10.9524 2.44966 -1.68841 74 72 91
10.9667 2.41424 -1.68931 72 73 93
10.9634 2.37517 -1.68747 80 82 98
10.9927 2.32368 -1.69019 72 71 89
11.299 -1.16791 -1.69921 79 75 98
11.3 -1.20579 -1.69979 72 67 89
11.3107 -1.24468 -1.70189 68 65 82
11.3095 -1.28241 -1.70217 78 75 92
11.3041 -1.33867 -1.70214 81 78 97
11.2947 -1.37549 -1.70121 77 75 96
11.3405 -3.93656 -1.67704 68 71 89
11.327 -3.97357 -1.67671 73 70 87
11.3643 -5.09824 -1.66817 80 78 94
11.3472 -5.13504 -1.66785 83 88 103
10.9331 2.71538 -1.69517 70 68 89
10.9405 2.67834 -1.69485 73 74 94
10.9477 2.64128 -1.69453 72 70 91
10.9667 2.58763 -1.69543 65 62 84
10.9717 2.55009 -1.69481 73 71 93
11.2951 -1.41341 -1.70179 67 66 85
11.2989 -1.47078 -1.70328 69 67 89
11.293 -1.50801 -1.70295 68 64 89
11.2969 -1.54646 -1.70414 73 72 94
11.2922 -4.02422 -1.674 71 74 91
11.2822 -4.06234 -1.67427 70 69 87
11.3201 -5.18973 -1.66724 81 80 97
10.919 2.88691 -1.69977 76 75 92
10.9327 2.85131 -1.70036 77 75 96
10.9366 2.8133 -1.69944 75 77 95
10.9405 2.7753 -1.69852 75 76 94
11.2785 -1.60108 -1.70229 72 73 92
11.2801 -1.63927 -1.70318 72 73 93
11.2776 -1.67695 -1.70346 71 70 87
11.2723 -1.7333 -1.70373 71 72 92
11.2696 -1.77096 -1.70401 73 72 90
11.2796 -4.10301 -1.67572 76 79 96
11.2554 -4.15717 -1.6748 80 78 101
11.301 -5.22558 -1.66663 81 78 99
11.2781 -5.25976 -1.66546 82 80 99
10.9051 3.02017 -1.70314 74 71 90
10.9134 2.98314 -1.70283 73 78 92
10.9178 2.94512 -1.7019 75 77 92
11.2608 -1.80773 -1.70338 71 69 90
11.25 -1.84417 -1.70245 75 74 92
11.2361 -1.89917 -1.70151 69 68 84
11.229 -1.9361 -1.70118 78 77 91
11.2394 -4.1932 -1.67417 79 76 103
11.2251 -4.22983 -1.67385 75 76 96
11.2145 -4.26775 -1.67412 78 76 96
11.2541 -5.31568 -1.66542 79 80 98
11.2346 -5.35127 -1.66481 80 82 97
10.8586 3.20392 -1.7041 74 72 93
10.8782 3.15037 -1.7047 81 79 100
10.8851 3.11289 -1.70408 77 74 95
10.8937 3.07591 -1.70376 77 75 97
11.2334 -1.97493 -1.70267 71 68 86
11.2247 -2.03077 -1.70265 75 74 92
11.2229 -2.06865 -1.70323 68 70 85
11.2697 -2.11508 -1.71138 75 74 88
11.197 -4.32423 -1.67438 85 84 102
11.1768 -4.35864 -1.67316 79 80 100
11.2113 -5.38515 -1.66364 82 81 97
10.8278 3.37287 -1.70718 84 82 104
10.8335 3.3349 -1.70626 75 73 94
10.8252 3.27334 -1.7023 79 78 96
10.8553 3.24243 -1.70533 72 70 92
11.1807 -2.15668 -1.69893 71 70 86
11.1708 -2.19302 -1.6983 75 76 92
11.1802 -2.23295 -1.7007 73 71 89
11.1657 -4.39642 -1.67343 76 79 98
10.8064 3.50547 -1.71025 77 76 92
10.8142 3.44823 -1.70872 75 77 92
10.8258 3.41196 -1.70871 74 72 93
11.1735 -2.32743 -1.70216 67 66 82
11.1495 -2.36099 -1.69941 67 69 84
11.1506 -2.3995 -1.7006 72 73 91
11.1346 -4.44776 -1.67161 77 75 99
11.1233 -4.48542 -1.67188 77 75 97
11.1045 -4.52018 -1.67095 71 77 93
10.7647 3.63206 -1.71028 76 80 97
10.7769 3.57608 -1.70936 77 77 95
10.7832 3.53817 -1.70844 80 81 99
11.1341 -2.45371 -1.69966 69 69 88
11.1291 -2.49101 -1.69993 68 70 85
11.1143 -2.52624 -1.6987 65 67 80
11.0821 -4.57471 -1.67062 74 79 98
10.7197 3.75759 -1.71 72 72 89
10.74 3.7042 -1.7103 70 67 88
10.7543 3.66875 -1.71059 74 74 98
11.1069 -2.58231 -1.69927 68 67 83
11.1053 -2.62039 -1.70016 68 67 81
11.0997 -2.65762 -1.70043 68 70 85
11.0721 -4.61294 -1.67119 72 77 96
11.0548 -4.64821 -1.67056 70 71 91
10.7111 3.83516 -1.71275 68 64 87
10.7314 3.80169 -1.71396 80 79 97
11.0801 -2.711 -1.69919 66 69 81
11.0685 -2.74681 -1.69856 64 63 79
11.0644 -2.78439 -1.69914 64 66 81
11.03 -4.70173 -1.66993 72 74 93
11.0105 -4.73608 -1.66901 74 75 94
10.675 3.96402 -1.7143 76 80 99
10.6808 3.92556 -1.71308 76 78 99
10.7014 3.89224 -1.71428 74 81 100
11.0545 -2.82059 -1.69881 70 68 84
11.038 -2.87456 -1.69817 63 66 81
10.9982 -4.77337 -1.66928 73 76 95
10.9767 -4.80682 -1.66806 74 75 95
10.6394 4.09329 -1.71615 82 83 103
10.6531 4.05752 -1.71614 78 80 100
10.6636 4.00051 -1.71461 77 80 99
11.0259 -2.91018 -1.69754 71 73 88
11.0251 -2.94864 -1.69873 62 64 79
11.0138 -3.00389 -1.699 66 65 79
10.9548 -4.86143 -1.66802 76 79 96
10.9331 -4.89469 -1.6668 81 82 98
10.6127 4.18527 -1.71738 78 81 101
10.6331 4.13173 -1.71737 78 79 97
11.0013 -3.03939 -1.69837 66 65 83
10.9772 -3.0718 -1.69592 69 64 86
10.9634 -3.12633 -1.69589 74 72 88
10.913 -4.92863 -1.66588 76 75 93
10.5937 4.26002 -1.71891 77 77 98
10.5931 4.21884 -1.71647 76 77 97
10.9562 -3.16317 -1.69616 74 73 89
10.9412 -3.19789 -1.69523 82 81 97
10.8851 -4.98056 -1.66495 72 70 89
10.8757 -5.01906 -1.66582 69 68 84
10.5676 4.39376 -1.72288 75 80 99
10.5822 4.3582 -1.72287 77 80 99
10.5708 4.31268 -1.71861 76 76 100
10.9268 -3.25224 -1.6952 84 84 103
10.9021 -3.28412 -1.69275 81 79 101
10.8982 -3.32188 -1.69363 82 80 102
