22.2267 -4.27746 -1.60603 76 72 87
22.1963 -4.34607 -1.60463 74 71 90
22.1755 -4.41642 -1.60401 75 72 93
21.7823 -8.05813 -1.52472 95 94 108
21.7282 -8.1575 -1.52341 97 94 111
21.694 -8.22425 -1.52268 95 92 109
21.667 -8.29362 -1.52253 102 100 114
22.1299 -4.51904 -1.60199 73 70 89
22.1262 -4.59267 -1.60277 75 74 90
22.091 -4.65989 -1.60106 69 68 84
22.0243 -4.72041 -1.59686 65 64 80
21.9851 -4.82361 -1.59547 67 64 87
21.9434 -4.88887 -1.59329 69 66 87
21.6473 -8.3657 -1.52296 97 93 108
21.6067 -8.46983 -1.52281 99 92 108
21.5827 -8.54033 -1.52295 100 94 108
21.5306 -8.59997 -1.52091 96 93 107
21.9385 -4.96207 -1.59407 68 69 89
21.8826 -5.06114 -1.59144 70 69 90
21.883 -5.13555 -1.59268 73 75 96
21.8695 -5.20685 -1.59283 76 81 99
21.8281 -5.3089 -1.59144 81 82 104
21.4703 -8.69623 -1.51931 98 92 105
21.4123 -8.7531 -1.51683 90 86 102
21.3745 -8.81782 -1.51595 94 90 105
21.7928 -5.37491 -1.58988 75 80 100
21.7708 -5.44405 -1.58942 72 77 97
21.7244 -5.54446 -1.58771 77 79 100
21.7387 -5.62259 -1.5902 75 80 99
21.3096 -8.91161 -1.51406 94 89 106
21.2805 -8.97969 -1.51391 91 86 102
21.2328 -9.04006 -1.5123 91 86 103
21.7236 -5.69346 -1.59035 71 74 94
21.7161 -5.76628 -1.59113 72 79 97
21.7146 -5.8783 -1.59316 78 80 101
21.6776 -5.94345 -1.5916 83 84 104
21.6558 -6.01258 -1.59129 83 84 102
21.207 -9.10941 -1.51244 94 89 104
21.1611 -9.21057 -1.51215 96 89 105
21.1109 -9.26955 -1.5104 97 95 109
20.7721 4.98309 -1.66071 69 75 98
20.7748 4.87663 -1.65889 74 76 99
20.7907 4.8089 -1.65891 73 76 100
20.7813 4.73554 -1.65673 73 80 99
20.7696 4.66184 -1.65438 72 78 100
20.7901 4.55985 -1.65425 72 79 98
20.7876 4.48841 -1.65274 73 77 102
20.7868 4.41742 -1.65141 72 76 103
20.8042 4.31499 -1.6511 69 77 98
20.7989 4.24332 -1.64943 72 78 102
20.8032 4.17362 -1.6486 70 76 102
20.8097 4.06929 -1.64745 71 75 100
20.8153 4.00002 -1.64679 69 77 98
20.809 3.92859 -1.64512 72 80 103
20.8279 3.86184 -1.64564 70 76 99
20.827 3.75657 -1.64398 69 74 96
20.8414 3.68905 -1.64417 66 68 94
20.836 3.61816 -1.64266 68 70 95
20.8595 3.51728 -1.6432 72 70 94
20.8712 3.44932 -1.64321 71 69 93
20.8906 3.38257 -1.6439 72 70 94
20.8815 3.27656 -1.64174 71 74 97
20.8964 3.20913 -1.64209 76 78 100
20.9635 1.38724 -1.63031 78 79 100
20.9884 1.32025 -1.632 74 77 96
20.9932 1.25194 -1.63202 71 78 97
20.9937 1.14915 -1.63153 73 79 98
21.0159 1.08174 -1.63306 73 73 94
21.014 1.01308 -1.63256 67 67 91
21.0253 0.910773 -1.63309 63 69 87
21.63 -6.11822 -1.59145 80 78 100
21.6019 -6.18556 -1.59067 69 72 91
21.5851 -6.25602 -1.59082 80 82 100
21.5393 -6.31822 -1.58864 84 90 104
21.0753 -9.3346 -1.50981 99 96 113
21.0155 -9.42952 -1.5085 99 96 113
20.9921 -9.4998 -1.50892 98 97 113
20.9521 -9.56277 -1.50804 94 94 112
20.6222 6.02627 -1.67087 109 111 132
20.6665 5.92958 -1.67226 78 85 107
20.6493 5.85214 -1.66907 62 66 92
20.6626 5.78322 -1.66858 73 79 102
20.6884 5.68158 -1.66845 72 79 98
20.6973 5.61157 -1.66762 70 77 96
20.7098 5.54255 -1.66714 71 77 97
20.7163 5.47204 -1.66614 69 73 100
20.7368 5.36923 -1.66567 69 75 97
20.7408 5.29825 -1.66451 67 71 96
20.7466 5.22778 -1.66351 70 71 99
20.764 5.12443 -1.66287 70 78 99
20.7672 5.05352 -1.66171 70 78 99
21.0627 0.843724 -1.63597 64 69 87
21.0541 0.774767 -1.63497 63 68 87
21.0483 0.671693 -1.63414 61 64 86
21.081 0.604091 -1.63669 62 62 88
21.0716 0.535214 -1.63568 59 62 86
21.0581 0.466318 -1.63434 60 65 85
21.5006 -6.41998 -1.58787 88 86 104
21.4773 -6.48845 -1.58755 89 86 104
21.4882 -6.56706 -1.59004 89 89 101
21.4655 -6.67365 -1.59066 84 85 103
20.9077 -9.66424 -1.50804 92 93 111
20.8563 -9.72193 -1.50629 96 95 113
20.5843 6.74928 -1.68567 70 74 99
20.6005 6.68031 -1.68519 70 74 101
20.5917 6.60364 -1.68251 70 76 102
20.6036 6.53351 -1.68169 70 76 98
20.6044 6.42341 -1.67902 71 77 99
20.61 6.35162 -1.67769 72 78 100
20.6058 6.27705 -1.67552 75 76 102
20.6263 6.1734 -1.67471 62 64 87
20.7 6.12144 -1.67946 89 96 115
21.1121 -0.665354 -1.63856 70 71 92
21.1091 -0.802592 -1.63857 80 77 99
21.4319 -6.73904 -1.58957 71 71 83
21.4267 -6.81311 -1.59081 86 82 96
21.3971 -6.9177 -1.59097 85 77 89
20.8175 -9.78516 -1.50555 94 92 111
20.7749 -9.84658 -1.50453 92 93 111
20.702 -9.93459 -1.50234 95 92 111
20.5045 7.43218 -1.69776 70 76 98
20.5059 7.35738 -1.69576 69 77 100
20.5222 7.25049 -1.69411 68 76 97
20.5325 7.17903 -1.69296 70 78 99
20.5425 7.10757 -1.6918 69 75 97
20.55 6.99823 -1.68947 73 75 98
20.5632 6.92806 -1.68865 72 75 98
20.5743 6.85727 -1.68766 70 76 98
21.3761 -6.98694 -1.59097 77 69 80
21.3985 -7.07015 -1.59454 74 73 87
21.3694 -7.13692 -1.59391 71 70 86
21.3402 -7.24186 -1.59423 88 87 103
20.4378 8.01518 -1.70955 66 76 101
20.4376 7.93862 -1.70721 70 77 103
20.455 7.83086 -1.70539 71 77 103
20.4671 7.75925 -1.70424 71 77 103
20.4697 7.68425 -1.70223 69 78 100
20.4896 7.57792 -1.70076 70 76 99
20.4953 7.50437 -1.69909 70 76 98
21.0424 -2.00119 -1.63854 100 96 110
21.0329 -2.06916 -1.6382 115 112 125
21.2557 -7.29008 -1.58909 86 88 104
21.1769 -7.33975 -1.58442 89 91 107
21.0863 -7.42314 -1.57975 90 88 103
21.0128 -7.47378 -1.57555 88 87 105
20.3516 8.52052 -1.71847 70 78 101
20.3793 8.41558 -1.71733 69 76 102
20.3842 8.34022 -1.71534 69 76 102
20.3999 8.26925 -1.71435 69 77 100
20.3987 8.1918 -1.71184 70 78 99
20.4322 8.08968 -1.71138 71 79 101
20.1702 3.49652 -1.64692 67 68 89
20.1695 3.3948 -1.64538 66 73 92
20.1947 3.33105 -1.64662 67 71 96
20.9637 -7.53257 -1.57337 97 94 111
20.8743 -7.61498 -1.56886 93 91 107
20.8249 -7.67313 -1.56668 82 78 95
20.8146 -7.74529 -1.56776 89 87 102
20.2854 8.92211 -1.72643 68 76 99
20.3031 8.85116 -1.72544 66 77 97
20.3132 8.77714 -1.72378 69 77 100
20.3329 8.66843 -1.7218 69 75 100
20.3461 8.59596 -1.72047 70 77 102
20.0743 5.05603 -1.66693 70 75 102
20.0928 4.95616 -1.66643 70 80 103
20.0819 4.88414 -1.66401 73 80 102
20.0688 4.81181 -1.66141 72 79 99
20.0958 4.71423 -1.66179 74 79 101
20.0919 4.64423 -1.66006 73 79 101
20.0857 4.57386 -1.65816 74 79 101
20.0949 4.50694 -1.65766 73 77 102
20.1089 4.40675 -1.65699 69 75 97
20.1078 4.33778 -1.65561 70 76 100
20.1221 4.27204 -1.65563 70 76 98
20.1193 4.16872 -1.65356 71 76 98
20.1252 4.10142 -1.65288 70 74 99
20.1232 4.03263 -1.6515 70 74 99
20.1192 3.92957 -1.64944 70 76 99
20.1165 3.86094 -1.64806 69 77 99
20.1431 3.79765 -1.64929 65 73 94
20.1321 3.72764 -1.64721 65 72 91
20.1659 3.63163 -1.64864 70 70 95
20.1741 3.56506 -1.6483 69 71 92
20.3101 1.03223 -1.63435 67 69 92
20.3439 0.967251 -1.63698 67 69 92
20.3371 0.86716 -1.63595 66 69 90
20.3485 0.801068 -1.63666 66 69 88
20.3656 0.735096 -1.63789 62 67 87
20.3458 0.634697 -1.63582 65 67 90
20.3465 0.568238 -1.63565 61 67 91
20.7993 -7.85387 -1.56947 94 91 108
20.7548 -7.91357 -1.56775 85 83 97
20.7512 -7.98843 -1.56946 79 77 92
20.2698 9.11204 -1.73158 68 76 99
20.2534 9.02612 -1.72739 70 77 98
19.9357 5.82535 -1.67263 63 67 91
19.9598 5.72643 -1.67231 78 73 103
19.9784 5.66113 -1.67233 70 75 101
19.9853 5.59269 -1.6713 71 76 98
19.9959 5.52528 -1.67062 72 77 101
20.0186 5.42613 -1.67031 71 77 101
20.0614 5.36707 -1.67259 69 77 99
20.0576 5.2961 -1.67069 69 76 100
20.0773 5.19624 -1.6702 69 77 96
20.0885 5.12917 -1.6697 71 79 100
20.6914 -8.0422 -1.5665 79 77 90
20.615 -8.12764 -1.56323 87 83 98
20.5753 -8.18861 -1.56198 96 94 108
20.5206 -8.2436 -1.55949 100 97 107
19.8844 6.6285 -1.68895 69 78 100
19.9086 6.52848 -1.68828 70 76 102
19.9088 6.45685 -1.68639 73 79 101
19.9202 6.38878 -1.68554 72 77 99
19.9162 6.31606 -1.68329 72 78 100
19.9217 6.21089 -1.68106 71 75 97
19.9094 6.13614 -1.67811 59 65 84
20.0192 6.09715 -1.68633 108 109 132
19.945 5.96932 -1.67695 102 106 128
20.6816 -4.02132 -1.63023 75 71 86
20.4583 -8.33366 -1.55746 94 88 96
20.4124 -8.39174 -1.55575 94 86 102
20.3739 -8.4526 -1.55465 88 87 105
19.7531 7.16301 -1.69312 69 77 98
19.7518 7.08993 -1.69088 68 78 103
19.78 6.99099 -1.69039 69 77 98
19.7838 6.91992 -1.68867 70 78 99
19.8213 6.86015 -1.69009 66 77 97
19.8371 6.75725 -1.68855 69 77 100
19.8305 6.68315 -1.68596 69 76 98
20.548 -4.30726 -1.62348 70 67 86
20.5352 -4.37395 -1.62349 73 70 87
20.5027 -4.43652 -1.6218 68 67 85
20.3457 -8.55602 -1.55558 89 85 100
20.3104 -8.61807 -1.5548 94 88 101
20.2711 -8.67846 -1.5537 94 87 102
19.6901 7.72604 -1.70496 68 75 101
19.6944 7.65393 -1.70307 67 75 98
19.7161 7.55167 -1.70171 67 78 98
19.7236 7.48098 -1.70017 68 75 101
19.729 7.40967 -1.69845 70 78 101
19.7438 7.30544 -1.69657 71 76 96
19.7523 7.23552 -1.69519 71 76 98
20.3389 -2.02449 -1.6407 105 104 112
20.3174 -2.08917 -1.6393 104 102 113
20.4669 -4.53298 -1.62045 67 68 86
20.4203 -4.59224 -1.61758 68 71 86
20.4222 -4.66192 -1.61893 67 68 86
20.3892 -4.75868 -1.61793 68 66 88
20.3556 -4.82042 -1.61624 64 67 86
20.2446 -8.74407 -1.5537 94 88 102
20.204 -8.84233 -1.55369 96 87 104
20.1366 -8.89044 -1.55027 98 92 104
19.6222 8.14512 -1.71283 70 78 99
19.6463 8.04284 -1.71148 69 77 100
19.6555 7.97201 -1.70993 69 77 100
19.6533 7.89692 -1.70734 71 77 99
19.678 7.7954 -1.70616 68 76 99
20.3354 -4.88512 -1.61573 62 68 84
20.2995 -4.98087 -1.61455 64 66 87
20.2845 -5.04674 -1.61455 62 65 84
20.2578 -5.10974 -1.61354 66 69 88
20.1076 -8.95483 -1.5501 93 87 99
20.0679 -9.05323 -1.55026 96 92 106
20.0128 -9.1061 -1.54792 96 94 108
19.539 8.59954 -1.72138 69 75 99
19.5611 8.53321 -1.72089 66 77 99
19.5665 8.45998 -1.71882 68 75 103
19.605 8.36302 -1.71869 65 77 101
19.6079 8.28909 -1.71644 64 76 100
19.6069 8.21376 -1.71385 67 78 98
20.2561 -5.1788 -1.61472 75 76 96
20.2226 -5.27493 -1.61388 75 72 94
20.1683 -5.33072 -1.6105 76 77 98
20.1638 -5.39914 -1.61151 79 80 101
19.9667 -9.16277 -1.54635 106 104 119
19.9223 -9.25887 -1.54619 98 97 111
19.8813 -9.31757 -1.5451 98 95 112
19.5041 8.77418 -1.72463 66 77 97
19.5158 8.70324 -1.72309 67 75 96
20.1294 -5.49472 -1.61067 97 100 117
20.1206 -5.56207 -1.61135 94 97 112
20.1077 -5.62839 -1.61168 83 85 98
20.0722 -5.72357 -1.61084 81 86 105
19.8473 -9.37944 -1.54462 101 97 113
19.8113 -9.44034 -1.54399 96 95 113
20.0588 -5.78976 -1.61118 80 82 103
20.0337 -5.85267 -1.6105 77 79 104
20.003 -5.94903 -1.61016 80 82 103
19.9946 -6.0167 -1.61101 79 81 102
19.986 -6.08436 -1.61185 80 82 103
19.9638 -6.14805 -1.61151 80 78 100
19.9088 -6.2371 -1.60915 73 78 97
19.8805 -6.29877 -1.6083 75 77 98
19.7041 -4.69734 -1.62078 64 71 89
19.8633 -6.36385 -1.60846 79 81 102
19.8378 -6.46166 -1.6088 77 80 98
19.8107 -6.52359 -1.60813 84 87 106
19.8004 -6.59089 -1.60897 83 90 108
19.6881 -4.761 -1.6206 74 76 98
19.6547 -4.85429 -1.61956 72 77 96
19.6267 -4.91495 -1.61834 81 82 102
19.6023 -4.97643 -1.61747 77 78 96
19.5952 -5.04214 -1.61816 74 76 96
19.7559 -6.64712 -1.60677 80 84 103
19.7233 -6.74259 -1.6066 83 84 105
19.718 -6.81159 -1.60795 83 87 108
19.5509 -5.13234 -1.61625 78 79 101
19.5104 -5.18949 -1.61398 77 80 99
19.4737 -5.24743 -1.61206 82 82 105
19.4362 -5.33886 -1.61084 80 82 101
19.6973 -6.87554 -1.60794 88 89 109
19.6581 -6.96876 -1.60727 82 84 99
19.6163 -7.02536 -1.60541 89 92 107
19.4105 -5.39951 -1.60996 70 71 89
19.4327 -5.47315 -1.61345 104 110 126
19.3443 -5.55035 -1.6077 100 99 116
19.3583 -5.62191 -1.61049 78 77 98
19.5987 -7.0903 -1.60574 80 79 95
19.5491 -7.17963 -1.60422 85 86 104
19.5216 -7.24102 -1.60371 83 83 104
19.4866 -7.29959 -1.60252 87 86 104
19.3529 -5.68816 -1.61153 76 78 97
19.3205 -5.7467 -1.61013 77 78 98
19.3074 -5.84487 -1.61136 78 83 102
19.2784 -5.90428 -1.61031 80 81 101
19.4607 -7.36142 -1.60218 84 80 102
19.4098 -7.44984 -1.60066 82 82 102
19.3909 -7.51419 -1.60099 82 81 98
19.2873 -5.975 -1.61275 80 83 102
19.2617 -6.06965 -1.61293 85 83 104
19.2358 -6.12994 -1.61223 78 79 99
19.3755 -7.57989 -1.60166 90 89 105
19.3312 -7.67055 -1.60082 87 86 104
19.3171 -7.73683 -1.60165 87 86 106
19.2363 -6.19844 -1.61397 82 85 104
19.2002 -6.28984 -1.61327 84 85 104
19.1755 -6.35046 -1.61275 81 84 101
19.1563 -6.41281 -1.61274 85 86 106
19.2862 -7.79658 -1.60097 82 81 99
19.2372 -7.88524 -1.59979 80 77 97
19.2187 -7.94984 -1.60029 81 80 98
18.4036 4.07196 -1.67533 71 76 98
18.4116 3.97923 -1.67421 70 77 103
18.4482 3.92385 -1.67653 72 78 102
18.4183 3.85484 -1.67231 71 79 100
18.4253 3.76217 -1.67118 69 76 96
18.4242 3.69928 -1.66985 71 73 94
18.4345 3.63867 -1.66967 69 71 94
18.4388 3.57694 -1.66892 66 70 95
18.4914 3.49296 -1.6724 66 71 93
18.4816 3.42865 -1.6703 69 72 95
18.497 3.36893 -1.67069 69 73 92
18.5036 3.27656 -1.66976 64 72 91
18.5106 3.21543 -1.66938 68 72 95
18.4999 3.15137 -1.66728 71 73 92
18.5172 3.061 -1.6675 72 78 103
18.5138 2.99832 -1.66616 72 75 100
18.5062 2.9351 -1.66445 75 80 99
18.4871 2.56178 -1.65722 118 121 138
18.5669 2.51072 -1.66415 104 108 125
18.4966 2.43994 -1.65647 94 96 117
18.4792 2.28433 -1.65285 110 95 89
18.5009 2.22557 -1.65421 113 100 95
18.5159 2.13537 -1.65461 72 73 93
18.4976 2.07209 -1.65212 67 67 89
18.5514 1.95531 -1.65599 72 78 101
18.5355 1.8619 -1.65351 71 71 97
18.5558 1.80269 -1.65486 65 57 72
18.5979 1.74537 -1.65833 113 98 92
18.5314 1.64773 -1.65105 115 100 98
18.561 1.58922 -1.65336 80 76 92
18.5529 1.5275 -1.65203 108 109 129
18.6201 1.44116 -1.65781 107 108 130
18.5857 1.37749 -1.65398 63 68 87
18.6035 1.25666 -1.65476 70 76 97
18.5862 1.1641 -1.65247 69 74 94
18.5985 1.1039 -1.65325 69 74 94
18.6086 1.04352 -1.65383 71 73 95
18.6459 0.954033 -1.65693 70 72 93
18.6635 0.893847 -1.65828 69 71 93
18.6511 0.83224 -1.65675 68 70 92
18.7112 0.743156 -1.66215 66 71 91
18.7083 0.681891 -1.66158 67 71 90
18.6973 0.620391 -1.66024 65 72 91
18.7138 0.559813 -1.66159 64 70 90
18.7091 0.468036 -1.66084 64 70 87
19.106 -6.49938 -1.61082 84 81 100
19.0976 -6.56528 -1.61187 89 85 105
19.0495 -6.61786 -1.60925 91 90 108
19.2056 -8.01663 -1.6013 80 81 101
19.1537 -8.104 -1.59994 88 86 105
19.1253 -8.16459 -1.5996 87 86 105
18.3206 4.84618 -1.68513 72 80 101
18.3249 4.78331 -1.68399 74 80 102
18.3403 4.69146 -1.68325 68 78 99
18.3364 4.62675 -1.68135 72 78 102
18.3497 4.56629 -1.68117 70 78 101
18.3466 4.47031 -1.6787 72 77 99
18.3575 4.4094 -1.67833 72 78 102
18.3701 4.34892 -1.67815 71 79 102
18.3669 4.28489 -1.67643 74 75 103
18.3838 4.19391 -1.67607 71 77 100
18.3996 4.13421 -1.67628 73 75 100
18.7391 0.407627 -1.66354 64 73 90
18.7332 0.34635 -1.66278 65 71 93
18.7076 0.254291 -1.6601 66 70 95
18.7111 0.193293 -1.6603 67 69 92
18.6925 0.1321 -1.65839 66 71 93
18.7017 0.0406751 -1.65917 66 69 90
18.6886 -0.0203253 -1.65783 65 72 91
18.7151 -0.0813488 -1.66034 65 72 91
18.7056 -0.142321 -1.65938 66 71 91
18.6916 -0.233668 -1.65805 68 71 91
18.7194 -0.295002 -1.66075 68 73 93
18.7431 -0.35644 -1.66306 67 69 92
19.0257 -6.67852 -1.60889 91 90 108
19.0005 -6.77324 -1.60942 91 92 105
18.98 -6.83503 -1.60941 94 93 109
19.0931 -8.22356 -1.59892 97 95 110
19.057 -8.28085 -1.5979 99 100 115
18.2333 5.49865 -1.69398 68 76 96
18.2597 5.40911 -1.69401 69 75 101
18.2563 5.34338 -1.69191 67 74 100
18.2776 5.2847 -1.69231 69 75 97
18.2858 5.19022 -1.69061 68 75 101
18.2932 5.12779 -1.68967 69 76 102
18.2985 5.06483 -1.68853 70 76 100
18.3189 5.00597 -1.68893 72 78 102
18.3276 4.91205 -1.68742 69 80 102
18.7341 -0.447922 -1.6623 71 69 93
18.7334 -0.508995 -1.66231 75 78 97
18.7325 -0.570062 -1.66231 73 74 98
18.7403 -0.661974 -1.66329 74 76 97
18.741 -0.723126 -1.66349 76 78 103
18.7732 -0.785523 -1.66676 77 77 100
18.8098 -0.940403 -1.67081 75 76 97
18.9443 -6.89145 -1.60801 94 92 106
18.8975 -6.97846 -1.60662 103 105 120
18.8632 -7.03517 -1.60539 102 103 116
18.8382 -7.09515 -1.60504 100 96 113
19.0059 -8.36807 -1.59671 95 92 109
18.9602 -8.42108 -1.59485 101 98 115
18.9236 -8.47783 -1.59383 101 98 116
18.1387 5.99162 -1.69941 73 78 102
18.143 5.92744 -1.69789 70 76 102
18.1582 5.83417 -1.69658 68 76 100
18.1829 5.77646 -1.69717 68 76 97
18.1846 5.71173 -1.69546 70 78 99
18.2101 5.62184 -1.69529 69 76 102
18.2228 5.56053 -1.69473 70 77 103
18.8274 -1.43336 -1.6749 85 83 103
18.8129 -7.15502 -1.60468 113 111 126
18.7892 -7.25023 -1.60555 102 100 114
18.7616 -7.30922 -1.60503 105 104 118
18.8697 -8.56346 -1.59247 96 95 109
18.8236 -8.61581 -1.59061 99 100 113
18.79 -8.67361 -1.58993 103 101 115
18.0731 6.43155 -1.70696 67 78 101
18.0851 6.33635 -1.70507 70 78 101
18.0981 6.27459 -1.70432 71 79 102
18.1317 6.21968 -1.70568 73 79 105
18.1237 6.11825 -1.70187 73 79 105
18.1322 6.05523 -1.70074 73 81 104
18.7431 -7.37163 -1.60537 109 106 122
18.724 -7.46875 -1.60677 110 108 123
18.6809 -7.52167 -1.60484 106 106 120
18.7299 -8.75598 -1.58807 92 91 105
18.6977 -8.81426 -1.58755 96 95 113
18.6418 -8.86162 -1.58484 92 91 107
17.9967 6.83807 -1.71337 68 78 102
18.017 6.77841 -1.71319 69 78 100
18.0277 6.71534 -1.71206 66 77 100
18.0252 6.64761 -1.70958 65 75 102
18.0552 6.55832 -1.70942 69 78 104
18.0745 6.49851 -1.70925 71 82 104
18.6487 -7.57876 -1.60396 105 104 118
18.6248 -7.6741 -1.60501 97 95 111
18.6075 -8.91874 -1.58416 89 91 106
17.9331 7.21854 -1.72073 69 79 100
17.9416 7.15404 -1.71922 67 77 100
17.9535 7.05735 -1.71695 70 79 102
17.9726 6.9971 -1.71658 69 77 100
17.9897 6.93611 -1.71602 69 76 102
18.5848 -7.72796 -1.60343 93 90 107
18.5576 -7.78688 -1.60308 87 86 103
18.5358 -7.84797 -1.60324 93 92 108
17.8662 7.56687 -1.72734 65 76 99
17.8685 7.49935 -1.72506 67 75 99
17.8725 7.43262 -1.72296 66 76 103
17.8891 7.37107 -1.72222 69 76 104
17.9169 7.28016 -1.72148 69 77 98
18.4885 -7.93374 -1.6022 87 83 100
18.4129 -7.97231 -1.5973 99 97 113
18.4125 -8.04225 -1.59956 93 90 107
17.7933 7.88052 -1.73261 65 76 99
17.8181 7.78755 -1.7313 67 78 98
17.8176 7.71838 -1.72863 68 79 97
17.8333 7.65614 -1.72769 67 78 98
17.6353 2.66668 -1.66036 78 79 99
17.6188 2.6053 -1.65776 65 61 84
17.6847 2.55541 -1.6636 119 117 138
17.6186 2.45805 -1.65558 103 106 123
17.704 2.26287 -1.66145 109 93 93
17.6289 2.19507 -1.65302 109 99 101
17.642 2.07933 -1.65284 67 70 88
17.6267 1.9899 -1.65024 71 79 98
17.683 1.93729 -1.65528 74 79 101
17.6818 1.87858 -1.65448 81 86 108
17.6794 1.79057 -1.6533 69 62 86
17.7589 1.73946 -1.66074 110 97 92
17.6721 1.67298 -1.6513 108 94 90
17.6766 1.58584 -1.65092 76 72 86
17.7155 1.47222 -1.65375 103 104 124
17.7012 1.3836 -1.65156 116 121 140
17.725 1.26861 -1.65298 67 72 92
17.7138 1.20956 -1.65138 72 77 98
18.3496 -8.12103 -1.59712 96 94 115
18.2664 -8.15543 -1.59153 96 96 114
18.2598 -8.22277 -1.59326 98 95 115
17.7638 8.00653 -1.73487 67 79 101
17.775 7.94196 -1.73335 65 77 101
17.567 3.90713 -1.67677 69 75 97
17.5451 3.81227 -1.67257 71 75 102
17.5733 3.75792 -1.67419 67 71 94
17.5411 3.6913 -1.66958 69 70 96
17.5492 3.60312 -1.6686 71 70 94
17.5651 3.54634 -1.66902 70 72 97
17.5848 3.49023 -1.66983 68 71 95
17.6081 3.43476 -1.67105 68 69 90
17.6131 3.34606 -1.66987 66 73 91
17.6282 3.28902 -1.67028 71 74 93
17.6412 3.23159 -1.67049 69 74 93
17.6276 3.13987 -1.6675 71 76 95
17.6244 3.07982 -1.66611 68 71 90
17.6171 3.01919 -1.66431 66 71 90
17.6417 2.93411 -1.66533 73 74 99
17.6398 2.87448 -1.66414 72 78 100
17.6122 2.81102 -1.66033 76 78 99
17.6689 2.76032 -1.66517 71 72 93
17.7241 1.12281 -1.6518 67 69 92
17.7283 1.06479 -1.65181 71 71 95
17.7423 1.00728 -1.65282 69 67 89
17.7535 0.920456 -1.65344 68 71 88
17.7552 0.862257 -1.65325 67 74 93
17.7645 0.804395 -1.65386 66 73 92
17.763 0.71696 -1.65327 66 70 92
17.7937 0.65978 -1.6561 68 68 92
17.8163 0.602171 -1.65811 69 71 94
17.807 0.543539 -1.65691 68 70 93
17.8102 0.456138 -1.65693 65 70 91
17.8123 0.397862 -1.65694 67 72 92
17.7885 0.339143 -1.65433 69 75 96
17.8006 0.25196 -1.65535 70 71 95
17.81 0.193793 -1.65616 68 74 98
17.8153 0.13555 -1.65657 68 73 95
18.4283 -3.72473 -1.66349 74 82 103
18.429 -3.78698 -1.66464 75 82 101
18.4179 -3.84692 -1.66464 74 81 99
18.377 -3.93196 -1.66234 75 79 104
18.1999 -8.30214 -1.59117 99 98 111
18.1637 -8.35646 -1.59011 100 98 113
18.1219 -8.40818 -1.58853 92 90 104
17.4529 4.63922 -1.68301 73 77 102
17.4585 4.57956 -1.68202 73 78 100
17.469 4.4908 -1.68084 71 79 102
17.4722 4.43067 -1.67965 70 77 98
17.4713 4.36968 -1.67806 70 76 100
17.4886 4.2828 -1.67768 73 78 102
17.5008 4.22499 -1.67749 72 76 101
17.4934 4.16276 -1.6753 71 77 101
17.5052 4.10495 -1.67511 70 76 103
17.5406 4.02221 -1.67674 70 75 98
17.5287 3.95926 -1.67414 68 76 97
17.8067 0.0481139 -1.65558 64 66 91
17.8075 -0.0101396 -1.65558 67 66 89
17.8281 -0.0684916 -1.6576 66 70 94
17.8167 -0.126708 -1.6564 70 72 95
17.8246 -0.214219 -1.65722 70 73 96
17.8306 -0.272609 -1.65783 70 74 95
17.8305 -0.330918 -1.65783 73 72 96
17.8315 -0.418421 -1.65805 72 74 97
17.821 -0.476457 -1.65705 73 73 97
17.8401 -0.535324 -1.65906 75 74 100
17.8322 -0.622598 -1.65847 69 75 92
18.3596 -3.99051 -1.66176 73 78 100
18.3303 -4.04651 -1.66003 76 81 101
18.3216 -4.13802 -1.661 79 81 102
18.2899 -4.19333 -1.65907 72 80 98
18.2367 -4.2437 -1.65503 73 82 99
18.0612 -8.48665 -1.58644 98 97 111
18.0426 -8.54869 -1.58713 98 97 114
17.3773 5.1719 -1.69011 68 76 100
17.3923 5.11433 -1.68992 74 82 101
17.3975 5.05407 -1.68873 69 74 103
17.4045 4.99436 -1.68774 70 76 100
17.4285 4.90866 -1.68777 69 76 102
17.4331 4.84842 -1.68658 70 78 99
17.4355 4.78769 -1.68518 70 78 101
17.449 4.6994 -1.68421 72 78 100
17.8528 -0.681724 -1.66069 72 73 93
17.8633 -0.74057 -1.6619 81 80 101
17.8578 -0.798779 -1.6615 81 79 99
17.8685 -0.887002 -1.66292 87 85 106
17.8883 -0.946535 -1.66514 87 90 109
17.9058 -1.00609 -1.66716 81 84 101
17.8938 -1.09336 -1.66636 82 83 101
17.9188 -1.15358 -1.66918 86 84 110
18.2213 -4.33353 -1.65542 74 79 99
18.1968 -4.3901 -1.65427 73 80 99
18.1237 -4.43518 -1.64831 72 79 98
18.1318 -4.49919 -1.65042 69 76 95
18.0002 -8.59984 -1.58555 101 100 118
17.9541 -8.64912 -1.58362 97 99 114
17.2826 5.67175 -1.69578 68 76 99
17.3022 5.58426 -1.69501 66 77 99
17.3128 5.52514 -1.69422 65 72 98
17.3308 5.46831 -1.69424 67 75 98
17.3514 5.38125 -1.69366 68 76 97
17.3632 5.32262 -1.69308 68 76 97
17.3615 5.26012 -1.69108 71 75 98
17.9318 -1.21317 -1.6708 78 80 100
17.9029 -1.29932 -1.66839 75 75 92
17.8976 -1.35765 -1.6682 78 78 97
17.9159 -1.4178 -1.67041 83 85 103
17.9042 -1.47567 -1.66961 82 85 103
18.0417 -4.5707 -1.6435 73 77 97
18.0474 -4.63414 -1.64542 74 74 98
17.9912 -4.68222 -1.64119 74 79 101
17.9813 -4.77292 -1.64235 74 77 99
17.2414 6.067 -1.70451 70 76 100
17.2216 5.99723 -1.70031 70 77 103
17.2448 5.9419 -1.70073 69 76 102
17.245 5.84776 -1.69774 69 77 100
17.2564 5.7887 -1.69696 68 76 99
17.2923 5.73743 -1.69878 67 77 101
17.9324 -4.82245 -1.63888 75 78 100
17.9508 -4.88932 -1.64215 71 77 99
17.9034 -4.9702 -1.63965 76 81 102
17.8847 -5.02739 -1.63927 81 84 103
17.1465 6.41483 -1.70721 70 78 102
17.1804 6.3631 -1.70864 69 77 100
17.1733 6.26537 -1.70465 71 79 102
17.2106 6.21477 -1.70647 68 79 101
17.195 6.14606 -1.70267 69 77 98
17.8563 -5.08187 -1.63792 78 83 102
17.8487 -5.14206 -1.63868 78 80 101
17.8156 -5.2264 -1.63773 78 79 100
17.798 -5.28379 -1.63753 77 82 102
17.0776 6.74172 -1.71233 69 76 102
17.092 6.68281 -1.71155 71 76 105
17.123 6.63006 -1.71257 69 76 102
17.1286 6.53614 -1.70979 72 80 103
17.161 6.48389 -1.71101 64 76 98
17.7803 -5.34111 -1.63733 77 82 102
17.7462 -5.425 -1.63637 80 83 101
17.7242 -5.481 -1.63579 78 84 98
17.0221 7.0432 -1.71826 70 77 103
17.0484 6.95636 -1.71749 68 79 99
17.0524 6.89317 -1.7155 68 76 99
17.0839 6.84065 -1.71652 69 77 100
17.7334 -2.95832 -1.6685 74 71 90
17.7131 -3.01422 -1.6673 70 68 89
17.7152 -3.10353 -1.66891 68 71 88
17.6749 -3.15588 -1.66569 68 71 90
17.6619 -3.21284 -1.66529 74 76 99
17.683 -5.53119 -1.63329 80 84 99
17.6557 -5.61683 -1.6331 81 86 105
17.6464 -5.67659 -1.63387 81 83 101
17.6313 -5.73455 -1.63406 82 81 102
16.9657 7.37938 -1.72598 67 75 100
16.9601 7.31152 -1.72279 67 78 98
17.0024 7.23082 -1.72362 69 77 100
16.9982 7.16381 -1.72063 70 81 103
17.0231 7.10864 -1.72085 70 77 103
17.6474 -3.29923 -1.6653 73 81 98
17.6105 -3.35173 -1.66248 75 80 99
17.591 -3.40732 -1.66148 73 80 99
17.5693 -3.46245 -1.66027 73 80 99
17.6216 -5.79427 -1.63482 80 86 105
17.6006 -5.88201 -1.6354 76 81 100
17.5829 -5.93923 -1.63539 79 82 101
16.8996 7.5819 -1.72792 67 78 98
16.9296 7.52863 -1.72854 66 77 99
16.9289 7.42975 -1.72455 66 76 101
17.5615 -3.54991 -1.66108 71 80 99
17.5492 -3.60679 -1.66088 75 80 100
17.5289 -3.66204 -1.65987 75 81 103
17.5065 -3.74655 -1.65927 75 81 103
17.4935 -3.80322 -1.65907 74 81 100
17.5745 -5.99949 -1.63635 77 83 97
17.545 -6.08453 -1.63616 77 82 102
17.5436 -6.14727 -1.63788 74 81 100
17.4649 -3.85651 -1.65726 76 83 102
17.4358 -3.93936 -1.65606 73 79 98
17.4145 -3.99405 -1.65505 76 83 101
17.3988 -4.04995 -1.65465 74 80 102
17.3695 -4.10268 -1.65284 74 83 100
17.5062 -6.19789 -1.63596 73 80 98
17.4927 -6.28842 -1.6375 75 80 101
17.4512 -6.33741 -1.63518 75 82 100
17.345 -4.18625 -1.65224 73 79 103
17.3249 -4.24096 -1.65143 75 80 100
17.2873 -4.2914 -1.64882 75 77 100
17.4114 -6.38686 -1.63306 71 78 97
17.3978 -6.44546 -1.63364 74 81 99
17.355 -6.52552 -1.63229 76 83 102
17.2562 -4.37307 -1.64761 73 78 101
17.2163 -4.4226 -1.6448 73 80 99
17.1897 -4.47533 -1.64339 71 76 98
17.127 -4.54847 -1.63897 74 74 98
17.1116 -4.60381 -1.63876 73 78 97
17.3259 -6.57852 -1.63132 76 83 102
17.3023 -6.63346 -1.63093 77 81 106
17.2531 -6.71082 -1.62901 74 77 102
17.1037 -4.66111 -1.63936 76 82 104
17.0556 -4.7375 -1.63655 73 80 99
17.0357 -4.79153 -1.63594 72 78 100
17.2086 -6.75777 -1.6265 78 80 101
17.1714 -6.80733 -1.62477 77 79 100
17.0215 -4.84706 -1.63594 71 79 98
17.0013 -4.90095 -1.63534 72 76 96
16.9732 -4.98242 -1.63473 73 79 100
16.9468 -5.03445 -1.63352 73 78 98
17.1345 -6.88888 -1.62419 75 83 102
17.0988 -6.93879 -1.62265 77 85 102
17.0703 -6.99145 -1.62187 84 88 108
17.0214 -7.03592 -1.61898 96 95 117
16.4879 2.89914 -1.68572 77 80 101
16.4918 2.84401 -1.68508 78 80 105
16.5093 2.79111 -1.68596 76 77 98
16.4936 2.7051 -1.68273 69 74 95
16.5087 2.65185 -1.68339 72 77 101
16.606 2.61108 -1.69314 76 78 102
16.5325 2.54427 -1.68406 111 113 133
16.5195 2.45915 -1.68127 120 119 140
16.4812 2.34305 -1.67523 103 97 108
16.542 2.2684 -1.68066 117 100 107
16.5065 2.20847 -1.67591 116 105 107
16.5104 2.01612 -1.67357 78 80 101
16.5372 1.96421 -1.67574 76 81 101
16.55 1.91059 -1.6764 70 77 96
16.6365 1.83738 -1.68486 64 66 81
16.5325 1.77126 -1.67275 123 111 116
16.5348 1.71659 -1.67233 118 104 99
16.5494 1.63576 -1.67299 108 98 103
16.5491 1.52606 -1.67171 132 132 149
16.5608 1.44494 -1.67216 116 119 136
16.5779 1.39156 -1.67347 99 101 122
16.5958 1.28338 -1.67435 69 71 92
16.6104 1.20228 -1.67523 72 72 98
16.6248 1.14846 -1.67632 68 70 93
16.6271 1.0938 -1.67611 67 74 93
16.621 1.01128 -1.67483 69 69 90
16.6467 0.958005 -1.67722 69 71 94
16.6306 0.902353 -1.67506 73 71 93
16.6632 0.821906 -1.67811 67 70 89
16.6427 0.766181 -1.67552 67 69 90
16.6676 0.712525 -1.67791 68 69 90
16.6637 0.630254 -1.67706 66 68 91
16.6743 0.575896 -1.67793 63 69 89
16.659 0.520667 -1.67599 72 73 94
16.6614 0.466052 -1.67599 73 74 95
16.9223 -5.08691 -1.63252 76 82 100
16.8895 -5.16681 -1.63151 75 82 101
16.876 -5.22243 -1.63171 76 81 101
16.8452 -5.27282 -1.6301 77 82 104
16.9834 -7.11666 -1.6184 102 107 123
16.9563 -7.16962 -1.61782 100 105 121
16.4249 3.73024 -1.69699 71 75 100
16.4237 3.67331 -1.69549 67 72 94
16.4087 3.61356 -1.69247 67 72 94
16.4477 3.53709 -1.69488 70 72 93
16.4343 3.47785 -1.69208 67 68 90
16.44 3.42267 -1.69144 67 69 92
16.4431 3.33896 -1.68995 69 75 99
16.4738 3.28868 -1.69212 70 72 95
16.4536 3.22864 -1.68867 65 71 91
16.4956 3.18039 -1.69214 68 73 97
16.4565 3.08917 -1.68611 61 65 87
16.4591 3.03371 -1.68526 68 72 96
16.5084 2.98648 -1.68959 73 73 101
16.6641 0.384121 -1.67601 72 74 95
16.6879 0.329944 -1.6784 70 74 95
16.6936 0.275314 -1.67883 72 74 95
16.6757 0.192989 -1.67668 68 77 94
16.679 0.138352 -1.67691 68 73 95
16.7 0.083814 -1.67908 69 71 94
16.6832 0.00169168 -1.67714 71 77 101
16.6879 -0.0529871 -1.67758 70 72 95
16.6864 -0.107662 -1.67737 70 76 100
16.6848 -0.162323 -1.67716 72 74 97
16.6926 -0.244423 -1.67804 67 72 92
16.6906 -0.299081 -1.67783 69 74 94
16.6884 -0.353723 -1.67762 71 78 96
16.8324 -5.35866 -1.63131 80 83 102
16.8031 -5.40938 -1.62989 86 88 109
16.7888 -5.46474 -1.63009 79 81 103
16.9272 -7.22172 -1.61704 102 108 123
16.8884 -7.30193 -1.61646 100 107 121
16.8607 -7.35452 -1.61588 103 106 118
16.3491 4.31088 -1.70398 80 86 108
16.344 4.25229 -1.70183 69 75 101
16.3646 4.17164 -1.70185 75 81 103
16.3746 4.11689 -1.70143 67 77 97
16.3747 4.05982 -1.69993 69 75 99
16.3727 4.00234 -1.69822 69 77 98
16.3979 3.92291 -1.69889 72 80 101
16.4012 3.8668 -1.69782 74 80 103
16.4083 3.81158 -1.69718 71 72 95
16.6973 -0.435957 -1.67871 74 77 96
16.6986 -0.490703 -1.67893 73 75 98
16.6899 -0.54516 -1.67807 72 79 98
16.7018 -0.627631 -1.6796 77 78 98
16.7006 -0.682327 -1.6796 79 79 97
16.717 -0.737745 -1.68156 77 79 101
16.7234 -0.792832 -1.68242 80 81 101
16.7183 -0.874863 -1.68222 79 84 103
16.763 -5.51644 -1.62908 78 82 102
16.7471 -5.60142 -1.63009 81 85 104
16.7417 -5.6597 -1.63129 80 85 105
16.8292 -7.40546 -1.61491 103 101 115
16.7932 -7.4867 -1.61472 106 106 124
16.2968 4.75823 -1.71143 74 77 102
16.2914 4.69877 -1.70906 71 77 103
16.3069 4.64518 -1.70908 71 77 101
16.3217 4.56261 -1.70824 71 77 99
16.3271 4.50637 -1.70717 70 76 98
16.3304 4.44965 -1.70589 70 76 100
16.3443 4.36708 -1.70505 71 78 97
16.746 -0.93114 -1.68547 80 82 103
16.7438 -0.985958 -1.68547 77 78 99
16.7398 -1.06817 -1.68549 76 79 98
16.7451 -1.12346 -1.68635 81 81 101
16.7383 -1.178 -1.68593 84 82 103
16.7413 -1.26072 -1.6868 80 77 98
16.7243 -1.31448 -1.68529 83 82 100
16.7288 -1.36982 -1.68616 83 80 103
16.7209 -5.71301 -1.63089 82 83 103
16.6947 -5.79471 -1.63089 82 86 104
16.6716 -5.84719 -1.63028 84 82 104
16.7704 -7.54129 -1.61471 103 105 125
16.7512 -7.59739 -1.61509 108 109 127
16.7135 -7.64544 -1.61354 114 119 136
16.231 5.14668 -1.71672 71 79 100
16.2402 5.09096 -1.71587 70 78 100
16.2534 5.00739 -1.7146 69 77 98
16.2698 4.9539 -1.71461 71 78 104
16.2727 4.89649 -1.71312 73 79 103
16.281 4.8118 -1.71141 70 78 99
16.7173 -1.42393 -1.6853 84 82 104
16.7191 -1.50664 -1.68617 89 86 106
16.7151 -1.56135 -1.68618 83 84 105
16.7169 -1.61658 -1.68683 82 85 104
16.7139 -1.69898 -1.68727 76 74 95
16.7132 -1.75405 -1.68771 82 81 99
16.7065 -1.80851 -1.68749 83 82 100
16.6466 -5.89894 -1.62947 80 85 105
16.6308 -5.98419 -1.63068 86 88 107
16.609 -6.03706 -1.63027 79 86 102
16.6673 -7.72204 -1.61239 92 90 111
16.6347 -7.77214 -1.61142 80 83 102
16.1299 5.52602 -1.71898 69 77 100
16.1678 5.44999 -1.72031 68 76 97
16.1743 5.39313 -1.71902 68 76 99
16.1957 5.34107 -1.71947 66 77 97
16.1961 5.28239 -1.71754 68 75 101
16.2159 5.20064 -1.71692 69 76 102
16.6809 -1.88857 -1.68555 82 80 98
16.6915 -1.94487 -1.68729 87 86 102
16.6743 -1.99812 -1.68599 80 79 96
16.6668 -2.05242 -1.68578 86 87 100
16.6578 -2.13417 -1.68579 79 77 97
16.6656 -2.19036 -1.6873 80 77 96
16.5871 -6.08984 -1.62986 83 90 106
16.565 -6.14254 -1.62946 78 80 101
16.5966 -7.81965 -1.60987 76 76 97
16.5605 -7.90054 -1.60987 73 76 95
16.5238 -7.94853 -1.60851 76 75 93
16.0712 5.83222 -1.72386 66 77 97
16.0752 5.77409 -1.72215 69 77 98
16.0809 5.71665 -1.72065 71 77 99
16.1178 5.64033 -1.72176 69 76 102
16.1362 5.58724 -1.72178 70 78 101
16.6358 -2.24183 -1.68471 82 81 96
16.6377 -2.32499 -1.68601 81 78 95
16.6331 -2.37966 -1.68623 82 80 94
16.6126 -2.43212 -1.68472 82 78 92
16.5293 -6.22074 -1.62865 85 88 107
16.4957 -6.26911 -1.62704 80 85 105
16.4712 -6.32077 -1.62643 79 77 104
16.0102 6.07927 -1.72681 68 75 101
16.0169 6.02179 -1.72531 68 75 101
16.0328 5.96766 -1.7249 68 79 101
16.0353 5.90888 -1.72297 68 76 99
16.6163 -2.57104 -1.68711 79 75 89
16.5776 -2.62064 -1.68365 79 78 92
16.5956 -2.67875 -1.68646 77 74 91
16.5542 -2.75545 -1.68322 77 75 90
16.5718 -2.81368 -1.68604 76 73 90
16.4366 -6.39914 -1.62582 78 83 102
16.408 -6.44915 -1.62481 76 84 103
16.3849 -6.50118 -1.62441 77 79 102
15.937 6.41314 -1.73232 68 77 98
15.943 6.35493 -1.73061 67 77 102
15.9698 6.27466 -1.7302 68 78 103
15.9772 6.21715 -1.72871 69 79 101
15.9918 6.16243 -1.72808 70 78 100
16.5363 -2.86332 -1.68301 74 71 89
16.5176 -2.94338 -1.68236 71 70 86
16.4935 -2.99466 -1.68063 72 72 88
16.477 -3.04719 -1.67977 71 71 91
16.4711 -3.12937 -1.68064 62 60 84
16.3402 -6.57545 -1.62279 76 82 101
16.3129 -6.62578 -1.62198 75 81 101
16.2892 -6.67746 -1.62158 73 78 98
15.8712 6.66064 -1.73569 68 74 100
15.8983 6.6105 -1.73636 69 78 99
15.8976 6.54933 -1.73378 67 78 96
15.9179 6.46634 -1.73252 65 72 98
16.4543 -3.18176 -1.67977 65 66 87
16.406 -3.22821 -1.67544 62 62 83
16.4246 -3.31501 -1.67913 60 65 85
16.3838 -3.36258 -1.67567 70 75 95
16.3681 -3.41496 -1.67502 77 84 103
16.269 -6.73052 -1.62157 77 79 102
16.2289 -6.80625 -1.62056 76 78 103
15.8071 6.90994 -1.73971 69 77 100
15.813 6.85094 -1.73779 69 78 100
15.8517 6.80557 -1.73975 67 78 100
15.8499 6.74354 -1.73696 68 79 101
15.6507 2.94358 -1.67899 75 76 96
15.6919 2.89742 -1.68262 65 72 93
15.688 2.84332 -1.68105 76 77 98
15.6883 2.76343 -1.67948 77 79 100
15.6957 2.71137 -1.67927 82 80 101
15.6873 2.65679 -1.67725 75 80 101
15.6729 2.57493 -1.6741 81 83 104
15.6915 2.52475 -1.67524 77 80 99
15.6825 2.47038 -1.67322 72 77 99
15.7027 2.42038 -1.67458 79 81 103
15.766 2.29686 -1.67959 65 72 91
15.6972 2.23459 -1.67078 69 74 97
15.7044 2.15646 -1.67035 65 71 94
15.7334 1.97563 -1.67084 70 68 96
15.7482 1.92469 -1.67175 68 70 91
15.749 1.87213 -1.67108 69 70 90
15.7398 1.81851 -1.66928 65 67 86
15.8042 1.74645 -1.67563 66 69 88
15.7335 1.68661 -1.66682 65 70 89
15.7414 1.63496 -1.66706 66 73 91
15.7296 1.50296 -1.66414 75 77 98
15.7568 1.45301 -1.66664 64 69 89
15.7702 1.37561 -1.66733 65 70 90
15.7702 1.27095 -1.66622 65 72 91
15.7828 1.21958 -1.66713 65 64 84
15.7733 1.14052 -1.66534 70 71 94
15.8113 1.09074 -1.66919 68 69 90
15.8194 1.0389 -1.66965 68 70 91
15.7932 0.958961 -1.66605 70 72 95
15.8246 0.908432 -1.66922 72 77 96
15.8381 0.856823 -1.67036 73 71 92
15.819 0.777517 -1.66766 67 68 89
15.8261 0.725584 -1.66812 68 70 91
15.8311 0.673556 -1.66835 68 70 91
15.828 0.621222 -1.66768 68 69 90
15.8355 0.543182 -1.66815 69 71 91
15.832 0.490876 -1.66748 67 72 91
15.862 0.439453 -1.67065 71 75 96
15.8765 0.361371 -1.67202 71 75 95
15.8725 0.309007 -1.67134 71 74 94
15.8583 0.256546 -1.66954 72 78 100
15.8621 0.178274 -1.66978 68 75 97
15.8674 0.126095 -1.67024 66 71 90
16.3407 -3.4649 -1.67307 74 80 102
16.325 -3.54498 -1.67307 76 82 101
16.303 -3.59588 -1.67177 74 81 100
16.2886 -3.64832 -1.67134 72 77 97
16.2064 -6.85837 -1.62036 75 80 101
16.1765 -6.90737 -1.61934 71 76 96
16.1319 -6.98101 -1.61793 74 76 99
15.7589 7.10531 -1.74332 68 79 99
15.7782 7.05175 -1.74291 69 76 102
15.781 6.99115 -1.74055 70 78 101
15.5881 3.54832 -1.68608 65 70 89
15.6096 3.49894 -1.68722 64 69 89
15.598 3.44257 -1.68452 63 68 90
15.6109 3.36455 -1.68409 66 68 91
15.6396 3.31655 -1.68613 70 72 93
15.6216 3.2592 -1.68276 68 65 91
15.6403 3.20917 -1.68367 68 73 93
15.6384 3.12845 -1.68166 75 77 98
15.6548 3.07795 -1.68235 70 72 97
15.632 3.02024 -1.67852 68 68 89
15.8645 0.0738497 -1.66979 70 75 98
15.8596 -0.00445049 -1.66913 72 78 100
15.8702 -0.0566905 -1.67026 69 77 96
15.8608 -0.108832 -1.66914 70 75 95
15.8691 -0.161109 -1.67005 71 76 98
15.871 -0.239454 -1.67029 72 75 96
15.8769 -0.29178 -1.67097 70 76 98
15.8648 -0.343743 -1.66962 68 73 95
15.8777 -0.422392 -1.67121 75 75 99
15.8831 -0.474793 -1.6719 74 74 100
15.8744 -0.526764 -1.671 76 76 100
16.2643 -3.72644 -1.67048 76 83 103
16.2534 -3.77959 -1.67048 74 80 102
16.219 -3.82746 -1.66788 74 79 101
16.2039 -3.87957 -1.66745 75 80 102
16.0687 -7.01579 -1.6133 79 84 104
16.0529 -7.07047 -1.6139 70 72 93
15.5266 4.10403 -1.69429 66 74 95
15.5344 4.05133 -1.69363 68 74 98
15.5424 3.97159 -1.69229 71 76 97
15.5556 3.92028 -1.69231 68 75 96
15.5628 3.86757 -1.69164 71 77 101
15.566 3.81396 -1.69053 69 74 96
15.569 3.73335 -1.68874 68 69 93
15.5718 3.6798 -1.68762 67 69 90
15.5898 3.62969 -1.68831 67 72 92
15.8706 -0.604991 -1.67078 74 76 99
15.8714 -0.65726 -1.67101 77 79 100
15.8939 -0.710499 -1.67373 80 84 103
15.9043 -0.763316 -1.67509 79 80 103
15.9053 -0.841942 -1.67555 81 79 100
15.8954 -0.893785 -1.67465 80 81 100
15.9053 -0.946726 -1.67601 80 82 100
15.9054 -1.02538 -1.67648 82 79 100
16.1709 -3.95535 -1.66572 74 80 102
16.1611 -4.00865 -1.66593 74 80 102
16.1377 -4.05866 -1.66463 76 83 102
16.1193 -4.13774 -1.66464 73 78 98
16.0076 -7.14337 -1.61249 78 82 101
15.9769 -7.19156 -1.61147 86 89 106
15.9496 -7.24121 -1.61086 89 92 109
15.4815 4.47636 -1.70051 71 77 99
15.4867 4.42263 -1.6994 71 75 102
15.5023 4.34437 -1.69875 71 77 103
15.4993 4.28865 -1.69673 72 79 102
15.5077 4.23597 -1.69606 70 78 101
15.5167 4.15622 -1.69473 71 79 99
15.897 -1.07726 -1.6758 80 82 102
15.9042 -1.13018 -1.67694 85 86 104
15.9035 -1.20886 -1.6774 80 81 99
15.9123 -1.26203 -1.67876 80 81 100
15.8992 -1.31351 -1.67763 87 88 108
15.8781 -1.36425 -1.6756 82 83 104
15.8822 -1.44336 -1.67674 87 84 104
16.0878 -4.18561 -1.66247 72 79 97
16.0677 -4.23623 -1.6616 72 78 100
16.0408 -4.31298 -1.66074 70 76 99
16.0049 -4.35938 -1.65814 70 76 96
15.9295 -7.29397 -1.61106 106 112 128
15.876 -7.36284 -1.60884 112 113 131
15.4127 4.84431 -1.70492 72 80 101
15.4361 4.76791 -1.70495 70 76 99
15.4441 4.7147 -1.70406 73 78 101
15.4348 4.65659 -1.70114 71 77 99
15.4649 4.58224 -1.70207 74 79 100
15.4704 4.52851 -1.70095 73 80 99
15.8942 -1.49698 -1.67855 87 86 104
15.8666 -1.54694 -1.67584 83 81 102
15.852 -1.62431 -1.67495 85 86 106
15.8733 -1.67901 -1.67789 91 92 112
15.8609 -1.7303 -1.67699 92 91 107
15.8534 -1.80842 -1.67699 83 84 101
15.8544 -1.86115 -1.67768 84 83 101
15.9958 -4.41268 -1.65857 72 77 97
15.9693 -4.46136 -1.65705 69 76 95
15.9452 -4.53855 -1.65662 71 78 97
15.8573 -7.41619 -1.60924 109 112 129
15.8276 -7.46455 -1.60843 102 105 121
15.3626 5.19227 -1.7116 68 76 98
15.3758 5.14029 -1.71116 68 76 97
15.3813 5.0859 -1.70982 70 76 102
15.3979 5.03507 -1.70984 70 76 100
15.4032 4.95295 -1.70761 69 80 100
15.4194 4.90205 -1.70762 70 78 101
15.8395 -1.91205 -1.67655 81 80 98
15.8264 -1.9631 -1.67564 77 75 96
15.808 -2.0398 -1.67452 75 76 97
15.8082 -2.09246 -1.6752 78 77 95
15.7808 -2.14151 -1.67272 78 75 94
15.9279 -4.58959 -1.65619 70 76 98
15.9028 -4.63842 -1.65489 72 77 97
15.8778 -4.71524 -1.65446 73 78 100
15.7805 -7.53603 -1.60702 101 103 118
15.7666 -7.59163 -1.60801 101 103 118
15.3006 5.45362 -1.71445 70 78 100
15.3174 5.37458 -1.71335 69 77 101
15.3369 5.32455 -1.71359 68 76 99
15.3448 5.27079 -1.71248 68 76 99
15.791 -2.22188 -1.67499 82 81 99
15.7789 -2.27289 -1.67431 82 79 96
15.7764 -2.32524 -1.67476 82 80 93
15.776 -2.40435 -1.6759 80 78 92
15.777 -2.4573 -1.67681 79 75 89
15.7564 -2.50696 -1.67523 85 79 95
15.8618 -4.76656 -1.65424 74 82 101
15.8286 -4.81284 -1.65207 74 79 99
15.799 -4.88812 -1.65121 74 79 99
15.7768 -4.93746 -1.65034 74 81 100
15.2059 5.73287 -1.71504 64 75 98
15.2283 5.6839 -1.71551 66 77 97
15.2506 5.63484 -1.71597 68 79 99
15.2664 5.55528 -1.71465 69 76 102
15.2808 5.50351 -1.71421 69 77 100
15.7316 -2.55589 -1.67319 80 76 91
15.7222 -2.63363 -1.67342 78 74 90
15.7108 -2.68457 -1.67297 79 75 92
15.7149 -2.73809 -1.67433 73 70 87
15.7602 -4.98842 -1.65012 74 79 101
15.7298 -5.06328 -1.64925 73 77 98
15.69 -5.10699 -1.64644 73 80 99
15.1538 5.97099 -1.71903 69 79 103
15.1676 5.91879 -1.71836 70 82 102
15.1776 5.8652 -1.71725 70 78 102
15.1966 5.81498 -1.71727 70 77 103
15.6909 -2.81339 -1.67298 75 72 91
15.6712 -2.86279 -1.67162 73 70 91
15.6551 -2.9128 -1.67072 74 71 90
15.6323 -2.98802 -1.6696 69 67 88
15.614 -3.03747 -1.66847 67 67 88
15.6823 -5.16063 -1.6473 75 81 103
15.665 -5.21126 -1.64708 75 81 102
15.6373 -5.28677 -1.64665 78 83 104
15.0958 6.23671 -1.7239 66 73 100
15.1054 6.15388 -1.72145 69 77 101
15.1235 6.10318 -1.72124 71 79 102
15.1303 6.04821 -1.71967 72 80 101
15.615 -3.09056 -1.6696 63 61 82
15.6002 -3.14064 -1.66892 65 63 84
15.555 -3.21117 -1.66531 69 74 93
15.5204 -3.25707 -1.66237 78 80 101
15.5245 -3.31079 -1.66395 72 78 98
15.6215 -5.33784 -1.64664 72 78 97
15.6093 -5.39011 -1.64707 75 81 97
15.5771 -5.46404 -1.64621 82 85 102
15.0554 6.42372 -1.72768 67 77 100
15.0659 6.34086 -1.72522 65 75 102
15.0809 6.2888 -1.72456 64 74 99
15.498 -3.38469 -1.6626 71 77 99
15.4862 -3.43511 -1.66237 73 78 100
15.4607 -3.48253 -1.66056 70 76 98
15.4469 -3.55901 -1.66079 72 79 98
15.5607 -5.51492 -1.6462 82 85 101
15.5441 -5.56574 -1.6462 79 81 101
14.9857 6.65799 -1.73075 66 78 101
15.0121 6.58123 -1.73011 65 76 98
15.0224 6.527 -1.72877 66 77 99
15.0399 6.47576 -1.72834 68 76 97
15.4211 -3.60617 -1.65898 70 78 97
15.4066 -3.65586 -1.65853 72 79 98
15.3863 -3.73073 -1.65808 74 82 100
15.3676 -3.77935 -1.65717 73 82 99
15.5074 -5.63795 -1.6449 82 83 104
15.4961 -5.69058 -1.64554 87 88 106
15.4677 -5.7372 -1.64424 74 79 97
14.9676 6.70911 -1.73119 68 76 97
15.3565 -3.82975 -1.65717 74 82 102
15.3337 -3.87728 -1.65582 74 83 101
15.3161 -3.95269 -1.65582 71 77 99
15.4393 -5.7837 -1.64294 79 84 102
15.4333 -5.86678 -1.64532 79 84 103
15.3988 -5.91101 -1.64336 78 83 100
15.293 -4 -1.65446 74 81 100
15.2831 -4.05063 -1.65469 72 80 99
15.2552 -4.12328 -1.65356 74 79 99
15.2488 -4.17481 -1.65423 74 78 98
15.3829 -5.96199 -1.64358 80 85 104
15.3629 -6.04012 -1.64444 89 90 110
15.2288 -4.22276 -1.65333 74 79 101
15.2086 -4.27061 -1.65242 71 80 97
15.1758 -4.34169 -1.65084 71 75 100
15.3355 -6.08676 -1.64335 86 89 108
15.3171 -6.13684 -1.64335 85 91 107
15.2871 -6.21113 -1.64313 84 87 106
14.7792 1.66526 -1.68153 68 72 97
14.7852 1.61651 -1.68154 72 72 96
14.7914 1.54315 -1.68132 70 73 93
14.8207 1.49669 -1.68422 70 71 91
14.8143 1.44668 -1.68278 68 72 93
14.8198 1.37323 -1.68256 70 77 95
14.8376 1.27614 -1.68354 70 72 93
14.8423 1.20261 -1.68331 72 74 96
14.8567 1.15443 -1.68452 69 71 94
14.8591 1.10532 -1.68429 67 70 92
14.8692 1.05675 -1.68502 71 73 94
15.1611 -4.39091 -1.65061 71 77 98
15.1366 -4.43737 -1.64925 71 77 99
15.1126 -4.51069 -1.6488 70 80 98
15.2499 -6.25379 -1.64096 86 87 105
15.2126 -6.29628 -1.63879 82 87 106
15.2009 -6.34891 -1.63965 87 92 113
14.7558 2.28246 -1.68913 76 78 101
14.7616 2.18362 -1.68794 71 75 95
14.7411 2.1062 -1.6841 72 77 99
14.7425 2.05675 -1.68339 82 88 105
14.7792 2.01198 -1.68701 70 79 96
14.7716 1.93658 -1.68486 77 84 108
14.7666 1.88637 -1.68342 78 80 99
14.7851 1.83907 -1.68488 73 78 98
14.7826 1.76453 -1.68345 76 78 101
14.779 1.71466 -1.68225 77 80 101
14.8629 0.982473 -1.68359 67 69 90
14.8648 0.933363 -1.68335 69 71 92
14.8645 0.884148 -1.68288 69 71 92
14.8851 0.81152 -1.68482 68 70 93
14.8904 0.762579 -1.68507 65 67 92
14.9093 0.714276 -1.68701 65 70 92
14.8876 0.639487 -1.68389 68 68 92
14.9002 0.590838 -1.6851 63 67 89
14.9183 -0.0229588 -1.68494 68 70 95
14.915 -0.0720539 -1.68447 72 74 99
15.0897 -4.55746 -1.64767 73 75 100
15.0667 -4.60412 -1.64654 71 76 98
15.0476 -4.67876 -1.64676 69 76 95
15.1718 -6.42334 -1.63965 80 86 105
15.1487 -6.47138 -1.63921 84 89 108
14.6859 3.25105 -1.70289 67 72 92
14.7126 2.97768 -1.6991 78 84 100
15.0242 -4.72521 -1.64563 70 75 99
14.9931 -4.76923 -1.64359 72 78 99
14.9752 -4.8172 -1.64314 72 78 100
15.1236 -6.51858 -1.63856 80 85 105
15.079 -6.5865 -1.63682 80 89 106
14.6284 3.64641 -1.70713 66 70 91
14.6367 3.59713 -1.70666 66 71 93
14.6372 3.54605 -1.70523 67 72 90
14.6413 3.49587 -1.70428 67 68 89
14.6565 3.42283 -1.70406 67 68 89
14.6602 3.37267 -1.7031 67 69 90
14.6793 3.32589 -1.70408 67 72 90
14.9456 -4.88842 -1.64224 69 74 95
14.9216 -4.9344 -1.6411 74 76 97
14.9012 -4.98149 -1.64042 75 79 101
15.0572 -6.63497 -1.6366 83 91 110
15.0335 -6.68259 -1.63616 78 85 104
14.5723 3.99253 -1.71114 70 74 101
14.5722 3.94083 -1.70946 67 75 96
14.5853 3.89263 -1.70948 70 75 97
14.5927 3.81736 -1.70805 70 72 95
14.5939 3.76623 -1.70662 61 68 87
14.618 3.72078 -1.70808 70 73 93
14.8785 -5.05473 -1.64042 74 81 100
14.854 -5.10038 -1.63929 74 82 101
14.8294 -5.14593 -1.63815 73 81 102
14.9882 -6.74991 -1.63443 79 86 102
14.9769 -6.80282 -1.6355 78 85 104
14.9417 -6.84535 -1.63376 79 86 104
14.5047 4.33704 -1.71466 71 77 98
14.519 4.28903 -1.71467 69 75 99
14.5379 4.21641 -1.71445 69 77 97
14.5385 4.16463 -1.71278 69 77 100
14.5447 4.11443 -1.71183 68 76 99
14.5698 4.06938 -1.71329 69 76 100
14.8021 -5.21754 -1.6377 79 82 99
14.7903 -5.26734 -1.63815 82 87 104
14.7614 -5.31127 -1.63656 80 85 104
14.9138 -6.89093 -1.63289 80 87 106
14.8911 -6.96801 -1.63397 79 82 101
14.4485 4.6341 -1.71867 71 79 102
14.4766 4.56402 -1.71941 70 76 101
14.4898 4.51552 -1.71919 71 79 100
14.4799 4.46026 -1.71607 71 79 102
14.5092 4.39053 -1.71705 68 72 97
14.3758 1.84242 -1.68028 61 60 83
14.3331 1.78903 -1.67412 73 78 100
14.3441 1.71798 -1.67438 71 69 95
14.3482 1.67023 -1.67414 69 71 94
14.3739 1.62475 -1.67662 71 72 95
14.392 1.5543 -1.67787 71 73 96
14.4036 1.50719 -1.67862 69 72 92
14.409 1.45947 -1.67863 69 71 91
14.3968 1.38609 -1.67618 71 72 93
14.4216 1.3401 -1.67865 69 71 92
14.4305 1.29266 -1.67915 67 72 93
14.4333 1.22065 -1.67868 67 69 92
14.4418 1.17315 -1.67918 68 72 92
14.4224 1.1236 -1.67622 64 65 86
14.4267 1.07584 -1.67623 77 83 105
14.4363 1.00442 -1.67674 74 73 101
14.4283 0.955893 -1.67526 70 71 92
14.436 0.908341 -1.67576 69 72 89
14.4409 0.836643 -1.67578 68 74 90
14.4562 0.789429 -1.67727 67 70 87
14.4891 0.742958 -1.68098 68 70 91
14.4833 0.670599 -1.67976 68 71 88
14.739 -5.38447 -1.63679 81 86 105
14.7135 -5.42946 -1.63565 80 84 103
14.6973 -5.47768 -1.63565 76 75 97
14.8609 -7.01255 -1.63288 79 82 99
14.827 -7.05532 -1.63136 98 103 122
14.4187 4.91486 -1.72582 68 76 99
14.4273 4.86466 -1.72487 70 77 101
14.432 4.81325 -1.72343 70 79 101
14.4439 4.73796 -1.72201 71 79 100
14.4614 4.69071 -1.72227 70 81 101
14.3203 2.66241 -1.68973 80 80 102
14.3157 2.61257 -1.68801 80 82 103
14.2933 2.55983 -1.68407 72 74 95
14.3177 2.49061 -1.68557 68 76 97
14.3164 2.44156 -1.68435 76 83 102
14.3327 2.39531 -1.68535 72 72 96
14.337 2.34719 -1.68486 77 77 101
14.3467 2.27557 -1.68463 62 67 86
14.3231 2.22343 -1.6807 65 67 88
14.3583 2.17985 -1.68416 67 65 87
14.3574 2.10682 -1.6827 65 63 87
14.3589 2.05843 -1.68197 70 67 91
14.3542 2.00929 -1.68049 64 65 85
14.3545 1.93665 -1.67928 73 75 96
14.375 1.89077 -1.68101 67 72 93
14.4981 0.623128 -1.68124 65 72 88
14.5067 0.57536 -1.68199 69 71 94
14.4954 0.526889 -1.68027 71 76 97
14.5024 0.455046 -1.68078 72 75 98
14.5006 0.406949 -1.68029 72 74 98
14.5126 0.359185 -1.68153 69 75 97
14.4911 0.286741 -1.67858 66 72 98
14.5026 0.238933 -1.67982 72 77 99
14.5021 0.190929 -1.67958 76 76 100
14.5037 0.118947 -1.67959 72 72 96
14.4968 0.0709415 -1.67861 72 75 92
14.4899 0.0229845 -1.67763 71 76 95
14.5046 -0.0249937 -1.67936 70 74 94
14.4991 -0.0969166 -1.67863 73 78 100
14.4976 -0.14485 -1.67839 70 77 96
14.5217 -0.193143 -1.68136 74 76 99
14.6771 -5.52449 -1.63519 83 88 103
14.6481 -5.59525 -1.63474 82 85 100
14.3577 5.1337 -1.72743 69 75 99
14.3802 5.08802 -1.72817 69 77 98
14.3893 5.03784 -1.72722 70 78 98
14.4194 4.96816 -1.72797 67 78 98
14.2503 3.16634 -1.6938 70 74 95
14.2745 3.12183 -1.69554 69 69 95
14.2937 3.05154 -1.69605 67 70 90
14.3118 3.00565 -1.69705 77 79 100
14.2947 2.95288 -1.69361 70 72 93
14.2813 2.90098 -1.69066 71 73 94
14.3112 2.8328 -1.69265 76 76 100
14.2837 2.77855 -1.68797 78 81 100
14.3048 2.73326 -1.68946 78 79 100
14.4857 -0.2645 -1.67693 76 74 96
14.4936 -0.312577 -1.67792 71 72 93
14.5171 -0.361102 -1.68088 78 76 100
14.5161 -0.43309 -1.6809 72 72 98
14.4917 -0.480304 -1.67794 76 74 95
14.5087 -0.528857 -1.68016 75 77 100
14.4999 -0.576501 -1.67918 75 76 97
14.5077 -0.648824 -1.68043 83 85 106
14.5104 -0.696965 -1.68092 76 81 100
14.5287 -0.745915 -1.6834 72 74 95
14.6351 -5.64464 -1.63519 80 83 100
14.6126 -5.69051 -1.6345 84 87 106
14.5865 -5.76231 -1.6345 84 89 109
14.3037 5.38226 -1.73145 65 76 98
14.3316 5.31176 -1.73172 67 74 100
14.349 5.26425 -1.73173 68 76 99
14.3531 5.21214 -1.73006 66 76 99
14.1756 3.59697 -1.69714 62 73 90
14.2223 3.55806 -1.7016 65 71 91
14.2284 3.50949 -1.70087 66 72 90
14.2421 3.46269 -1.70113 66 73 90
14.2493 3.38959 -1.69992 69 74 94
14.2568 3.34143 -1.69943 71 78 96
14.2505 3.29033 -1.69722 70 72 93
14.2666 3.21937 -1.69725 73 75 96
14.514 -0.817271 -1.68193 78 81 99
14.5003 -0.864541 -1.68045 78 79 97
14.4884 -0.911841 -1.67922 81 78 99
14.5046 -0.984949 -1.6817 77 78 97
14.5102 -1.03341 -1.68269 74 75 95
14.5017 -1.08093 -1.68195 81 82 100
14.5171 -1.1543 -1.68443 83 82 100
