-4.76337 2.80698 -1.81722 89 85 99
-4.41514 3.40921 -1.83347 97 95 106
-4.40063 3.42699 -1.835 95 93 106
-4.39021 3.43836 -1.83575 80 76 91
-4.11479 3.80904 -1.82635 102 100 114
-4.10641 3.82404 -1.82939 102 99 116
-3.93068 4.13471 -1.83776 103 100 117
-3.90967 4.13246 -1.8325 104 101 118
-3.70312 4.40863 -1.82752 102 99 116
-3.63005 4.55232 -1.83577 104 102 116
-3.46514 4.84529 -1.84501 103 101 115
-3.27279 5.11536 -1.84304 107 103 117
-3.05693 5.43931 -1.84605 109 103 115
-2.94396 5.63818 -1.85163 111 104 119
-2.83916 5.791 -1.84918 113 106 116
-2.81869 5.79097 -1.84725 113 106 115
-2.55462 6.26545 -1.86063 121 110 116
-2.3852 6.5656 -1.8705 123 113 114
-6.4596 0.2532 -1.80523 100 99 117
-6.37676 0.398736 -1.81186 96 97 115
-6.38142 0.423075 -1.81477 94 93 109
-5.77584 1.27636 -1.81215 89 87 101
-5.78197 1.33187 -1.82222 80 74 88
-5.3881 1.79928 -1.80409 88 88 100
-5.38843 1.83109 -1.81045 99 97 110
-5.36562 1.84429 -1.804 92 90 103
-5.35734 1.85633 -1.80318 94 93 107
-5.35399 1.87068 -1.80475 86 85 99
-4.7836 2.84229 -1.83402 87 85 98
-4.75964 2.84187 -1.82598 85 83 96
-4.73831 2.85267 -1.82194 88 84 95
-4.72004 2.85668 -1.8171 87 83 97
-4.72853 2.8829 -1.82749 88 84 98
-4.68875 2.89731 -1.81862 88 84 98
-4.36974 3.43892 -1.83026 83 76 92
-4.35632 3.45788 -1.83257 85 81 98
-4.34703 3.47049 -1.8341 98 94 111
-4.09467 3.83458 -1.83013 101 98 115
-4.07632 3.83615 -1.82627 103 100 117
-3.89543 4.15449 -1.83695 103 100 119
-3.68756 4.41498 -1.82676 103 100 117
-3.66507 4.42521 -1.82599 104 101 118
-3.6122 4.55516 -1.83359 102 100 114
-3.44991 4.85432 -1.84568 104 102 116
-3.24558 5.12031 -1.84097 107 103 118
-3.03968 5.44705 -1.84668 112 106 118
-2.9237 5.63843 -1.84967 110 104 118
-2.68162 6.04765 -1.86061 118 108 116
-2.5281 6.28907 -1.86599 120 109 115
-2.35114 6.56053 -1.867 123 113 112
-6.46489 0.237403 -1.8067 93 92 110
-6.37509 0.382642 -1.81042 94 97 114
-5.78388 1.24046 -1.81065 90 88 102
-5.79839 1.26734 -1.81999 87 85 99
-5.79397 1.29688 -1.82228 89 87 101
-5.82262 1.3206 -1.8371 87 84 101
-5.42144 1.74327 -1.80661 92 88 101
-5.42389 1.77581 -1.81377 96 92 106
-5.3979 1.78787 -1.80572 94 91 102
-5.39499 1.81818 -1.81048 101 100 113
-4.71688 2.90175 -1.82906 87 83 98
-4.69415 2.92127 -1.8274 83 80 94
-4.68135 2.92978 -1.82577 90 88 101
-4.6556 2.93646 -1.81933 86 81 96
-4.64692 2.94844 -1.8201 90 83 99
-4.63131 2.95436 -1.81687 89 84 99
-4.62339 2.97649 -1.82084 85 81 96
-4.58934 2.9856 -1.81278 84 81 92
-4.33895 3.48445 -1.83641 94 90 107
-4.32092 3.48747 -1.83249 89 85 102
-4.06282 3.85705 -1.83006 104 103 118
-4.04988 3.86597 -1.83003 103 101 115
-3.88661 4.17072 -1.84065 105 102 119
-3.87164 4.1776 -1.83988 103 100 116
-3.64948 4.43143 -1.82523 105 103 119
-3.60058 4.56942 -1.83644 105 103 117
-3.43544 4.865 -1.84705 106 104 117
-3.41857 4.87056 -1.84633 111 105 119
-3.22716 5.12353 -1.83958 107 103 118
-3.01394 5.42976 -1.83809 112 106 118
-2.90631 5.64762 -1.85093 110 104 118
-2.79441 5.81171 -1.85164 115 105 113
-2.66077 6.0489 -1.85935 118 108 116
-2.50463 6.28059 -1.86177 119 110 115
-2.32897 6.5608 -1.86581 123 114 109
-6.46264 0.197282 -1.80459 95 94 112
-6.4649 0.213377 -1.80601 96 95 113
-6.38138 0.343324 -1.81122 90 92 107
-6.39371 0.36818 -1.81706 98 99 117
-5.80511 1.19287 -1.81308 91 89 103
-5.79503 1.21296 -1.81148 93 91 105
-5.79568 1.2284 -1.8138 91 91 103
-5.46139 1.70547 -1.81552 148 122 99
-5.4473 1.73093 -1.81467 75 66 58
-5.43193 1.76353 -1.8146 96 90 104
-4.61458 2.98839 -1.82162 85 81 95
-4.58527 3.0113 -1.81915 88 85 96
-4.30474 3.50352 -1.83323 90 86 101
-4.30139 3.52291 -1.83866 97 93 107
-4.2882 3.53126 -1.83786 101 96 108
-4.03906 3.87785 -1.83154 104 100 114
-4.01458 3.88359 -1.82767 102 100 113
-3.85009 4.18861 -1.83909 102 101 117
-3.83309 4.19224 -1.83683 103 100 117
-3.63657 4.44248 -1.82667 105 102 117
-3.60951 4.44432 -1.82224 104 101 118
-3.57903 4.58255 -1.83712 106 103 118
-3.56202 4.58685 -1.83566 109 107 121
-3.39168 4.87454 -1.84349 110 108 121
-3.21595 5.14404 -1.84499 105 101 115
-3.1932 5.13675 -1.83953 108 104 118
-2.98818 5.44027 -1.83871 110 104 117
-2.87603 5.64688 -1.84767 114 106 118
-2.77082 5.8006 -1.84592 113 106 113
-2.64041 6.05193 -1.85871 119 109 117
-2.30827 6.56852 -1.86694 123 114 108
-6.46403 0.181322 -1.80462 97 96 114
-6.36842 0.326475 -1.80537 93 92 107
-5.80527 1.1625 -1.80923 97 96 110
-5.80075 1.17652 -1.8092 89 87 101
-5.48583 1.63772 -1.81324 138 118 92
-5.47724 1.65745 -1.8132 143 117 92
-5.46441 1.66782 -1.80997 150 129 102
-5.46173 1.68232 -1.81155 137 118 93
-4.59665 3.04163 -1.83194 84 82 96
-4.5849 3.051 -1.83111 87 83 97
-4.57503 3.07184 -1.83428 86 82 96
-4.25846 3.53194 -1.83002 102 98 112
-4.26217 3.55962 -1.84013 92 88 103
-4.0069 3.89991 -1.83147 102 101 117
-3.9885 3.90111 -1.82762 103 100 117
-3.82204 4.20521 -1.83904 102 99 116
-3.8011 4.20246 -1.83379 103 100 117
-3.59653 4.45527 -1.82368 103 101 115
-3.54761 4.59605 -1.83635 107 105 119
-3.53061 4.60026 -1.83489 105 103 117
-3.37633 4.88336 -1.84417 108 106 119
-3.35711 4.88362 -1.84134 110 106 121
-2.97386 5.45676 -1.84263 110 104 118
-2.8614 5.66496 -1.85215 115 108 115
-2.75447 5.81491 -1.84906 115 108 116
-2.62145 6.06041 -1.85991 120 110 118
-2.48738 6.29993 -1.86653 119 110 115
-6.46692 0.141421 -1.80468 102 101 119
-6.47469 0.165625 -1.80825 95 94 112
-6.37798 0.287442 -1.80763 93 92 106
-5.83295 1.14681 -1.81864 91 90 104
-5.49871 1.51979 -1.7982 93 90 105
-5.50442 1.54471 -1.80458 93 87 102
-5.50497 1.57568 -1.81014 149 127 111
-5.50693 1.59946 -1.81492 144 120 98
-5.50619 1.61469 -1.8173 142 125 110
-5.49005 1.62387 -1.81246 141 123 103
-4.56053 3.07864 -1.83185 87 83 97
-4.54868 3.08789 -1.83102 88 84 98
-4.5448 3.10465 -1.835 84 80 95
-4.52931 3.12033 -1.83496 88 81 97
-4.24887 3.56785 -1.83933 95 93 106
-4.2239 3.57382 -1.83461 92 88 102
-4.21177 3.58333 -1.83458 89 85 100
-3.9682 3.91263 -1.82682 105 102 119
-3.95929 3.92735 -1.82985 103 100 117
-3.78432 4.22101 -1.83673 103 101 115
-3.58263 4.46455 -1.82439 102 100 114
-3.50802 4.61142 -1.83485 106 104 118
-3.1716 5.15523 -1.84289 108 104 118
-2.95712 5.46605 -1.84393 110 104 118
-2.84168 5.66674 -1.85084 114 107 114
-2.72391 5.8135 -1.84585 114 107 115
-2.45249 6.28604 -1.85991 119 108 116
-2.27361 6.55932 -1.86228 123 112 110
-6.47186 0.125531 -1.80615 99 97 113
-5.85675 1.09948 -1.82263 93 92 106
-5.84709 1.11987 -1.82103 92 89 106
-5.84807 1.13534 -1.82335 90 89 103
-5.52187 1.49775 -1.80387 88 88 104
-5.51632 1.511 -1.80384 92 88 103
-5.13815 2.03146 -1.80009 85 83 97
-5.00642 2.27143 -1.80698 85 83 97
-5.0109 2.2907 -1.81352 74 69 88
-4.98679 2.30062 -1.80692 74 66 84
-4.97727 2.3529 -1.81667 109 101 114
-4.97211 2.36647 -1.81829 146 141 148
-4.5266 3.13836 -1.83974 88 84 98
-4.50535 3.13859 -1.83331 89 85 99
-4.49627 3.16049 -1.83727 92 88 102
-4.47895 3.1644 -1.83324 93 89 103
-4.44731 3.15408 -1.82041 90 86 100
-4.43548 3.1732 -1.82277 93 91 105
-4.19366 3.58577 -1.83066 84 80 95
-4.18642 3.6126 -1.83764 91 87 101
-3.94716 3.93749 -1.83059 101 100 115
-3.92464 3.94576 -1.82825 104 102 117
-3.778 4.24177 -1.84268 103 100 117
-3.75802 4.24039 -1.83818 103 100 117
-3.56256 4.47921 -1.82581 108 104 121
-3.54596 4.48346 -1.82432 105 102 119
-3.49182 4.61715 -1.8341 105 103 117
-3.33862 4.90608 -1.8462 109 105 120
-3.15243 5.15648 -1.84083 108 103 117
-3.13397 5.1594 -1.83944 106 101 115
-2.92887 5.46914 -1.84191 112 106 118
-2.8214 5.66666 -1.84888 112 107 114
-2.70644 5.82404 -1.84773 116 106 114
-2.59102 6.06382 -1.85864 118 108 116
-2.43431 6.30152 -1.86347 120 109 115
-6.4749 0.109587 -1.80689 101 97 114
-6.38683 0.256201 -1.80989 90 89 107
-5.54892 1.46944 -1.81034 146 147 153
-5.57751 1.58775 -1.84144 95 83 79
-5.18483 1.9611 -1.8027 88 86 99
-5.17575 1.9957 -1.80674 89 87 100
-5.17513 2.0112 -1.81 88 88 100
-5.168 2.03113 -1.8116 91 89 102
-5.1648 2.06137 -1.81729 79 75 90
-5.13653 2.06241 -1.8066 83 80 91
-5.13235 2.08395 -1.80985 97 91 105
-5.13939 2.10381 -1.81721 106 100 105
-5.13193 2.11588 -1.81718 113 105 106
-5.12746 2.13748 -1.82043 108 100 111
-5.10715 2.14245 -1.81384 97 89 103
-5.09479 2.15176 -1.81135 99 92 109
-5.09329 2.17506 -1.81624 104 99 115
-5.09037 2.18971 -1.81867 103 100 115
-5.07947 2.19984 -1.817 102 99 115
-5.07768 2.22318 -1.82189 89 87 107
-5.06198 2.23049 -1.81776 88 86 108
-5.05412 2.24235 -1.81773 84 82 101
-5.03628 2.27283 -1.81849 89 90 108
-5.00197 2.32664 -1.8192 72 64 82
-4.97151 2.38298 -1.82236 136 131 136
-4.96093 2.40136 -1.82315 135 130 137
-4.94947 2.41094 -1.82148 140 135 142
-4.9441 2.42448 -1.82309 143 140 149
-4.93411 2.435 -1.82225 134 132 143
-4.92326 2.45324 -1.82303 138 135 145
-4.91318 2.46369 -1.82219 143 138 149
-4.90308 2.4741 -1.82134 140 137 148
-4.88751 2.48915 -1.81966 143 141 152
-4.87733 2.49948 -1.81882 153 153 165
-4.87014 2.51184 -1.81961 91 93 105
-4.85142 2.52462 -1.81629 88 89 101
-4.84412 2.53692 -1.81709 89 86 99
-4.8219 2.53869 -1.80968 95 89 103
-4.82537 2.56708 -1.81866 90 88 99
-4.81646 2.57826 -1.81864 90 88 99
-4.80456 2.58727 -1.81697 87 85 98
-4.78083 2.58766 -1.80875 87 83 97
-4.75548 2.63057 -1.81194 89 85 99
-4.44409 3.20279 -1.83476 88 86 99
-4.41383 3.19345 -1.82272 84 82 96
-4.38379 3.19417 -1.81388 90 88 102
-4.17064 3.61775 -1.83528 89 87 100
-4.15955 3.62852 -1.83603 94 92 106
-3.91658 3.96193 -1.83205 104 101 118
-3.73428 4.24769 -1.8359 100 98 112
-3.53195 4.49259 -1.82503 105 102 119
-3.47646 4.62449 -1.83408 105 104 118
-3.32164 4.91133 -1.84548 107 103 118
-3.30617 4.91995 -1.84615 107 103 118
-2.90805 5.46573 -1.83859 113 107 119
-2.68697 5.82723 -1.84707 116 108 115
-2.56974 6.06294 -1.85677 118 108 116
-2.41099 6.29272 -1.85926 120 109 115
-5.56835 1.44574 -1.8144 141 139 147
-5.56817 1.46094 -1.81678 138 137 143
-5.24519 1.8814 -1.80944 84 82 97
-5.2319 1.91388 -1.81102 90 90 100
-5.20536 1.91667 -1.80115 83 83 94
-5.21999 1.9471 -1.81342 87 84 101
-5.2065 1.95616 -1.81011 90 88 102
-5.19748 1.99089 -1.81415 89 87 101
-5.04643 2.3711 -1.84706 72 63 80
-4.79271 2.62258 -1.82265 89 85 99
-4.77483 2.62716 -1.8177 87 83 97
-4.7553 2.65688 -1.81928 89 86 97
-4.73157 2.65685 -1.81106 89 86 97
-4.73252 2.67549 -1.81677 91 88 97
-4.70827 2.7016 -1.81589 88 84 98
-4.67664 2.72188 -1.81091 90 89 97
-4.38572 3.21726 -1.82186 94 92 105
-4.36839 3.22067 -1.81783 94 92 106
-4.36126 3.23457 -1.8202 93 91 105
-4.34641 3.25076 -1.82097 103 101 115
-4.14957 3.64069 -1.83756 96 94 108
-4.13377 3.65748 -1.83908 100 97 111
-4.11443 3.65812 -1.83438 100 96 111
-3.90227 3.96888 -1.83126 102 99 116
-3.8859 3.97271 -1.82894 104 101 117
-3.72295 4.26044 -1.83811 102 100 114
-3.70397 4.26042 -1.83435 104 102 116
-3.51256 4.50869 -1.82718 105 103 117
-3.49593 4.51278 -1.8257 105 102 118
-3.45627 4.64041 -1.83619 106 104 118
-3.44083 4.64765 -1.83617 106 104 118
-3.28291 4.93195 -1.84681 107 103 118
-3.1101 5.17241 -1.84076 109 103 117
-3.09297 5.17869 -1.84074 108 102 116
-2.89181 5.47663 -1.84054 112 104 119
-2.79604 5.6818 -1.85142 112 106 116
-2.55205 6.07676 -1.85982 118 108 116
-5.5899 1.39993 -1.8161 131 128 137
-5.59509 1.41689 -1.82088 136 132 139
-5.595 1.43214 -1.82326 139 136 145
-5.28291 1.81377 -1.8104 94 92 103
-5.27636 1.82625 -1.81038 111 108 119
-5.27351 1.84798 -1.81362 113 110 121
-5.26851 1.8612 -1.81442 111 108 120
-5.2552 1.87056 -1.81111 93 90 103
-5.24859 1.90624 -1.81597 85 87 100
-5.09341 2.02056 -1.79777 95 94 102
-5.06849 2.06212 -1.79768 113 107 121
-5.06173 2.09023 -1.80178 104 102 111
-5.01438 2.19934 -1.80986 130 126 138
-5.00974 2.2129 -1.8115 116 115 124
-5.0004 2.22362 -1.81064 128 128 138
-4.98482 2.23051 -1.80647 74 75 90
-4.89213 2.3866 -1.81195 133 128 134
-4.73202 2.70186 -1.82411 87 83 97
-4.72049 2.72926 -1.82816 88 86 97
-4.68868 2.74962 -1.82318 91 88 99
-4.66065 2.74562 -1.81249 89 86 97
-4.67535 2.77573 -1.8264 92 89 100
-4.63872 2.77346 -1.81325 89 87 100
-4.33283 3.25798 -1.81934 96 92 109
-4.30675 3.28384 -1.82008 97 93 107
-4.11355 3.68168 -1.84215 90 88 101
-3.87142 3.99301 -1.83273 104 102 116
-3.85298 3.99363 -1.82887 102 99 116
-3.68961 4.28342 -1.83954 104 102 116
-3.48096 4.52011 -1.82567 105 103 117
-3.42537 4.65484 -1.83614 109 107 121
-3.26661 4.93874 -1.84679 107 103 117
-3.06432 5.15514 -1.82917 111 105 119
-2.77631 5.68337 -1.8501 113 108 115
-2.65791 5.83097 -1.84576 118 108 116
-2.52203 6.0817 -1.85917 116 109 116
-2.39388 6.31368 -1.86462 121 110 116
-5.59654 1.29673 -1.80343 90 88 102
-5.61445 1.355 -1.81939 138 132 139
-5.60414 1.36681 -1.81696 133 130 137
-5.60075 1.38087 -1.81773 138 135 141
-5.32513 1.72522 -1.80976 88 80 75
-5.31887 1.73782 -1.80973 87 84 95
-5.30814 1.75595 -1.80887 90 85 99
-5.30678 1.77069 -1.81131 88 86 99
-5.30704 1.78618 -1.81457 88 85 96
-5.29442 1.80351 -1.81289 86 84 95
-5.13779 1.97352 -1.80452 84 81 98
-5.13329 2.00268 -1.80945 86 83 100
-5.12298 2.02071 -1.80941 100 96 110
-5.10218 2.04118 -1.80604 111 109 112
-5.08697 2.04872 -1.80187 116 111 118
-5.07544 2.08196 -1.80512 104 102 111
-5.06877 2.13423 -1.81499 103 101 115
-5.0628 2.14699 -1.81579 103 101 114
-5.05651 2.16747 -1.81825 103 101 112
-5.03946 2.17373 -1.81324 103 102 115
-5.03649 2.18828 -1.81571 97 94 105
-4.88831 2.40098 -1.81441 132 129 138
-4.89495 2.42254 -1.82268 137 134 145
-4.87667 2.43543 -1.81932 139 136 143
-4.86518 2.44465 -1.81764 141 136 146
-4.86113 2.45903 -1.8201 139 135 146
-4.84421 2.47275 -1.81757 141 139 150
-4.83411 2.48289 -1.81672 141 141 151
-4.83138 2.49828 -1.82001 142 143 153
-4.81579 2.51289 -1.81832 74 73 87
-4.78937 2.51119 -1.80834 87 86 101
-4.78065 2.52223 -1.80831 93 91 105
-4.77521 2.54413 -1.81242 90 88 99
-4.76053 2.55079 -1.80908 90 88 100
-4.75895 2.56718 -1.8132 90 87 101
-4.74423 2.57376 -1.80986 88 84 98
-4.64752 2.79909 -1.82388 90 88 101
-4.64491 2.81554 -1.82795 87 85 98
-4.62373 2.8257 -1.82382 87 84 97
-4.61539 2.83747 -1.82461 87 83 97
-4.60282 2.84569 -1.82295 87 83 97
-4.34566 3.29313 -1.83453 103 101 115
-4.30931 3.30837 -1.82886 92 88 102
-4.29684 3.31679 -1.82803 84 80 94
-4.09294 3.69256 -1.84056 99 99 111
-4.077 3.69735 -1.83819 100 98 109
-4.0622 3.70353 -1.83661 90 88 101
-3.83859 4.00038 -1.82808 102 100 117
-3.67812 4.29606 -1.84175 104 102 116
-3.65445 4.28785 -1.83426 104 101 118
-3.46514 4.52575 -1.82491 105 103 117
-3.40253 4.66553 -1.83611 105 102 116
-3.24662 4.93688 -1.84326 108 104 118
-3.0498 5.19242 -1.84 109 103 117
-2.86747 5.492 -1.84314 110 104 118
-2.84723 5.49019 -1.84047 111 105 117
-2.75605 5.68307 -1.84815 115 108 116
-2.64033 5.84133 -1.84764 115 108 116
-2.36145 6.31051 -1.86159 120 111 116
-5.61349 1.26462 -1.8059 90 90 102
-5.60343 1.27652 -1.80347 88 88 100
-5.61811 1.33359 -1.81782 87 80 93
-5.36088 1.67177 -1.81397 147 122 98
-5.35477 1.68447 -1.81395 148 122 96
-5.34427 1.70278 -1.81309 145 121 97
-5.33472 1.71402 -1.81142 147 127 106
-5.19174 1.85351 -1.79978 89 85 96
-5.19844 1.8798 -1.80804 83 84 98
-5.18356 1.88796 -1.80387 86 87 103
-5.17191 1.89768 -1.80135 90 87 105
-5.16836 1.91144 -1.80299 86 81 100
-5.17954 1.94035 -1.81374 89 86 103
-5.15482 1.94336 -1.80458 87 84 101
-5.15432 1.95878 -1.80788 82 79 98
-5.15003 1.99574 -1.81445 82 80 93
-4.96555 2.39322 -1.84104 141 134 142
-4.75005 2.60441 -1.8206 90 86 100
-4.72512 2.60318 -1.81145 89 85 99
-4.71178 2.61071 -1.80894 89 85 99
-4.70865 2.63472 -1.81471 89 86 97
-4.68949 2.63769 -1.80888 91 87 98
-4.67894 2.64731 -1.80802 90 84 94
-4.66558 2.66337 -1.80799 90 86 100
-4.65352 2.67178 -1.8063 86 82 96
-4.64854 2.68584 -1.80876 88 84 98
-4.58853 2.86149 -1.82291 85 81 95
-4.58423 2.87671 -1.82616 89 85 99
-4.56049 2.87532 -1.81794 89 85 100
-4.54605 2.89092 -1.8179 90 86 103
-4.54435 2.90848 -1.8228 88 84 101
-4.52339 2.90922 -1.81621 91 88 102
-4.27663 3.32731 -1.8256 85 81 95
-4.26658 3.33834 -1.82637 87 83 97
-4.23007 3.35282 -1.8207 86 82 97
-4.04943 3.72434 -1.84047 95 93 107
-4.03343 3.72897 -1.8381 103 101 115
-3.82589 4.02363 -1.8334 102 101 115
-3.81043 4.02873 -1.83184 103 102 116
-3.63893 4.30908 -1.8387 104 101 118
-3.44718 4.54491 -1.82853 105 103 117
-3.38863 4.67596 -1.83752 103 99 114
-3.36742 4.67123 -1.83246 104 100 115
-3.22617 4.95551 -1.84672 109 105 119
-3.03459 5.20379 -1.84201 104 100 114
-2.82813 5.4919 -1.83913 115 109 121
-2.72845 5.69067 -1.84811 114 107 116
-2.61941 5.8388 -1.84508 116 109 117
-2.50248 6.08799 -1.85975 119 109 116
-2.34046 6.31267 -1.86096 121 110 116
-5.64457 1.25896 -1.81796 90 90 102
-5.68077 1.33813 -1.84432 89 85 100
-5.3908 1.61575 -1.81573 142 121 104
-5.3798 1.62653 -1.81324 143 123 98
-5.37723 1.64063 -1.81485 147 127 105
-5.36523 1.65837 -1.81318 141 121 97
-5.24145 1.77002 -1.80244 88 85 97
-5.23731 1.8062 -1.80819 96 92 106
-5.23572 1.82084 -1.81065 91 89 101
-5.2279 1.84009 -1.81145 104 97 108
-5.21474 1.84921 -1.8081 110 102 114
-5.15206 2.16567 -1.85483 103 101 115
-4.99424 2.43779 -1.86339 130 125 131
-4.635 2.70177 -1.80873 91 88 101
-4.6482 2.73078 -1.82197 87 83 97
-4.62193 2.72754 -1.81199 86 82 96
-4.59733 2.7527 -1.8111 87 84 98
-4.52844 2.93281 -1.8252 86 84 95
-4.50146 2.93735 -1.81779 90 86 101
-4.50496 2.95977 -1.82596 95 91 105
-4.47857 2.95536 -1.8161 89 85 99
-4.26263 3.35614 -1.83115 86 84 98
-4.23086 3.37605 -1.82868 83 79 93
-4.02528 3.74377 -1.84119 101 98 115
-4.00111 3.74981 -1.83726 103 100 116
-3.79596 4.03534 -1.83105 103 102 116
-3.62638 4.32 -1.84017 103 100 117
-3.60556 4.31637 -1.83492 107 104 121
-3.43129 4.55044 -1.82778 103 102 116
-3.41621 4.55758 -1.82775 103 101 115
-3.20763 4.95695 -1.8446 107 103 117
-3.0154 5.20457 -1.83995 106 102 115
-2.71026 5.69748 -1.84872 113 103 111
-2.60084 5.84538 -1.84569 117 107 115
-2.48375 6.09793 -1.86157 119 110 115
-2.31767 6.30542 -1.85734 122 111 115
-5.40705 1.54714 -1.8101 91 89 103
-5.4091 1.57025 -1.81499 100 83 76
-5.40163 1.58243 -1.81415 150 125 102
-5.39581 1.59524 -1.81412 146 123 99
-5.27603 1.71731 -1.80587 114 98 85
-5.27477 1.73195 -1.80834 88 81 85
-5.26573 1.75057 -1.8083 89 87 98
-5.25775 1.76221 -1.80745 87 84 95
-5.24872 1.79617 -1.8107 85 81 96
-4.62932 2.75202 -1.82191 89 85 99
-4.59619 2.77021 -1.81605 87 85 98
-4.5797 2.77481 -1.81188 88 86 99
-4.5685 2.7928 -1.8135 89 87 100
-4.55336 2.81714 -1.81593 87 83 98
-4.47452 2.98043 -1.82262 87 83 97
-4.46698 2.99306 -1.82423 86 82 97
-4.44467 2.99207 -1.81683 88 84 99
-4.22549 3.39245 -1.83266 85 83 96
-4.21641 3.40473 -1.83424 82 78 92
-3.99063 3.7616 -1.83879 100 99 115
-3.77905 4.05221 -1.83331 104 102 116
-3.75669 4.04618 -1.8264 104 102 116
-3.74898 4.06362 -1.83096 104 102 116
-3.59479 4.33042 -1.83788 104 103 117
-3.39232 4.56487 -1.82625 104 102 116
-3.34691 4.68672 -1.83458 105 103 117
-3.32733 4.68519 -1.83096 107 105 119
-3.19412 4.97043 -1.84737 104 100 114
-3.17627 4.9735 -1.84595 107 103 117
-2.8047 5.51062 -1.84304 111 105 117
-2.69204 5.70425 -1.84934 115 105 113
-2.57266 5.85239 -1.84565 118 108 116
-2.45155 6.09329 -1.85785 119 109 118
-5.42525 1.47209 -1.80449 142 143 152
-5.40848 1.50299 -1.80279 87 88 103
-5.42004 1.52208 -1.81097 93 89 104
-5.42127 1.53747 -1.81423 89 88 102
-5.31589 1.65153 -1.80933 142 122 101
-5.30986 1.66406 -1.80931 143 121 99
-5.30881 1.67873 -1.81177 146 121 101
-5.29336 1.6946 -1.80841 147 122 100
-5.2922 1.70926 -1.81088 151 125 104
-4.5713 2.81388 -1.82093 89 85 100
-4.5433 2.83625 -1.81839 86 82 97
-4.53901 2.85138 -1.82167 88 84 97
-4.51422 2.84843 -1.81253 94 90 104
-4.49143 2.87519 -1.8133 86 82 97
-4.44568 3.02209 -1.82663 87 83 97
-4.43931 3.03591 -1.82906 87 83 97
-4.41301 3.03095 -1.8192 88 84 98
-4.1995 3.41896 -1.8342 82 78 93
-4.18912 3.42979 -1.83498 86 82 97
-4.15602 3.41418 -1.82054 89 85 100
-3.98452 3.77927 -1.84345 100 99 115
-3.96245 3.78803 -1.84107 102 101 117
-3.72995 4.07716 -1.83169 106 104 118
-3.5726 4.34013 -1.83709 104 102 116
-3.37881 4.57524 -1.82769 105 103 117
-3.31413 4.6971 -1.83309 106 104 118
-2.98994 5.21355 -1.83991 110 104 116
-2.97139 5.21595 -1.83853 109 103 117
-2.78661 5.51582 -1.84302 111 105 115
-2.55269 5.85332 -1.84436 119 109 117
-2.43152 6.09752 -1.85782 119 110 116
-2.28999 6.3262 -1.8621 122 111 115
-5.44617 1.46463 -1.81191 140 139 144
-5.44211 1.49293 -1.81514 66 69 84
-5.34463 1.58863 -1.80945 151 126 104
-5.32786 1.6041 -1.80527 140 117 94
-5.32534 1.61805 -1.8069 141 118 99
-5.32446 1.6327 -1.80937 145 123 109
-4.51483 2.87712 -1.82161 86 83 97
-4.48829 2.89147 -1.81742 94 93 101
-4.4824 2.90531 -1.81988 94 92 103
-4.46917 2.92175 -1.82067 90 86 100
-4.44446 2.91827 -1.81153 85 81 95
-4.41367 3.061 -1.829 88 86 100
-4.40055 3.06847 -1.82734 88 84 98
-4.39138 3.07968 -1.82813 78 74 88
-4.38084 3.0896 -1.8281 89 85 99
-4.34714 3.08655 -1.81659 95 91 105
-4.15331 3.44489 -1.83011 92 90 103
-4.14402 3.457 -1.83169 95 93 106
-4.12407 3.45645 -1.82606 94 92 106
-3.94746 3.79381 -1.83949 102 101 117
-3.92809 3.79359 -1.83478 102 101 117
-3.71247 4.07878 -1.8286 105 102 117
-3.70264 4.09298 -1.83164 104 101 118
-3.55992 4.35088 -1.83856 104 102 116
-3.54808 4.36321 -1.84077 105 102 119
-3.36365 4.58223 -1.82766 105 103 116
-3.30322 4.71406 -1.83738 105 103 117
-3.14991 4.97798 -1.84381 106 103 115
-3.13347 4.98437 -1.84379 113 109 123
-2.95477 5.22358 -1.83918 106 100 114
-2.76537 5.51011 -1.83904 112 106 116
-2.66434 5.71155 -1.8493 115 108 115
-2.26792 6.32252 -1.85968 122 111 115
-5.47658 1.42335 -1.81774 134 131 141
-5.46609 1.4346 -1.81525 134 131 140
-5.46247 1.44818 -1.81605 144 142 147
-5.35521 1.51116 -1.79963 92 88 104
-5.36657 1.53036 -1.8079 86 84 98
-5.34739 1.53774 -1.80124 93 93 105
-5.3511 1.56134 -1.80701 92 78 79
-5.34535 1.57397 -1.80699 151 129 109
-4.45041 2.94318 -1.82145 90 87 98
-4.41976 2.9433 -1.81147 91 87 101
-4.42552 2.96826 -1.82139 86 82 97
-4.40743 2.97072 -1.81639 91 85 99
-4.35867 3.11811 -1.8305 91 87 102
-4.34671 3.12665 -1.82965 85 81 95
-4.32078 3.131 -1.82306 86 84 98
-4.11277 3.47732 -1.83002 84 82 96
-3.92394 3.81414 -1.84099 102 101 117
-3.90606 3.82857 -1.84174 104 101 118
-3.68611 4.09608 -1.82932 103 100 117
-3.52486 4.37107 -1.83924 105 103 117
-3.34048 4.59095 -1.82689 106 104 118
-3.32447 4.59614 -1.82614 106 104 118
-3.27932 4.72251 -1.83662 107 105 118
-3.11978 4.99767 -1.84656 108 104 118
-2.92861 5.20464 -1.82965 105 100 114
-2.74885 5.52062 -1.84099 111 105 115
-2.64508 5.71453 -1.84863 115 108 114
-2.5354 5.86522 -1.84686 118 108 116
-2.41311 6.10912 -1.86025 118 109 113
-5.49827 1.35693 -1.81622 139 134 140
-5.49446 1.37767 -1.81782 134 131 140
-5.48755 1.39017 -1.81698 136 133 141
-5.48235 1.40322 -1.81695 135 129 139
-5.38455 1.50756 -1.81128 91 89 105
-4.38233 2.99549 -1.81633 93 89 103
-4.38119 3.01422 -1.8221 85 81 95
-4.31266 3.1433 -1.82468 87 85 99
-4.30576 3.15689 -1.82711 84 81 100
-4.28743 3.16877 -1.82543 82 78 95
-4.10918 3.4964 -1.8356 88 86 100
-4.09736 3.50558 -1.83558 94 92 107
-4.06264 3.49795 -1.82353 90 88 103
-3.89097 3.83415 -1.84015 103 100 117
-3.87909 3.84418 -1.84091 102 99 116
-3.66878 4.11254 -1.83157 100 97 114
-3.65502 4.12028 -1.83155 103 100 117
-3.50501 4.36863 -1.83474 105 103 117
-3.30769 4.59959 -1.82465 104 102 116
-3.26442 4.73091 -1.83731 106 104 117
-3.09336 5.00188 -1.84442 107 103 118
-2.72309 5.53177 -1.84227 110 104 116
-2.62533 5.71563 -1.84732 116 109 116
-2.50973 5.88298 -1.85062 119 109 117
-2.38138 6.10598 -1.85714 119 110 114
-2.24693 6.32439 -1.85905 122 112 114
-5.50835 1.33074 -1.81627 83 77 91
-5.51375 1.34715 -1.82117 150 143 152
-5.40928 1.4431 -1.81057 136 133 139
-5.40674 1.46416 -1.81302 139 137 144
-5.39618 1.47505 -1.81051 144 145 155
-4.36611 3.02899 -1.82206 93 89 104
-4.3441 3.02729 -1.81458 91 89 101
-4.34921 3.05243 -1.8245 97 93 107
-4.33235 3.05575 -1.82033 86 82 96
-4.27155 3.17315 -1.82213 83 79 94
-4.26324 3.18535 -1.82374 97 95 108
-4.24607 3.19833 -1.82289 93 91 104
-4.2314 3.20385 -1.82041 99 95 108
-4.06925 3.5298 -1.83631 86 82 96
-4.05388 3.53457 -1.83389 89 86 99
-3.86317 3.86143 -1.84321 104 101 118
-3.84167 3.8578 -1.83695 104 101 118
-3.64126 4.12799 -1.83152 102 99 115
-3.49306 4.38083 -1.83695 107 105 119
-3.28678 4.61311 -1.82607 106 104 118
-3.25022 4.74097 -1.83872 106 104 117
-3.07888 5.01334 -1.8465 107 105 118
-2.91315 5.24157 -1.84048 111 105 117
-2.89457 5.24372 -1.83909 110 104 116
-2.70292 5.52946 -1.83961 112 106 116
-2.60141 5.73726 -1.85243 119 109 117
-2.48542 5.86528 -1.843 119 109 117
-5.51056 1.24416 -1.8041 90 89 103
-5.5213 1.26901 -1.81227 92 90 104
-5.51298 1.28109 -1.81061 84 83 98
-5.51161 1.29526 -1.81222 90 89 104
-5.5203 1.31978 -1.81958 88 85 101
-5.4325 1.40002 -1.81314 132 129 138
-5.42847 1.42051 -1.81477 136 133 144
-5.42317 1.43336 -1.81474 132 129 136
-4.3209 3.07418 -1.82278 85 83 96
-4.3053 3.07867 -1.81944 86 82 96
-4.29097 3.0844 -1.81693 88 84 99
-4.23048 3.22392 -1.82693 91 87 102
-4.21575 3.22938 -1.82445 89 82 100
-4.04193 3.54359 -1.83386 94 90 104
-4.02324 3.55561 -1.83303 94 90 104
-4.00896 3.56165 -1.8314 94 90 105
-3.83075 3.86921 -1.83848 106 103 122
-3.80944 3.87869 -1.83689 105 102 121
-3.6191 4.13628 -1.82995 104 101 118
-3.60619 4.14548 -1.83069 105 102 118
-3.47327 4.39498 -1.83841 104 102 116
-3.46293 4.41039 -1.84211 103 100 119
-3.2738 4.62489 -1.82824 106 104 118
-3.22317 4.74237 -1.8351 106 104 117
-3.20138 4.73525 -1.82933 108 104 119
-3.0603 5.01428 -1.84437 108 104 119
-2.87721 5.24935 -1.83907 110 104 116
-2.68528 5.53617 -1.84024 113 107 117
-2.57877 5.72723 -1.84726 118 108 117
-2.46884 5.88068 -1.84677 122 111 119
-2.36369 6.12116 -1.8608 118 109 114
-2.21766 6.33739 -1.86141 125 115 113
-5.54504 1.23966 -1.81808 88 87 101
-5.45183 1.35549 -1.81406 136 133 140
-5.44114 1.37367 -1.81236 136 133 140
-5.43942 1.38774 -1.814 136 133 141
-4.27934 3.10269 -1.81938 86 82 97
-4.26874 3.11224 -1.81935 85 81 96
-4.26315 3.12703 -1.82264 88 84 99
-4.19716 3.2408 -1.82278 92 88 103
-4.18858 3.25283 -1.82439 91 87 101
-4.17133 3.25543 -1.82027 89 85 99
-3.99693 3.57053 -1.83137 96 92 107
-3.96693 3.56783 -1.82254 91 87 101
-3.80049 3.89306 -1.83998 103 101 115
-3.59235 4.15305 -1.83067 104 102 116
-3.44822 4.41756 -1.84209 102 100 115
-3.26003 4.63495 -1.82968 105 103 116
-3.18938 4.75027 -1.83289 105 103 117
-3.03652 5.02519 -1.84504 109 102 118
-2.56182 5.7391 -1.8498 117 107 115
-2.34123 6.11396 -1.85709 118 109 114
-2.19596 6.33535 -1.85959 124 114 113
-4.24252 3.13599 -1.81929 88 84 99
-4.2368 3.15074 -1.82258 87 83 97
-4.22233 3.15618 -1.82007 89 87 100
-4.16737 3.28284 -1.82842 90 88 99
-4.15496 3.29075 -1.82758 98 96 107
-3.97161 3.5984 -1.83452 91 87 101
-3.95835 3.60571 -1.83369 84 80 94
-3.79046 3.9059 -1.84229 103 101 115
-3.57192 4.16431 -1.83063 104 102 116
-3.42482 4.42494 -1.84056 105 103 116
-3.24393 4.63988 -1.82892 106 105 119
-3.21676 4.63955 -1.8245 107 105 119
-3.17053 4.77017 -1.83716 104 102 115
-3.0173 5.02424 -1.84222 108 104 118
-2.84974 5.25237 -1.837 110 104 116
-2.65645 5.53612 -1.83757 114 108 118
-2.44049 5.88709 -1.84674 119 109 117
-2.32189 6.12159 -1.85829 121 111 116
-2.17656 6.34638 -1.86196 121 111 111
-4.21151 3.17559 -1.82335 85 83 96
-4.19575 3.17959 -1.82001 82 80 93
-4.18247 3.18622 -1.81833 82 80 93
-4.14134 3.29726 -1.82592 100 98 110
-4.12612 3.31239 -1.8267 95 93 107
-4.11243 3.3188 -1.82504 90 87 103
-3.9416 3.62026 -1.83445 96 94 107
-3.90401 3.61995 -1.8248 97 95 106
-3.77004 3.91671 -1.84148 103 100 117
-3.75579 3.92335 -1.84067 104 102 118
-3.74053 3.92841 -1.83909 108 105 122
-3.55982 4.175 -1.83213 106 104 118
-3.54409 4.17919 -1.83058 106 103 120
-3.40755 4.42704 -1.83829 105 103 116
-3.39364 4.4357 -1.83901 105 103 117
-3.20365 4.65115 -1.82667 106 104 117
-3.14807 4.76112 -1.83068 103 101 114
-3.00136 5.03198 -1.84289 111 105 119
-2.83416 5.26322 -1.83901 111 105 117
-2.63975 5.54633 -1.83952 114 106 117
-2.53349 5.74399 -1.84912 116 109 116
-2.4205 5.88759 -1.84544 120 110 118
-5.52758 1.36619 -1.84812 148 142 150
-4.18139 3.20626 -1.82493 89 87 101
-4.16296 3.21745 -1.82324 92 88 103
-4.10234 3.32927 -1.82583 91 89 102
-4.08815 3.34562 -1.82743 89 85 99
-3.92939 3.62895 -1.83443 95 93 106
-3.72728 3.9365 -1.83907 103 100 117
-3.5271 4.19672 -1.8336 104 101 118
-3.37885 4.44266 -1.83899 101 99 113
-3.18528 4.6508 -1.82372 108 106 119
-3.13589 4.77602 -1.83424 108 105 116
-2.97747 5.04264 -1.84355 108 104 118
-2.81614 5.26689 -1.83831 109 106 117
-2.61723 5.53464 -1.83356 113 105 116
-2.51099 5.73372 -1.84395 116 109 116
-2.40212 5.89543 -1.84668 120 110 118
-2.29211 6.12733 -1.85826 120 109 114
-4.15201 3.22666 -1.82321 90 86 100
-4.13134 3.22496 -1.81656 89 85 99
-4.12248 3.24682 -1.82149 90 88 101
-4.07558 3.35327 -1.82659 94 90 105
-4.06181 3.3595 -1.82492 90 88 102
-4.05395 3.37262 -1.82736 84 82 96
-3.89697 3.64754 -1.83277 94 90 104
-3.89008 3.66349 -1.83674 89 84 99
-3.71076 3.95318 -1.84137 104 102 116
-3.5122 4.20243 -1.83281 103 101 115
-3.49466 4.20321 -1.82973 103 101 115
-3.36117 4.46132 -1.84268 102 99 116
-3.16331 4.6621 -1.82441 107 105 118
-3.11319 4.78713 -1.83492 109 104 116
-2.96147 5.05027 -1.84423 107 101 115
-2.79039 5.27497 -1.83827 110 104 116
-2.59509 5.5598 -1.84011 112 105 113
-2.49574 5.75274 -1.84907 117 110 117
-2.27049 6.12362 -1.85577 121 110 114
-4.11623 3.26139 -1.82478 89 87 100
-4.09439 3.25811 -1.8173 89 87 100
-4.03715 3.386 -1.82732 88 84 99
-3.87451 3.66757 -1.83432 87 83 98
-3.86753 3.68348 -1.83829 91 87 103
-3.8333 3.67382 -1.82626 104 101 118
-3.69943 3.96428 -1.8429 104 101 118
-3.68705 3.97379 -1.84365 105 103 117
-3.48149 4.21207 -1.83047 103 100 117
-3.34302 4.46154 -1.83967 105 103 117
-3.14788 4.66843 -1.82439 107 105 119
-3.09443 4.78645 -1.83203 108 104 118
-2.94099 5.04553 -1.84001 109 105 120
-2.77236 5.27851 -1.83757 111 104 118
-2.57407 5.55341 -1.83613 116 109 116
-2.47597 5.75336 -1.84776 117 110 117
-2.37291 5.89783 -1.84538 119 109 117
-2.25108 6.13104 -1.85698 121 110 114
-4.08764 3.28265 -1.82389 95 93 107
-4.06702 3.28058 -1.81724 97 94 111
-4.06764 3.30337 -1.8255 89 87 101
-4.02799 3.39768 -1.82893 91 87 101
-4.01763 3.40793 -1.82973 90 85 100
-3.98905 3.40709 -1.8215 93 86 102
-3.83366 3.7001 -1.83583 102 99 116
-3.66635 3.98412 -1.84284 103 101 115
-3.64997 3.98731 -1.84048 105 103 117
-3.46079 4.22284 -1.83043 105 102 119
-3.32978 4.47168 -1.84114 102 100 114
-3.30299 4.47181 -1.83662 105 103 116
-3.13387 4.67815 -1.82582 107 105 119
-3.07923 4.79432 -1.83272 108 104 118
-2.91701 5.05593 -1.84067 110 107 118
-2.75719 5.29093 -1.84026 110 104 118
-2.35254 5.89627 -1.84346 119 109 117
-4.04884 3.31398 -1.82381 91 87 101
-4.02941 3.31309 -1.81798 87 83 98
-3.98558 3.4257 -1.82721 96 92 107
-3.97281 3.43301 -1.82637 93 90 104
-3.94655 3.43468 -1.81978 87 85 98
-3.82438 3.71295 -1.83821 100 96 113
-3.80391 3.72244 -1.83657 97 95 109
-3.64043 4.00137 -1.84357 104 102 116
-3.44842 4.23324 -1.83193 104 101 118
-3.43258 4.23706 -1.83038 104 101 117
-3.2921 4.48686 -1.84033 105 103 117
-3.11174 4.68922 -1.82652 110 108 121
-3.05995 4.81383 -1.83699 107 103 117
-2.90033 5.06162 -1.84065 109 106 117
-2.55814 5.56705 -1.8394 115 108 115
-2.44803 5.75969 -1.84772 118 111 118
-2.33562 5.91132 -1.84723 119 109 117
-2.22127 6.13646 -1.85694 121 110 115
-4.02745 3.3331 -1.82458 84 80 95
-4.01265 3.33771 -1.82207 86 82 97
-3.98913 3.34241 -1.81707 90 86 100
-3.94404 3.45468 -1.82631 97 95 108
-3.79346 3.73373 -1.83815 99 97 111
-3.77778 3.73745 -1.83572 100 97 114
-3.61865 4.00991 -1.84198 105 103 117
-3.60321 4.0145 -1.84039 105 102 119
-3.41006 4.24432 -1.82881 104 102 116
-3.28114 4.50189 -1.84404 106 104 118
-3.0934 4.68854 -1.82357 110 108 121
-3.04257 4.81642 -1.83553 108 104 118
-2.88792 5.07963 -1.84552 110 104 117
-2.73132 5.29875 -1.84022 112 106 118
-2.53069 5.57188 -1.83871 112 105 113
-2.42826 5.76016 -1.84641 117 110 117
-2.20179 6.14373 -1.85814 122 111 115
-3.97777 3.35111 -1.81704 92 88 102
-3.97324 3.36827 -1.82199 91 87 101
-3.93688 3.469 -1.82956 97 95 108
-3.91737 3.479 -1.82788 92 88 102
-3.90106 3.48179 -1.82458 86 82 96
-3.75206 3.73914 -1.83009 101 98 115
-3.59256 4.0269 -1.84271 103 100 117
-3.39759 4.25459 -1.83032 105 102 119
-3.25432 4.50174 -1.83952 105 103 117
-3.07858 4.69639 -1.82428 109 107 120
-3.02519 4.81895 -1.83407 107 103 118
-2.87115 5.08523 -1.84549 109 103 117
-2.71492 5.30748 -1.84156 112 106 117
-2.51108 5.57075 -1.8367 114 104 113
-2.41062 5.76978 -1.84831 120 110 118
-2.30749 5.91898 -1.84783 119 110 115
-2.18057 6.1416 -1.85628 122 111 115
-3.95422 3.3784 -1.8203 89 85 100
-3.94614 3.39127 -1.82276 87 83 98
-3.89936 3.50322 -1.83193 87 81 95
-3.74462 3.75484 -1.83406 101 99 113
-3.73813 3.77206 -1.83884 105 103 117
-3.57259 4.03836 -1.84267 104 101 118
-3.38423 4.26318 -1.83106 107 104 121
-3.23932 4.50829 -1.8395 105 103 117
-3.05774 4.71067 -1.82643 109 107 121
-3.00918 4.82489 -1.83405 106 102 117
-2.69735 5.31258 -1.84153 111 105 114
-2.49456 5.58239 -1.83931 117 107 115
-2.28454 5.90421 -1.84148 118 108 116
-3.9369 3.4027 -1.82439 85 81 96
-3.91102 3.40405 -1.81773 90 86 101
-3.88414 3.50737 -1.82945 89 83 97
-3.86781 3.52145 -1.83023 87 81 95
-3.71949 3.78417 -1.8388 104 101 118
-3.70372 3.78761 -1.83638 104 101 118
-3.55805 4.04437 -1.84187 105 103 119
-3.54064 4.04559 -1.83873 104 101 118
-3.36411 4.27516 -1.83178 107 105 119
-3.34656 4.27539 -1.8287 106 104 118
-3.22275 4.51142 -1.83798 104 102 116
-3.04009 4.71152 -1.82422 106 102 116
-3.02587 4.72094 -1.82565 106 102 116
-2.98352 4.82851 -1.83186 108 104 119
-2.84578 5.09177 -1.84476 110 104 118
-2.6681 5.30935 -1.83742 112 107 114
-2.38011 5.76474 -1.84442 119 109 117
-2.15136 6.15045 -1.85747 120 111 112
-3.9017 3.41539 -1.81936 90 86 101
-3.89345 3.42816 -1.82182 95 91 105
-3.857 3.53128 -1.83103 87 81 95
-3.84284 3.53673 -1.82936 87 83 98
-3.68696 3.78947 -1.83315 103 100 117
-3.53452 4.06576 -1.84493 102 99 116
-3.33476 4.28714 -1.83097 106 104 118
-3.1983 4.51602 -1.8357 106 104 118
-3.0116 4.73032 -1.82709 107 103 117
-2.97152 4.84476 -1.83614 106 104 118
-2.82719 5.09193 -1.84263 107 101 115
-2.65109 5.3161 -1.83808 114 108 116
-2.47711 5.59032 -1.84061 117 107 115
-2.36321 5.77792 -1.84761 117 107 115
-2.26747 5.91908 -1.84525 119 109 117
-3.88415 3.45089 -1.82758 92 88 102
-3.86695 3.45204 -1.82342 99 95 109
-3.82745 3.5521 -1.83097 95 93 107
-3.81108 3.55451 -1.82767 92 89 103
-3.67224 3.80749 -1.83632 102 100 114
-3.66044 3.81691 -1.8371 102 101 115
-3.51345 4.07538 -1.84412 102 99 116
-3.49974 4.08279 -1.8441 103 100 117
-3.31534 4.30058 -1.83246 109 106 123
-3.18785 4.53254 -1.84016 105 103 117
-3.16972 4.53212 -1.83715 104 102 116
-2.98518 4.73047 -1.8234 108 104 118
-2.95676 4.85403 -1.83755 107 105 118
-2.81215 5.10268 -1.84471 109 103 116
-2.63403 5.32281 -1.83873 112 106 118
-2.44703 5.58376 -1.83596 118 111 118
-2.34304 5.77627 -1.84565 119 109 117
-2.24819 5.92276 -1.84522 119 110 116
-2.13114 6.15377 -1.85744 122 112 111
-5.58985 0.865971 -1.81058 91 90 106
-3.85305 3.45748 -1.82173 89 83 98
-3.84789 3.47452 -1.82668 92 84 100
-3.79687 3.55979 -1.826 92 87 101
-3.7835 3.57792 -1.82924 93 86 102
-3.64465 3.82014 -1.83467 105 103 117
-3.62687 3.82022 -1.83065 104 102 116
-3.48138 4.08219 -1.84018 103 100 119
-3.3002 4.30561 -1.83167 107 104 120
-3.28424 4.30893 -1.83012 109 107 121
-2.9722 4.74321 -1.8263 108 104 119
-2.92903 4.85215 -1.83321 106 102 116
-2.78962 5.11784 -1.84747 111 105 117
-2.61325 5.31685 -1.83463 111 105 117
-2.42579 5.57502 -1.83132 116 110 115
-2.10995 6.15142 -1.85558 121 111 112
-5.77471 0.581164 -1.80949 89 88 102
-5.56668 0.835186 -1.80068 91 90 104
-3.8252 3.47964 -1.8225 91 84 100
-3.81017 3.48346 -1.81999 94 87 103
-3.77247 3.58753 -1.83004 93 87 101
-3.61877 3.84887 -1.83941 102 99 116
-3.45933 4.08995 -1.83858 103 100 117
-3.26907 4.31386 -1.82933 106 104 118
-3.15125 4.55002 -1.84084 107 105 118
-3.13612 4.55626 -1.84082 107 105 119
-2.9565 4.74898 -1.82628 109 105 120
-2.91291 4.8578 -1.83318 104 100 114
-2.77043 5.11602 -1.84465 112 106 120
-2.41205 5.59929 -1.83854 117 110 117
-2.31734 5.79309 -1.84948 120 110 118
-2.22 5.93002 -1.84582 120 111 116
-5.78193 0.55423 -1.81079 93 92 108
-5.61108 0.823801 -1.81521 87 89 101
-3.80806 3.50484 -1.82742 93 87 102
-3.78424 3.50825 -1.82242 101 95 110
-3.7614 3.59711 -1.83083 91 88 98
-3.74143 3.60624 -1.82916 86 83 96
-3.60195 3.85039 -1.83619 103 100 117
-3.59289 3.86429 -1.83936 104 102 116
-3.45101 4.10682 -1.84323 103 100 117
-3.43357 4.10763 -1.84009 104 101 118
-3.24948 4.32702 -1.83082 108 106 120
-3.12094 4.56245 -1.84079 107 105 119
-2.93074 4.75058 -1.82332 108 104 118
-2.89807 4.86691 -1.83459 109 103 117
-2.7507 5.11236 -1.84113 110 104 118
-2.58987 5.33304 -1.83799 113 107 119
-2.29599 5.78574 -1.84559 120 110 118
-2.19898 5.92424 -1.84263 120 109 115
-5.79009 0.536523 -1.81273 93 90 107
-5.6051 0.804712 -1.81192 93 93 105
-3.77555 3.52078 -1.82488 97 94 105
-3.76471 3.53033 -1.82568 95 91 105
-3.72925 3.61425 -1.82914 85 81 95
-3.72124 3.62818 -1.83239 84 80 94
-3.57381 3.87575 -1.83933 102 100 114
-3.41144 4.11516 -1.8385 104 102 116
-3.23035 4.32348 -1.82621 107 105 119
-3.09841 4.55157 -1.8333 107 105 118
-2.91502 4.75622 -1.82329 109 105 119
-2.87552 4.87874 -1.83599 107 104 115
-2.72805 5.12727 -1.84389 113 110 121
-2.57325 5.34137 -1.83933 114 108 120
-2.38288 5.59608 -1.83521 117 110 117
-2.277 5.78943 -1.84557 119 110 115
-2.18002 5.92957 -1.84324 121 110 116
-5.80385 0.519255 -1.81661 91 88 105
-5.62214 0.761775 -1.81524 91 90 106
-5.60587 0.777639 -1.81061 97 94 110
-3.74717 3.54238 -1.82565 92 88 102
-3.70582 3.63165 -1.82991 89 87 101
-3.68469 3.639 -1.82741 94 92 106
-3.55315 3.87084 -1.8329 102 100 114
-3.40383 4.13356 -1.84393 105 103 117
-3.22216 4.34333 -1.8323 107 105 119
-3.08263 4.57603 -1.83999 107 105 119
-2.90056 4.7653 -1.82473 108 105 116
-2.85869 4.88248 -1.83525 108 105 116
-2.70834 5.12346 -1.84037 112 109 118
-2.55508 5.34424 -1.83862 119 113 125
-2.36492 5.60185 -1.83585 117 110 117
-5.79991 0.472849 -1.8134 95 94 110
-5.79194 0.490642 -1.81146 91 90 106
-5.61783 0.743013 -1.81261 93 92 106
-3.7331 3.5474 -1.82397 90 87 96
-3.7232 3.55833 -1.8256 88 84 97
-3.6786 3.65586 -1.8323 103 99 114
-3.66006 3.65465 -1.82737 103 99 114
-3.54871 3.89247 -1.84008 104 102 116
-3.52194 3.89116 -1.83365 104 102 116
-3.38991 4.14066 -1.8439 103 101 115
-3.19854 4.3479 -1.82997 108 106 119
-3.06451 4.57523 -1.83698 107 103 117
-2.84121 4.88441 -1.83379 110 106 120
-2.69033 5.12495 -1.83895 113 110 119
-2.52797 5.34752 -1.83723 115 109 120
-2.34615 5.60387 -1.83516 120 113 120
-2.24888 5.79486 -1.84553 118 109 113
-2.15243 5.94025 -1.8451 122 111 117
-5.80217 0.454595 -1.81341 93 92 108
-5.63212 0.726785 -1.81657 90 88 102
-3.70864 3.57468 -1.82805 99 95 109
-3.69243 3.57656 -1.82471 90 86 100
-3.64297 3.6678 -1.82815 99 97 111
-3.51265 3.9049 -1.83682 106 104 118
-3.50047 3.91389 -1.8376 104 102 116
-3.36854 4.1496 -1.84309 107 105 119
-3.35109 4.15009 -1.83995 106 104 118
-3.18405 4.35424 -1.82995 107 103 117
-3.17029 4.36223 -1.83069 108 106 120
-3.05073 4.58463 -1.83844 109 106 118
-2.8767 4.77186 -1.82396 109 106 119
-2.85966 4.77384 -1.82248 111 108 122
-2.81606 4.88897 -1.83232 111 108 120
-2.50979 5.35025 -1.83653 115 110 122
-2.22985 5.79841 -1.8455 120 110 118
-2.13469 5.9529 -1.84824 123 112 118
-5.80247 0.436206 -1.81278 90 89 103
-5.59808 0.677197 -1.80207 92 91 105
-5.64001 0.700614 -1.8179 89 88 102
-3.67829 3.58139 -1.82303 87 83 96
-3.6672 3.59068 -1.82383 95 91 105
-3.63159 3.67704 -1.82894 97 93 108
-3.62424 3.6923 -1.83301 104 98 115
-3.48115 3.92494 -1.83756 103 101 115
-3.33886 4.16028 -1.84149 104 102 116
-3.14739 4.36823 -1.82912 104 102 116
-3.03036 4.59866 -1.84065 109 106 119
-2.79736 4.88724 -1.82943 111 108 119
-2.66646 5.13602 -1.84031 112 109 120
-2.31706 5.60035 -1.83183 121 111 119
-2.1134 5.94498 -1.84442 123 112 118
-5.81657 0.40957 -1.81665 94 93 107
-5.60283 0.659771 -1.80274 89 88 102
-3.6504 3.60381 -1.82463 100 96 111
-3.63621 3.60848 -1.82295 103 99 114
-3.60393 3.70075 -1.83134 103 99 114
-3.46707 3.93067 -1.83674 107 105 119
-3.31913 4.17224 -1.84223 107 105 119
-3.13283 4.37442 -1.8291 104 101 118
-3.01717 4.60968 -1.84286 107 105 118
-2.84635 4.78627 -1.82538 108 106 119
-2.78174 4.89426 -1.83012 110 107 118
-2.65219 5.14992 -1.84378 111 107 120
-2.49355 5.36017 -1.83854 113 109 121
-2.30324 5.62621 -1.83971 118 108 116
-2.21118 5.80375 -1.84612 120 110 118
-5.81675 0.391152 -1.81602 94 91 108
-5.6516 0.638541 -1.81859 90 92 104
-3.621 3.6116 -1.82044 97 93 110
-3.58843 3.70378 -1.82886 102 100 114
-3.57792 3.71439 -1.83048 102 100 114
-3.4548 3.93953 -1.83751 104 102 116
-3.43521 3.93564 -1.83189 104 102 116
-3.30424 4.17744 -1.84143 107 103 118
-3.29189 4.18751 -1.84296 108 106 120
-3.11826 4.38057 -1.82907 104 102 116
-2.99556 4.60006 -1.83612 108 106 119
-2.82179 4.79083 -1.82388 109 105 119
-2.76611 4.90124 -1.83081 110 105 119
-2.63414 5.15123 -1.84236 112 107 121
-2.46544 5.35954 -1.83579 116 108 118
-2.28105 5.61143 -1.8331 119 109 117
-2.1907 5.79976 -1.84352 121 111 119
-2.08385 5.94416 -1.84249 118 109 110
-5.81308 0.37252 -1.81409 93 90 107
-5.63376 0.618369 -1.81133 86 88 101
-3.60308 3.62301 -1.8204 97 93 108
-3.59483 3.63667 -1.82369 98 94 109
-3.57167 3.6274 -1.81456 95 89 104
-3.55754 3.7226 -1.8288 104 102 116
-3.42485 3.96234 -1.83986 102 99 116
-3.27613 4.19099 -1.84138 108 106 120
-3.09384 4.38293 -1.82598 106 104 118
-2.97576 4.61558 -1.83907 109 107 120
-2.80837 4.80316 -1.82678 110 106 119
-2.74091 4.90544 -1.82934 111 105 119
-2.61663 5.15427 -1.84164 112 106 118
-2.44866 5.36752 -1.83713 115 108 115
-5.80991 0.344787 -1.81216 92 90 105
-5.66268 0.603519 -1.82058 91 90 104
-3.5499 3.73775 -1.83287 102 101 115
-3.53534 3.74211 -1.83121 102 101 115
-3.40796 3.96311 -1.83663 103 100 117
-3.39109 3.96381 -1.83341 102 100 114
-3.25708 4.20433 -1.8429 104 102 116
-3.08215 4.39575 -1.82901 106 102 117
-2.95835 4.61612 -1.83681 108 104 118
-2.79068 4.80317 -1.82456 109 106 117
-2.59152 5.16143 -1.8416 110 107 118
-2.25604 5.62792 -1.83702 120 111 116
-2.16218 5.80294 -1.84285 121 111 119
-2.06688 5.96222 -1.84752 121 112 115
-5.82307 0.327104 -1.81604 87 86 100
-5.64751 0.574752 -1.81399 86 84 97
-3.56546 3.65698 -1.82446 96 92 107
-3.5541 3.66597 -1.82527 99 97 111
-3.52272 3.74952 -1.83119 101 99 113
-3.37688 3.98399 -1.83817 101 99 112
-3.24294 4.21098 -1.84288 102 100 114
-3.06752 4.40175 -1.82899 107 103 118
-2.94504 4.62696 -1.83902 107 103 117
-2.76786 4.81274 -1.82526 110 107 118
-2.72758 4.91938 -1.83291 108 103 117
-2.57143 5.15534 -1.83739 111 108 119
-2.43231 5.37727 -1.83914 115 108 115
-2.23435 5.61481 -1.83106 121 112 117
-2.14484 5.81552 -1.84604 122 112 120
-2.04599 5.95594 -1.84434 122 113 114
-5.89808 0.195038 -1.81242 93 91 105
-5.81354 0.308245 -1.81218 95 93 111
-5.65195 0.557147 -1.81466 92 94 106
-3.54366 3.67647 -1.8269 97 96 110
-3.50414 3.76055 -1.83115 103 101 115
-3.49532 3.77406 -1.8344 103 101 116
-3.36264 3.98939 -1.83735 101 99 113
-3.22714 4.2143 -1.8413 102 100 114
-3.05502 4.41281 -1.83126 106 102 117
-2.91967 4.62846 -1.836 107 103 118
-2.75253 4.81965 -1.82597 113 110 121
-2.71654 4.94037 -1.83935 108 104 118
-2.55696 5.169 -1.84086 110 107 116
-2.40374 5.37452 -1.83571 115 109 119
-2.12475 5.81317 -1.84408 124 115 120
-5.9395 0.168255 -1.82574 103 102 118
-5.82517 0.281244 -1.81541 93 90 107
-5.62127 0.518073 -1.80214 94 90 105
-5.65258 0.539149 -1.81401 94 92 105
-3.5216 3.68137 -1.82355 99 98 112
-3.48164 3.77979 -1.83356 103 100 117
-3.34751 3.99314 -1.83573 103 101 116
-3.20957 4.23074 -1.84438 106 104 118
-3.19127 4.22899 -1.84046 108 106 120
-3.03125 4.41655 -1.82893 107 103 118
-2.9096 4.64785 -1.84195 109 106 119
-2.7366 4.82476 -1.82594 111 108 119
-2.68831 4.93546 -1.83429 111 105 117
-2.38641 5.38051 -1.83637 116 109 116
-2.21734 5.62569 -1.83367 121 112 118
-5.93322 0.149189 -1.82321 93 91 107
-5.82116 0.262704 -1.81349 98 97 112
-3.51398 3.69642 -1.82767 101 101 113
-3.49864 3.69908 -1.82516 103 102 115
-3.46482 3.79375 -1.83517 103 102 116
-3.44825 3.79471 -1.83187 105 103 117
-3.3287 4.00512 -1.83649 100 98 112
-3.31528 4.01198 -1.83647 103 101 115
-3.17869 4.23876 -1.842 109 105 120
-3.02076 4.43265 -1.83349 108 104 119
-2.89217 4.64817 -1.83969 109 105 119
-2.71893 4.82452 -1.82373 111 107 121
-2.66793 4.92797 -1.82924 111 105 117
-2.53278 5.1795 -1.84222 113 107 117
-2.09619 5.81605 -1.8434 123 114 117
-5.95152 0.130814 -1.82893 93 89 106
-5.81897 0.244268 -1.81221 96 95 110
-5.63382 0.492369 -1.80544 95 93 107
-3.48806 3.70944 -1.82679 104 102 116
-3.44018 3.80966 -1.83594 104 102 116
-3.30011 4.01557 -1.83485 103 101 115
-3.15692 4.24672 -1.84118 108 106 120
-3.00672 4.44018 -1.83423 107 105 119
-2.87542 4.65016 -1.83817 109 106 118
-2.69541 4.83201 -1.82369 114 109 123
-2.65441 4.94173 -1.8328 112 109 120
-2.51373 5.17682 -1.8394 113 107 119
-2.36952 5.38827 -1.8377 115 108 115
-2.19111 5.63635 -1.83562 121 112 117
-5.82051 0.225982 -1.81222 97 94 110
-5.67783 0.460244 -1.81932 90 89 105
-5.66053 0.476789 -1.81403 90 88 102
-3.4697 3.72026 -1.82676 103 101 115
-3.45527 3.72431 -1.82508 102 100 115
-3.42131 3.82033 -1.8359 105 103 117
-3.28459 4.03384 -1.83881 103 101 115
-3.14265 4.25308 -1.84116 107 105 119
-2.9808 4.43853 -1.82961 104 102 116
-2.85327 4.66 -1.83888 109 103 117
-2.67831 4.8334 -1.82221 113 107 121
-2.6291 4.9454 -1.83133 114 107 119
-2.49812 5.18671 -1.84148 111 108 117
-2.35038 5.38685 -1.83564 115 108 115
-2.17228 5.63784 -1.83493 119 110 115
-2.07647 5.81541 -1.84209 123 114 119
-5.935 0.0832739 -1.82261 106 93 113
-5.95096 0.102457 -1.8283 101 92 111
-5.8242 0.198605 -1.81287 97 94 111
-3.44271 3.73144 -1.82506 104 103 117
-3.40379 3.81955 -1.83179 105 103 117
-3.39463 3.83285 -1.83504 106 104 118
-3.27192 4.0422 -1.83959 101 99 113
-3.25417 4.04075 -1.83557 104 102 115
-3.12599 4.2544 -1.8388 104 102 115
-2.96533 4.44251 -1.82882 106 102 117
-2.95056 4.44816 -1.8288 108 104 119
-2.84035 4.67231 -1.84184 109 103 117
-2.66179 4.83651 -1.82145 112 106 120
-2.32318 5.38918 -1.83425 114 107 114
-2.15313 5.63742 -1.83359 120 111 116
-2.05957 5.83148 -1.84657 123 114 119
-5.8237 0.180258 -1.81223 90 89 103
-5.66969 0.414513 -1.81472 92 91 107
-5.67133 0.432664 -1.81603 90 89 105
-3.42887 3.7499 -1.82916 101 99 112
-3.41531 3.75538 -1.82831 105 103 116
-3.37107 3.83543 -1.83091 103 102 116
-3.24148 4.04903 -1.83634 103 101 115
-3.10652 4.26712 -1.84032 103 101 115
-2.821 4.66716 -1.83734 109 105 119
-2.61489 4.95728 -1.83418 111 106 119
-2.47191 5.18972 -1.84004 111 108 119
-2.13563 5.64621 -1.83554 120 111 116
-5.82127 0.161874 -1.81095 94 91 106
-5.66988 0.396522 -1.81407 90 89 105
-3.40173 3.76081 -1.82746 104 102 116
-3.36362 3.85183 -1.8358 103 102 116
-3.21988 4.05565 -1.83471 101 99 113
-3.09374 4.27667 -1.84186 105 103 117
-2.92941 4.45827 -1.82953 107 105 119
-2.79561 4.66804 -1.83432 108 104 118
-2.63985 4.84907 -1.82361 109 103 116
-2.59627 4.95486 -1.83129 108 104 118
-2.45479 5.19407 -1.84002 110 107 118
-2.30707 5.40042 -1.83694 117 110 117
-2.03064 5.8322 -1.84525 122 113 116
-3.38222 3.76968 -1.8266 105 103 117
-3.3668 3.77185 -1.82409 105 103 117
-3.34703 3.85239 -1.8325 104 103 117
-3.20631 4.06219 -1.83469 105 102 115
-3.08016 4.28451 -1.84261 106 104 118
-3.06116 4.28059 -1.83792 109 107 121
-2.91524 4.46553 -1.83027 108 106 120
-2.78134 4.67671 -1.83579 108 104 118
-2.62436 4.85561 -1.82432 108 105 116
-2.57308 4.9654 -1.83269 112 106 118
-2.43767 5.19837 -1.84 112 109 118
-2.28753 5.39697 -1.83421 120 113 120
-2.0109 5.83135 -1.84394 122 113 114
-5.83222 0.134627 -1.81419 91 87 102
-5.67812 0.370142 -1.81606 93 92 108
-3.35588 3.78188 -1.82572 104 102 116
-3.33337 3.87216 -1.83738 106 103 119
-3.31498 3.86943 -1.83244 105 102 119
-3.19762 4.07853 -1.83946 103 100 117
-2.89907 4.46758 -1.82872 109 107 120
-2.60671 4.855 -1.8221 108 105 116
-2.55661 4.96999 -1.83267 113 107 119
-2.10954 5.65838 -1.83814 119 109 117
-5.82773 0.116223 -1.81226 103 96 112
-5.68004 0.334272 -1.81541 91 91 103
-5.68756 0.352771 -1.8187 88 90 102
-3.33807 3.7937 -1.82652 103 101 115
-3.30374 3.87936 -1.83406 104 101 117
-3.1751 4.0833 -1.83703 104 102 116
-3.15982 4.08641 -1.83541 105 101 116
-3.04379 4.29808 -1.84178 104 100 114
-3.02786 4.30074 -1.8402 102 100 111
-2.87847 4.4792 -1.83021 110 104 118
