-9.99053 2.58463 -1.86991 94 93 111
-9.15683 3.95421 -1.88844 102 101 117
-9.12971 3.97175 -1.88477 106 105 121
-9.12852 4.00257 -1.88786 105 102 120
-9.10881 4.03939 -1.88775 101 100 118
-9.0884 4.06027 -1.88588 101 103 118
-9.08514 4.09018 -1.88852 101 99 120
-9.06674 4.12773 -1.88887 103 102 120
-9.0478 4.14933 -1.88745 103 104 119
-9.03736 4.17551 -1.88828 101 104 118
-9.01513 4.21098 -1.88773 98 99 117
-8.99426 4.23143 -1.88586 103 102 120
-8.98866 4.26033 -1.88805 101 100 118
-8.97786 4.28639 -1.88888 100 99 117
-8.33288 5.30517 -1.89513 99 98 116
-8.3154 5.32734 -1.89506 98 98 116
-8.29477 5.34708 -1.8941 100 99 117
-8.26872 5.38013 -1.89401 99 100 118
-8.25407 5.40449 -1.89485 98 99 117
-8.24089 5.43002 -1.89614 98 99 117
-8.21598 5.46404 -1.8965 98 99 117
-8.19496 5.48342 -1.89554 97 97 115
-8.17541 5.50395 -1.89503 99 98 116
-8.14711 5.53523 -1.89449 100 99 117
-8.13495 5.56175 -1.89623 100 99 117
-8.10311 5.5722 -1.89212 99 98 115
-8.0908 5.59862 -1.89386 100 99 115
-8.05609 5.62451 -1.89152 100 99 115
-7.24999 6.93922 -1.89693 94 92 105
-7.23245 6.96397 -1.89862 96 94 107
-7.1962 6.9892 -1.89767 96 94 105
-7.17212 7.00641 -1.89719 98 94 108
-6.73382 7.81612 -1.90848 117 99 113
-6.70843 7.83351 -1.90843 116 98 113
-6.68971 7.86045 -1.91089 118 97 112
-6.21221 8.65728 -1.91754 139 102 105
-6.18613 8.67648 -1.9183 135 99 105
-5.7754 9.40805 -1.92514 112 101 107
-5.73185 9.43333 -1.92585 114 103 108
-4.96217 9.86786 -1.84584 118 103 97
-4.92881 9.87625 -1.84507 118 104 100
-4.00917 10.2776 -1.73784 149 136 130
-11.5803 0.336934 -1.89332 94 105 125
-11.5706 0.368725 -1.89167 96 103 123
-11.4654 0.467212 -1.89119 92 99 118
-11.4544 0.520868 -1.88978 98 101 120
-11.0337 0.939952 -1.87235 95 102 121
-11.0299 0.970324 -1.87227 91 98 116
-11.026 1.00068 -1.87219 94 101 119
-10.5232 1.67161 -1.86808 153 129 114
-10.5101 1.74401 -1.86831 97 93 106
-10.0357 2.36062 -1.86527 135 133 147
-10.0237 2.40149 -1.86516 137 137 147
-10.0266 2.43184 -1.8677 142 140 151
-10.0144 2.45802 -1.86675 145 145 155
-9.27403 3.65492 -1.88202 94 92 106
-9.26527 3.68156 -1.88285 93 90 107
-9.26873 3.714 -1.88684 98 95 112
-9.23102 3.74224 -1.88178 93 92 108
-9.23425 3.7747 -1.88577 89 88 104
-9.21631 3.79702 -1.88434 94 93 109
-9.19057 3.83081 -1.88244 97 96 112
-9.20391 3.8685 -1.88913 100 100 118
-9.17699 3.88634 -1.88546 101 98 115
-9.17091 3.91454 -1.88719 104 101 118
-8.03612 5.64458 -1.89101 101 100 116
-8.02204 5.66961 -1.8923 100 99 115
-7.99299 5.70015 -1.89176 98 100 115
-7.97724 5.72382 -1.8926 100 99 115
-7.95992 5.74618 -1.89299 100 99 115
-7.92906 5.77514 -1.89201 98 100 115
-7.90279 5.78966 -1.8897 98 99 117
-7.89693 5.82211 -1.89369 99 98 116
-7.86139 5.84687 -1.89135 98 97 113
-7.15556 7.03248 -1.8993 102 96 110
-7.11525 7.05284 -1.89706 100 94 108
-7.08975 7.0683 -1.89614 102 96 111
-7.0754 7.09719 -1.89912 103 97 111
-6.65957 7.89757 -1.91375 122 98 112
-6.62178 7.89699 -1.9091 125 97 111
-6.60056 7.9205 -1.91072 131 100 108
-6.15408 8.68543 -1.91664 139 103 105
-6.11224 8.70885 -1.91658 137 102 106
-5.69963 9.44419 -1.92503 111 100 106
-5.66488 9.44963 -1.92306 111 100 107
-5.63599 9.46736 -1.9238 109 99 105
-4.86928 9.86293 -1.83876 118 103 98
-4.83315 9.86368 -1.83652 118 103 98
-3.95835 10.2854 -1.73675 147 134 127
-11.5823 0.256631 -1.89314 93 100 119
-11.5728 0.288483 -1.89149 91 97 119
-11.4658 0.395001 -1.89051 98 103 123
-11.4598 0.430865 -1.8898 98 105 123
-11.0444 0.864165 -1.87296 97 103 119
-11.0447 0.894917 -1.87369 97 102 121
-10.539 1.5847 -1.86789 150 132 120
-10.5351 1.61391 -1.86824 144 127 117
-10.5369 1.64417 -1.86985 145 125 114
-10.0708 2.311 -1.86978 91 94 113
-10.1418 2.35944 -1.88805 117 114 132
-9.3474 3.44441 -1.87716 93 93 105
-9.36074 3.48053 -1.88341 91 93 108
-9.33651 3.50029 -1.88018 89 90 108
-9.33714 3.53101 -1.88327 94 94 111
-9.29654 3.55837 -1.8773 91 93 108
-9.29519 3.58826 -1.87994 90 89 105
-9.28663 3.61494 -1.88077 92 89 105
-7.84077 5.8663 -1.89084 100 97 114
-7.82008 5.88567 -1.89034 100 99 115
-7.80654 5.91151 -1.89208 99 98 114
-7.77786 5.94233 -1.89199 101 99 118
-7.7684 5.97205 -1.89508 99 98 116
-7.74168 5.98588 -1.89278 97 96 114
-7.71407 6.01773 -1.89314 99 97 115
-7.04105 7.12465 -1.89905 104 98 110
-7.01659 7.14137 -1.89856 99 95 109
-6.99454 7.16103 -1.89894 101 97 111
-6.56783 7.95406 -1.91274 133 98 104
-6.53441 7.95956 -1.90977 136 99 106
-6.51615 7.98774 -1.91265 138 102 104
-6.08691 8.72947 -1.91774 134 99 105
-6.05957 8.7466 -1.9181 134 101 108
-5.58547 9.47781 -1.92141 110 98 101
-4.79497 9.85878 -1.83317 115 99 93
-3.92523 10.2942 -1.73673 146 133 127
-3.89409 10.3105 -1.73808 147 134 126
-11.5778 0.176219 -1.89179 99 105 124
-11.4664 0.340897 -1.89017 91 102 123
-11.0603 0.788756 -1.87479 94 99 119
-11.0517 0.834086 -1.87386 91 93 113
-10.547 1.51149 -1.86682 96 99 118
-10.603 1.55093 -1.88024 86 84 94
-10.0828 2.13808 -1.86237 145 126 112
-10.0884 2.16873 -1.86535 141 125 116
-10.0735 2.20888 -1.86437 140 124 110
-10.0714 2.23769 -1.8656 138 128 118
-9.42227 3.26554 -1.87675 102 98 115
-9.42019 3.29467 -1.87894 94 90 107
-9.40002 3.31637 -1.87661 96 94 111
-9.37634 3.35138 -1.8747 96 98 114
-9.37755 3.382 -1.87779 90 92 106
-9.38044 3.41342 -1.88133 96 95 109
-7.69293 6.03668 -1.89264 97 94 113
-7.68163 6.06494 -1.89528 95 97 112
-7.64519 6.08846 -1.89294 97 99 114
-7.63226 6.11529 -1.89514 95 97 112
-7.60664 6.1299 -1.89328 97 100 113
-7.58937 6.15258 -1.89413 98 101 116
-6.95501 7.18204 -1.89713 102 96 110
-6.93645 7.20611 -1.89882 100 94 108
-6.91417 7.22554 -1.8992 101 97 111
-6.89062 7.24338 -1.89915 101 95 107
-6.47228 8.00463 -1.91049 140 101 104
-6.44418 8.01795 -1.9096 137 101 105
-6.0184 8.7713 -1.91844 129 102 107
-5.98524 8.77796 -1.91638 131 100 108
-5.96055 8.79994 -1.91795 132 99 110
-5.55565 9.49353 -1.92176 108 99 100
-5.52003 9.49669 -1.9194 114 104 102
-4.74612 9.87237 -1.83238 118 101 94
-4.7094 9.87084 -1.82977 115 100 93
-3.84218 10.3139 -1.7363 149 136 128
-11.4699 0.268841 -1.89019 99 107 128
-11.4741 0.305043 -1.89123 93 99 123
-11.0744 0.728413 -1.87658 91 99 118
-11.0732 0.759049 -1.87691 95 102 121
-10.5809 1.41268 -1.87047 138 135 149
-10.566 1.44013 -1.86828 137 139 151
-10.1233 2.04558 -1.86613 96 98 113
-10.1203 2.08862 -1.86777 93 89 96
-10.0997 2.11294 -1.86463 140 127 125
-9.49269 3.05544 -1.87371 89 92 107
-9.48772 3.08316 -1.87499 90 89 105
-9.47356 3.10738 -1.87401 91 87 108
-9.47983 3.15425 -1.87933 93 92 108
-9.46184 3.17699 -1.87745 93 95 107
-9.44017 3.19822 -1.87467 99 101 114
-9.46184 3.23678 -1.88272 93 95 110
-7.55537 6.17831 -1.89269 97 99 114
-7.54346 6.20634 -1.89534 98 97 114
-7.51765 6.2206 -1.89348 97 96 112
-7.49436 6.25702 -1.89565 98 97 113
-7.48073 6.28357 -1.89784 98 97 113
-6.85438 7.26846 -1.89864 98 95 106
-6.8307 7.28612 -1.89859 100 95 108
-6.80219 7.29752 -1.89681 101 95 109
-6.42562 8.04593 -1.91249 136 99 106
-6.38999 8.0476 -1.90868 137 101 106
-6.36171 8.08855 -1.91279 137 100 108
-5.91538 8.81731 -1.91668 132 103 107
-5.88588 8.83049 -1.91623 131 101 109
-5.47677 9.52263 -1.9205 113 102 99
-5.45404 9.55411 -1.92433 115 101 101
-4.67071 9.86365 -1.82606 118 100 92
-4.63411 9.86186 -1.82345 115 98 88
-3.81044 10.3281 -1.73732 149 135 126
-3.77572 10.3308 -1.73625 149 135 126
-11.4675 0.232718 -1.8895 90 98 117
-11.0776 0.651923 -1.87598 97 100 118
-11.0794 0.69806 -1.87707 96 101 121
-10.5972 1.34072 -1.87151 149 143 159
-10.5764 1.38219 -1.86844 141 141 153
-10.1534 1.9504 -1.86771 93 96 111
-10.1319 1.98922 -1.86497 95 98 115
-10.1362 2.01935 -1.86752 94 97 114
-9.5629 2.97818 -1.88253 99 96 115
-9.53626 2.99796 -1.8784 92 89 108
-9.51689 3.02033 -1.87607 88 88 106
-7.46292 6.30592 -1.89868 97 95 112
-7.42829 6.33099 -1.89725 98 97 111
-7.41165 6.3546 -1.89855 97 96 110
-7.38954 6.37256 -1.89804 99 96 113
-7.35599 6.39866 -1.89706 97 96 112
-6.77635 7.33615 -1.90021 101 95 109
-6.74892 7.3489 -1.89886 101 95 109
-6.72615 7.36779 -1.89924 101 95 109
-6.32189 8.08334 -1.90731 137 101 107
-6.31439 8.12925 -1.91479 136 99 107
-5.85726 8.84531 -1.91619 130 102 110
-5.83136 8.86522 -1.91736 130 103 110
-5.42314 9.56765 -1.92429 117 105 105
-5.37633 9.58599 -1.92385 126 112 109
-4.58463 9.87284 -1.8223 119 101 93
-3.72525 10.3394 -1.73551 153 138 128
-11.4673 0.178652 -1.88916 99 105 125
-11.0987 0.591843 -1.8794 92 99 118
-11.0901 0.62203 -1.87809 96 101 120
-10.6573 1.28976 -1.88265 93 94 112
-10.6485 1.31842 -1.88172 91 87 103
-10.1347 1.84491 -1.85836 94 93 109
-10.1518 1.89189 -1.86436 92 93 113
-10.1564 1.92196 -1.86691 98 99 116
-9.62515 2.82373 -1.88386 93 92 110
-9.60257 2.84529 -1.88063 90 89 105
-9.62687 2.89786 -1.89001 94 93 107
-9.58941 2.91408 -1.88316 94 92 107
-9.58311 2.94133 -1.88399 105 102 119
-7.33908 6.4221 -1.89836 97 95 111
-7.31944 6.44266 -1.89875 99 96 113
-7.29972 6.46317 -1.89915 99 96 113
-7.27107 6.49454 -1.89997 99 96 113
-7.24591 6.50917 -1.89857 97 93 109
-6.69168 7.39523 -1.8996 102 96 110
-6.66992 7.41552 -1.90042 102 96 110
-6.64115 7.42633 -1.89864 102 96 110
-6.2649 8.13678 -1.91054 136 98 109
-6.24468 8.16272 -1.91301 135 98 106
-6.20697 8.16028 -1.90836 139 103 107
-5.78775 8.88543 -1.91689 119 102 110
-5.75626 8.89473 -1.91564 116 101 112
-5.34535 9.59929 -1.92381 114 100 94
-5.3143 9.61249 -1.92377 108 96 91
-4.54549 9.86333 -1.81822 120 102 95
-4.51096 9.86668 -1.81671 120 104 97
-11.0943 0.545584 -1.87789 100 103 122
-10.6597 1.18561 -1.87997 98 103 122
-10.6261 1.21094 -1.87356 97 100 119
-10.6505 1.24405 -1.87981 98 103 122
-10.1454 1.74615 -1.856 96 94 113
-10.1706 1.79442 -1.86375 106 103 115
-10.1489 1.81893 -1.86018 101 99 113
-9.647 2.6704 -1.87704 91 93 109
-9.65999 2.7038 -1.88238 94 94 112
-9.64512 2.72809 -1.88096 88 85 104
-9.63323 2.76784 -1.8813 95 92 109
-9.62371 2.7939 -1.88123 89 88 106
-7.22859 6.53235 -1.89986 97 93 108
-7.18915 6.55186 -1.89709 102 98 112
-7.17427 6.57779 -1.89928 101 95 109
-7.15799 6.60225 -1.90103 103 97 111
-6.61672 7.46758 -1.9029 103 97 109
-6.57757 7.46396 -1.89722 103 97 109
-6.56008 7.49028 -1.89977 102 96 108
-6.17374 8.19394 -1.9108 140 101 106
-6.1492 8.21297 -1.91159 137 98 106
-6.12056 8.22522 -1.91071 140 101 106
-5.72745 8.90915 -1.9156 115 103 113
-5.68545 8.93235 -1.91594 112 101 110
-5.26576 9.62671 -1.92255 111 98 92
-4.45769 9.86591 -1.81335 119 100 94
-4.42447 9.87269 -1.81259 113 97 90
-11.1109 0.485057 -1.8805 96 99 118
-11.1105 0.515741 -1.88082 97 100 119
-10.6452 1.10941 -1.87468 97 101 120
-10.6604 1.15588 -1.87921 101 102 122
-10.183 1.66695 -1.8606 148 129 117
-10.175 1.69426 -1.86009 144 134 125
-10.1688 1.72191 -1.86001 89 85 89
-9.65507 2.49967 -1.86663 60 66 81
-9.63918 2.56664 -1.86781 93 92 110
-9.63587 2.59446 -1.86909 91 90 108
-9.66027 2.63121 -1.87714 91 92 110
-7.11314 6.61552 -1.89645 102 96 110
-7.09541 6.63836 -1.89775 103 95 110
-7.07887 6.66263 -1.89949 104 97 109
-7.04536 6.68865 -1.89897 106 102 111
-6.53795 7.51021 -1.90059 107 96 109
-6.49716 7.52884 -1.89878 114 97 109
-6.47601 7.5502 -1.90004 118 98 110
-6.07995 8.24677 -1.91023 140 100 108
-6.06114 8.27564 -1.91353 140 100 108
-5.65739 8.9483 -1.91631 112 102 113
-5.62842 8.96242 -1.91627 103 95 103
-5.23847 9.6487 -1.92445 108 94 89
-5.20424 9.65435 -1.92287 108 97 88
-4.38688 9.86632 -1.80924 116 98 91
-11.118 0.408659 -1.88111 93 99 118
-11.108 0.438922 -1.8794 94 103 120
-10.6671 1.05261 -1.87779 95 101 120
-10.6746 1.08324 -1.88025 97 102 121
-10.2089 1.57099 -1.86218 157 138 129
-10.1993 1.59805 -1.86123 148 127 113
-10.1858 1.62437 -1.8594 143 126 116
-9.69562 2.41137 -1.8696 136 136 146
-9.68151 2.45015 -1.86904 140 140 149
-9.68791 2.48083 -1.87258 144 147 158
-7.02229 6.70542 -1.89847 98 95 105
-6.99788 6.72064 -1.89752 91 88 99
-6.97721 6.74023 -1.89792 92 88 102
-6.9509 6.77471 -1.90008 97 91 105
-6.44808 7.5619 -1.89869 118 95 112
-6.40823 7.58168 -1.89732 119 98 113
-6.38795 7.60441 -1.89901 121 98 113
-6.03037 8.28422 -1.91182 140 101 106
-5.99863 8.291 -1.90968 137 101 105
-5.58613 8.98517 -1.91661 104 95 103
-5.5579 9.00082 -1.91697 95 90 97
-5.1685 9.65626 -1.92051 108 97 91
-5.1258 9.68429 -1.92239 116 103 97
-4.33811 9.87799 -1.80846 115 98 89
-4.2988 9.8657 -1.80401 112 98 89
-11.1122 0.347113 -1.87924 96 103 120
-11.1102 0.377695 -1.87916 100 102 122
-10.6942 0.981379 -1.88179 100 106 122
-10.6883 1.01048 -1.88129 97 102 121
-10.2091 1.4993 -1.85931 96 103 119
-9.82454 2.39096 -1.89685 150 146 160
-9.7058 2.38566 -1.87012 140 137 148
-6.93005 6.79417 -1.90048 104 98 112
-6.90168 6.80457 -1.89819 105 101 115
-6.86756 6.82975 -1.89766 108 102 114
-6.84775 6.85047 -1.89851 107 101 114
-6.36429 7.62225 -1.8994 122 98 112
-6.33074 7.65131 -1.90063 134 102 109
-6.3015 7.66089 -1.89885 135 99 106
-5.96455 8.32385 -1.91213 142 103 108
-5.9366 8.33719 -1.91167 140 102 106
-5.5236 9.00408 -1.91452 98 91 99
-5.4845 9.03342 -1.91647 106 102 109
-5.09153 9.68956 -1.92081 114 99 94
-5.0602 9.70199 -1.92077 116 101 96
-4.26323 9.86449 -1.80178 113 98 90
-11.1299 0.27101 -1.88229 97 99 120
-11.1165 0.301299 -1.87977 93 99 117
-10.6876 0.906476 -1.87861 99 102 121
-10.6922 0.951435 -1.88061 96 102 120
-10.2371 1.4036 -1.86176 138 136 147
-10.228 1.43081 -1.86081 138 135 146
-10.3322 1.54904 -1.88852 103 100 117
-9.75168 2.1703 -1.86664 145 125 118
-9.74403 2.19669 -1.86656 146 127 113
-9.75511 2.22812 -1.87101 149 132 123
-9.74185 2.2672 -1.87045 90 86 92
-9.80837 2.34307 -1.89018 85 86 107
-6.83403 6.87871 -1.90161 105 99 113
-6.78859 6.8899 -1.89704 103 97 111
-6.76735 6.90888 -1.89744 102 98 112
-6.75452 6.93849 -1.90098 103 98 112
-6.2798 7.68173 -1.90011 131 100 106
-6.23414 7.69251 -1.89657 132 99 106
-5.90958 8.35214 -1.91162 139 103 105
-5.86652 8.36929 -1.9103 139 103 107
-5.83655 8.3789 -1.90901 138 102 106
-5.45778 9.0523 -1.91764 103 97 103
-5.42176 9.05166 -1.91438 122 117 123
-5.01211 9.7168 -1.91994 118 103 96
-4.21629 9.8812 -1.8021 119 102 96
-4.17956 9.87596 -1.79913 121 106 100
-11.1294 0.194356 -1.88169 95 104 122
-11.1198 0.240108 -1.87994 96 103 122
-10.7312 0.82156 -1.88603 98 101 120
-10.7064 0.848967 -1.88131 101 104 123
-10.7029 0.878314 -1.88123 95 98 117
-10.2473 1.3479 -1.86191 141 137 151
-10.248 1.37664 -1.86315 136 136 146
-9.77015 2.13262 -1.86855 149 132 121
-8.62427 3.9431 -1.88377 103 102 118
-8.61438 3.96797 -1.88465 99 101 116
-8.6061 3.99375 -1.88601 100 102 117
-8.58288 4.02631 -1.88497 100 102 117
-8.571 4.05015 -1.88538 101 103 118
-8.56074 4.07491 -1.88627 103 102 120
-8.54363 4.09584 -1.88526 102 99 120
-8.53682 4.13768 -1.88894 100 101 119
-8.52121 4.15948 -1.88841 105 107 122
-8.49545 4.17541 -1.88505 104 106 121
-8.48148 4.21327 -1.88685 103 102 118
-8.46899 4.23685 -1.88726 102 101 119
-8.45977 4.26239 -1.88861 103 102 120
-8.42033 4.2852 -1.88334 101 100 118
-8.41259 4.31163 -1.88517 104 103 121
-8.40311 4.33705 -1.88652 103 102 120
-8.38993 4.37567 -1.88879 99 100 118
-8.37525 4.398 -1.88873 98 99 117
-8.36051 4.42029 -1.88867 99 102 119
-8.34569 4.44253 -1.88861 99 102 119
-8.32537 4.47685 -1.88899 100 101 119
-8.30875 4.49794 -1.88846 102 103 119
-8.29531 4.52109 -1.88888 103 102 118
-8.27461 4.5552 -1.88926 102 101 118
-8.26101 4.57825 -1.88967 101 100 118
-8.2457 4.6002 -1.88961 100 103 120
-8.21976 4.63088 -1.88859 99 101 116
-8.20105 4.65055 -1.88759 97 100 115
-8.19195 4.67666 -1.88941 99 100 116
-8.15764 4.7016 -1.88603 100 99 117
-8.15477 4.73203 -1.88974 100 99 117
-8.13576 4.75145 -1.88874 97 96 114
-8.13745 4.78522 -1.89386 100 99 117
-8.10911 4.81423 -1.89236 102 101 117
-8.08828 4.83236 -1.89089 101 103 117
-8.06741 4.85042 -1.88943 100 101 119
-8.04511 4.88359 -1.88981 100 101 119
-8.02095 4.89921 -1.8874 99 102 119
-8.02033 4.93188 -1.89205 98 102 119
-7.98511 4.95565 -1.88867 99 101 119
-7.96705 4.97562 -1.88815 99 100 118
-7.95359 4.99901 -1.88903 100 100 118
-7.93833 5.03755 -1.89177 98 101 118
-7.91536 5.05384 -1.88983 99 105 120
-7.90163 5.07712 -1.89072 100 102 117
-6.7174 6.95991 -1.89956 103 97 111
-6.69352 6.97562 -1.89906 104 98 112
-6.6708 6.99279 -1.89901 105 99 111
-6.21977 7.7246 -1.90086 134 100 108
-6.18403 7.72396 -1.89648 138 101 109
-6.16419 7.74777 -1.8986 135 98 105
-5.82165 8.4158 -1.91441 136 104 109
-5.76994 8.41706 -1.90932 128 101 107
-5.37984 9.07526 -1.91513 122 116 122
-4.98141 9.73081 -1.9203 118 104 96
-4.94425 9.72829 -1.91717 119 104 97
-4.14233 9.86871 -1.79578 122 107 101
-10.7241 0.776404 -1.88362 95 102 121
-10.2843 1.28178 -1.86779 98 101 120
-10.3219 1.3159 -1.87733 102 99 114
-9.82911 2.01978 -1.87521 92 97 116
-9.82439 2.0611 -1.87646 92 95 112
-9.84353 2.09434 -1.88271 97 96 109
-9.87576 2.13108 -1.89213 117 107 108
-8.78028 3.60676 -1.87898 93 90 107
-8.77152 3.63193 -1.87986 96 94 108
-8.77433 3.67735 -1.88542 98 95 111
-8.74794 3.69393 -1.88159 90 88 105
-8.73715 3.71818 -1.882 98 95 112
-8.72975 3.74415 -1.88335 92 91 107
-8.70246 3.77473 -1.8809 101 99 113
-8.70006 3.80329 -1.88367 101 100 116
-8.68373 3.82475 -1.88266 104 105 119
-8.65955 3.85683 -1.88116 94 96 111
-8.6551 3.88448 -1.88345 89 90 108
-8.64026 3.90668 -1.88292 98 97 113
-7.8832 5.09681 -1.89019 99 100 116
-7.85968 5.12921 -1.89058 100 99 117
-7.83802 5.14638 -1.88912 97 98 118
-7.83163 5.17547 -1.89235 97 98 116
-7.8062 5.20645 -1.89227 98 99 117
-7.78737 5.22583 -1.89175 99 98 116
-7.76396 5.2415 -1.88981 101 100 118
-7.73973 5.2734 -1.8902 99 96 116
-7.72974 5.29994 -1.8925 99 98 116
-7.70915 5.31783 -1.8915 96 97 115
-6.6516 7.01452 -1.90031 104 98 110
-6.61771 7.04007 -1.90024 105 98 113
-6.59597 7.05856 -1.90064 105 98 113
-6.12467 7.76777 -1.89767 133 98 105
-6.10566 7.79309 -1.90023 134 99 106
-6.07202 7.79525 -1.89671 134 99 106
-5.74917 8.44354 -1.91221 126 100 109
-5.72273 8.45964 -1.91259 126 100 110
-5.35128 9.0903 -1.91549 121 116 121
-5.31693 9.09281 -1.91304 143 141 147
-4.89961 9.7517 -1.91827 120 106 97
-4.09534 9.88487 -1.79611 129 114 106
-10.7402 0.718361 -1.88589 93 100 119
-10.7332 0.747485 -1.88496 93 100 119
-10.288 1.21078 -1.86623 95 98 113
-10.2833 1.253 -1.86656 95 98 115
-9.81439 1.88938 -1.8647 94 96 111
-9.85886 1.92776 -1.87683 97 100 117
-9.83373 1.96424 -1.8731 91 94 111
-9.83051 1.99178 -1.87393 99 102 119
-8.86684 3.38522 -1.87436 91 90 104
-8.87831 3.4193 -1.88042 97 97 111
-8.85605 3.43825 -1.87753 91 92 106
-8.85669 3.4676 -1.88077 98 98 114
-8.82525 3.49661 -1.8769 91 92 105
-8.83447 3.53008 -1.8825 87 86 100
-8.82246 3.55372 -1.88243 94 93 109
-8.78718 3.58074 -1.87763 92 89 106
-7.68456 5.3495 -1.89189 97 98 116
-7.6668 5.36973 -1.89184 98 101 118
-7.65049 5.39116 -1.89226 96 97 115
-7.62963 5.40878 -1.89126 98 97 115
-7.60901 5.44389 -1.89306 100 99 117
-7.58507 5.45883 -1.89113 99 98 116
-7.57285 5.48384 -1.89296 100 99 115
-7.54303 5.51111 -1.89194 96 97 112
-7.52186 5.52835 -1.89095 97 96 114
-6.57065 7.07232 -1.8997 106 100 114
-6.54115 7.10374 -1.90142 99 93 107
-6.51339 7.11419 -1.89958 101 95 109
-6.03849 7.82474 -1.89838 135 100 106
-6.00996 7.83493 -1.89704 136 100 107
-5.67745 8.47241 -1.91043 129 103 104
-5.65 8.48657 -1.91039 128 101 105
-5.29156 9.11478 -1.91501 144 137 145
-5.24446 9.1271 -1.91335 149 143 146
-4.86669 9.75988 -1.91747 120 105 98
-4.83444 9.76978 -1.91705 120 105 97
-4.06048 9.88486 -1.79424 130 113 105
-4.02566 9.88473 -1.79237 134 119 111
-10.7627 0.645846 -1.88947 92 101 119
-10.7501 0.674626 -1.88727 94 103 120
-10.2935 1.1116 -1.86431 97 100 117
-10.2932 1.15431 -1.86551 97 96 114
-10.3003 1.1838 -1.86806 104 110 124
-9.84464 1.79789 -1.86676 103 102 118
-9.81722 1.81996 -1.86171 101 100 116
-9.81918 1.86237 -1.86432 95 94 110
-8.95535 3.18002 -1.87348 86 88 103
-8.95191 3.22124 -1.87668 85 84 100
-8.95875 3.25279 -1.88134 89 86 103
-8.92978 3.26916 -1.87656 90 87 104
-8.92585 3.31041 -1.87976 102 100 114
-8.90385 3.32965 -1.87687 95 95 107
-8.90671 3.35975 -1.88058 96 94 108
-7.50062 5.54552 -1.88995 98 99 117
-7.47344 5.57501 -1.88987 96 98 113
-7.44341 5.58422 -1.88606 97 99 114
-7.43357 5.61154 -1.88883 98 100 115
-7.41182 5.64596 -1.89063 99 98 114
-7.39458 5.66668 -1.89105 101 100 116
-7.36726 5.67813 -1.88818 99 98 116
-6.48909 7.12924 -1.89908 102 96 110
-6.4627 7.16506 -1.90215 101 95 109
-6.43139 7.17048 -1.89896 103 97 111
-5.98551 7.85167 -1.89743 135 98 104
-5.95367 7.88415 -1.89996 140 101 104
-5.6216 8.49891 -1.90993 129 102 107
-5.60218 8.52851 -1.91366 124 101 109
-5.21892 9.14888 -1.91532 149 139 137
-5.18534 9.15271 -1.91327 144 135 134
-4.78748 9.7872 -1.91699 121 107 98
-3.99364 9.89391 -1.79234 133 117 110
-10.771 0.57217 -1.89009 97 104 121
-10.7616 0.61606 -1.8887 95 103 121
-10.3193 1.05763 -1.86841 97 100 118
-10.3171 1.08592 -1.86877 97 100 117
-9.85291 1.70173 -1.86386 140 129 126
-9.86688 1.74652 -1.86917 94 92 104
-9.85676 1.77243 -1.86819 103 102 116
-9.04244 3.05896 -1.88137 88 87 103
-9.03553 3.08464 -1.88225 90 89 105
-9.01773 3.10597 -1.8803 93 92 108
-8.98771 3.13635 -1.87643 89 90 108
-8.98952 3.1656 -1.87967 90 93 108
-7.35274 5.70137 -1.88954 100 99 117
-7.33051 5.73552 -1.89134 101 100 116
-7.31012 5.75335 -1.89082 101 100 114
-7.28404 5.76576 -1.88842 100 99 115
-7.26425 5.80234 -1.89117 100 101 116
-7.23527 5.81186 -1.88782 100 99 115
-6.40693 7.18527 -1.89847 101 95 109
-6.37451 7.21286 -1.89929 100 96 110
-6.35441 7.23383 -1.90059 104 98 112
-5.923 7.8907 -1.89775 139 100 103
-5.89835 7.90719 -1.89814 140 99 105
-5.55757 8.54241 -1.91192 114 101 111
-5.5308 8.55794 -1.9123 112 100 110
-5.13892 9.1663 -1.91201 141 134 131
-5.11004 9.18062 -1.91238 135 126 124
-4.76059 9.81157 -1.91967 120 104 96
-4.72551 9.81377 -1.9177 123 106 99
-3.94487 9.90373 -1.79156 138 124 117
-3.90683 9.89187 -1.78749 141 128 123
-10.7643 0.512405 -1.88772 94 100 119
-10.7638 0.542031 -1.88806 94 101 120
-10.3309 0.987644 -1.86904 97 100 119
-10.3153 1.01444 -1.86633 100 101 121
-9.87266 1.64984 -1.86581 143 125 115
-9.86474 1.67619 -1.86529 140 126 113
-9.07483 2.87433 -1.87192 90 92 105
-9.08114 2.94676 -1.87978 92 92 107
-9.08187 2.97527 -1.88254 91 90 106
-9.04625 2.98985 -1.87587 90 89 105
-9.06012 3.03752 -1.88333 88 87 103
-7.22303 5.83751 -1.89012 100 99 117
-7.19864 5.86983 -1.89146 101 100 118
-7.18617 5.89542 -1.89376 100 99 117
-7.15703 5.90457 -1.89042 100 99 117
-7.13091 5.93526 -1.89129 97 96 112
-6.32641 7.24359 -1.89875 104 98 112
-6.29504 7.24847 -1.89556 107 99 112
-6.26228 7.27557 -1.89639 110 97 107
-5.86117 7.93094 -1.89851 140 100 106
-5.83439 7.94388 -1.89804 141 101 107
-5.81054 7.96179 -1.89886 141 102 107
-5.49694 8.55943 -1.90934 111 101 109
-5.07954 9.19126 -1.91194 132 124 124
-4.67966 9.83438 -1.91842 125 107 99
-3.87532 9.90258 -1.78783 144 129 122
-10.7755 0.438909 -1.88918 94 99 118
-10.7616 0.467825 -1.88657 95 101 117
-10.3307 0.930639 -1.86744 96 101 120
-10.3328 0.959337 -1.86868 99 103 122
-9.88312 1.58221 -1.86509 150 129 117
-9.88113 1.60971 -1.86592 147 128 110
-9.14748 2.77486 -1.87976 91 93 108
-9.13968 2.80006 -1.88016 87 89 104
-9.14277 2.82919 -1.8834 91 90 106
-9.11934 2.86264 -1.88095 87 86 102
-9.11402 2.91697 -1.88459 90 92 107
-7.10856 5.95106 -1.8903 100 99 115
-7.0889 5.96956 -1.89025 98 97 111
-7.05837 5.9958 -1.8897 98 97 113
-7.04265 6.01834 -1.89106 98 97 113
-7.02413 6.03803 -1.89149 99 98 114
-6.24744 7.30428 -1.89994 119 99 111
-6.2182 7.31204 -1.89765 119 98 111
-6.18292 7.3356 -1.89758 118 97 112
-5.77211 7.98346 -1.8988 140 101 106
-5.74326 7.99274 -1.89746 141 102 107
-5.46272 8.59379 -1.91262 112 102 110
-5.42363 8.58451 -1.90715 111 101 109
-5.40359 8.61368 -1.91087 111 101 109
-5.03453 9.20794 -1.91148 129 119 124
-5.0055 9.22195 -1.91185 117 105 109
-4.64722 9.84369 -1.918 124 107 100
-4.61148 9.84367 -1.91565 124 107 98
-3.82285 9.89858 -1.78448 145 131 122
-10.7914 0.380331 -1.89188 100 104 124
-10.7738 0.409181 -1.88842 95 100 119
-10.3529 0.861661 -1.8707 94 101 119
-10.3494 0.889813 -1.87062 98 102 121
-9.90587 1.46126 -1.86498 140 141 153
-9.91601 1.51872 -1.8698 97 97 113
-10.0095 1.5779 -1.89366 116 102 108
-9.20051 2.66781 -1.88288 94 94 111
-9.17838 2.68813 -1.87951 91 92 110
-9.16711 2.71213 -1.87898 94 93 111
-9.16685 2.73992 -1.88127 90 91 109
-7.00556 6.05768 -1.89191 99 98 114
-6.97596 6.08494 -1.89183 101 98 115
-6.95454 6.10162 -1.89132 101 98 115
-6.93442 6.11965 -1.89127 100 97 114
-6.9032 6.14516 -1.89073 99 98 112
-6.1645 7.3593 -1.89978 123 99 115
-6.12978 7.35864 -1.89525 123 98 112
-5.72308 8.01717 -1.90002 140 100 108
-5.6951 8.02798 -1.89911 139 102 107
-5.36385 8.63715 -1.91165 112 101 109
-4.97489 9.23226 -1.91141 116 106 110
-4.5758 9.84352 -1.9133 122 105 95
-3.78767 9.89576 -1.78224 148 135 127
-3.75562 9.90422 -1.78222 157 144 138
-10.784 0.305935 -1.88955 92 95 114
-10.79 0.335796 -1.89115 95 97 118
-9.93597 1.39702 -1.86923 139 138 146
-9.9173 1.42165 -1.86599 140 139 147
-9.20874 2.4774 -1.86966 154 154 167
-9.19687 2.52856 -1.87094 80 83 99
-9.17289 2.56196 -1.86801 89 94 110
-9.20269 2.59929 -1.87786 90 95 110
-9.19178 2.62338 -1.87732 92 94 109
-6.88425 6.16447 -1.89115 100 98 112
-6.87182 6.19089 -1.89392 99 96 113
-6.83112 6.20603 -1.89009 101 98 115
-6.81457 6.22802 -1.89145 100 98 112
-6.10178 7.39317 -1.89832 129 99 107
-6.07989 7.4118 -1.89918 129 99 109
-6.05368 7.42383 -1.89823 130 99 110
-5.65635 8.04912 -1.89905 137 100 107
-5.62831 8.0597 -1.89814 139 103 107
-5.33081 8.63977 -1.9091 114 101 110
-5.302 8.6511 -1.90865 114 102 110
-4.9312 9.25207 -1.91176 114 104 105
-4.90201 9.26577 -1.91213 107 95 97
-4.53102 9.86716 -1.9148 126 108 99
-4.49534 9.86673 -1.91245 127 109 99
-3.70283 9.89771 -1.7785 160 148 140
-9.93462 1.3413 -1.86667 146 142 156
-9.93918 1.36977 -1.86886 137 135 146
-9.23996 2.3913 -1.87036 136 135 143
-9.23527 2.41723 -1.87124 141 139 150
-9.23235 2.44372 -1.87258 140 140 150
-6.79016 6.24129 -1.89 101 97 112
-6.76356 6.27193 -1.89133 100 97 112
-6.74031 6.28647 -1.89035 103 99 116
-6.7209 6.30532 -1.89077 102 98 115
-6.01367 7.44007 -1.89637 131 98 108
-5.99474 7.46338 -1.89857 133 100 107
-5.59741 8.06507 -1.89593 137 102 106
-5.55289 8.07549 -1.89327 130 98 109
-5.26455 8.67941 -1.91068 113 102 110
-5.22901 8.67636 -1.90688 114 103 111
-4.86908 9.27031 -1.91048 104 92 92
-4.84419 9.29472 -1.91327 112 98 98
-4.46346 9.87733 -1.91241 127 109 97
-3.67178 9.90971 -1.77921 160 146 137
-10.0004 1.28219 -1.87952 97 97 115
-10.0552 1.31858 -1.89347 94 90 107
-9.25775 2.2741 -1.86593 90 92 100
-9.28701 2.30973 -1.87531 95 97 112
-9.24085 2.35076 -1.86762 113 109 123
-6.70652 6.32998 -1.89307 103 101 116
-6.67309 6.35293 -1.89206 105 102 116
-6.65471 6.37307 -1.89296 98 95 110
-6.62615 6.38132 -1.89009 96 92 106
-5.9684 7.47512 -1.89763 137 102 109
-5.94411 7.49008 -1.89759 135 99 107
-5.90698 7.51072 -1.89707 135 100 107
-5.5313 8.09775 -1.8954 127 99 111
-5.5059 8.11308 -1.89579 127 101 111
-5.20832 8.7051 -1.91061 115 102 111
-5.18667 8.73203 -1.91392 114 101 110
-4.7973 9.30666 -1.912 114 103 101
-4.41412 9.88746 -1.91121 124 106 96
-4.38644 9.91085 -1.91388 125 105 96
-3.64265 9.92923 -1.78139 163 149 140
-9.29033 2.14807 -1.86485 140 121 110
-9.28486 2.18699 -1.86616 141 125 112
-9.27896 2.21243 -1.86657 143 124 110
-9.36459 2.35972 -1.89696 91 93 108
-8.20916 3.73486 -1.86262 97 96 110
-8.20263 3.77414 -1.86599 104 103 117
-8.184 3.82154 -1.86785 93 91 104
-8.18205 3.86368 -1.87271 92 91 104
-8.17416 3.88832 -1.87413 98 96 110
-8.16282 3.91103 -1.87457 100 97 112
-8.12456 3.9183 -1.8671 96 94 108
-8.13206 3.96624 -1.87492 102 101 115
-8.09541 3.97419 -1.86794 102 101 117
-8.09714 4.00455 -1.87233 104 103 118
-8.07911 4.03781 -1.87274 102 101 117
-8.04901 4.04933 -1.86774 102 101 117
-8.05042 4.07971 -1.87213 104 103 119
-8.03862 4.11681 -1.87452 104 103 119
-7.99685 4.12093 -1.86606 103 102 118
-8.01603 4.16253 -1.87589 102 104 119
-7.97589 4.18211 -1.86987 101 104 119
-7.97669 4.21256 -1.87426 102 101 117
-7.96267 4.23372 -1.8742 102 101 117
-7.93062 4.24338 -1.86871 101 103 118
-7.92931 4.28749 -1.87456 103 102 120
-7.89395 4.2948 -1.86808 103 102 118
-7.91043 4.33585 -1.87741 107 104 121
-7.86012 4.34806 -1.86844 102 100 119
-7.88113 4.39247 -1.87925 99 100 118
-7.83275 4.39072 -1.86882 99 100 118
-7.82887 4.43373 -1.87417 102 100 118
-7.80455 4.4479 -1.87115 103 102 118
-7.79936 4.47512 -1.87406 103 102 118
-7.7663 4.49832 -1.87052 102 101 117
-7.76726 4.52992 -1.8754 100 99 117
-7.73005 4.53488 -1.86843 99 100 118
-7.73239 4.56759 -1.87381 100 104 116
-7.69745 4.58921 -1.86978 101 102 118
-7.71524 4.63326 -1.88009 100 97 116
-7.66851 4.63094 -1.87016 101 98 117
-7.67402 4.68182 -1.87897 97 98 116
-7.63668 4.68602 -1.872 100 101 119
-7.6305 4.71306 -1.87491 99 101 119
-7.60128 4.73858 -1.87286 98 99 117
-7.60106 4.77026 -1.87774 98 99 117
-7.56367 4.77392 -1.87077 97 98 116
-7.54344 4.80612 -1.87168 97 100 117
-6.60003 6.4128 -1.8919 101 97 111
-6.58393 6.43572 -1.89374 94 90 104
-6.55278 6.44069 -1.88993 93 89 104
-5.88052 7.52218 -1.89613 137 100 108
-5.86119 7.54516 -1.89834 140 100 109
-5.46675 8.13336 -1.89573 128 102 112
-5.44579 8.15713 -1.89829 129 101 111
-5.13013 8.71894 -1.90633 114 103 111
-5.10513 8.73854 -1.90797 114 103 111
-4.76718 9.31814 -1.91197 112 101 99
-4.73987 9.33682 -1.91355 120 109 111
-4.34838 9.90247 -1.90999 127 107 98
-3.59287 9.93358 -1.77988 163 146 136
-9.31476 2.1006 -1.86734 94 87 95
-9.30727 2.12561 -1.86727 151 135 130
-8.32408 3.44151 -1.85347 91 90 104
-8.34894 3.52383 -1.86865 92 89 107
-8.34226 3.54872 -1.87007 97 95 109
-8.29926 3.55517 -1.86111 99 97 111
-8.30061 3.5981 -1.86646 94 92 109
-8.2971 3.62469 -1.86888 87 86 101
-8.29863 3.65399 -1.87277 99 98 112
-8.27949 3.67251 -1.87074 97 95 109
-8.28016 3.71562 -1.87608 97 93 108
-8.22846 3.71663 -1.86466 93 91 105
-8.21878 3.81187 -1.87434 97 98 111
-7.54902 4.84251 -1.87854 97 100 117
-7.51005 4.8446 -1.87108 97 100 117
-7.51083 4.87745 -1.87646 97 98 116
-7.46878 4.89269 -1.87046 99 101 116
-7.47688 4.93156 -1.8783 97 99 114
-7.4379 4.9331 -1.87085 99 100 118
-7.42137 4.96845 -1.87323 98 100 115
-7.41248 4.99403 -1.87565 98 97 113
-7.3915 5.00982 -1.87412 96 95 111
-7.36259 5.0352 -1.87256 99 98 114
-7.32486 5.07004 -1.87098 98 97 115
-6.5226 6.46739 -1.89034 101 95 109
-6.50133 6.48412 -1.89029 102 95 108
-6.48122 6.50229 -1.89072 100 94 108
-5.82583 7.56874 -1.89872 135 100 107
-5.80125 7.58326 -1.89868 136 101 108
-5.77562 7.59604 -1.89819 136 99 107
-5.41838 8.16876 -1.89782 128 102 114
-5.37449 8.17996 -1.89559 117 100 110
-5.07685 8.75095 -1.90793 115 104 112
-4.69214 9.34643 -1.91189 119 107 104
-4.29839 9.91018 -1.90839 128 108 97
-3.55927 9.93571 -1.77875 166 150 138
-9.36253 2.01859 -1.87324 93 91 108
-9.35906 2.04469 -1.87412 97 95 111
-9.34423 2.06789 -1.87216 94 96 113
-8.45354 3.30884 -1.86823 92 90 104
-8.4511 3.33554 -1.87064 96 94 108
-8.40481 3.3553 -1.86215 92 91 105
-8.39522 3.37858 -1.86258 92 94 109
-8.38903 3.40352 -1.864 94 93 109
-8.35998 3.43116 -1.86045 94 94 106
-8.37317 3.49378 -1.87072 97 93 108
-7.37132 5.07551 -1.8809 99 98 116
-7.31052 5.10754 -1.87435 98 97 115
-7.28333 5.11792 -1.87085 99 98 114
-7.28709 5.15458 -1.8777 100 97 114
-7.25981 5.16483 -1.8742 99 98 116
-7.23465 5.1933 -1.87412 98 96 117
-7.2088 5.20459 -1.87111 99 98 116
-7.19601 5.22726 -1.87254 99 98 114
-6.45317 6.53171 -1.89206 101 95 109
-6.42804 6.54368 -1.8906 103 97 111
-6.40652 6.56012 -1.89056 102 96 110
-6.38373 6.57498 -1.89005 106 100 114
-5.74001 7.61923 -1.89857 138 102 104
-5.70735 7.62007 -1.89494 140 101 104
-5.35148 8.20004 -1.89729 114 103 111
-5.32661 8.21658 -1.89812 112 102 110
-5.03871 8.77833 -1.90997 115 104 110
-5.0064 8.78157 -1.90784 116 105 111
-4.65913 9.35027 -1.91024 121 105 107
-4.62956 9.36316 -1.91061 122 106 109
-4.26518 9.91643 -1.90759 127 108 94
-4.23256 9.92445 -1.90717 126 107 92
-9.40124 1.90698 -1.87543 90 93 110
-9.38869 1.93089 -1.87395 86 88 105
-9.3723 1.95382 -1.87152 96 97 115
-9.37848 1.98223 -1.87475 90 91 109
-8.52559 3.14825 -1.86766 90 87 104
-8.51346 3.18401 -1.86856 91 89 105
-8.50796 3.20915 -1.86999 90 88 103
-8.48826 3.22793 -1.86745 87 85 100
-8.4634 3.25793 -1.86489 98 96 110
-8.46115 3.2846 -1.8673 97 95 109
-7.1865 5.26956 -1.87789 99 98 116
-7.15182 5.27287 -1.87192 101 100 116
-7.15607 5.31094 -1.87927 100 102 117
-7.11301 5.32334 -1.87328 100 99 115
-7.08834 5.33537 -1.87076 95 94 110
-7.0879 5.36955 -1.87663 99 98 114
-7.05185 5.38803 -1.8731 99 98 114
-6.35529 6.60401 -1.89139 101 97 111
-6.33478 6.62176 -1.89182 103 97 113
-6.313 6.63793 -1.89177 100 96 111
-5.69047 7.64768 -1.89849 141 102 107
-5.64973 7.66206 -1.89663 140 103 110
-5.285 8.19997 -1.89071 112 102 110
-5.25328 8.23494 -1.89456 112 102 110
-4.97643 8.79008 -1.90697 116 103 110
-4.93723 8.81524 -1.90859 117 104 112
-4.58111 9.37039 -1.90855 125 109 109
-4.1808 9.92599 -1.90442 126 107 92
-9.39965 1.81295 -1.86952 109 108 124
-9.37602 1.83432 -1.8652 110 112 127
-9.36559 1.85862 -1.86419 90 93 108
-8.5923 2.98553 -1.86661 90 89 104
-8.5756 3.01928 -1.86602 91 90 104
-8.57422 3.04599 -1.86843 92 91 106
-8.54782 3.06212 -1.86392 91 90 106
-8.5521 3.10484 -1.86927 86 83 100
-8.53621 3.12541 -1.86773 89 86 103
-7.05113 5.42223 -1.87897 101 98 115
-7.01212 5.42073 -1.87153 100 99 115
-7.01259 5.45625 -1.87789 98 100 115
-6.96505 5.46356 -1.87042 99 98 114
-6.96386 5.49774 -1.87629 98 97 113
-6.92907 5.4997 -1.87032 98 97 113
-6.2783 6.65896 -1.89077 102 98 112
-6.25759 6.6765 -1.89119 104 100 114
-6.23799 6.69552 -1.89209 104 100 114
-5.62873 7.6828 -1.89839 140 100 108
-5.59898 7.68826 -1.8961 141 101 109
-5.23086 8.25644 -1.89669 112 102 110
-5.20232 8.26564 -1.89578 112 102 110
-4.90414 8.81633 -1.90604 116 104 108
-4.55079 9.3812 -1.90852 124 108 108
-4.51775 9.38457 -1.90688 126 110 108
-4.14302 9.91686 -1.90053 129 109 98
-4.11154 9.92826 -1.90088 129 110 96
-9.42734 1.72568 -1.87118 92 83 86
-9.39257 1.74487 -1.86402 97 94 106
-9.3862 1.77008 -1.86395 97 96 110
-8.64381 2.83039 -1.86355 88 90 105
-8.64491 2.85778 -1.86645 91 90 104
-8.64592 2.88522 -1.86936 96 96 108
-8.61892 2.9149 -1.86581 89 88 102
-8.61792 2.94161 -1.86822 92 91 105
-8.59703 2.9603 -1.86519 97 96 112
-6.91622 5.54018 -1.87518 100 98 112
-6.88419 5.54458 -1.8702 101 99 113
-6.88251 5.57875 -1.87607 101 98 115
-6.84032 5.59047 -1.87057 99 96 113
-6.83564 5.6219 -1.87546 100 97 114
-6.79945 5.62174 -1.869 99 98 114
-6.19837 6.70996 -1.88921 103 100 112
-6.18097 6.73195 -1.89104 103 100 111
-6.15884 6.74765 -1.891 103 100 111
-5.57691 7.70717 -1.89741 140 101 106
-5.53787 7.72438 -1.89645 140 101 106
-5.16927 8.29856 -1.89919 113 103 111
-4.87788 8.83352 -1.90726 117 104 110
-4.83615 8.85285 -1.90763 117 105 111
-4.47592 9.40968 -1.90884 125 110 107
-4.07834 9.93392 -1.90008 130 108 95
-9.416 1.63045 -1.86338 145 128 112
-9.41001 1.65572 -1.86331 145 128 115
-9.42103 1.68452 -1.8675 145 128 114
-8.6834 2.65829 -1.85705 91 92 109
-8.68495 2.71219 -1.86237 89 92 107
-8.66772 2.74573 -1.86129 90 93 109
-8.65828 2.76895 -1.86123 89 91 106
-8.66323 2.79769 -1.86512 89 91 106
-6.79251 5.66882 -1.87632 99 98 116
-6.75632 5.66839 -1.86986 99 98 116
-6.75121 5.69975 -1.87475 100 99 115
-6.72177 5.70605 -1.87076 100 99 115
-6.12254 6.76635 -1.88953 101 98 109
-6.10145 6.78345 -1.88996 104 100 114
-6.07689 6.79575 -1.88898 102 98 112
-5.51185 7.73631 -1.89596 139 100 105
-5.48488 7.74646 -1.89503 140 103 110
-5.13471 8.29525 -1.89526 113 103 111
-5.11113 8.3147 -1.89695 112 102 110
-4.79935 8.84454 -1.90299 117 106 110
-4.77442 8.86506 -1.90505 119 107 112
-4.44547 9.42017 -1.90881 125 110 106
-4.41304 9.42503 -1.90757 126 111 105
-4.02563 9.93092 -1.89656 129 107 94
-9.43406 1.56793 -1.86449 140 124 122
-9.42572 1.6059 -1.86439 146 123 101
-8.72332 2.55327 -1.85733 87 88 106
-8.72362 2.57986 -1.85975 91 90 108
-8.72382 2.60648 -1.86216 92 91 107
-8.71482 2.62987 -1.8621 90 92 107
-8.71057 2.69489 -1.86689 89 92 107
-6.71278 5.75167 -1.87759 101 98 115
-6.67126 5.74513 -1.86916 100 97 114
-6.66837 5.77924 -1.87503 100 97 114
-6.62049 5.7838 -1.86757 103 101 115
-6.61601 5.81646 -1.87294 103 100 117
-6.58645 5.82211 -1.86895 103 100 117
-6.05912 6.81745 -1.89081 102 98 112
-6.02027 6.83249 -1.8884 104 100 114
-5.44848 7.76836 -1.89541 137 102 108
-5.42605 7.78686 -1.89672 136 101 108
-5.0702 8.3314 -1.89646 113 103 111
-5.04067 8.3383 -1.89513 113 103 111
-4.73543 8.89117 -1.90709 119 107 108
-4.38256 9.43533 -1.90754 127 113 107
-3.99464 9.94384 -1.8973 128 107 96
-3.96142 9.94913 -1.8965 127 107 96
-9.46642 1.52113 -1.86982 101 100 116
-9.52371 1.55845 -1.88535 97 95 108
-8.76793 2.47616 -1.86151 155 155 167
-8.74469 2.49471 -1.85749 85 87 101
-7.87532 3.8553 -1.86958 100 99 113
-7.85908 3.87412 -1.8685 96 95 111
-7.85164 3.91204 -1.872 104 101 118
-7.82692 3.92582 -1.86836 102 100 116
-7.82373 3.95239 -1.87137 104 101 118
-7.80058 3.96702 -1.86825 105 102 119
-7.80084 4.00985 -1.8743 103 100 117
-7.77428 4.02232 -1.87016 104 101 118
-7.76576 4.04582 -1.87163 104 99 119
-7.73931 4.07237 -1.86951 102 101 119
-7.73226 4.09683 -1.8715 101 100 116
-7.71531 4.11509 -1.87042 104 103 119
-7.69997 4.14862 -1.87187 105 104 120
-7.68289 4.16676 -1.87079 103 102 118
-7.67709 4.1922 -1.87329 101 100 116
-7.65341 4.20603 -1.87017 102 101 119
-7.64083 4.24147 -1.87264 101 100 118
-7.62349 4.25939 -1.87157 102 101 119
-7.6093 4.2794 -1.87151 102 101 119
-7.58351 4.30608 -1.8699 100 99 117
-7.57716 4.33139 -1.8724 101 100 116
-7.56593 4.35344 -1.87337 99 101 116
-7.54459 4.38317 -1.87329 103 103 118
-7.5316 4.40404 -1.87375 100 100 118
-7.51537 4.42266 -1.87318 101 103 118
-7.49686 4.45439 -1.87412 100 102 116
-6.56603 5.85609 -1.87184 102 99 116
-6.54033 5.86581 -1.86933 102 99 116
-6.53279 5.89555 -1.87372 103 101 115
-6.49 5.90483 -1.86823 101 99 113
-6.00569 6.85882 -1.89165 105 99 113
-5.96753 6.85169 -1.88503 105 98 114
-5.93973 6.88222 -1.88732 107 99 114
-5.39988 7.79845 -1.89623 132 101 107
-5.36048 7.8148 -1.89528 130 100 107
-5.01605 8.35573 -1.89639 113 103 111
-4.70451 8.89699 -1.9058 119 107 107
-4.67573 8.90816 -1.90577 118 106 107
-4.33462 9.4432 -1.90588 126 111 104
-4.30407 9.45326 -1.90585 126 112 103
-3.90723 9.93988 -1.89182 128 109 94
-9.46606 1.4287 -1.86534 141 140 148
-8.79313 2.327 -1.85546 87 87 101
-8.79975 2.35528 -1.85935 151 149 161
-8.85595 2.41269 -1.87758 137 135 146
-8.77582 2.41305 -1.85821 142 140 153
-8.76926 2.4372 -1.85864 148 147 158
-8.06114 3.51277 -1.86742 93 91 105
-8.04074 3.52965 -1.86481 94 92 106
-8.03226 3.55269 -1.86577 89 87 101
-8.01811 3.58632 -1.86671 94 92 106
-8.00432 3.6066 -1.86614 94 92 106
-7.99729 3.63048 -1.86762 96 92 107
-7.99018 3.65436 -1.8691 98 95 106
-7.96365 3.68138 -1.86645 95 91 106
-7.95635 3.7052 -1.86793 96 93 111
-7.94053 3.72433 -1.86685 101 98 115
-7.93225 3.76141 -1.86983 103 102 116
-7.91289 3.77855 -1.86773 100 99 113
-7.90526 3.80228 -1.86921 99 99 111
-7.88651 3.83354 -1.86912 105 104 118
-7.48992 4.47962 -1.87662 99 100 117
-7.47817 4.50147 -1.87759 102 101 118
-7.45072 4.512 -1.87345 100 99 116
-7.4255 4.53893 -1.87235 101 100 116
-7.40888 4.5572 -1.87179 101 100 116
-7.39997 4.58115 -1.87378 101 100 118
-7.37757 4.61012 -1.8737 98 99 117
-7.35764 4.62591 -1.87212 97 98 116
-7.3454 4.64744 -1.87309 101 100 118
-7.3242 4.67734 -1.87352 99 98 116
-7.31329 4.69997 -1.875 99 98 115
-7.29162 4.71432 -1.8729 99 98 114
-7.26857 4.74281 -1.87283 98 97 115
-7.25741 4.76532 -1.87431 102 101 117
-7.23256 4.77703 -1.87119 100 99 117
-6.48737 5.9403 -1.8746 101 99 114
-6.45382 5.94099 -1.86913 98 96 110
-6.44031 5.98326 -1.87498 100 98 112
-6.40422 5.98077 -1.86852 101 98 114
-5.91161 6.88918 -1.88493 110 98 110
-5.89671 6.91529 -1.88818 120 104 115
-5.34421 7.84512 -1.89972 129 101 110
-5.31336 7.84782 -1.897 126 100 114
-4.97252 8.36666 -1.8946 113 103 111
-4.94535 8.37857 -1.89457 113 103 111
-4.65118 8.93017 -1.90824 118 108 110
-4.27287 9.46137 -1.90542 124 108 101
-3.8767 9.95434 -1.89295 131 109 95
-9.48572 1.33997 -1.86604 147 141 153
-9.48256 1.36575 -1.86645 138 137 143
-9.47356 1.39056 -1.86544 138 135 142
-8.81132 2.24147 -1.8532 118 109 101
-8.81226 2.30684 -1.85849 95 96 113
-8.17564 3.2578 -1.86349 86 88 102
-8.17159 3.28275 -1.86548 89 87 102
-8.15341 3.30108 -1.86337 92 90 104
-8.13875 3.321 -1.86229 94 93 107
-8.12921 3.35668 -1.86425 92 91 107
-8.12305 3.38075 -1.86573 84 83 97
-8.10816 3.40054 -1.86464 99 98 112
-8.09476 3.43444 -1.86558 89 88 102
-8.08833 3.45846 -1.86706 94 93 107
-8.08353 3.48335 -1.86904 92 90 104
-7.2243 4.80187 -1.87369 100 97 116
-7.20535 4.83368 -1.87515 101 100 116
-7.18937 4.85242 -1.8751 101 100 116
-7.17332 4.87112 -1.87505 101 100 116
-7.15102 4.90029 -1.87548 99 98 114
-7.13037 4.91518 -1.8739 101 100 116
-7.10968 4.92999 -1.87232 99 98 114
-7.09301 4.96386 -1.8748 102 99 116
-7.07809 4.98352 -1.87526 99 98 116
-6.39097 6.00449 -1.87094 102 100 114
-6.36752 6.01644 -1.86942 101 99 113
-6.34964 6.05412 -1.87379 100 98 112
-6.31609 6.05408 -1.86832 100 98 112
-5.86522 6.94074 -1.88906 121 101 112
-5.84135 6.95386 -1.88855 122 100 112
-5.81855 6.96853 -1.88851 124 102 114
-5.27466 7.86549 -1.89649 126 102 115
-5.24381 7.86792 -1.89376 125 101 114
-4.91654 8.38684 -1.89367 114 104 112
-4.88058 8.37898 -1.88886 114 104 113
-4.60124 8.92841 -1.90401 118 106 110
-4.57096 8.93561 -1.90314 121 105 115
-4.2255 9.47057 -1.90416 124 109 104
-3.84142 9.95169 -1.89061 131 109 95
-9.51494 1.27893 -1.87047 100 98 119
-9.49663 1.30235 -1.86709 85 79 97
-8.86209 2.13963 -1.85794 133 121 116
-8.85084 2.16234 -1.85689 135 125 116
-8.8398 2.19796 -1.8568 143 127 114
-8.83022 2.22113 -1.85624 152 132 119
-8.24786 3.06471 -1.85887 87 87 102
-8.25905 3.10922 -1.86646 88 90 105
-8.24319 3.12876 -1.86487 87 86 102
-8.2132 3.14191 -1.85918 89 87 104
-8.20809 3.17935 -1.86216 87 86 100
-8.18853 3.19707 -1.85954 91 90 104
-8.19168 3.22526 -1.86358 92 90 104
-7.06162 5.00187 -1.87521 103 102 120
-7.03429 5.0268 -1.87411 98 101 116
-7.01917 5.04629 -1.87457 101 100 116
-6.99668 5.0594 -1.87248 102 101 117
-6.98433 5.08132 -1.87396 102 101 119
-6.96246 5.11098 -1.87491 104 103 121
-6.94271 5.12641 -1.87384 104 103 119
-6.3137 6.09097 -1.87518 100 98 112
-6.26933 6.09725 -1.8692 102 98 113
-6.25679 6.1222 -1.87211 101 98 114
-5.78893 6.99689 -1.89032 123 100 110
-5.76596 7.0114 -1.89028 126 100 109
-5.22537 7.89455 -1.89731 119 100 112
-5.18911 7.91702 -1.89815 114 101 111
-4.84882 8.41602 -1.89358 115 104 112
-4.82151 8.42755 -1.89354 117 106 112
-4.54899 8.96465 -1.90729 124 109 116
-4.19609 9.48401 -1.90494 128 112 107
-4.16542 9.49365 -1.90491 125 107 102
-3.79052 9.95318 -1.88825 134 115 98
-3.76139 9.97298 -1.89054 136 115 95
-9.53216 1.22892 -1.8725 96 98 115
-9.53318 1.2554 -1.87384 96 97 116
-8.87815 2.05363 -1.85569 93 95 111
-8.88021 2.08006 -1.8581 93 92 106
-8.86583 2.11476 -1.85702 134 123 122
-8.32077 2.92477 -1.86131 91 90 106
-8.31789 2.94983 -1.86329 87 86 102
-8.29358 2.96593 -1.85914 88 86 103
-8.29944 2.99471 -1.86369 90 88 102
-8.27562 3.02393 -1.86104 94 93 107
-8.25823 3.04281 -1.85893 91 90 104
-6.93442 5.15209 -1.87685 99 98 116
-6.90217 5.17248 -1.87423 99 96 117
-6.87368 5.17991 -1.8701 99 98 116
-6.86799 5.20808 -1.87413 97 99 114
-6.83696 5.2294 -1.87202 99 98 114
-6.82822 5.25492 -1.87503 99 98 114
-6.80808 5.26988 -1.87396 99 96 113
-6.23184 6.13215 -1.8701 101 98 115
-6.21312 6.16946 -1.87447 101 99 113
-6.17836 6.1672 -1.86851 102 100 114
-5.73871 7.01932 -1.88837 127 100 107
-5.70667 7.04409 -1.88925 133 100 109
-5.6804 7.05344 -1.8878 134 101 108
-5.15909 7.92088 -1.89587 112 101 109
-5.13428 7.9351 -1.89628 112 102 110
-4.79261 8.43541 -1.89264 115 103 113
-4.50044 8.96601 -1.9039 121 106 111
-4.47076 8.97472 -1.90345 114 102 106
-4.11619 9.49673 -1.90245 128 109 103
-3.72519 9.96616 -1.88742 135 109 89
-9.54514 1.16515 -1.87314 95 101 117
-9.55022 1.19216 -1.87543 94 99 115
-8.90261 1.97005 -1.85591 96 99 117
-8.90122 1.99546 -1.85734 93 96 113
-8.88722 2.03029 -1.85625 92 98 110
-8.37362 2.76379 -1.85763 91 90 106
-8.36771 2.78744 -1.8586 93 92 109
-8.38149 2.81887 -1.86519 91 90 106
-8.37094 2.8537 -1.86612 88 88 106
-8.34147 2.86799 -1.86043 90 89 106
-8.33166 2.89014 -1.86037 90 89 106
-6.77962 5.29352 -1.87287 97 96 112
-6.76358 5.3123 -1.87333 98 97 113
-6.74468 5.32837 -1.87278 96 95 111
-6.72437 5.34304 -1.87171 97 96 112
-6.69974 5.37029 -1.87215 98 97 113
-6.68344 5.38886 -1.87261 101 100 114
-6.16666 6.19347 -1.87192 101 99 113
-6.12944 6.20786 -1.8689 100 98 112
-6.11994 6.23709 -1.87329 102 100 114
-6.08641 6.23587 -1.86783 101 99 113
-5.66042 7.07254 -1.88917 133 100 107
-5.63826 7.0883 -1.8896 136 101 108
-5.10511 7.94052 -1.89445 111 101 109
-4.75654 8.46317 -1.89519 116 105 110
-4.72983 8.47622 -1.89559 117 105 109
-4.44711 8.99986 -1.90676 115 103 105
-4.09077 9.52292 -1.90604 126 108 99
-3.67581 9.97277 -1.88622 137 109 87
-9.56726 1.10254 -1.87614 93 95 113
-9.55921 1.14082 -1.87557 98 101 118
-8.90463 1.85525 -1.84877 86 89 107
-8.92612 1.88623 -1.85614 87 92 111
-8.90889 1.92026 -1.85406 95 99 111
-8.90578 1.94515 -1.85499 89 90 110
-8.4138 2.65018 -1.8564 91 90 108
-8.39142 2.68032 -1.85375 87 90 105
-8.38219 2.70261 -1.85369 88 91 108
-8.38191 2.72832 -1.85619 92 94 109
-6.66846 5.40873 -1.87358 99 98 114
-6.63392 5.42622 -1.87045 96 98 113
-6.62016 5.44732 -1.87194 99 98 114
-6.60225 5.46429 -1.87189 98 96 113
-6.06722 6.25282 -1.86828 102 100 114
-6.03459 6.27279 -1.86723 104 100 114
-5.60171 7.10605 -1.8886 136 99 107
-5.57739 7.11834 -1.8881 137 100 108
-5.06602 7.95721 -1.89394 111 101 109
-5.04615 7.98168 -1.89705 113 102 110
-4.6993 8.48019 -1.89382 117 106 110
-4.40055 9.00621 -1.90462 111 99 103
-4.05706 9.52289 -1.904 130 112 101
-3.64215 9.97515 -1.88504 137 109 87
-9.57183 1.05062 -1.87534 89 96 114
-9.56958 1.07658 -1.87574 88 93 112
-8.94686 1.80173 -1.85587 95 91 106
-8.9488 1.84053 -1.85875 103 103 114
-8.4565 2.49916 -1.8527 70 73 88
-8.46092 2.55181 -1.85872 92 91 109
-8.43898 2.58229 -1.85607 95 94 112
-8.41372 2.59881 -1.8514 92 91 107
-8.42648 2.62912 -1.85748 91 90 108
-6.57703 5.49102 -1.87233 99 98 114
-6.55896 5.50786 -1.87228 99 96 113
-6.53952 5.52326 -1.87173 100 97 114
-6.51267 5.54833 -1.87166 100 99 113
-6.49443 5.56497 -1.87161 101 99 113
-6.03058 6.30956 -1.87409 105 98 114
-5.99001 6.29864 -1.86567 103 96 112
-5.97236 6.33831 -1.87103 103 96 112
-5.93887 6.33635 -1.86557 104 97 113
-5.55611 7.13552 -1.889 137 101 108
-5.51835 7.15121 -1.88753 138 100 108
-5.01775 7.98855 -1.89567 113 102 110
-4.97597 7.99954 -1.89382 113 102 110
-4.66215 8.50577 -1.89594 115 104 108
-4.63009 8.50591 -1.8933 114 103 107
-4.37142 9.01645 -1.90459 116 104 108
-4.34617 9.03766 -1.90707 111 99 101
-4.01413 9.54603 -1.90597 130 110 100
-3.98154 9.54948 -1.90473 126 106 97
-3.61134 9.98884 -1.88617 140 112 88
-9.59116 0.961232 -1.87699 96 102 118
-9.58342 0.986538 -1.87598 98 101 120
-9.57753 1.01204 -1.87544 98 104 120
-8.9742 1.71877 -1.85758 93 85 90
-8.92191 1.74482 -1.84609 95 94 108
-8.9495 1.77679 -1.85494 98 96 107
-8.50234 2.42579 -1.85752 140 137 149
-8.50487 2.45211 -1.86053 140 137 148
-8.49635 2.47474 -1.86047 146 148 160
-7.68557 3.57258 -1.84983 98 96 110
-7.66517 3.58798 -1.84714 86 82 98
-7.65814 3.61093 -1.84866 97 96 110
-7.66368 3.65447 -1.85596 101 100 114
-7.6514 3.67456 -1.85591 98 94 109
-7.63576 3.69266 -1.8548 99 97 110
-7.58936 3.70598 -1.84575 95 93 107
-7.59845 3.73864 -1.85255 100 99 113
-7.59419 3.76348 -1.85514 101 99 113
-7.58224 3.79726 -1.85716 104 103 117
-7.55801 3.81008 -1.85342 103 102 116
-7.54854 3.83186 -1.85442 104 103 117
-7.53899 3.85362 -1.85542 104 103 119
-7.52492 3.88623 -1.85692 105 104 120
-7.51031 3.90487 -1.85634 104 103 119
-7.494 3.92243 -1.85523 102 101 119
-7.47471 3.95177 -1.85515 105 102 119
-7.47285 3.97859 -1.85879 105 102 119
-7.45471 3.99495 -1.85715 105 102 119
-7.43347 4.02306 -1.85655 104 103 119
-7.42488 4.04564 -1.85807 103 102 118
-7.40817 4.06287 -1.85697 105 104 120
-7.38664 4.09075 -1.85636 103 102 118
-7.3762 4.11216 -1.85736 103 102 118
-7.36568 4.13354 -1.85836 103 102 118
-7.34714 4.14946 -1.85673 104 103 119
-7.33471 4.18362 -1.85929 103 102 118
-7.3192 4.20161 -1.85871 103 102 118
-7.30048 4.21734 -1.85707 102 99 116
-7.28454 4.24915 -1.85858 102 101 117
-7.26256 4.26249 -1.85589 102 99 116
-7.25307 4.28474 -1.85742 100 99 117
