-5.575 4.42929 -1.8488 93 93 105
-5.54823 4.43075 -1.84328 96 95 111
-5.53176 4.45652 -1.84575 92 94 107
-5.51031 4.46322 -1.84269 96 95 109
-5.49675 4.47804 -1.84331 92 91 107
-5.21884 4.93502 -1.84549 96 95 109
-5.18999 4.94811 -1.8431 99 98 112
-5.17366 4.96071 -1.84311 95 94 110
-4.85015 5.47487 -1.84673 99 101 116
-4.82567 5.47699 -1.84326 93 95 110
-4.45216 6.10802 -1.85606 101 101 113
-4.25398 6.42476 -1.85738 106 103 114
-4.23376 6.43615 -1.85793 104 100 113
-4.00501 6.7873 -1.85939 100 98 109
-3.80371 7.17304 -1.87387 104 103 113
-3.56545 7.55193 -1.87733 106 106 114
-3.30502 8.0364 -1.88875 113 110 119
-7.84297 0.948063 -1.83635 68 79 97
-7.84674 0.969648 -1.83867 69 80 100
-7.45004 1.3963 -1.81677 82 86 100
-7.44447 1.4257 -1.81738 81 83 95
-7.44102 1.44544 -1.81798 85 87 99
-7.19662 1.84944 -1.82784 68 77 94
-7.1954 1.86958 -1.82969 76 85 102
-7.17602 1.88398 -1.82539 68 80 96
-6.49342 2.86124 -1.82577 74 72 92
-6.49031 2.88139 -1.82831 82 80 94
-6.48383 2.89971 -1.82958 84 81 97
-6.46611 2.9225 -1.82833 81 80 98
-6.44628 2.93328 -1.82454 83 82 98
-6.43961 2.95149 -1.82581 87 86 100
-6.43123 2.96876 -1.82645 87 88 102
-6.41485 2.99223 -1.82583 89 87 103
-6.40307 3.00751 -1.82521 92 91 109
-6.40103 3.02854 -1.82838 89 88 104
-6.39415 3.05769 -1.83156 85 84 99
-6.38055 3.07192 -1.8303 94 94 110
-6.36854 3.08708 -1.82967 84 83 97
-6.35971 3.11519 -1.83222 84 86 101
-6.35403 3.13425 -1.83412 90 92 107
-6.34343 3.15032 -1.83413 92 90 104
-6.33266 3.17737 -1.83604 76 79 92
-6.31073 3.18628 -1.83162 99 100 113
-6.28877 3.19508 -1.8272 87 86 101
-6.28756 3.21709 -1.831 98 96 110
-6.26531 3.23675 -1.82848 99 99 112
-6.24804 3.2484 -1.82596 95 94 108
-6.25452 3.27559 -1.83293 90 88 102
-6.22888 3.29294 -1.82915 89 91 104
-6.21148 3.30441 -1.82662 97 99 111
-6.21608 3.33063 -1.83296 96 96 108
-6.18712 3.34557 -1.82791 97 95 109
-6.18996 3.37076 -1.83361 89 87 101
-6.17863 3.38633 -1.83362 89 87 100
-6.15728 3.40638 -1.83174 94 93 107
-6.1536 3.42729 -1.83491 95 94 108
-6.14364 3.44385 -1.83555 94 92 106
-6.12127 3.4516 -1.83113 90 89 103
-6.10119 3.47243 -1.82987 91 92 106
-6.088 3.48662 -1.82925 93 94 106
-6.07785 3.503 -1.82989 90 88 101
-6.04727 3.5399 -1.82928 93 91 105
-5.48 4.50365 -1.84578 90 89 104
-5.45195 4.50322 -1.83964 90 89 103
-5.43825 4.51788 -1.84027 94 93 107
-5.15729 4.97327 -1.84312 98 97 111
-5.13541 4.995 -1.84434 98 97 111
-5.11541 5.00294 -1.84255 98 97 111
-4.81191 5.49487 -1.84559 92 95 108
-4.79702 5.51115 -1.84733 89 94 107
-4.43128 6.11658 -1.85551 104 102 114
-4.41307 6.13017 -1.85663 103 101 113
-4.20584 6.45748 -1.86012 102 101 111
-3.98289 6.79628 -1.8594 102 100 111
-3.779 7.17783 -1.87286 106 104 115
-3.53322 7.53573 -1.8709 105 106 111
-3.28344 8.06025 -1.89301 111 110 116
-7.85431 0.928619 -1.83866 72 83 101
-7.47273 1.33992 -1.81914 79 83 100
-7.47515 1.36097 -1.82155 79 86 100
-7.46448 1.37909 -1.81976 73 78 91
-7.2172 1.78424 -1.8272 82 84 99
-7.19258 1.79723 -1.82106 83 86 101
-7.21878 1.82565 -1.83213 74 81 97
-6.60577 2.61928 -1.81933 75 77 92
-6.60356 2.63947 -1.82187 77 79 97
-6.58699 2.66295 -1.82061 73 75 92
-6.57786 2.6797 -1.82062 71 70 85
-6.57881 2.70161 -1.82443 72 74 87
-6.56028 2.72407 -1.82254 75 75 87
-6.53823 2.75563 -1.82129 90 90 100
-6.53385 2.77489 -1.8232 75 77 90
-6.52338 2.80157 -1.82447 67 69 84
-6.52883 2.82624 -1.83018 85 84 99
-6.50921 2.83738 -1.82639 81 80 96
-6.07131 3.53369 -1.83434 97 95 108
-6.03695 3.55617 -1.82992 94 94 107
-6.02098 3.57996 -1.83057 92 90 104
-6.01958 3.60303 -1.83501 96 94 108
-5.99395 3.60776 -1.82932 85 85 97
-5.97925 3.63253 -1.8306 95 94 108
-5.9731 3.6521 -1.83314 99 98 112
-5.93846 3.64957 -1.82365 100 98 112
-5.93372 3.67022 -1.82682 96 94 108
-5.92462 3.69946 -1.83063 100 98 112
-5.90041 3.7048 -1.82558 102 100 114
-5.89691 3.72661 -1.82938 98 96 110
-5.41606 4.53772 -1.84028 97 94 111
-5.40613 4.55646 -1.84275 99 97 111
-5.40127 4.58078 -1.84768 96 95 109
-5.09655 5.01231 -1.84135 96 96 108
-5.07562 5.0353 -1.84317 96 96 108
-5.05787 5.04605 -1.84258 94 94 106
-4.76702 5.52352 -1.84561 91 94 109
-4.75199 5.53968 -1.84736 90 96 112
-4.38161 6.14195 -1.85553 103 103 114
-4.17814 6.45309 -1.85578 100 100 110
-4.1619 6.47297 -1.85905 99 97 108
-3.95929 6.80164 -1.85835 101 99 110
-3.93712 6.81048 -1.85836 105 104 112
-3.76234 7.20425 -1.87799 106 105 113
-3.5152 7.56365 -1.87636 109 108 116
-3.24182 8.06117 -1.89066 109 108 114
-7.88767 0.880502 -1.84616 75 86 106
-7.87649 0.900106 -1.84385 78 89 109
-7.50957 1.31729 -1.82872 78 80 95
-7.25054 1.70238 -1.82901 81 83 96
-7.23524 1.71834 -1.82595 76 79 93
-7.24177 1.74059 -1.83025 73 76 91
-7.23181 1.75808 -1.82903 77 76 90
-6.66979 2.52356 -1.82371 69 78 95
-6.64174 2.54171 -1.81803 68 77 92
-6.65863 2.57093 -1.82753 70 80 92
-6.65832 2.59203 -1.8307 69 77 91
-6.63003 2.60996 -1.82502 73 78 94
-5.87568 3.74625 -1.82813 97 96 110
-5.86613 3.76326 -1.8294 95 94 108
-5.85064 3.77546 -1.82815 97 95 108
-5.83797 3.8021 -1.83069 100 98 112
-5.81656 3.80935 -1.8269 94 93 107
-5.80386 3.82379 -1.82691 100 99 113
-5.7967 3.85518 -1.83199 97 96 110
-5.77377 3.86098 -1.82756 96 95 109
-5.37366 4.59484 -1.84523 95 93 107
-5.36349 4.61352 -1.8477 92 91 105
-5.34559 4.62371 -1.84648 91 90 104
-5.33021 4.63667 -1.84649 97 96 110
-5.04354 5.06128 -1.84379 95 95 107
-5.02117 5.08255 -1.845 95 94 108
-4.73063 5.54619 -1.84563 88 93 109
-4.70572 5.56626 -1.8468 96 98 113
-4.35714 6.14347 -1.85275 100 98 112
-4.33706 6.15343 -1.85276 97 95 109
-4.14312 6.48758 -1.86069 102 100 112
-3.90494 6.8254 -1.85891 104 102 113
-3.71889 7.19309 -1.87135 109 106 115
-3.47007 7.54731 -1.86895 106 106 116
-3.21448 8.06418 -1.88973 108 107 113
-7.87381 0.836643 -1.83978 78 91 111
-7.87603 0.857938 -1.84152 71 82 102
-7.51742 1.27787 -1.8281 73 75 90
-7.5182 1.29858 -1.82991 81 83 98
-7.26215 1.63471 -1.82591 68 74 88
-7.24705 1.6508 -1.82285 79 85 97
-7.25017 1.67192 -1.82593 71 75 87
-6.72808 2.31068 -1.81034 81 81 99
-6.74481 2.36947 -1.82364 89 88 104
-6.74527 2.39052 -1.82682 86 86 104
-6.73323 2.41634 -1.82683 73 80 98
-6.73007 2.43585 -1.82873 69 76 95
-6.68884 2.43815 -1.81672 69 75 97
-6.71793 2.48271 -1.83192 70 78 96
-6.70249 2.49666 -1.82939 67 76 93
-6.68874 2.51135 -1.8275 70 79 96
-5.76092 3.8753 -1.82757 98 98 110
-5.74801 3.88958 -1.82758 99 99 111
-5.72755 3.90968 -1.82696 101 101 113
-5.72452 3.9326 -1.8314 93 92 106
-5.71001 3.94552 -1.83078 98 98 110
-5.68081 3.95788 -1.82636 94 94 106
-5.29991 4.64749 -1.84281 94 93 107
-5.28947 4.66602 -1.84528 93 92 106
-5.2702 4.67452 -1.84344 95 94 106
-5.00671 5.09769 -1.84621 95 94 110
-4.98535 5.10363 -1.84382 94 95 112
-4.68843 5.57905 -1.84739 96 98 111
-4.67729 5.60147 -1.85145 96 98 111
-4.32387 6.17702 -1.85724 101 99 111
-4.11085 6.4998 -1.86017 105 103 115
-3.88128 6.8305 -1.85786 107 105 116
-3.69745 7.20668 -1.8729 108 107 116
-3.67399 7.21476 -1.87291 106 105 114
-3.45414 7.58248 -1.87639 106 104 115
-3.42441 7.57323 -1.87194 104 102 112
-3.18815 8.07086 -1.88974 110 109 117
-7.88179 0.785179 -1.83977 74 82 103
-7.88228 0.806225 -1.84093 77 88 107
-7.50434 1.17321 -1.81669 70 81 100
-7.51103 1.20501 -1.82089 72 79 97
-7.51204 1.22563 -1.8227 69 75 90
-7.51856 1.24742 -1.8263 80 83 98
-7.28587 1.57038 -1.82712 75 81 97
-7.27093 1.58664 -1.82405 71 74 89
-7.26693 1.60577 -1.82468 72 75 90
-6.77717 2.23893 -1.81537 71 78 94
-6.75886 2.25188 -1.81158 70 77 94
-6.74747 2.27775 -1.81159 71 78 96
-6.74828 2.29867 -1.81476 74 78 96
-6.75469 2.35299 -1.82427 86 87 102
-6.30801 3.01748 -1.82963 88 89 106
-6.29772 3.03324 -1.82964 85 89 101
-6.24388 3.12137 -1.83097 90 89 103
-6.22834 3.14472 -1.83099 80 82 95
-6.16915 3.20712 -1.82651 89 88 102
-6.13283 3.26174 -1.82719 85 84 99
-5.68176 3.98456 -1.8327 98 98 110
-5.66007 3.991 -1.82891 96 95 109
-5.63916 4.01067 -1.82829 93 92 106
-5.62443 4.0233 -1.82766 96 94 108
-5.61943 4.04488 -1.83147 100 98 112
-5.24853 4.69504 -1.84407 98 96 109
-5.23169 4.70627 -1.84347 98 96 109
-5.21233 4.71456 -1.84163 98 96 109
-4.97079 5.11868 -1.84502 90 92 108
-4.94138 5.13042 -1.84264 95 98 112
-4.93007 5.14998 -1.84565 95 99 111
-4.63982 5.60191 -1.84568 99 98 112
-4.62545 5.61937 -1.848 98 96 110
-4.2931 6.19008 -1.8567 104 104 114
-4.27203 6.19814 -1.85615 108 108 120
-4.09036 6.51079 -1.86072 104 102 114
-4.06351 6.50769 -1.85693 103 101 114
-3.85973 6.8409 -1.8584 103 101 114
-3.64725 7.21368 -1.87035 109 108 116
-3.40263 7.5898 -1.87443 104 102 113
-3.15049 8.08639 -1.89117 113 112 120
-7.88746 0.73346 -1.83918 76 88 106
-7.90024 0.766298 -1.84439 71 82 102
-7.51879 1.1353 -1.81848 74 86 102
-7.51254 1.15445 -1.81788 71 82 100
-7.29227 1.4816 -1.82094 78 81 96
-7.29967 1.50349 -1.82525 72 75 92
-7.29044 1.52129 -1.82403 76 77 95
-7.29034 1.54139 -1.82588 78 77 95
-6.81531 2.1117 -1.81025 83 85 100
-6.81164 2.14057 -1.8128 78 79 94
-6.81472 2.16216 -1.8166 70 74 92
-6.79836 2.17607 -1.81344 74 79 93
-6.81195 2.21205 -1.82231 74 77 92
-6.81476 2.23376 -1.82612 82 85 102
-6.50769 2.60563 -1.81656 75 77 98
-6.48718 2.64729 -1.81722 79 81 96
-6.48649 2.66786 -1.82045 100 102 115
-6.48226 2.71809 -1.82756 87 85 98
-6.44946 2.72209 -1.81855 90 90 100
-6.4769 2.75766 -1.83272 81 83 96
-6.42469 2.76158 -1.81792 78 80 95
-6.44353 2.79289 -1.82888 90 89 103
-6.43229 2.80815 -1.82824 94 93 108
-6.42099 2.82337 -1.82761 86 85 101
-6.40521 2.84658 -1.82697 89 88 101
-6.39545 2.86263 -1.82698 89 88 101
-6.39059 2.88141 -1.82892 79 78 94
-6.37619 2.90541 -1.82893 89 91 106
-6.36461 2.92043 -1.8283 88 87 103
-6.36446 2.94201 -1.83217 76 75 91
-6.35141 2.96684 -1.83283 83 82 98
-6.33801 2.98082 -1.83155 90 89 103
-6.32294 2.99379 -1.82962 85 84 100
-6.29385 3.05288 -1.83223 86 86 98
-6.28508 3.06958 -1.83288 91 90 104
-6.2714 3.0941 -1.83353 93 91 105
-6.26248 3.11075 -1.83419 90 87 102
-6.22243 3.16328 -1.83293 65 68 83
-6.2117 3.17879 -1.83293 70 72 87
-6.2086 3.21019 -1.8381 95 93 107
-6.18043 3.23695 -1.83554 88 87 101
-6.16945 3.25234 -1.83555 89 88 103
-6.14692 3.29381 -1.8375 92 91 107
-6.11538 3.29536 -1.82913 87 85 99
-6.1162 3.32984 -1.83623 93 90 107
-6.1065 3.3461 -1.83689 89 87 101
-6.08897 3.35697 -1.83432 90 88 102
-6.0475 3.36232 -1.82402 90 87 104
-6.06245 3.39577 -1.83498 83 83 95
-6.05251 3.4119 -1.83563 79 79 91
-6.03868 3.43659 -1.83694 83 85 97
-6.02402 3.44934 -1.83566 77 79 91
-6.00318 3.45761 -1.8318 78 77 93
-5.99762 3.47692 -1.83438 82 81 95
-5.97127 3.49245 -1.83053 94 93 107
-5.96557 3.51171 -1.83312 87 87 100
-5.95221 3.52532 -1.83248 100 99 113
-5.88966 3.5369 -1.81833 93 92 106
-5.5969 4.06306 -1.83022 100 98 112
-5.58202 4.07556 -1.82959 97 95 109
-5.56987 4.0906 -1.83023 97 94 111
-5.55492 4.103 -1.82961 97 94 113
-5.53901 4.12741 -1.83152 103 101 115
-5.19293 4.73773 -1.84349 98 96 109
-5.17719 4.75023 -1.8435 100 99 113
-4.91198 5.16025 -1.84506 94 98 110
-4.88909 5.18098 -1.84627 90 93 108
-4.60799 5.63193 -1.84859 100 98 111
-4.57759 5.64335 -1.84687 101 99 112
-4.25176 6.20784 -1.85616 103 101 114
-4.03508 6.52832 -1.85912 105 103 114
-3.82738 6.85547 -1.85894 106 104 115
-3.80575 6.86571 -1.85948 100 98 109
-3.61497 7.23283 -1.87242 104 102 112
-3.12601 8.10043 -1.89307 108 107 115
-7.90308 0.693196 -1.84205 71 84 101
-7.90767 0.714646 -1.84437 73 84 102
-7.55686 1.122 -1.82925 70 82 98
-7.32012 1.4383 -1.82584 77 80 95
-7.31662 1.45752 -1.82646 75 78 93
-6.8529 2.03503 -1.81212 72 79 97
-6.84929 2.05388 -1.81339 70 78 94
-6.8406 2.08082 -1.81404 71 81 93
-6.83328 2.09832 -1.81404 70 76 94
-6.57522 2.45267 -1.81263 69 76 94
-6.57356 2.47239 -1.81521 70 79 96
-6.57012 2.49133 -1.81715 68 77 92
-6.54901 2.51206 -1.81394 70 78 94
-6.57101 2.54319 -1.82554 68 77 94
-6.53497 2.54659 -1.81525 68 76 93
-6.53125 2.56549 -1.81719 69 75 91
-6.51662 2.58927 -1.81655 76 78 98
-6.51053 2.62789 -1.82108 75 82 100
-6.49916 2.69536 -1.82883 91 90 104
-5.9378 3.54964 -1.83378 98 96 110
-5.90481 3.57205 -1.82993 88 88 100
-5.88566 3.59273 -1.8293 96 95 105
-5.87058 3.60492 -1.82802 97 95 108
-5.86292 3.62286 -1.82996 96 94 107
-5.84355 3.64334 -1.82933 95 93 107
-5.83573 3.66124 -1.83127 94 92 106
-5.82342 3.6756 -1.83128 89 87 102
-5.80813 3.68755 -1.83 88 87 103
-5.5649 4.17913 -1.84989 99 97 111
-5.50342 4.14668 -1.82774 98 96 110
-5.48182 4.1656 -1.82712 99 97 110
-5.47476 4.18568 -1.83029 102 100 113
-5.44878 4.1871 -1.8246 102 102 114
-5.16751 4.76997 -1.84658 97 96 110
-5.13444 4.77689 -1.84167 96 95 109
-5.1222 4.79361 -1.84353 97 96 110
-5.10507 4.80443 -1.84292 99 98 114
-4.87422 5.19578 -1.84748 92 95 110
-4.85271 5.20121 -1.84509 91 94 110
-4.55804 5.65251 -1.84629 101 99 112
-4.54542 5.67305 -1.84978 102 101 114
-4.22507 6.22919 -1.85841 101 99 112
-4.20472 6.23875 -1.85842 102 100 113
-4.0137 6.53732 -1.85913 110 106 120
-3.78269 6.87229 -1.85896 101 99 110
-3.59015 7.23701 -1.87141 106 103 114
-3.36771 7.6062 -1.87593 107 106 114
-3.33755 7.59478 -1.87099 113 112 118
-3.09765 8.09929 -1.89119 106 105 110
-7.90517 0.662025 -1.84147 74 85 105
-7.57831 1.07488 -1.83283 69 80 98
-7.56099 1.09221 -1.82864 74 86 103
-7.32502 1.36955 -1.82152 75 81 91
-7.3273 1.39002 -1.82398 79 82 94
-7.33281 1.42123 -1.82829 76 79 94
-6.89695 2.00077 -1.82159 71 80 95
-6.86002 2.01748 -1.81211 68 75 93
-6.64711 2.29217 -1.81063 69 77 92
-6.64258 2.3104 -1.81192 74 79 93
-6.63605 2.33775 -1.81386 66 71 87
-6.63136 2.35598 -1.81516 71 77 95
-6.62488 2.37345 -1.81581 71 77 95
-6.64737 2.4139 -1.8287 74 76 96
-6.59588 2.41123 -1.81261 72 75 95
-6.59611 2.43174 -1.81584 76 79 98
-5.79286 3.71133 -1.8313 95 94 108
-5.77746 3.72317 -1.83002 97 97 109
-5.77081 3.74215 -1.83261 101 99 113
-5.74943 3.76097 -1.83133 93 93 105
-5.74407 3.78112 -1.83456 98 98 110
-5.72705 3.79156 -1.83264 95 95 107
-5.44577 4.22451 -1.83285 100 99 113
-5.43177 4.23784 -1.83286 97 96 110
-5.41509 4.24843 -1.8316 96 95 109
-5.38774 4.26151 -1.82845 95 94 108
-5.08433 4.81078 -1.84047 102 104 117
-5.06673 4.83641 -1.84356 97 96 110
-4.83832 5.23418 -1.8511 93 94 112
-4.81457 5.23633 -1.84751 95 97 114
-4.52282 5.67719 -1.84747 102 100 113
-4.18598 6.25171 -1.85954 109 107 120
-3.99538 6.5533 -1.86131 107 105 119
-3.95826 6.55424 -1.85752 104 102 115
-3.75018 6.88652 -1.85951 105 104 112
-3.56909 7.25206 -1.87346 108 105 114
-3.31828 7.6204 -1.87595 111 109 118
-3.07028 8.10185 -1.89026 109 106 115
-7.91843 0.62139 -1.84377 66 81 102
-7.91373 0.641901 -1.84319 72 84 106
-7.58628 1.0253 -1.83221 74 85 103
-7.58809 1.05615 -1.83462 70 83 100
-7.3505 1.35527 -1.82827 75 80 89
-6.91286 1.89593 -1.81396 71 79 95
-6.89716 1.91054 -1.8108 72 81 94
-6.89991 1.9414 -1.81524 72 81 97
-6.91627 1.96728 -1.82348 72 81 96
-6.91109 1.98564 -1.82412 70 79 94
-6.68984 2.19967 -1.81059 77 82 97
-6.68913 2.21939 -1.81317 68 74 89
-6.68309 2.23698 -1.81382 74 79 98
-6.67172 2.26225 -1.81383 71 80 97
-6.66379 2.27907 -1.81384 69 78 94
-5.70691 3.81137 -1.832 98 98 110
-5.69412 3.82534 -1.83201 94 92 105
-5.68131 3.83928 -1.83202 94 92 105
-5.66668 3.86382 -1.83397 97 95 108
-5.64091 3.86649 -1.82818 99 97 110
-5.63507 3.8865 -1.83141 99 97 111
-5.62063 3.89901 -1.83077 86 85 99
-5.38023 4.28145 -1.83162 95 94 108
-5.36739 4.29595 -1.83226 97 96 110
-5.35317 4.30904 -1.83227 96 95 109
-5.05305 4.8515 -1.8448 97 96 112
-5.02986 4.85467 -1.84112 96 95 109
-5.01196 4.88013 -1.84421 96 98 111
-4.79624 5.24623 -1.84692 96 99 114
-4.77396 5.26806 -1.84873 96 99 113
-4.49325 5.68982 -1.84633 100 98 111
-4.47845 5.70694 -1.84865 98 98 111
-4.4529 5.70589 -1.84461 101 101 113
-4.15409 6.26239 -1.85844 102 101 113
-4.12875 6.26133 -1.8551 104 102 113
-3.94135 6.57361 -1.86079 104 102 113
-3.7264 6.89112 -1.85846 102 101 109
-3.70395 6.89925 -1.85847 104 103 111
-3.53345 7.26174 -1.87297 107 106 112
-3.27572 7.61039 -1.87052 112 109 117
-3.0287 8.10173 -1.88791 108 105 116
-7.919 0.56916 -1.84202 71 83 102
-7.91828 0.590013 -1.8426 71 84 103
-7.59418 0.98585 -1.8322 79 88 105
-7.60153 1.00744 -1.8358 68 79 96
-7.36002 1.28758 -1.82579 72 80 93
-7.36256 1.30805 -1.82826 77 86 98
-7.36321 1.32816 -1.8301 75 82 94
-6.94388 1.81662 -1.81456 72 81 96
-6.92839 1.83145 -1.81141 72 79 95
-6.93624 1.85398 -1.81647 75 80 99
-6.91954 1.87821 -1.81395 74 81 99
-6.73427 2.098 -1.81054 74 78 92
-6.72157 2.11295 -1.80862 81 83 98
-6.72662 2.14459 -1.81442 84 87 101
-6.705 2.15601 -1.80928 86 90 102
-6.70443 2.17572 -1.81186 73 76 91
-5.60708 3.9246 -1.83336 98 96 110
-5.59254 3.93701 -1.83272 94 91 108
-5.57936 3.95064 -1.83273 99 97 111
-5.56411 3.97483 -1.83468 101 99 113
-5.34 4.33684 -1.83608 96 96 108
-5.32176 4.34572 -1.83419 99 99 111
-5.3048 4.35592 -1.83293 97 96 110
-5.27583 4.36694 -1.82915 96 94 108
-4.9946 4.89059 -1.8436 95 98 113
-4.97488 4.898 -1.84176 97 101 113
-4.75127 5.27152 -1.84574 100 103 118
-4.74243 5.29544 -1.85055 96 100 112
-4.7176 5.29561 -1.84636 97 99 112
-4.43093 5.73141 -1.8481 103 101 115
-4.11153 6.27756 -1.85734 101 99 110
-3.92058 6.58409 -1.86134 111 109 120
-3.67063 6.91132 -1.85848 112 109 118
-3.51471 7.28396 -1.87708 111 110 116
-3.48674 7.27867 -1.8735 107 106 112
-3.25626 7.63586 -1.87548 114 112 119
-3.00589 8.12299 -1.8917 109 109 114
-7.90689 0.526452 -1.8368 71 86 105
-7.9292 0.549075 -1.84432 78 91 110
-7.61648 0.938512 -1.83638 65 76 98
-7.6052 0.957126 -1.83399 76 88 105
-7.37996 1.22212 -1.827 73 81 100
-7.37901 1.24181 -1.82823 70 79 96
-7.35753 1.25731 -1.82271 73 79 93
-6.95223 1.76977 -1.81201 85 87 100
-6.94949 1.78874 -1.81329 75 80 94
-6.77009 2.02256 -1.8118 73 79 95
-6.76647 2.04097 -1.81309 70 77 93
-6.75246 2.06527 -1.81182 71 80 96
-6.75047 2.08433 -1.81376 67 75 90
-5.54665 3.98454 -1.83275 101 100 114
-5.5347 3.99932 -1.83341 97 97 109
-5.51503 4.01949 -1.83342 96 94 108
-5.50023 4.0316 -1.83278 97 95 109
-5.49088 4.04885 -1.83472 100 98 112
-5.27041 4.38949 -1.83359 100 98 112
-5.24949 4.39532 -1.83043 97 95 109
-5.23446 4.42142 -1.83361 101 99 112
-4.9567 4.92327 -1.84485 90 93 108
-4.93922 4.93355 -1.84425 92 95 110
-4.91943 4.94076 -1.84241 91 94 109
-4.69815 5.32188 -1.84997 100 101 111
-4.67331 5.32186 -1.84578 96 97 108
-4.41402 5.74507 -1.84926 104 102 116
-4.39038 5.74706 -1.84638 102 103 115
-4.08115 6.29136 -1.85736 102 100 112
-4.05742 6.29352 -1.85514 104 102 114
-3.88494 6.58819 -1.85864 110 107 118
-3.64944 6.9229 -1.85955 113 110 119
-3.22678 7.62589 -1.87103 108 105 114
-2.97758 8.12147 -1.88982 113 113 115
-7.93683 0.497393 -1.84489 71 83 103
-7.61206 0.887064 -1.83217 67 78 100
-7.62774 0.919842 -1.83876 74 85 107
-7.38912 1.17435 -1.82637 75 85 98
-7.37899 1.20207 -1.82515 73 82 99
-6.9839 1.67093 -1.81135 85 86 105
-6.9815 1.68993 -1.81262 85 88 103
-6.98266 1.71004 -1.81515 78 81 96
-6.97018 1.73577 -1.8139 87 90 105
-6.99109 1.76214 -1.8234 90 89 105
-6.80128 1.94535 -1.81177 71 80 95
-6.78189 1.95813 -1.80727 75 81 97
-6.7767 1.9759 -1.80792 70 77 93
-6.77542 2.00479 -1.81115 82 88 100
-6.24453 2.76516 -1.81267 83 81 94
-6.23069 2.78846 -1.81268 89 88 102
-6.21789 2.80209 -1.81137 91 90 106
-6.20076 2.86566 -1.81799 103 102 118
-6.17982 2.90609 -1.81933 80 78 94
-6.15495 2.96563 -1.82331 94 93 109
-6.13845 2.97695 -1.82068 95 93 105
-6.10695 3.00036 -1.81608 93 91 104
-6.0968 3.02609 -1.81807 96 94 107
-6.0841 3.06138 -1.82139 100 100 111
-6.07205 3.08603 -1.82272 98 96 109
-6.05841 3.09901 -1.82141 80 76 91
-6.03871 3.14062 -1.82406 82 80 93
-6.02492 3.15346 -1.82275 88 88 100
-5.97838 3.19906 -1.81882 103 101 114
-5.96909 3.21489 -1.81949 89 87 101
-5.46549 4.0636 -1.83216 101 100 114
-5.45739 4.08209 -1.83475 100 99 113
-5.43288 4.08481 -1.8296 94 93 107
-5.42195 4.1006 -1.8309 100 100 112
-5.21732 4.4313 -1.83235 104 102 115
-5.20901 4.45098 -1.83553 99 97 111
-5.18608 4.46848 -1.83491 98 95 112
-5.16255 4.47109 -1.83048 98 95 112
-4.89982 4.96433 -1.84488 91 97 113
-4.88108 4.97291 -1.84366 88 93 109
-4.6506 5.32492 -1.84279 97 98 111
-4.36527 5.76737 -1.84813 101 101 113
-4.04318 6.31654 -1.85961 105 103 114
-4.01548 6.30982 -1.8546 101 99 110
-3.8678 6.60738 -1.86191 111 108 119
-3.84106 6.60344 -1.85812 105 102 113
-3.62429 6.92356 -1.85745 105 102 113
-3.45219 7.29163 -1.87403 107 106 114
-3.1931 7.64711 -1.87402 110 107 117
-2.93953 8.13607 -1.89125 109 107 112
-7.94143 0.455902 -1.84488 78 90 114
-7.93726 0.476519 -1.8443 73 84 106
-7.63447 0.869963 -1.83815 71 84 100
-7.40174 1.13707 -1.82758 71 82 98
-7.38986 1.15467 -1.82513 74 83 99
-6.98742 1.62293 -1.80753 64 69 83
-7.01793 1.6515 -1.82019 80 83 99
-6.82534 1.85613 -1.80851 74 79 97
-6.8229 1.88443 -1.8111 71 79 93
-6.81975 1.90291 -1.81239 72 81 93
-6.80939 1.91892 -1.81111 69 75 91
-6.36604 2.48174 -1.80068 67 73 90
-6.37263 2.50523 -1.80662 77 83 96
-6.34289 2.54069 -1.80334 71 77 93
-6.34585 2.56255 -1.80796 71 78 94
-6.34037 2.58013 -1.80929 69 72 87
-6.34411 2.6126 -1.81589 77 77 93
-6.34845 2.63548 -1.82117 84 86 104
-6.3011 2.63097 -1.80602 74 74 92
-6.31779 2.6706 -1.8179 82 82 94
-6.29368 2.67828 -1.81197 94 93 107
-6.2878 2.69577 -1.8133 96 92 107
-6.29082 2.72838 -1.8199 101 99 112
-6.27486 2.7404 -1.81727 93 91 105
-6.2556 2.75051 -1.81332 76 75 91
-6.22461 2.827 -1.81797 99 97 111
-6.21375 2.85212 -1.8193 92 90 104
-6.19907 2.88589 -1.8213 95 96 109
-6.1796 2.9273 -1.82329 82 80 94
-6.17123 2.94364 -1.82396 94 93 107
-6.13792 2.99817 -1.82465 102 100 113
-6.10399 3.05237 -1.82533 96 95 109
-6.05733 3.12023 -1.82537 98 96 108
-6.02361 3.17468 -1.82672 101 101 113
-6.00163 3.19277 -1.82409 92 92 102
-5.95977 3.23069 -1.82016 99 97 111
-5.9592 3.26358 -1.82676 96 95 109
-5.93584 3.26957 -1.8215 90 90 102
-5.93248 3.28967 -1.8248 84 84 94
-5.91772 3.31269 -1.82547 79 77 90
-5.91263 3.3317 -1.82812 92 92 104
-5.89987 3.34515 -1.82747 83 82 96
-5.86661 3.35463 -1.82023 84 82 96
-5.86135 3.37355 -1.82287 87 87 99
-5.82882 3.37218 -1.81365 93 95 107
-5.82649 3.39328 -1.81761 84 86 98
-5.82323 3.42498 -1.82356 101 102 114
-5.78771 3.42097 -1.81302 101 103 115
-5.78665 3.4432 -1.81764 97 97 110
-5.76517 3.461 -1.81568 93 90 107
-5.40856 4.12688 -1.83413 100 98 111
-5.3894 4.13465 -1.83156 102 100 113
-5.38097 4.153 -1.83415 95 93 107
-5.36058 4.17248 -1.83416 98 97 111
-5.15404 4.49068 -1.83366 97 97 109
-5.13796 4.5017 -1.83303 95 97 109
-5.10987 4.51313 -1.82988 96 95 108
-4.85894 4.97685 -1.84059 88 94 109
-4.83909 5.0002 -1.84307 89 94 111
-4.63505 5.35736 -1.8488 96 96 110
-4.6133 5.36188 -1.84641 97 99 112
-4.59568 5.37274 -1.84642 95 94 107
-4.34727 5.77918 -1.84872 107 105 118
-4.32455 5.7826 -1.84641 103 102 115
-3.80904 6.61603 -1.85813 102 100 108
-3.60239 6.93319 -1.85798 104 101 112
-3.43141 7.30815 -1.8766 110 107 116
-3.40467 7.30623 -1.87405 107 104 113
-3.16322 7.63505 -1.86908 113 108 118
-2.90948 8.12674 -1.88749 110 107 116
-7.9386 0.424425 -1.84313 72 82 107
-7.64519 0.830761 -1.83934 73 84 104
-7.65118 0.851948 -1.84234 71 82 100
-7.41584 1.09017 -1.8288 70 81 101
-7.4041 1.10787 -1.82634 75 84 102
-7.00879 1.58013 -1.81005 79 81 96
-7.00965 1.60969 -1.81322 79 85 99
-6.85035 1.80598 -1.81043 74 74 87
-6.87082 1.83211 -1.82009 70 72 84
-6.87682 1.85365 -1.8246 69 72 88
-6.42906 2.37219 -1.80261 72 77 96
-6.43274 2.39392 -1.80723 69 76 95
-6.40876 2.41235 -1.80262 69 78 95
-6.40549 2.43083 -1.80461 71 80 95
-6.39706 2.44684 -1.80462 73 82 97
-6.38304 2.46999 -1.80397 68 77 94
-6.37745 2.52793 -1.8119 68 74 90
-5.76839 3.48672 -1.82228 90 89 105
-5.75667 3.50086 -1.82229 88 90 102
-5.72461 3.51027 -1.8157 90 89 102
-5.71428 3.52545 -1.81637 90 90 103
-5.72006 3.55359 -1.82429 92 91 105
-5.704 3.57575 -1.82496 81 78 95
-5.68907 3.58731 -1.82365 86 83 100
-5.34533 4.18407 -1.83353 96 96 108
-5.33138 4.19697 -1.83353 108 106 119
-5.31079 4.21622 -1.83355 102 100 113
-5.2941 4.22629 -1.83227 101 100 114
-5.09868 4.52975 -1.83179 96 95 111
-5.08988 4.54924 -1.83496 97 96 112
-4.82364 5.01317 -1.84369 96 98 115
-4.80927 5.02763 -1.84493 98 100 113
-4.79262 5.03898 -1.84494 98 100 113
-4.56651 5.3841 -1.84464 100 97 111
-4.30292 5.80933 -1.85048 104 102 115
-4.27649 5.80588 -1.84585 102 100 113
-3.98884 6.33195 -1.8574 106 106 116
-3.96738 6.33904 -1.85685 107 104 113
-3.79313 6.6386 -1.86249 108 105 115
-3.57337 6.95752 -1.8617 101 98 110
-3.14341 7.66025 -1.87404 109 106 114
-2.88425 8.13819 -1.88891 111 108 117
-7.96376 0.384082 -1.84948 78 89 111
-7.94262 0.403795 -1.84371 71 83 107
-7.64499 0.759721 -1.83572 73 85 101
-7.64555 0.780072 -1.83693 72 84 100
-7.64415 0.800192 -1.83753 75 87 104
-7.4074 1.01973 -1.8214 77 86 103
-7.41272 1.04031 -1.82448 68 80 97
-7.41443 1.07015 -1.82695 70 81 100
-7.03907 1.5005 -1.81192 73 74 88
-7.04455 1.52152 -1.81572 79 82 95
-7.03474 1.54814 -1.8151 74 78 90
-7.04188 1.56974 -1.81953 75 77 92
-6.88301 1.71962 -1.81103 82 81 97
-6.86955 1.76371 -1.8117 72 74 89
-6.88302 1.7874 -1.81878 80 79 95
-6.46793 2.28102 -1.80059 69 78 95
-6.45827 2.29643 -1.79994 71 79 96
-6.47599 2.32432 -1.80983 65 70 89
-6.48846 2.34999 -1.81775 70 75 94
-6.46975 2.3712 -1.81512 71 76 95
-5.67702 3.60121 -1.82366 91 90 104
-5.66202 3.61266 -1.82235 95 93 106
-5.64422 3.63337 -1.82236 86 84 97
-5.63636 3.65077 -1.82435 92 90 104
-5.62842 3.66817 -1.82634 89 86 103
-5.6032 3.68261 -1.82305 93 91 105
-5.28394 4.24312 -1.83421 99 98 114
-5.26444 4.26353 -1.83487 96 95 109
-5.24633 4.27206 -1.83294 106 106 118
-5.07389 4.57483 -1.83814 97 96 112
-5.06003 4.58849 -1.83878 94 94 109
-5.03882 4.59339 -1.83563 94 96 111
-4.76354 5.04973 -1.84249 98 97 113
-4.74793 5.06249 -1.84312 100 99 113
-4.55486 5.4045 -1.84824 107 105 118
-4.53107 5.40548 -1.84465 107 105 118
-4.25925 5.81911 -1.84702 100 98 110
-3.95051 6.35661 -1.85965 107 104 114
-3.76998 6.6433 -1.86141 109 106 117
-3.74542 6.64435 -1.85925 103 100 111
-3.5463 6.95246 -1.85801 106 103 114
-3.52365 6.96004 -1.85802 102 101 108
-3.37171 7.32435 -1.87611 111 109 117
-3.34557 7.32407 -1.87407 114 111 118
-7.95294 0.352194 -1.84543 76 87 105
-7.64928 0.729906 -1.83571 74 85 105
-7.43201 1.00404 -1.82815 80 88 107
-7.05749 1.43716 -1.81189 77 80 97
-7.0701 1.46956 -1.81886 78 80 95
-7.04634 1.48291 -1.81254 84 86 101
-6.89709 1.68526 -1.81167 87 89 102
-6.92174 1.71202 -1.82262 89 88 104
-6.90655 1.75585 -1.82263 78 80 93
-6.54333 2.19594 -1.81175 70 79 96
-6.5235 2.20715 -1.80714 69 81 97
-6.53477 2.24146 -1.81572 68 77 94
-6.52176 2.25558 -1.81375 70 79 96
-6.5087 2.26965 -1.81178 68 77 94
-5.60086 3.70485 -1.82768 99 97 111
-5.58131 3.71231 -1.82439 84 82 96
-5.5531 3.72398 -1.81978 92 90 104
-5.5378 3.73498 -1.81847 88 84 99
-5.53941 3.76091 -1.82507 81 79 93
-5.50544 3.76727 -1.81783 92 91 105
-5.50124 3.78817 -1.8218 96 94 107
-5.23469 4.2874 -1.83424 107 107 119
-5.22431 4.3041 -1.83618 105 103 116
-5.20064 4.32011 -1.8349 106 104 117
-5.18882 4.33534 -1.8362 100 98 112
-4.99408 4.61478 -1.83185 92 94 109
-4.73664 5.08142 -1.8462 97 96 110
-4.50679 5.42462 -1.84587 103 101 115
-4.49491 5.44491 -1.84947 98 96 110
-4.24288 5.83399 -1.84876 103 101 114
-4.21184 5.84357 -1.84704 101 97 111
-3.91674 6.36264 -1.85744 111 109 120
-3.89595 6.37127 -1.85745 102 99 111
-3.71739 6.66725 -1.86253 106 102 116
-3.49006 6.97129 -1.85803 108 105 112
-3.31946 7.3237 -1.87203 112 109 116
-3.10896 7.67925 -1.87653 112 110 115
-3.07676 7.65751 -1.86911 114 112 117
-7.96427 0.310965 -1.84773 65 78 99
-7.96056 0.331683 -1.84716 74 87 106
-7.66292 0.690985 -1.8381 67 78 97
-7.65424 0.710242 -1.83631 74 86 105
-7.43192 0.954848 -1.82507 69 80 98
-7.43746 0.9754 -1.82815 69 78 97
-7.08266 1.40453 -1.81694 74 77 95
-7.07377 1.4218 -1.81568 73 75 92
-6.92239 1.59667 -1.81034 77 81 96
-6.93946 1.63026 -1.81937 79 81 96
-6.92625 1.64574 -1.8168 75 77 92
-6.92572 1.66489 -1.81874 81 83 98
-6.59284 2.09908 -1.81369 71 78 96
-6.58039 2.12321 -1.81304 69 77 91
-6.5677 2.13758 -1.81107 71 79 93
-6.54975 2.14972 -1.80712 67 76 91
-6.55965 2.18316 -1.81504 70 78 97
-5.49835 3.81035 -1.82642 81 79 92
-5.48004 3.81861 -1.82379 88 86 99
-5.46126 3.8385 -1.82381 89 88 102
-5.44703 3.85043 -1.82315 95 95 107
-5.42589 3.8559 -1.8192 93 91 104
-5.17057 4.34358 -1.83428 101 98 115
-5.14927 4.36212 -1.83429 100 98 112
-5.02442 4.68248 -1.85592 91 95 107
-4.96711 4.65786 -1.83757 93 96 111
-4.95295 4.67122 -1.83821 92 95 110
-4.9281 4.67122 -1.83315 89 95 111
-4.71396 5.10121 -1.84745 100 98 112
-4.69817 5.11383 -1.84807 96 95 109
-4.67692 5.11859 -1.84562 100 99 113
-4.47803 5.45705 -1.85008 100 98 111
-4.44464 5.46127 -1.8459 106 104 117
-4.19713 5.86171 -1.84995 101 97 112
-3.87663 6.38337 -1.85857 101 100 108
-3.69211 6.66632 -1.85982 110 108 119
-3.46857 6.98235 -1.8591 106 105 112
-3.29787 7.33802 -1.87409 114 111 118
-3.05763 7.68625 -1.87506 113 111 116
-7.96074 0.279531 -1.84599 71 82 104
-7.67354 0.641562 -1.83928 68 79 97
-7.66879 0.661303 -1.83869 73 84 104
-7.44693 0.917765 -1.82751 67 78 98
-7.44885 0.937735 -1.82936 72 80 99
-7.08527 1.33727 -1.81186 83 85 98
-7.09134 1.35811 -1.81566 75 82 98
-7.0697 1.37231 -1.80997 72 78 96
-6.93936 1.56305 -1.81226 78 80 95
-6.95548 1.58672 -1.82 75 78 93
-6.59633 1.94598 -1.79386 71 77 91
-6.62335 1.98488 -1.80771 75 79 94
-6.62331 2.0236 -1.813 74 80 96
-6.60066 2.04375 -1.80839 69 78 95
-6.61448 2.06867 -1.81631 69 81 97
-6.59668 2.0811 -1.81236 69 81 97
-5.41106 3.87942 -1.8212 93 93 103
-5.40083 3.89508 -1.82252 99 99 109
-5.36047 3.91975 -1.81859 99 97 111
-5.35687 3.94183 -1.82321 97 95 109
-5.14616 4.38705 -1.8401 100 98 112
-5.12148 4.38809 -1.83495 101 100 114
-5.10374 4.41064 -1.8369 97 96 110
-5.08281 4.41572 -1.83368 95 97 110
-4.91272 4.68299 -1.83316 91 99 112
-4.90168 4.71544 -1.83951 96 98 112
-4.87099 4.70772 -1.83128 90 92 107
-4.65939 5.14599 -1.84994 101 100 114
-4.63705 5.14902 -1.84687 97 99 112
-4.42571 5.46998 -1.84531 98 96 109
-4.40289 5.47208 -1.84232 104 102 115
-4.17699 5.86965 -1.84937 101 99 113
-4.14319 5.87382 -1.84591 98 96 109
-3.84429 6.39256 -1.85747 102 99 106
-3.671 6.67608 -1.86037 103 101 112
-3.44583 6.9897 -1.85911 107 105 116
-3.26244 7.34829 -1.87411 109 106 113
-3.0341 7.69806 -1.87656 112 109 116
-7.97162 0.238184 -1.84829 74 84 109
-7.68012 0.621997 -1.84047 69 80 98
-7.44617 0.868611 -1.82443 76 85 102
-7.46328 0.89067 -1.83119 76 87 107
-7.10636 1.29383 -1.81501 77 79 94
-7.09411 1.31038 -1.81248 84 86 99
-6.95492 1.50042 -1.81095 76 81 96
-6.96217 1.52146 -1.81547 73 77 89
-6.96328 1.5504 -1.81869 79 81 96
-6.63212 1.89235 -1.79845 73 76 93
-6.62769 1.9193 -1.80044 78 77 93
-6.62793 1.93858 -1.80308 80 83 98
-6.63744 2.00963 -1.81562 79 82 99
-5.44797 3.96526 -1.85155 94 92 106
-5.34372 3.95474 -1.82322 94 92 106
-5.32432 3.97402 -1.82323 85 84 98
-5.30971 3.98549 -1.82258 89 88 102
-5.30044 4.00224 -1.82457 93 92 108
-5.0644 4.42356 -1.83176 92 94 109
-5.04893 4.44875 -1.83499 91 93 108
-4.86827 4.73577 -1.83826 95 97 112
-4.84181 4.74863 -1.83637 95 97 112
-4.62426 5.16616 -1.84934 95 97 109
-4.39263 5.49544 -1.84712 98 98 110
-4.12741 5.89009 -1.84824 101 99 112
-3.82488 6.40451 -1.8586 103 102 110
-3.80106 6.40577 -1.85637 109 106 117
-3.63998 6.69149 -1.86147 107 105 116
-3.41209 7.0006 -1.85913 103 100 111
-3.23798 7.35319 -1.87361 106 103 116
-2.99144 7.68468 -1.87063 114 113 119
-7.95977 0.216968 -1.84424 69 81 105
-7.69019 0.572415 -1.84166 73 84 104
-7.69514 0.593151 -1.84406 67 78 96
-7.47513 0.823498 -1.83117 68 79 99
-7.47225 0.852555 -1.83179 70 81 99
-7.12712 1.25017 -1.81815 72 79 97
-7.14077 1.2822 -1.82512 81 83 100
-6.98242 1.42183 -1.81221 78 80 95
-6.97529 1.43907 -1.81157 80 82 97
-6.99376 1.46282 -1.81995 81 84 99
-6.98602 1.48943 -1.81996 68 75 93
-6.68694 1.84507 -1.81029 66 73 91
-6.66322 1.86527 -1.80503 63 71 90
-5.29109 4.01897 -1.82655 90 89 103
-5.26473 4.03132 -1.82327 96 94 108
-5.25395 4.04663 -1.8246 97 94 111
-5.2431 4.06192 -1.82592 95 93 107
-5.04155 4.46933 -1.83887 88 91 106
-5.02056 4.47414 -1.83565 93 98 113
-5.00201 4.48174 -1.83373 93 99 113
-4.81583 4.74659 -1.83068 93 92 108
-4.8025 4.76103 -1.83195 93 92 108
-4.599 5.18233 -1.84935 99 97 110
-4.57557 5.18353 -1.84567 95 94 108
-4.56155 5.19895 -1.84752 100 99 113
-4.36593 5.51071 -1.84714 96 95 109
-4.3507 5.52577 -1.84894 98 97 113
-4.11069 5.90463 -1.84999 100 98 111
-4.08375 5.92208 -1.85116 107 103 118
-3.77082 6.41994 -1.85695 103 100 111
-3.61674 6.6957 -1.8604 108 105 116
-3.59284 6.69802 -1.85878 108 105 116
-3.39106 7.01327 -1.86072 106 103 112
-3.21459 7.36173 -1.87413 107 104 111
-7.95332 0.164798 -1.84133 72 83 103
-7.96153 0.185791 -1.84423 78 91 110
-7.68387 0.531408 -1.83805 74 85 105
-7.68517 0.551724 -1.83926 76 87 107
-7.48557 0.785537 -1.83239 73 84 104
-7.4898 0.805732 -1.83485 73 84 104
-7.12982 1.19281 -1.81434 72 83 101
-7.11599 1.20916 -1.81118 72 80 98
-7.12066 1.22943 -1.81435 68 77 94
-6.9858 1.3753 -1.80898 70 73 90
-7.00637 1.39926 -1.818 81 82 100
-6.68678 1.78779 -1.80302 74 76 88
-6.69998 1.81135 -1.81027 70 74 86
-6.70774 1.83315 -1.81555 64 70 86
-5.23499 4.09293 -1.83187 100 96 111
-5.21482 4.09868 -1.82858 98 96 109
-5.18943 4.0989 -1.82266 99 97 110
-4.98616 4.50674 -1.83697 94 95 113
-4.96999 4.5171 -1.83633 95 96 114
-4.95379 4.52741 -1.83569 93 94 112
-4.78964 4.79172 -1.83767 94 93 109
-4.76481 4.79092 -1.83261 102 101 117
-4.75132 4.80524 -1.83388 100 99 113
-4.54436 5.20955 -1.84753 101 101 113
-4.32591 5.52427 -1.84475 99 98 112
-4.30095 5.54255 -1.84597 99 99 111
-4.06346 5.92967 -1.85059 101 99 113
-3.75342 6.43702 -1.85975 103 101 112
-3.56168 6.7131 -1.85988 106 103 114
-3.36764 7.01855 -1.8602 104 101 112
-3.17797 7.36791 -1.87312 112 109 116
-2.97337 7.71886 -1.87807 113 112 117
-2.94019 7.69094 -1.86916 110 109 115
-7.97183 0.144353 -1.84653 74 86 108
-7.6928 0.501921 -1.83984 78 89 107
-7.49129 0.737207 -1.83176 73 84 104
-7.50321 0.758259 -1.83668 75 86 106
-7.15355 1.14957 -1.81875 70 81 99
-7.13798 1.16568 -1.81496 72 84 101
-7.00665 1.31404 -1.81024 81 85 97
-7.00512 1.34198 -1.81218 75 79 96
-7.03137 1.36714 -1.82313 72 73 91
-6.71368 1.70224 -1.80167 79 81 94
-6.70484 1.72759 -1.80168 77 77 89
-6.70935 1.74801 -1.80564 81 81 91
-6.71736 1.76969 -1.81092 84 86 98
-5.17583 4.12432 -1.82597 100 99 113
-5.15046 4.12434 -1.82004 94 93 107
-5.15349 4.15451 -1.82862 96 95 111
-5.128 4.1674 -1.826 95 94 108
-4.90336 4.54054 -1.82863 93 97 109
-4.90979 4.57848 -1.84023 93 94 110
-4.72911 4.82359 -1.83453 100 99 113
-4.71883 4.8424 -1.83771 96 97 110
-4.51685 5.22217 -1.84632 96 95 108
-4.5047 5.24063 -1.8494 98 95 112
-4.27715 5.5425 -1.84238 97 97 109
-4.03973 5.93034 -1.8477 103 103 115
-3.73099 6.44159 -1.85864 105 104 112
-3.53972 6.72066 -1.85989 107 105 116
-3.33146 7.02174 -1.8581 101 98 109
-3.15346 7.37255 -1.87261 110 108 115
-7.979 0.113207 -1.84826 74 88 113
-7.69743 0.461916 -1.83983 73 85 109
-7.69325 0.481768 -1.83924 74 86 110
-7.48986 0.697862 -1.82929 77 90 109
-7.50003 0.718596 -1.8336 68 81 100
-7.13931 1.12749 -1.81242 67 78 96
-7.02006 1.27928 -1.81152 74 77 92
-7.01707 1.2975 -1.81217 84 88 100
-6.74437 1.60842 -1.80097 87 86 100
-6.74391 1.62706 -1.80296 82 81 95
-6.73619 1.6435 -1.8023 81 81 93
-6.72943 1.66951 -1.80297 86 86 98
-6.74853 1.69446 -1.8122 89 88 102
-5.10647 4.1713 -1.82205 99 98 116
-5.08624 4.1765 -1.81876 91 90 108
-5.08884 4.20671 -1.82734 93 92 108
-4.8862 4.59437 -1.8396 94 93 111
-4.86268 4.59556 -1.8351 93 92 108
-4.84743 4.607 -1.83511 95 97 110
-4.69513 4.8428 -1.83328 94 93 107
-4.68806 4.86616 -1.83835 98 98 110
-4.48839 5.25267 -1.85002 98 97 111
-4.46072 5.26501 -1.84881 98 97 111
-4.26917 5.57064 -1.84898 99 99 111
-4.23566 5.57368 -1.8448 101 100 114
-4.01855 5.95951 -1.85293 108 107 115
-3.99648 5.96345 -1.8512 104 102 113
-3.71067 6.45143 -1.85921 108 105 116
-3.51645 6.72454 -1.85881 107 106 114
-3.31031 7.03418 -1.8597 107 106 114
-3.12895 7.37712 -1.87211 112 109 118
-2.91021 7.72978 -1.87711 109 106 113
-7.70415 0.432174 -1.84102 73 88 109
-7.51278 0.670989 -1.83542 74 87 105
-7.14993 1.0625 -1.81113 70 79 97
-7.19236 1.08971 -1.82695 74 82 100
-7.18999 1.10858 -1.82759 64 75 93
-7.03616 1.21685 -1.8115 76 83 100
-7.03338 1.2351 -1.81215 72 79 93
-7.03236 1.25375 -1.81344 68 75 89
-6.77104 1.5696 -1.80557 92 93 105
-6.7592 1.59411 -1.80426 83 83 95
-5.0632 4.21924 -1.82471 95 97 112
-5.0542 4.23688 -1.82736 87 93 107
-4.82489 4.62408 -1.83512 99 98 112
-4.80957 4.6354 -1.83513 96 94 107
-4.66115 4.87807 -1.83647 105 104 118
-4.64403 4.88749 -1.83584 99 98 114
-4.62579 4.89529 -1.83458 100 98 112
-4.44028 5.27048 -1.84697 99 98 112
-4.42787 5.28879 -1.85005 98 97 111
-4.21737 5.58339 -1.84481 102 100 114
-3.97858 5.97593 -1.85236 102 100 111
-3.67531 6.45269 -1.85587 105 103 112
-3.657 6.46774 -1.85812 103 101 114
-3.4864 6.7429 -1.861 100 99 107
-3.28684 7.03921 -1.85918 104 101 110
-3.09537 7.39406 -1.87418 110 107 114
-2.879 7.70915 -1.87018 110 107 115
-7.71404 0.392488 -1.8428 69 82 101
-7.71008 0.412408 -1.84221 69 83 102
-7.50525 0.631045 -1.83111 73 84 102
-7.50998 0.651096 -1.83358 70 83 100
-7.16309 1.03628 -1.81365 69 80 98
-7.049 1.17254 -1.81212 74 83 98
-7.04819 1.19119 -1.81342 71 80 95
-6.77944 1.48803 -1.79961 81 83 96
-6.78302 1.50768 -1.80291 81 83 96
-6.78415 1.53593 -1.80622 75 79 91
-6.76947 1.5504 -1.80293 76 78 90
-6.02297 2.66117 -1.80749 92 92 104
-6.00127 2.68924 -1.80614 82 82 94
-6.00569 2.72177 -1.81363 108 106 117
-6.01097 2.74507 -1.81974 99 97 110
-5.99175 2.75439 -1.81568 94 92 103
-5.98276 2.77953 -1.81772 102 102 114
-5.97481 2.79533 -1.81841 95 94 109
-5.96196 2.80825 -1.81706 102 99 116
-5.92205 2.81504 -1.8062 95 94 108
-5.94133 2.84711 -1.81843 96 95 109
-5.90746 2.84727 -1.80825 87 86 100
-5.91719 2.88389 -1.81845 83 81 95
-5.8897 2.88772 -1.81099 89 88 102
-5.89576 2.91219 -1.81779 92 91 105
-5.86665 2.91486 -1.80964 94 94 106
-5.87587 2.95164 -1.81984 87 86 99
-5.87211 2.97021 -1.82257 90 89 103
-5.83505 2.96754 -1.81103 94 93 107
-5.84699 3.00648 -1.82258 91 89 103
-5.82884 3.01582 -1.81919 87 85 99
-5.79654 3.01581 -1.80969 99 97 110
-5.81589 3.06006 -1.82465 94 92 106
-5.77107 3.05151 -1.80971 91 89 103
-5.79182 3.08667 -1.8233 96 95 109
-5.7593 3.09651 -1.81584 87 86 100
-5.75805 3.11706 -1.81992 89 88 102
-5.73503 3.12274 -1.8145 79 78 92
-5.70411 3.15476 -1.81248 89 88 104
-5.68563 3.18497 -1.81385 86 84 97
-5.66364 3.20155 -1.81114 85 83 97
-5.64027 3.22824 -1.81048 95 93 106
-5.61358 3.24123 -1.80574 101 99 113
-5.0514 4.26154 -1.8333 92 95 112
-5.01808 4.26537 -1.82672 92 98 114
-5.00018 4.27301 -1.82475 89 95 109
-4.99464 4.29479 -1.82938 94 97 112
-4.79884 4.65265 -1.83772 103 101 115
-4.77647 4.65493 -1.83386 101 100 114
-4.60745 4.91932 -1.83776 99 97 111
-4.40304 5.30569 -1.85068 100 99 113
-4.20996 5.61313 -1.85201 101 99 113
-4.17639 5.61583 -1.84783 102 100 113
-3.94874 5.98765 -1.8518 107 105 115
-3.9291 5.99653 -1.85181 111 109 119
-3.63931 6.48454 -1.86092 107 105 118
-3.46372 6.74843 -1.86046 108 106 117
-3.25286 7.04938 -1.85919 104 101 110
-3.06978 7.39472 -1.87265 109 106 113
-2.85916 7.73742 -1.87613 109 106 115
-7.70902 0.361938 -1.8404 68 79 99
-7.5222 0.603366 -1.8354 74 85 105
-7.17665 1.00041 -1.81554 71 78 100
-7.20817 1.02518 -1.82757 72 83 103
-7.06147 1.12813 -1.81275 73 83 99
-7.05159 1.15428 -1.81148 73 82 98
-6.79576 1.47393 -1.80356 75 77 90
-6.17049 2.42235 -1.81078 74 77 92
-6.17216 2.44272 -1.81486 70 74 91
-6.16179 2.47687 -1.81759 75 81 97
-6.13921 2.49484 -1.81352 73 77 94
-6.13555 2.51271 -1.81557 72 78 94
-6.12681 2.528 -1.81557 69 76 92
-6.11903 2.5535 -1.81762 73 79 97
-6.10851 2.56788 -1.81695 73 76 95
-6.10458 2.58574 -1.81899 69 72 89
-6.08656 2.60589 -1.81697 69 71 85
-6.09076 2.62816 -1.82241 76 75 89
-6.07671 2.64065 -1.82037 77 76 90
-6.06011 2.66153 -1.81903 75 77 89
-6.04659 2.6944 -1.82108 71 70 84
-5.74599 3.15183 -1.82401 83 82 98
-5.71946 3.18717 -1.82403 96 95 111
-5.6695 3.22754 -1.81862 93 91 105
-5.63279 3.27727 -1.81933 92 90 104
-5.60505 3.27879 -1.81186 87 85 99
-5.60677 3.3129 -1.82002 99 99 111
-5.59551 3.32664 -1.82003 99 98 111
-5.56178 3.32333 -1.80985 101 100 114
-5.54752 3.33465 -1.8085 78 77 91
-5.50812 3.382 -1.80852 85 83 96
-4.96379 4.30108 -1.82411 89 92 109
-4.95195 4.31566 -1.82544 94 97 114
-4.93884 4.32878 -1.82611 94 97 114
-4.90309 4.32895 -1.8182 92 94 109
-4.75832 4.67769 -1.83645 96 95 111
-4.74625 4.69333 -1.83839 97 96 111
-4.72727 4.6999 -1.83646 99 98 112
-4.59238 4.93167 -1.83841 99 97 110
-4.57939 4.94711 -1.84031 102 100 111
-4.38848 5.32068 -1.85254 97 99 112
-4.37287 5.33402 -1.85378 101 99 111
-4.15618 5.62201 -1.84664 102 100 114
-4.13862 5.63317 -1.84724 101 101 113
-3.91026 6.00709 -1.85239 107 105 116
-3.60391 6.48542 -1.85758 103 101 112
-3.43978 6.75024 -1.85884 108 106 117
-3.41956 6.76289 -1.86048 108 105 114
-3.22936 7.05422 -1.85867 103 101 109
-3.04572 7.40089 -1.87266 113 110 117
-2.81723 7.72501 -1.8707 111 110 115
-7.71277 0.321859 -1.84039 78 91 110
-7.71664 0.342234 -1.84219 71 82 102
-7.51992 0.564025 -1.83294 71 83 105
-7.52298 0.58386 -1.83478 69 80 102
-7.19709 0.936979 -1.81805 74 82 101
-7.23263 0.962049 -1.83134 67 78 98
-7.21791 0.988371 -1.82819 77 85 106
-7.0719 1.0926 -1.81339 70 82 98
-7.06208 1.10949 -1.81146 69 81 97
-6.81588 1.38661 -1.80155 75 79 93
-6.81762 1.41479 -1.80485 78 80 93
-6.7978 1.4281 -1.79959 78 80 93
-6.81252 1.45066 -1.80684 73 74 88
-6.22914 2.3147 -1.81141 71 78 96
-6.23125 2.33502 -1.81549 68 75 93
-6.20948 2.34421 -1.81006 66 73 89
-6.20434 2.37069 -1.81279 73 76 91
-6.20115 2.38862 -1.81483 70 72 86
-6.20295 2.40901 -1.81892 72 76 88
-6.18046 2.46648 -1.82165 69 75 91
-5.55471 3.37335 -1.81938 90 90 102
-5.5492 3.39155 -1.8221 100 98 111
-5.51341 3.41962 -1.81872 100 100 112
-5.51066 3.44009 -1.82281 100 102 114
-5.49461 3.45004 -1.82078 97 97 110
-5.47893 3.47133 -1.82147 95 93 107
-5.44385 3.46575 -1.81061 80 79 93
-4.89356 4.34626 -1.82085 93 95 110
-4.88878 4.36936 -1.82614 95 97 110
-4.86828 4.3736 -1.82285 94 96 109
-4.70884 4.72248 -1.83906 100 99 113
-4.69095 4.73043 -1.83778 101 100 114
-4.55327 4.96002 -1.83906 101 99 110
-4.53805 4.97222 -1.8397 98 98 110
-4.51751 4.97651 -1.83718 96 96 108
-4.34293 5.34253 -1.85133 100 98 111
-4.32528 5.35248 -1.85134 98 96 109
-4.12101 5.64428 -1.84785 98 98 110
-3.88733 6.00893 -1.85009 103 101 112
-3.58541 6.50029 -1.85982 97 95 106
-3.20587 7.059 -1.85816 104 103 111
-3.18289 7.06555 -1.85816 108 107 113
-3.01146 7.41561 -1.87421 111 108 116
-2.79714 7.75313 -1.87665 110 109 114
-7.72027 0.302112 -1.84218 70 83 103
-7.52767 0.51586 -1.83354 73 86 105
-7.54225 0.536616 -1.83907 69 82 101
-7.20956 0.89125 -1.8193 67 78 96
-7.22699 0.92267 -1.8269 76 84 104
-7.09679 1.05034 -1.81852 67 78 96
-7.0761 1.07463 -1.81338 69 77 97
-6.83471 1.33585 -1.80285 71 74 86
-6.8297 1.3531 -1.80285 72 77 89
-6.81186 1.36707 -1.79825 75 81 96
-6.28588 2.13965 -1.80184 71 76 90
-6.27661 2.15464 -1.80116 71 77 91
-6.29576 2.21033 -1.81612 72 79 95
-6.28284 2.22383 -1.81409 70 77 93
-6.27844 2.24108 -1.81545 73 80 96
-6.24988 2.25695 -1.80867 75 81 98
-6.26249 2.28187 -1.81683 71 78 94
-6.25448 2.29753 -1.81683 71 79 95
-5.44812 3.49209 -1.81808 97 95 108
-5.43513 3.51558 -1.82013 101 99 112
-5.43768 3.54082 -1.82693 94 92 106
-5.40411 3.536 -1.81675 86 84 98
-5.40077 3.5564 -1.82083 89 87 100
-4.85289 4.39802 -1.82616 102 102 115
-4.6719 4.7368 -1.83585 100 100 112
-4.64988 4.75461 -1.83651 103 103 115
-4.49339 4.99228 -1.83719 103 99 113
-4.30275 5.3542 -1.84827 99 97 111
-4.28796 5.36894 -1.85012 99 99 111
-4.09538 5.66169 -1.84907 100 99 113
-4.0768 5.67099 -1.84907 99 96 113
-3.86056 6.02717 -1.85184 100 98 109
-3.84239 6.03926 -1.853 104 104 115
-3.56156 6.50071 -1.8576 99 97 108
-3.38432 6.76628 -1.85832 113 110 117
-3.36464 6.7806 -1.86051 110 109 115
-2.98441 7.41039 -1.87115 110 107 115
-2.76501 7.72639 -1.86824 106 105 111
-7.68597 0.25027 -1.83019 74 84 111
-7.72244 0.272013 -1.84217 69 81 107
-7.53764 0.497101 -1.83599 66 77 97
-7.21473 0.853856 -1.81866 62 76 96
-7.19625 0.870124 -1.8136 77 88 106
-7.10859 1.01489 -1.8198 70 81 102
-7.08223 1.02903 -1.81208 70 81 100
-6.85392 1.29444 -1.80547 80 83 98
-6.83073 1.30728 -1.79889 79 82 97
-6.33759 2.09512 -1.812 76 82 98
-6.32498 2.10885 -1.80997 72 81 96
-6.32455 2.13695 -1.81405 70 78 92
-6.30522 2.19529 -1.81679 68 75 91
-5.38456 3.57731 -1.82153 100 98 112
-5.36535 3.5843 -1.81814 93 91 105
-5.35608 3.59978 -1.8195 88 86 100
-5.33823 3.61927 -1.81951 94 92 106
-5.32603 3.63223 -1.81952 88 86 100
-5.30953 3.64142 -1.81749 94 91 108
-4.84424 4.41672 -1.82946 99 98 112
-4.8213 4.41782 -1.82485 97 96 110
-4.80796 4.44504 -1.82948 107 107 117
-4.77795 4.43713 -1.82092 102 102 113
-4.63302 4.76388 -1.83587 100 96 111
-4.62056 4.77923 -1.83781 98 97 111
-4.47388 4.99798 -1.8353 100 97 110
-4.46681 5.02263 -1.84101 100 98 111
-4.26366 5.38687 -1.85137 101 101 113
-4.05645 5.67683 -1.84788 102 101 115
-3.82101 6.04435 -1.85185 104 104 116
-3.53144 6.51562 -1.85873 109 107 118
-3.34366 6.79122 -1.8616 105 104 112
-3.14773 7.07154 -1.85712 109 106 113
-2.96174 7.42191 -1.87269 109 106 115
-7.71419 0.231403 -1.83857 60 72 96
-7.54676 0.448926 -1.8372 75 88 108
-7.5521 0.468863 -1.83967 67 80 99
-7.21008 0.824651 -1.81549 75 88 107
-7.10499 0.948901 -1.81398 73 84 102
-7.10677 0.967863 -1.81592 72 83 103
-7.09919 0.985287 -1.81464 67 75 95
-6.84527 1.24644 -1.79821 74 81 91
-6.8459 1.27408 -1.80085 87 91 104
-6.38218 2.0282 -1.81672 67 75 88
-6.35403 2.03591 -1.80858 76 81 95
-6.36249 2.05811 -1.8147 82 86 99
-6.35018 2.08133 -1.81403 71 77 90
-5.29712 3.66569 -1.82022 78 80 95
-5.28476 3.67852 -1.82023 85 87 100
-5.26956 3.6888 -1.81887 84 84 96
-5.25407 3.71044 -1.82024 103 101 114
-5.24019 3.72187 -1.81957 91 93 106
-4.77261 4.46012 -1.8262 100 98 112
-4.59392 4.79067 -1.83589 96 95 109
-4.57806 4.8013 -1.8359 99 98 112
-4.43937 5.0334 -1.83912 101 100 114
-4.42594 5.04846 -1.84103 101 99 112
-4.24206 5.39 -1.84892 100 98 111
-4.22616 5.40294 -1.85015 103 104 117
-4.03407 5.70077 -1.8515 100 98 111
-4.01194 5.70307 -1.8491 101 100 114
-3.78776 6.04835 -1.84897 103 102 114
-3.50952 6.52127 -1.85818 104 102 114
-3.49018 6.53408 -1.85987 106 105 115
-3.12522 7.07976 -1.85766 112 109 116
-2.733 7.7589 -1.8747 110 110 113
-7.71933 0.181364 -1.83916 62 73 96
-7.71412 0.201275 -1.83796 71 83 104
-7.5454 0.409774 -1.83535 69 81 102
-7.54327 0.429156 -1.83536 69 81 104
-7.25991 0.793514 -1.83002 70 81 99
-7.26225 0.813001 -1.83193 67 78 98
-7.1046 0.920948 -1.81204 71 82 100
-6.86467 1.18671 -1.7995 73 80 96
-6.86559 1.21435 -1.80215 78 84 98
-6.86096 1.23168 -1.80215 83 92 101
-6.38431 1.88012 -1.7963 67 75 92
-6.37756 1.89612 -1.79631 70 79 94
-6.41475 1.92845 -1.81329 68 75 91
-6.40656 1.95325 -1.81398 74 80 94
-6.38731 1.96466 -1.80923 69 77 93
-6.39431 1.98607 -1.81467 71 79 94
-6.382 2.00008 -1.81264 67 76 91
-5.23318 3.73962 -1.8223 83 87 99
-5.22058 3.75226 -1.8223 86 88 103
-5.19104 3.76089 -1.81688 105 104 118
-5.17153 3.76698 -1.81349 97 96 110
-5.13879 3.79674 -1.81283 96 95 109
-4.75314 4.47979 -1.82753 99 101 114
-4.74061 4.49385 -1.82886 95 97 110
-4.72573 4.5049 -1.82887 94 96 109
-4.56543 4.81652 -1.83784 103 105 118
-4.54299 4.81778 -1.83398 100 100 112
-4.40631 5.05392 -1.83914 98 97 110
-4.39277 5.0689 -1.84105 101 99 112
-4.19978 5.41731 -1.85017 95 93 110
-3.98898 5.70359 -1.84611 100 99 113
-3.77103 6.06374 -1.8513 104 102 115
-3.75348 6.07733 -1.85304 105 103 116
-3.45732 6.54143 -1.85877 106 103 114
-3.31133 6.80338 -1.86216 103 101 115
-3.28498 6.79737 -1.85837 107 105 118
-3.10426 7.09348 -1.85978 110 109 115
-2.92449 7.42503 -1.87117 108 107 114
-7.73401 0.161709 -1.84334 71 81 106
-7.54428 0.380475 -1.83411 77 88 108
-7.2224 0.740876 -1.81483 74 85 103
-7.25497 0.764207 -1.82685 69 81 99
-7.12477 0.86815 -1.81524 73 84 102
-7.12869 0.887366 -1.81782 80 89 106
-7.11573 0.904044 -1.81461 79 88 105
-6.87543 1.15242 -1.80015 73 81 95
-6.88573 1.17297 -1.80543 72 79 97
-6.42707 1.80351 -1.80035 74 80 92
-6.40886 1.82458 -1.79696 67 75 88
-6.41998 1.84694 -1.80376 63 71 88
-6.40981 1.86179 -1.8024 68 76 93
-5.17931 3.79879 -1.82369 96 95 109
-5.14768 3.82992 -1.82371 98 97 111
-5.1321 3.8397 -1.82236 99 98 114
-4.70373 4.52139 -1.82888 96 94 108
-4.68418 4.52633 -1.82625 95 93 110
-4.66806 4.53571 -1.8256 100 99 115
-4.52377 4.83969 -1.83658 96 95 111
-4.5099 4.85323 -1.83787 98 97 111
-4.36722 5.08249 -1.84042 101 100 114
