-4.69829 -2.22018 -1.79897 68 80 102
-4.71793 -2.2034 -1.80328 89 95 112
-4.72402 -2.18891 -1.80327 115 116 128
-5.06949 -1.77295 -1.81904 78 86 105
-5.06886 -1.75533 -1.81693 67 76 93
-5.38695 -1.33679 -1.8247 71 83 99
-5.37754 -1.31675 -1.81994 73 85 101
-5.67559 -0.879876 -1.81717 70 81 99
-5.67373 -0.861626 -1.81585 70 82 102
-5.82396 -0.641833 -1.81252 69 81 103
-5.81382 -0.62238 -1.80865 79 91 113
-5.94679 -0.52858 -1.82662 66 78 101
-6.1661 -0.196196 -1.82588 72 84 106
-2.2995 -5.78429 -1.81864 116 116 116
-2.44856 -5.48479 -1.79989 106 107 119
-2.58248 -5.31581 -1.80452 115 117 120
-2.68559 -5.04065 -1.77974 73 84 105
-2.99754 -4.68197 -1.80091 69 84 107
-3.26536 -4.28394 -1.79978 66 78 99
-3.27905 -4.27579 -1.80047 66 78 102
-3.56438 -3.77916 -1.78524 67 78 96
-3.58408 -3.77834 -1.79027 67 79 95
-3.59387 -3.76629 -1.78955 69 78 95
-3.783 -3.43702 -1.78168 68 77 92
-3.80367 -3.42506 -1.7846 68 75 91
-3.80945 -3.40985 -1.7824 69 78 93
-3.81652 -3.3959 -1.78093 67 76 91
-3.83431 -3.38119 -1.78239 65 74 91
-4.42801 -2.62462 -1.80476 75 84 99
-4.42737 -2.60631 -1.8011 70 79 96
-4.4115 -2.56991 -1.78864 68 77 94
-4.42189 -2.55829 -1.7901 69 78 93
-4.42901 -2.54476 -1.79009 75 82 98
-4.43522 -2.52163 -1.78789 73 81 96
-4.45192 -2.51358 -1.79228 69 79 91
-4.45568 -2.49811 -1.7908 65 75 87
-4.72667 -2.17279 -1.80183 113 113 121
-4.72926 -2.15667 -1.80038 72 80 98
-4.73855 -2.13486 -1.80037 65 79 108
-5.07799 -1.73223 -1.81762 66 74 94
-5.08964 -1.71879 -1.82041 64 72 92
-5.39195 -1.29379 -1.82333 80 90 102
-5.68487 -0.845289 -1.81914 66 78 100
-5.81113 -0.603813 -1.80735 72 84 106
-5.94 -0.509191 -1.82408 72 84 106
-6.16583 -0.176852 -1.82587 74 86 110
-2.43932 -5.50916 -1.80623 118 120 124
-2.55753 -5.32477 -1.80388 127 126 134
-2.66533 -5.076 -1.78766 74 87 108
-2.67795 -5.06344 -1.78568 75 88 108
-2.97982 -4.68419 -1.7982 70 82 105
-3.23227 -4.30638 -1.79908 62 75 100
-3.25274 -4.29355 -1.79978 66 79 98
-3.51507 -3.82776 -1.78598 67 78 96
-3.52749 -3.81875 -1.7867 67 78 96
-3.54232 -3.81251 -1.78885 64 77 96
-3.55468 -3.8034 -1.78956 66 77 95
-3.72884 -3.50013 -1.78244 66 75 90
-3.74161 -3.49155 -1.78389 67 76 91
-3.75444 -3.47215 -1.78243 67 76 91
-3.76175 -3.45834 -1.78096 66 75 92
-3.77172 -3.44706 -1.78095 66 75 92
-4.46585 -2.48628 -1.79226 67 75 88
-4.47014 -2.46213 -1.78933 72 80 96
-4.48021 -2.45022 -1.79078 69 78 93
-4.48375 -2.4347 -1.78931 71 80 95
-4.73594 -2.11637 -1.79677 65 77 105
-4.74342 -2.10258 -1.79748 63 79 102
-4.75755 -2.083 -1.79963 65 80 103
-5.09237 -1.70233 -1.81971 64 72 92
-5.0977 -1.67793 -1.819 67 75 93
-5.38969 -1.27561 -1.82128 73 82 97
-5.6786 -0.817377 -1.81583 69 81 105
-5.95092 -0.48177 -1.82724 73 85 107
-2.26993 -5.78467 -1.81556 128 124 115
-2.40811 -5.50345 -1.80052 115 115 123
-2.54454 -5.33882 -1.80646 129 127 133
-2.64386 -5.06977 -1.78238 73 85 107
-2.94547 -4.70735 -1.79888 72 84 106
-2.9632 -4.70528 -1.8016 69 81 107
-3.20902 -4.32842 -1.80049 61 76 98
-3.21959 -4.31589 -1.79909 62 77 100
-3.48653 -3.85365 -1.78599 66 77 97
-3.50624 -3.85328 -1.79102 66 79 98
-3.68652 -3.55388 -1.78465 68 77 92
-3.69019 -3.53631 -1.78099 67 76 91
-3.7004 -3.52527 -1.78098 67 79 93
-3.71739 -3.50996 -1.78171 67 76 91
-4.49754 -2.41584 -1.79077 70 80 92
-4.49933 -2.39939 -1.78857 71 80 95
-4.50924 -2.38734 -1.79003 68 77 92
-4.52447 -2.36918 -1.79222 66 75 90
-4.79892 -2.08443 -1.81472 67 79 103
-4.77567 -2.05675 -1.80249 66 78 100
-5.09317 -1.65916 -1.81549 68 77 95
-5.10819 -1.64669 -1.81968 67 77 93
-5.40194 -1.26095 -1.82467 76 85 102
-5.40515 -1.23519 -1.82399 66 78 94
-5.68216 -0.799919 -1.81648 67 80 104
-5.82623 -0.577957 -1.81185 70 82 104
-5.82528 -0.559566 -1.8112 72 84 106
-5.94209 -0.46228 -1.82406 72 84 106
-6.15436 -0.147515 -1.82217 73 88 111
-2.25254 -5.79085 -1.81556 135 127 115
-2.38972 -5.50484 -1.79862 114 113 123
-2.53076 -5.35109 -1.8084 129 128 131
-2.62722 -5.09443 -1.78767 71 86 109
-2.93331 -4.71915 -1.80025 98 110 121
-3.18733 -4.33948 -1.7991 66 79 101
-3.44402 -3.88662 -1.78457 66 77 95
-3.45896 -3.88074 -1.78672 64 75 93
-3.47641 -3.86537 -1.78672 67 78 96
-3.63562 -3.59904 -1.78248 66 78 94
-3.64082 -3.58287 -1.77954 65 77 93
-3.65117 -3.572 -1.77954 65 76 92
-3.66281 -3.56242 -1.78026 65 76 91
-4.52772 -2.35356 -1.79075 75 82 99
-4.53915 -2.34224 -1.79294 80 87 105
-4.53901 -2.32488 -1.79 53 60 78
-4.54736 -2.30311 -1.78926 53 60 79
-4.79984 -2.04146 -1.80896 67 79 103
-4.78318 -2.01698 -1.79961 69 81 105
-4.80063 -2.00744 -1.80463 64 77 99
-5.10968 -1.6211 -1.81758 69 81 97
-5.3972 -1.21574 -1.8199 69 80 96
-5.69125 -0.783192 -1.81912 69 81 105
-5.83179 -0.541917 -1.81313 73 85 107
-5.91428 -0.441526 -1.81455 70 82 104
-2.2357 -5.79877 -1.81618 130 125 120
-2.37885 -5.52556 -1.80369 114 114 123
-2.50067 -5.34753 -1.80324 127 125 130
-2.60815 -5.09316 -1.78437 72 84 106
-2.9072 -4.72369 -1.79685 72 82 97
-3.16067 -4.35661 -1.79841 67 79 101
-3.17775 -4.35345 -1.8012 67 79 103
-3.42349 -3.90978 -1.78601 66 77 95
-3.43612 -3.9011 -1.78673 67 78 96
-3.59596 -3.63403 -1.78103 65 77 93
-3.60133 -3.61794 -1.77809 68 77 94
-3.61179 -3.6072 -1.77809 63 75 91
-4.57191 -2.29838 -1.79731 57 66 83
-4.56662 -2.27848 -1.79218 86 95 110
-4.5814 -2.25989 -1.79437 74 83 98
-4.57259 -2.2384 -1.78777 69 80 99
-4.7941 -1.98751 -1.79959 112 123 140
-4.81115 -1.96899 -1.80318 136 139 154
-4.81304 -1.95272 -1.80173 76 75 89
-5.11924 -1.60683 -1.81967 64 76 92
-5.12698 -1.59195 -1.82106 70 82 97
-5.4038 -1.1997 -1.82125 72 81 98
-5.39937 -1.18115 -1.81852 66 78 95
-5.67788 -0.763475 -1.81383 68 83 106
-5.82322 -0.522799 -1.8099 70 82 106
-5.94004 -0.415095 -1.82278 72 84 106
-2.21263 -5.81869 -1.81987 124 120 119
-2.35179 -5.5301 -1.80179 115 116 121
-2.48754 -5.36142 -1.80582 131 129 132
-2.59381 -5.1021 -1.78503 70 85 106
-2.86813 -4.72075 -1.7887 71 83 107
-2.90139 -4.74686 -1.80297 67 79 102
-3.12811 -4.37971 -1.79841 61 73 97
-3.13783 -4.36586 -1.79631 66 79 103
-3.3839 -3.94634 -1.78675 66 79 97
-3.39896 -3.94072 -1.7889 66 77 97
-3.40116 -3.91907 -1.78314 66 77 95
-3.54905 -3.68317 -1.78178 66 75 92
-3.5572 -3.66989 -1.78031 68 77 94
-3.57037 -3.66202 -1.78177 65 76 93
-3.57588 -3.64598 -1.77883 64 76 92
-4.58207 -2.22597 -1.78923 67 79 102
-4.59484 -2.21512 -1.79215 66 79 103
-4.5993 -2.19149 -1.78995 66 79 99
-4.81146 -1.93502 -1.79885 81 77 93
-4.82486 -1.9149 -1.801 77 73 90
-5.12036 -1.57269 -1.81685 69 80 96
-5.13403 -1.55085 -1.81965 69 78 95
-5.40771 -1.15662 -1.81988 65 76 94
-5.67681 -0.736422 -1.8125 66 78 102
-5.92721 -0.395501 -1.81833 68 80 104
-2.19396 -5.82106 -1.81864 128 124 125
-2.33672 -5.54012 -1.80306 113 112 120
-2.45759 -5.38031 -1.80776 135 134 141
-2.47083 -5.3665 -1.80518 134 133 136
-2.57067 -5.11284 -1.78503 73 87 109
-2.8674 -4.77104 -1.80434 71 83 107
-3.1064 -4.40422 -1.80122 65 80 101
-3.12144 -4.39819 -1.80262 63 78 101
-3.35441 -3.97114 -1.78676 64 77 97
-3.36491 -3.95979 -1.78603 66 77 95
-3.51227 -3.72122 -1.78252 62 73 92
-3.52057 -3.70803 -1.78105 65 76 94
-3.53257 -3.69894 -1.78178 64 75 93
-4.60529 -2.17733 -1.78994 67 79 105
-4.62132 -2.16791 -1.79432 64 78 103
-4.6289 -2.14577 -1.79359 71 82 102
-4.83001 -1.90002 -1.80099 68 78 101
-4.8334 -1.88443 -1.80027 69 81 100
-5.14519 -1.53694 -1.82244 72 81 98
-5.41597 -1.14089 -1.82191 66 77 95
-5.6932 -0.720539 -1.81777 66 78 100
-5.674 -0.700301 -1.8105 74 87 107
-5.82854 -0.495836 -1.81118 70 82 104
-5.82357 -0.477123 -1.80923 72 84 106
-5.95027 -0.378102 -1.82593 76 88 111
-2.17413 -5.81975 -1.81618 123 118 118
-2.55625 -5.12167 -1.78569 74 87 109
-2.83181 -4.77433 -1.79891 71 83 107
-2.84781 -4.76942 -1.80026 71 83 107
-3.08856 -4.42096 -1.80263 61 76 99
-3.32019 -3.98978 -1.78389 68 81 98
-3.3496 -3.98982 -1.79107 67 80 98
-3.47611 -3.73742 -1.77741 64 77 96
-3.4919 -3.73264 -1.78033 64 77 96
-4.628 -2.12839 -1.79065 71 82 102
-4.63716 -2.11568 -1.79211 67 79 101
-4.63941 -2.09117 -1.78917 65 80 103
-4.84658 -1.86413 -1.80242 48 53 71
-4.84984 -1.8485 -1.80169 87 87 102
-5.15453 -1.52245 -1.82453 72 80 96
-5.13919 -1.4921 -1.81612 69 78 93
-5.41133 -1.12237 -1.81918 67 78 97
-5.82796 -0.459232 -1.81052 71 83 105
-5.93789 -0.349168 -1.82149 75 87 109
-2.30644 -5.56003 -1.8056 105 106 111
-2.35014 -5.62631 -1.83159 112 111 119
-2.43238 -5.38864 -1.80711 139 138 144
-2.54028 -5.12699 -1.78503 72 84 110
-2.82293 -4.79242 -1.80299 69 84 107
-3.0604 -4.43584 -1.80123 68 80 102
-3.06832 -4.41903 -1.79773 65 77 101
-3.30119 -4.01515 -1.78677 67 78 96
-3.31637 -4.00988 -1.78893 67 78 98
-3.42407 -3.78056 -1.77596 65 77 94
-3.43871 -3.77463 -1.77815 65 78 95
-3.446 -3.76024 -1.77595 67 78 96
-3.47506 -3.75884 -1.78327 66 79 98
-4.65356 -2.08068 -1.79283 65 79 104
-4.66089 -2.06709 -1.79355 63 78 101
-4.66478 -2.05196 -1.79281 63 78 101
-4.85827 -1.83489 -1.80312 87 87 99
-4.86838 -1.82192 -1.80527 87 87 97
-5.15559 -1.47962 -1.82102 68 77 94
-5.16297 -1.46452 -1.82241 69 78 95
-5.41389 -1.09658 -1.81849 62 77 98
-5.40911 -1.07812 -1.81577 67 80 99
-5.68198 -0.674368 -1.81247 71 83 107
-5.91916 -0.32943 -1.81514 64 76 100
-2.1514 -5.84122 -1.82049 116 110 103
-2.27736 -5.55884 -1.8018 109 109 116
-2.41765 -5.39882 -1.8084 141 141 148
-2.51626 -5.13575 -1.78437 72 87 108
-2.79493 -4.79298 -1.79823 71 83 107
-3.04337 -4.45394 -1.80334 66 78 100
-3.26781 -4.03478 -1.78462 67 79 101
-3.29275 -4.02929 -1.78894 65 78 95
-3.4033 -3.81424 -1.78036 65 77 94
-3.42396 -3.80335 -1.78256 66 77 95
-4.6684 -2.02814 -1.79061 67 79 101
-4.67728 -2.01521 -1.79207 65 80 103
-4.67417 -1.99712 -1.7884 68 80 104
-4.87085 -1.79738 -1.80311 90 95 109
-4.88959 -1.78762 -1.80885 68 77 96
-4.88561 -1.76925 -1.80525 64 80 103
-5.16534 -1.43932 -1.821 69 81 97
-5.42449 -1.06379 -1.82052 69 82 101
-5.69632 -0.658088 -1.81709 64 76 100
-5.69377 -0.639888 -1.81576 62 77 100
-5.82167 -0.431299 -1.80793 64 77 101
-5.94772 -0.31207 -1.82464 69 81 105
-2.25957 -5.56152 -1.80053 110 110 118
-2.40017 -5.4019 -1.80712 142 142 152
-2.50625 -5.15477 -1.789 72 84 106
-2.76635 -4.80901 -1.79824 70 85 108
-2.7789 -4.79769 -1.79688 73 87 111
-3.00902 -4.45902 -1.79774 66 78 100
-3.02114 -4.44864 -1.79704 65 77 101
-3.24625 -4.05686 -1.78607 65 78 96
-3.2615 -4.05182 -1.78822 64 77 97
-3.37507 -3.82715 -1.77671 66 79 98
-3.38738 -3.81859 -1.77744 64 77 96
-3.9337 -3.15146 -1.80765 65 74 87
-3.94133 -3.13849 -1.8069 66 76 88
-3.939 -3.11714 -1.80091 67 76 91
-3.95363 -3.1101 -1.8039 65 72 88
-3.97313 -3.09705 -1.80688 62 72 87
-3.97629 -3.08044 -1.80389 64 75 88
-3.98798 -3.07086 -1.80538 65 75 88
-4.01167 -3.06108 -1.8106 66 76 89
-4.01178 -3.04207 -1.80611 64 74 86
-4.05525 -3.0578 -1.82404 64 74 86
-4.06006 -3.03262 -1.81955 65 74 91
-4.07458 -3.02501 -1.82254 65 74 89
-4.08615 -3.01504 -1.82403 65 74 89
-4.09184 -3.00049 -1.82253 66 76 89
-4.10512 -2.98202 -1.82252 67 75 91
-4.12249 -2.97642 -1.827 65 73 89
-4.13246 -2.96514 -1.82774 63 70 87
-4.14261 -2.94424 -1.82624 66 77 88
-4.14208 -2.92512 -1.82175 68 77 89
-4.1668 -2.92479 -1.82997 73 80 92
-4.16627 -2.89608 -1.82323 71 78 93
-4.17751 -2.88571 -1.82472 69 76 92
-4.18271 -2.87094 -1.82322 74 82 95
-4.19089 -2.85833 -1.82322 71 81 93
-4.20198 -2.83828 -1.82246 66 74 87
-4.21155 -2.82667 -1.8232 70 78 93
-4.21807 -2.8129 -1.82245 69 78 93
-4.23349 -2.79591 -1.82394 72 82 95
-4.24447 -2.78523 -1.82543 72 81 97
-4.25084 -2.77136 -1.82467 69 78 94
-4.27071 -2.75729 -1.82841 67 78 93
-4.2739 -2.74127 -1.82616 65 75 91
-4.6929 -1.97981 -1.79278 67 79 99
-4.69137 -1.96245 -1.78985 91 98 117
-4.88257 -1.74274 -1.80093 70 84 110
-5.17619 -1.42514 -1.82379 66 79 95
-5.17979 -1.40896 -1.82378 66 78 96
-5.42861 -1.0383 -1.82051 69 80 102
-5.68927 -0.621508 -1.81377 72 87 110
-5.82591 -0.413378 -1.80921 70 82 107
-5.81692 -0.394469 -1.80598 74 86 110
-5.93646 -0.292749 -1.82083 72 84 107
-2.24752 -5.58017 -1.80497 112 111 119
-2.37689 -5.41524 -1.80841 139 137 146
-2.49094 -5.16165 -1.789 75 87 109
-2.98486 -4.46582 -1.79495 70 82 106
-3.21807 -4.08353 -1.78752 64 76 98
-3.22236 -4.06355 -1.78248 66 79 98
-3.33899 -3.86607 -1.77892 64 75 97
-3.34432 -3.84905 -1.77525 61 75 96
-3.35671 -3.84061 -1.77598 65 77 98
-3.82418 -3.26319 -1.80172 67 74 92
-3.83633 -3.25427 -1.80321 67 74 92
-3.85123 -3.24778 -1.80619 67 76 93
-3.85736 -3.22313 -1.80171 66 75 88
-3.87774 -3.22144 -1.80768 68 78 90
-3.87728 -3.20128 -1.80244 64 71 87
-3.89429 -3.18633 -1.80393 66 73 89
-3.90345 -3.17469 -1.80393 66 73 89
-3.92102 -3.17027 -1.8084 65 74 89
-4.27397 -2.72319 -1.82241 67 76 91
-4.28784 -2.71438 -1.8254 70 79 94
-4.3013 -2.69593 -1.82614 64 76 92
-4.2717 -2.65855 -1.8082 67 77 93
-4.31183 -2.66684 -1.82388 68 77 94
-4.32196 -2.64625 -1.82313 66 78 92
-4.32162 -2.62817 -1.81939 67 76 93
-4.33841 -2.62104 -1.82387 65 74 91
-4.34421 -2.60691 -1.82311 72 81 98
-4.70349 -1.95081 -1.79277 89 91 103
-4.70315 -1.92549 -1.7891 113 115 128
-4.90645 -1.7347 -1.80883 72 84 110
-4.89876 -1.7151 -1.80379 75 87 111
-5.19238 -1.39516 -1.82728 69 82 100
-5.41994 -1.01916 -1.81642 67 80 99
-5.43703 -1.00499 -1.82185 68 80 102
-5.66688 -0.592388 -1.80518 68 83 104
-2.35937 -5.41817 -1.80712 125 121 129
-2.4719 -5.15982 -1.7857 71 86 106
-2.73006 -4.82878 -1.79825 73 85 109
-2.74013 -4.81256 -1.79484 70 82 106
-2.96142 -4.48792 -1.79706 68 80 104
-2.98059 -4.48879 -1.80125 69 81 105
-3.18642 -4.10542 -1.78681 68 80 102
-3.20604 -4.09292 -1.78752 65 78 97
-3.30332 -3.88186 -1.77453 64 76 98
-3.31814 -3.87645 -1.77673 64 76 98
-3.77019 -3.33476 -1.80399 67 76 91
-3.78099 -3.31411 -1.80174 68 75 91
-3.79463 -3.30664 -1.80398 68 75 91
-3.80553 -3.29659 -1.80472 67 74 90
-3.81201 -3.27206 -1.80023 66 73 91
-4.34777 -2.58225 -1.81937 72 81 96
-4.35817 -2.57102 -1.82086 69 78 93
-4.3717 -2.56169 -1.82384 67 76 93
-4.38132 -2.54083 -1.82309 74 83 100
-4.39957 -2.53425 -1.82831 67 76 93
-4.36057 -2.49324 -1.80663 68 76 95
-4.7152 -1.91376 -1.79202 78 87 104
-4.71341 -1.89641 -1.78909 72 80 104
-4.72365 -1.88391 -1.79128 67 79 101
-4.89893 -1.68988 -1.80091 74 87 113
-4.93503 -1.68591 -1.81384 73 88 113
-5.18172 -1.36656 -1.82097 73 84 102
-5.42642 -0.985538 -1.81709 66 78 100
-5.68476 -0.576323 -1.81111 68 83 106
-5.8254 -0.367685 -1.80855 70 83 105
-5.93882 -0.264657 -1.82145 77 90 109
-2.21342 -5.56438 -1.79609 110 110 119
-2.34319 -5.42459 -1.80712 95 93 103
-2.45066 -5.17517 -1.78768 71 85 105
-2.71482 -4.83493 -1.79757 72 87 110
-2.95112 -4.50131 -1.79916 68 80 104
-3.16677 -4.10407 -1.78178 67 79 101
-3.28528 -3.90703 -1.77747 64 77 98
-3.30013 -3.9017 -1.77967 64 77 96
-3.70689 -3.38682 -1.79878 67 76 91
-3.72731 -3.38615 -1.80476 69 78 93
-3.74107 -3.36823 -1.804 65 74 89
-3.74278 -3.34942 -1.79951 67 76 91
-3.7565 -3.34212 -1.80175 66 75 90
-4.4129 -2.49798 -1.82606 71 80 97
-4.41829 -2.48364 -1.8253 72 80 98
-4.43003 -2.47303 -1.82754 69 77 95
-4.41611 -2.44747 -1.81782 69 77 93
-4.44284 -2.43657 -1.82528 70 78 93
-4.44158 -2.41847 -1.82154 70 78 93
-4.73331 -1.86268 -1.792 59 67 88
-4.73307 -1.84601 -1.7898 51 57 76
-4.91835 -1.66327 -1.80521 73 89 114
-4.91567 -1.64563 -1.80232 73 87 114
-5.20145 -1.35454 -1.82726 67 79 95
-5.21026 -1.33965 -1.82935 80 91 105
-5.43569 -0.961041 -1.81912 64 75 95
-5.68193 -0.5582 -1.80979 72 87 110
-5.83133 -0.349823 -1.81048 80 92 114
-5.94824 -0.246217 -1.82462 73 86 105
-2.20189 -5.5847 -1.80117 111 112 117
-2.31846 -5.43411 -1.80712 59 58 74
-2.43166 -5.17318 -1.78438 71 79 102
-2.69531 -4.85161 -1.79961 70 84 110
-2.91838 -4.52426 -1.79987 69 81 105
-2.92977 -4.51256 -1.79846 69 81 105
-3.15109 -4.1347 -1.78754 63 75 97
-3.17186 -4.13768 -1.79329 65 77 99
-3.24366 -3.93912 -1.77675 66 79 96
-3.25399 -3.92812 -1.77602 67 78 98
-3.27233 -3.9273 -1.78041 68 79 99
-3.66718 -3.44122 -1.80179 66 75 92
-3.66535 -3.41855 -1.79506 66 78 94
-3.68314 -3.41551 -1.79954 71 83 99
-3.70233 -3.40301 -1.80178 66 75 90
-4.45639 -2.40954 -1.82527 71 80 93
-4.46525 -2.3883 -1.82452 69 78 92
-4.43625 -2.3549 -1.80807 69 78 93
-4.45091 -2.34589 -1.8118 71 80 95
-4.4562 -2.3229 -1.80955 51 55 79
-4.74491 -1.83405 -1.79272 99 100 113
-4.75087 -1.81137 -1.79198 79 83 94
-4.93489 -1.62703 -1.80735 75 89 116
-4.93384 -1.60998 -1.80518 76 90 117
-5.20112 -1.31158 -1.82375 77 86 101
-5.42675 -0.94202 -1.81503 68 79 100
-5.83156 -0.331575 -1.81047 69 82 101
-5.94625 -0.22733 -1.82397 74 86 108
-2.18777 -5.59784 -1.8037 112 111 118
-2.3035 -5.44395 -1.80841 60 62 75
-2.41846 -5.18505 -1.78636 64 72 93
-2.68419 -4.86605 -1.80234 68 82 108
-2.90116 -4.52631 -1.79707 67 81 107
-3.09733 -4.15123 -1.78036 66 78 99
-3.11696 -4.15294 -1.78539 66 78 99
-3.12387 -4.13618 -1.78179 64 76 98
-3.21103 -3.95836 -1.77456 66 78 100
-3.23164 -3.9607 -1.78042 65 78 97
-3.62406 -3.49241 -1.80331 67 77 94
-3.63418 -3.48168 -1.8033 65 76 92
-3.64947 -3.47622 -1.80629 65 77 93
-3.65305 -3.45879 -1.80254 65 77 93
-4.46264 -2.30934 -1.80954 56 61 80
-4.46905 -2.29576 -1.80954 56 63 79
-4.47377 -2.28128 -1.80878 53 58 77
-4.75739 -1.79732 -1.79271 83 91 104
-4.75519 -1.78 -1.78977 92 98 112
-4.9398 -1.5953 -1.8059 76 90 117
-4.95706 -1.57586 -1.8102 76 92 118
-5.19346 -1.29264 -1.81954 74 84 101
-5.20575 -1.27858 -1.82303 71 83 99
-5.43439 -0.925984 -1.81706 70 83 102
-5.69114 -0.532227 -1.81242 72 84 108
-5.68067 -0.513462 -1.80845 71 83 107
-5.82795 -0.313101 -1.80917 71 83 105
-5.9066 -0.197954 -1.81066 71 83 105
-2.15997 -5.59956 -1.80117 112 109 121
-2.28469 -5.44306 -1.80583 67 71 82
-2.39491 -5.19492 -1.78636 65 75 91
-2.65019 -4.87123 -1.79826 69 83 109
-2.66302 -4.86026 -1.7969 68 82 108
-2.86631 -4.54564 -1.79638 70 82 104
-2.87971 -4.5373 -1.79637 69 81 105
-3.08376 -4.17243 -1.78396 63 78 99
-3.20397 -3.97366 -1.7775 66 78 100
-3.56192 -3.53472 -1.79735 66 78 94
-3.58156 -3.52296 -1.79958 64 76 92
-3.60455 -3.52581 -1.80705 66 75 92
-3.60198 -3.50175 -1.79957 66 75 92
-4.4902 -2.26429 -1.81177 55 62 83
-4.48333 -2.24374 -1.80578 53 64 85
-4.50596 -2.23862 -1.81325 62 74 98
-4.51233 -2.21632 -1.81175 70 82 106
-4.76437 -1.75855 -1.7905 74 85 110
-4.77598 -1.74635 -1.79342 72 86 112
-4.94696 -1.55591 -1.80444 78 93 122
-4.95631 -1.54231 -1.80659 79 94 122
-5.23269 -1.2593 -1.83142 74 83 100
-5.41565 -0.896628 -1.8089 65 78 97
-5.69268 -0.496633 -1.8124 76 91 112
-5.82473 -0.285531 -1.80787 69 81 105
-5.95751 -0.180575 -1.82776 75 87 109
-2.14576 -5.61259 -1.80371 114 111 118
-2.26842 -5.44923 -1.80583 85 89 101
-2.3823 -5.20843 -1.78901 64 75 93
-2.85288 -4.55393 -1.79638 69 81 106
-3.06842 -4.20424 -1.79044 64 76 100
-3.06833 -4.17674 -1.7818 63 78 101
-3.16275 -4.00625 -1.77751 68 80 102
-3.17111 -3.99253 -1.77531 68 80 102
-3.18163 -3.98175 -1.77457 67 79 101
-3.52156 -3.56719 -1.79512 66 78 94
-3.5501 -3.5652 -1.80259 65 77 93
-3.56046 -3.55472 -1.80258 67 76 93
-4.51018 -2.19836 -1.808 71 83 107
-4.51623 -2.18461 -1.808 66 81 104
-4.52398 -2.16311 -1.80724 66 78 102
-4.52494 -2.14684 -1.80499 69 81 102
-4.77883 -1.73093 -1.79268 68 84 109
-4.78336 -1.71612 -1.79267 71 85 111
-4.9603 -1.52697 -1.80658 77 93 119
-5.21027 -1.23696 -1.82162 74 83 100
-5.21509 -1.22106 -1.82231 64 76 92
-5.82854 -0.267487 -1.80915 66 78 102
-5.94205 -0.161372 -1.82268 71 83 105
-2.36612 -5.21316 -1.78835 86 93 110
-2.61585 -4.89513 -1.80031 66 84 109
-2.63042 -4.88763 -1.80031 68 84 110
-2.83131 -4.56467 -1.79568 69 81 103
-3.04732 -4.21446 -1.789 63 77 100
-3.1231 -4.01575 -1.77093 64 76 98
-3.15324 -4.01846 -1.77898 69 81 103
-3.50762 -3.61746 -1.8056 66 78 94
-3.50073 -3.58786 -1.79513 68 78 93
-3.52863 -3.59674 -1.80559 67 77 94
-4.54413 -2.13958 -1.81097 67 82 102
-4.55332 -2.12734 -1.81245 65 80 101
-4.78875 -1.69327 -1.79193 70 84 110
-4.78968 -1.6772 -1.79046 72 86 111
-4.96482 -1.50336 -1.80586 78 93 122
-4.96689 -1.48743 -1.80513 78 93 122
-5.21986 -1.20515 -1.823 64 76 94
-5.69974 -0.470367 -1.81438 75 87 109
-5.82473 -0.249056 -1.80786 71 83 107
-5.93978 -0.142521 -1.82204 70 82 104
-2.13088 -5.62378 -1.80561 114 113 110
-2.24356 -5.45839 -1.80583 86 89 102
-2.34382 -5.22628 -1.78967 124 129 142
-2.59882 -4.89749 -1.79827 65 81 107
-2.80986 -4.59073 -1.79989 68 80 105
-2.82436 -4.5842 -1.80059 69 81 104
-3.01117 -4.21489 -1.7811 63 78 101
-3.02873 -4.21394 -1.78469 63 78 101
-3.10502 -4.04143 -1.7746 67 79 101
-3.11573 -4.03085 -1.77386 65 77 99
-3.45542 -3.63665 -1.79664 64 76 92
-3.49426 -3.65843 -1.81383 62 73 91
-3.48641 -3.62736 -1.80261 65 76 94
-4.55913 -2.10487 -1.81095 65 80 101
-4.56321 -2.09015 -1.8102 68 80 102
-4.58231 -2.08257 -1.81617 66 78 100
-4.80459 -1.666 -1.79485 71 85 111
-4.97784 -1.47423 -1.808 77 94 122
-5.22463 -1.18061 -1.82299 64 75 95
-5.6947 -0.452113 -1.81239 69 84 105
-2.1118 -5.62234 -1.80307 122 117 111
-2.22539 -5.45907 -1.8039 80 83 98
-2.33172 -5.24141 -1.79297 132 137 149
-2.58048 -4.91706 -1.80167 67 83 108
-2.79259 -4.59232 -1.79709 62 77 103
-2.99873 -4.2236 -1.7811 66 78 100
-3.08793 -4.05647 -1.77533 67 80 99
-3.42718 -3.66052 -1.7959 64 75 93
-3.4488 -3.66303 -1.80262 66 77 95
-4.57614 -2.05449 -1.80944 67 79 103
-4.58343 -2.04129 -1.81018 69 81 104
-4.59571 -2.03039 -1.81316 68 80 102
-4.80974 -1.64305 -1.79411 73 87 113
-4.81753 -1.62932 -1.79556 73 87 114
-4.81823 -1.6132 -1.79409 73 89 115
-4.98211 -1.45056 -1.80727 78 93 122
-4.98401 -1.43459 -1.80655 81 96 122
-5.22197 -1.16304 -1.82089 66 78 97
-5.2284 -1.14747 -1.82228 65 76 94
-5.69712 -0.434431 -1.81304 75 90 112
-5.83253 -0.222015 -1.81043 73 85 109
-5.9509 -0.114476 -1.82583 71 83 105
-2.08282 -5.62006 -1.79927 130 122 121
-2.20664 -5.45789 -1.80132 79 82 97
-2.32636 -5.27406 -1.80288 133 136 146
-2.56501 -4.92269 -1.801 70 84 110
-2.77271 -4.60601 -1.7978 64 79 104
-2.97106 -4.25149 -1.78399 59 74 97
-2.98059 -4.23816 -1.78183 65 80 101
-3.06629 -4.07741 -1.7768 64 76 99
-3.07929 -4.06998 -1.77753 66 78 100
-3.39758 -3.7054 -1.80115 65 78 94
-3.39997 -3.68554 -1.79591 65 76 93
-3.44671 -3.7057 -1.81459 64 75 93
-4.59934 -2.007 -1.81091 69 80 100
-4.6014 -1.99141 -1.80941 69 80 100
-4.61018 -1.97886 -1.8109 69 80 100
-4.82842 -1.59194 -1.79555 74 90 116
-4.99662 -1.42177 -1.81014 81 95 122
-5.21825 -1.1198 -1.81667 66 76 94
-5.6976 -0.416603 -1.81303 68 82 105
-5.83803 -0.20397 -1.81235 69 81 105
-5.94092 -0.095516 -1.82266 78 89 111
-2.07133 -5.64187 -1.80498 118 116 121
-2.18234 -5.46854 -1.80196 67 74 86
-2.30458 -5.26452 -1.79694 133 133 142
-2.54796 -4.92486 -1.79896 70 83 107
-2.74814 -4.62685 -1.7999 69 83 109
-2.75818 -4.61236 -1.7971 69 84 107
-2.95751 -4.25849 -1.78327 63 76 101
-3.03597 -4.09959 -1.77681 61 73 95
-3.0405 -4.08009 -1.77168 67 79 101
-3.35437 -3.73431 -1.79817 65 77 93
-3.37468 -3.72382 -1.80041 67 78 95
-3.38197 -3.70966 -1.79816 65 76 94
-4.60877 -1.96175 -1.8079 68 79 99
-4.62731 -1.94506 -1.81238 67 80 99
-4.83253 -1.57695 -1.79554 72 89 115
-4.83128 -1.56025 -1.79334 73 90 116
-4.99705 -1.39698 -1.80797 83 97 124
-5.0382 -1.39224 -1.82306 83 97 123
-5.2337 -1.1061 -1.82156 62 73 91
-5.70241 -0.390095 -1.81434 73 85 107
-5.83214 -0.185475 -1.81041 69 81 103
-5.93086 -0.0766176 -1.81948 71 82 104
-2.16899 -5.48334 -1.80519 62 70 81
-2.52548 -4.93568 -1.79896 71 85 111
-2.72449 -4.63375 -1.79781 67 81 107
-2.92261 -4.27498 -1.78112 65 77 101
-2.93622 -4.2681 -1.78184 65 77 101
-3.01087 -4.11562 -1.77609 64 77 96
-3.01762 -4.09921 -1.77242 60 73 93
-3.33248 -3.75386 -1.79818 64 75 93
-3.35287 -3.75556 -1.80415 65 76 94
-3.8011 -3.06023 -1.79738 63 72 87
-3.8056 -3.04535 -1.79507 66 75 90
-3.82001 -3.03872 -1.79813 65 74 91
-3.83441 -3.03202 -1.80119 64 73 90
-3.84352 -3.01134 -1.79889 70 78 91
-3.85355 -3.00103 -1.79965 74 82 95
-3.86645 -2.993 -1.80194 66 75 90
-3.87101 -2.96875 -1.79734 65 74 89
-3.88527 -2.96178 -1.80039 68 77 92
-3.89227 -2.94901 -1.79962 76 85 100
-3.90213 -2.93851 -1.80038 72 81 98
-3.91947 -2.92439 -1.80268 67 76 91
-3.91904 -2.90589 -1.79808 65 74 89
-3.93757 -2.90202 -1.80343 69 78 95
-3.94742 -2.88209 -1.80189 63 71 84
-3.95267 -2.86804 -1.80036 65 73 86
-3.9623 -2.8573 -1.80112 66 75 90
-3.9749 -2.83948 -1.80111 66 75 90
-3.98297 -2.82756 -1.8011 69 79 91
-3.99695 -2.81997 -1.80416 69 77 90
-4.00495 -2.80797 -1.80416 72 80 91
-4.01881 -2.79101 -1.80492 61 71 83
-4.02071 -2.77465 -1.80185 71 79 92
-4.02856 -2.76257 -1.80184 71 79 92
-4.0392 -2.74334 -1.80107 67 76 91
-4.05301 -2.73543 -1.80413 67 76 91
-4.0653 -2.7264 -1.80642 68 77 92
-4.06814 -2.70178 -1.80182 68 78 90
-4.07729 -2.69058 -1.80258 67 76 91
-4.08029 -2.6752 -1.80028 67 76 93
-4.08478 -2.66086 -1.79874 67 76 93
-4.10412 -2.64752 -1.80256 70 79 94
-4.10234 -2.62904 -1.79796 66 75 92
-4.11747 -2.62176 -1.80178 68 77 94
-4.12584 -2.60112 -1.80025 67 76 91
-4.13005 -2.58668 -1.79871 67 76 91
-4.63256 -1.9309 -1.81237 64 79 102
-4.63607 -1.91598 -1.81162 66 79 100
-4.6408 -1.89324 -1.81012 71 80 99
-4.8459 -1.54863 -1.79772 75 90 119
-5.03275 -1.37408 -1.81946 83 97 123
-5.22346 -1.08708 -1.81666 67 80 99
-5.69899 -0.372016 -1.81302 69 81 105
-5.83021 -0.158003 -1.80976 68 80 102
-2.15556 -5.4981 -1.80842 71 79 90
-2.28401 -5.28264 -1.80024 126 125 133
-2.51386 -4.94968 -1.80169 74 87 111
-2.70722 -4.635 -1.79501 70 84 110
-2.91292 -4.28816 -1.78328 64 76 100
-2.99235 -4.12867 -1.77609 63 75 96
-3.29116 -3.78482 -1.7967 67 78 96
-3.30339 -3.77664 -1.79744 65 78 95
-3.31674 -3.76987 -1.79893 65 78 95
-3.72119 -3.15285 -1.79588 64 73 88
-3.74767 -3.14723 -1.80277 64 73 88
-3.74 -3.1215 -1.79357 70 78 91
-3.75732 -3.11764 -1.79816 72 78 90
-3.77115 -3.10085 -1.79816 65 73 86
-3.77862 -3.08842 -1.79739 64 73 88
-3.80014 -3.08792 -1.80427 65 75 89
-4.13732 -2.57422 -1.7987 73 82 97
-4.14701 -2.55451 -1.79793 72 80 98
-4.15886 -2.54495 -1.80022 67 76 93
-4.16287 -2.53044 -1.79869 66 77 97
-4.17623 -2.52177 -1.80174 66 77 97
-4.18251 -2.49994 -1.79944 68 79 99
-4.19109 -2.48827 -1.8002 66 79 98
-4.19646 -2.47465 -1.79943 63 75 97
-4.64417 -1.8783 -1.80936 58 66 85
-4.6458 -1.86265 -1.80786 45 54 70
-4.84872 -1.52495 -1.79625 76 91 120
-4.84374 -1.50715 -1.79259 76 91 120
-5.04876 -1.36197 -1.82448 85 99 125
-5.0417 -1.33502 -1.81944 88 102 127
-5.23318 -1.0636 -1.81875 63 76 94
-5.2338 -1.04683 -1.81804 67 78 98
-5.71057 -0.354827 -1.81697 70 82 106
-5.83362 -0.139841 -1.81104 70 82 105
-5.94926 -0.0485022 -1.82581 69 81 105
-2.23942 -5.25958 -1.78703 120 119 124
-2.26962 -5.29232 -1.80156 123 122 131
-2.49447 -4.94652 -1.79761 72 84 108
-2.69793 -4.651 -1.79851 71 83 109
-2.88074 -4.30904 -1.78329 69 81 103
-2.89347 -4.30072 -1.78328 67 79 101
-2.96502 -4.14131 -1.7739 68 79 99
-2.9792 -4.13579 -1.77536 65 76 96
-3.26184 -3.80725 -1.79596 68 81 100
-3.27526 -3.80063 -1.79745 67 80 97
-3.66382 -3.2265 -1.79744 68 78 90
-3.6663 -3.20939 -1.79361 66 76 88
-3.67689 -3.19975 -1.79437 66 76 88
-3.70754 -3.19824 -1.80355 66 75 90
-3.70574 -3.17735 -1.79742 65 74 89
-3.72589 -3.17619 -1.80354 65 74 89
-4.21516 -2.46036 -1.80325 50 65 93
-4.21728 -2.44478 -1.80095 48 61 90
-4.22727 -2.43391 -1.80247 42 56 85
-4.23149 -2.41099 -1.7994 37 50 80
-4.23662 -2.39726 -1.79863 42 56 87
-4.6525 -1.84913 -1.8086 92 96 106
-4.66375 -1.82914 -1.81009 84 83 96
-4.86179 -1.49645 -1.79844 75 90 119
-4.86791 -1.47379 -1.79843 77 92 121
-5.04145 -1.31841 -1.818 92 104 128
-5.2362 -1.03041 -1.81803 69 80 100
-5.70192 -0.327504 -1.81366 71 83 107
-5.83318 -0.121555 -1.81103 78 90 114
-5.93907 -0.0296447 -1.82263 69 81 105
-2.12755 -5.49771 -1.80519 76 79 94
-2.48429 -4.96386 -1.80169 72 84 107
-2.67949 -4.66754 -1.80061 68 80 104
-2.85236 -4.32074 -1.78114 68 80 103
-2.86896 -4.31891 -1.78401 66 78 101
-2.94739 -4.15569 -1.77464 64 77 99
-3.24405 -3.83204 -1.79895 66 79 98
-3.25296 -3.81965 -1.79746 65 78 97
-3.59723 -3.28207 -1.79211 67 76 91
-3.62525 -3.2592 -1.79439 66 75 92
-3.64273 -3.25605 -1.79898 66 75 90
-3.64805 -3.24148 -1.79668 68 75 91
-4.25128 -2.38905 -1.80245 66 77 109
-4.26434 -2.37985 -1.80551 64 76 108
-4.26664 -2.35592 -1.80167 61 71 102
-4.26834 -2.34028 -1.79937 56 69 99
-4.27644 -2.32825 -1.80013 47 61 92
-4.67552 -1.81763 -1.81307 90 89 103
-4.66834 -1.79846 -1.80783 90 93 108
-4.87521 -1.45972 -1.79989 78 93 122
-4.87533 -1.44352 -1.79841 77 92 121
-5.05372 -1.30516 -1.82159 88 100 126
-5.05537 -1.28068 -1.82014 81 96 122
-5.22386 -1.0112 -1.81243 70 81 101
-5.6983 -0.309459 -1.81233 72 84 108
-2.11169 -5.50517 -1.80584 72 73 88
-2.21294 -5.26149 -1.78439 117 116 123
-2.45633 -4.96234 -1.79693 68 82 108
-2.64836 -4.67621 -1.79782 70 82 106
-2.66481 -4.67356 -1.79992 65 79 102
-2.83749 -4.34103 -1.78474 66 80 106
-2.92501 -4.17577 -1.77611 64 79 102
-2.93723 -4.1673 -1.7761 65 78 100
-3.21323 -3.85258 -1.79747 67 79 101
-3.22225 -3.84028 -1.79597 65 77 99
-3.56698 -3.34254 -1.79978 66 76 90
-3.55818 -3.31389 -1.78906 67 76 91
-3.58616 -3.31098 -1.79671 70 78 93
-3.59172 -3.29653 -1.79441 68 76 91
-3.63075 -3.29437 -1.80588 67 76 91
-4.29301 -2.31237 -1.80319 65 75 102
-4.29131 -2.29492 -1.79935 50 62 92
-4.30577 -2.28631 -1.80317 41 51 82
-4.30885 -2.2715 -1.80164 26 35 77
-4.68626 -1.78108 -1.81231 69 83 106
-4.67375 -1.75994 -1.80483 71 85 112
-4.87585 -1.41923 -1.79621 78 93 122
-5.02787 -1.25705 -1.80791 83 97 123
-5.02011 -1.23867 -1.80359 72 87 110
-5.2314 -0.987285 -1.81382 70 81 101
-5.70216 -0.291787 -1.81364 70 81 105
-5.83835 -0.103397 -1.81296 66 78 101
-2.09638 -5.51437 -1.80713 72 74 88
-2.20178 -5.27981 -1.78901 116 115 120
-2.41174 -4.94168 -1.78334 70 84 110
-2.44152 -4.96926 -1.79694 68 82 108
-2.63624 -4.6871 -1.79922 70 82 106
-2.80239 -4.34114 -1.77755 66 78 101
-2.81993 -4.34112 -1.78115 67 80 104
-2.91075 -4.18108 -1.77465 62 77 100
-3.18117 -3.87136 -1.79523 66 78 100
-3.2053 -3.86633 -1.79971 66 78 100
-3.50719 -3.37376 -1.79061 67 77 90
-3.52473 -3.37129 -1.7952 67 76 91
-3.541 -3.36743 -1.79903 68 77 92
-3.54289 -3.33872 -1.79137 68 78 90
-4.31051 -2.24754 -1.7978 25 30 71
-4.32814 -2.24051 -1.80315 32 38 73
-4.33596 -2.22823 -1.80391 44 54 85
-4.33737 -2.20422 -1.80008 41 54 76
-4.7026 -1.75501 -1.81529 70 84 110
-4.6996 -1.72938 -1.81079 70 85 110
-4.88657 -1.40611 -1.79913 78 93 122
-5.03048 -1.21664 -1.80574 72 86 112
-5.23545 -0.9712 -1.81451 64 76 98
-5.24132 -0.955419 -1.81591 68 82 105
-5.83605 -0.0759074 -1.81231 71 83 105
-2.07818 -5.51452 -1.80519 73 76 85
-2.1918 -5.30165 -1.79496 115 115 117
-2.38548 -4.9432 -1.77994 69 83 109
-2.615 -4.69838 -1.79923 69 83 109
-2.87561 -4.19569 -1.77172 66 78 102
-2.89492 -4.19833 -1.77685 65 77 101
-3.15953 -3.89125 -1.79599 66 78 100
-3.16648 -3.87612 -1.79299 66 78 100
-3.48264 -3.42033 -1.79675 67 76 93
-3.49511 -3.41272 -1.79828 68 77 94
-3.5037 -3.40111 -1.79751 67 76 91
-4.3418 -2.1902 -1.79931 47 59 85
-4.34783 -2.17701 -1.7993 48 57 82
-4.3539 -2.15552 -1.79776 49 57 78
-4.36476 -2.14477 -1.80005 50 57 75
-4.70938 -1.71693 -1.81303 71 85 111
-4.70696 -1.69987 -1.81003 70 84 110
-4.72012 -1.68865 -1.81376 70 84 110
-4.92942 -1.402 -1.81523 78 93 122
-4.92936 -1.38567 -1.81376 79 94 123
-5.03525 -1.20146 -1.80645 74 88 114
-5.68756 -0.264357 -1.80836 74 86 108
-5.83541 -0.0576054 -1.8123 77 89 113
-2.37366 -4.95681 -1.78266 68 82 108
-2.59427 -4.69251 -1.79363 68 82 106
-2.77164 -4.36434 -1.779 62 77 100
-2.79012 -4.36607 -1.78331 64 79 102
-2.86926 -4.21337 -1.77612 66 78 102
-3.12722 -3.90954 -1.79375 66 78 100
-3.15141 -3.90487 -1.79823 66 78 100
-3.431 -3.45932 -1.79294 69 78 95
-3.43974 -3.44789 -1.79217 69 78 93
-3.44845 -3.43643 -1.7914 67 76 92
-3.46889 -3.42655 -1.79446 68 77 94
-4.37726 -2.1348 -1.80311 49 57 76
-4.37814 -2.11903 -1.80081 48 56 75
-4.38723 -2.09905 -1.8008 47 55 70
-4.71676 -1.66307 -1.80927 70 84 111
-4.92958 -1.36119 -1.81156 79 94 123
-5.04178 -1.1867 -1.80788 80 92 116
-5.02833 -1.16712 -1.8014 62 75 99
-5.2449 -0.930734 -1.8159 64 79 100
-5.23587 -0.912388 -1.81169 65 77 99
-5.68375 -0.246391 -1.80703 77 88 110
-5.83282 -0.0392843 -1.81165 79 91 115
-2.05359 -5.52455 -1.80584 94 97 108
-2.1652 -5.3033 -1.79232 118 118 120
-2.35958 -4.9652 -1.78334 68 82 108
-2.58799 -4.71493 -1.79993 69 82 106
-2.7476 -4.38338 -1.78044 67 79 104
-2.76149 -4.37712 -1.78116 66 78 102
-2.83492 -4.22917 -1.77393 66 78 102
-2.84238 -4.21313 -1.77027 67 79 103
-3.1075 -3.93209 -1.796 68 80 104
-3.12119 -3.92608 -1.79749 67 79 103
-3.39278 -3.49161 -1.79142 66 78 94
-3.40665 -3.48573 -1.79372 66 78 94
-3.42177 -3.48115 -1.79677 67 77 94
-4.3963 -2.08732 -1.80232 47 56 71
-4.39533 -2.07074 -1.79926 45 53 73
-4.40586 -2.05146 -1.80001 45 53 74
-4.72983 -1.65175 -1.813 71 85 112
-4.74287 -1.64036 -1.81673 71 85 112
-4.93296 -1.34585 -1.81155 78 95 121
-4.94169 -1.33193 -1.81374 78 95 121
-5.04203 -1.14581 -1.80499 57 71 97
-5.23787 -0.895944 -1.81168 65 77 96
-5.70624 -0.229387 -1.81494 74 86 110
-2.04039 -5.5408 -1.80971 96 100 112
-2.15378 -5.32151 -1.79694 116 114 119
-2.34549 -4.97355 -1.78403 68 83 106
-2.56576 -4.72429 -1.79923 71 83 107
-2.72588 -4.39186 -1.77901 65 80 103
-2.82837 -4.24678 -1.77833 65 80 102
-3.07923 -3.95595 -1.79676 64 76 98
-3.08651 -3.94099 -1.79376 65 77 99
-3.36816 -3.51772 -1.7922 66 78 94
-3.37835 -3.50785 -1.79219 66 78 94
-4.41146 -2.03805 -1.80001 44 51 70
-4.41699 -2.02461 -1.8 52 60 81
-4.42564 -2.00443 -1.79999 67 75 96
-4.74274 -1.61602 -1.81373 70 86 112
-4.7382 -1.59837 -1.80999 71 86 115
-4.94343 -1.30791 -1.81227 79 96 122
-5.04658 -1.13056 -1.8057 65 79 105
-5.24718 -0.880694 -1.81448 65 75 92
-5.69291 -0.211072 -1.81031 71 83 107
-2.02052 -5.53532 -1.80584 100 105 116
-2.133 -5.31299 -1.79166 118 116 121
-2.55009 -4.72824 -1.79784 65 79 105
-2.71469 -4.40289 -1.78045 66 81 104
-2.79382 -4.2622 -1.77614 64 79 102
-2.81019 -4.26051 -1.77906 64 79 100
-3.06228 -3.95724 -1.79302 64 76 100
-3.32569 -3.54507 -1.78838 67 78 96
-3.34643 -3.53598 -1.79144 67 79 95
-3.35917 -3.52893 -1.79297 63 74 92
-4.43109 -1.99094 -1.79999 60 68 91
-4.44489 -1.98125 -1.80381 59 70 88
-4.44857 -1.96695 -1.80304 55 66 86
-4.75111 -1.58685 -1.81372 72 87 116
-4.7507 -1.56254 -1.81072 73 88 117
-4.91247 -1.28369 -1.79835 79 95 120
-4.94082 -1.27481 -1.80859 80 96 122
-5.03291 -1.11113 -1.79923 52 66 92
-5.21715 -0.850704 -1.80187 64 67 82
-5.69112 -0.18425 -1.80964 68 83 106
-2.11903 -5.324 -1.79364 120 120 122
-2.32279 -4.98337 -1.78403 69 84 105
-2.52453 -4.74773 -1.79994 67 83 108
-2.5394 -4.7422 -1.80064 63 79 105
-2.70882 -4.42369 -1.7862 65 79 103
-2.77746 -4.26383 -1.77321 65 79 105
-3.05277 -4.00819 -1.80723 65 77 99
-3.06876 -4.00545 -1.81022 63 77 103
-3.29384 -3.58445 -1.79146 66 77 95
-3.31351 -3.57418 -1.79375 64 75 93
-3.32025 -3.56033 -1.79145 64 75 95
-4.45528 -1.94585 -1.80227 56 67 87
-4.447 -1.92631 -1.79613 53 64 84
-4.76528 -1.5515 -1.8152 73 88 117
-4.7605 -1.53389 -1.81146 73 88 118
-4.9133 -1.25172 -1.79614 78 95 121
-5.03544 -1.08724 -1.7985 59 73 98
-5.04891 -1.07399 -1.80281 57 70 95
-5.25408 -0.839752 -1.81516 104 101 110
-5.68893 -0.166359 -1.80898 63 78 101
-2.09363 -5.32882 -1.79232 124 123 128
-2.29159 -4.99282 -1.78267 71 83 105
-2.3086 -4.9916 -1.78471 71 83 105
-2.68161 -4.42212 -1.78045 59 75 100
-2.76874 -4.27814 -1.77614 65 79 103
-3.03125 -4.02878 -1.80874 65 77 99
-3.04308 -4.02003 -1.80873 65 77 99
-3.26123 -3.6117 -1.79071 63 77 97
-3.27053 -3.60078 -1.78994 64 75 95
-3.2834 -3.59404 -1.79146 64 75 93
-4.46234 -1.91718 -1.80072 53 64 86
-4.47389 -1.89821 -1.80225 52 64 88
-4.80845 -1.53384 -1.83013 73 88 119
-4.91646 -1.22831 -1.7954 81 97 123
-4.92125 -1.21342 -1.79612 80 94 121
-5.04595 -1.0571 -1.80064 56 72 97
-5.24659 -0.821837 -1.81165 82 72 76
-2.07895 -5.33792 -1.79364 123 121 123
-2.48485 -4.7571 -1.79645 74 89 113
-2.50624 -4.76519 -1.80275 72 86 112
-2.66674 -4.42646 -1.77902 63 79 104
-2.73307 -4.29143 -1.77322 63 78 101
-2.74378 -4.2804 -1.77175 64 80 103
-2.97739 -4.01507 -1.79155 66 78 100
-2.99541 -4.01571 -1.79603 65 77 99
-3.23207 -3.63249 -1.78918 67 78 96
-3.24146 -3.62166 -1.78841 64 77 94
-4.47729 -1.88383 -1.80147 50 62 84
-4.48234 -1.87017 -1.80147 55 63 86
-4.49879 -1.8532 -1.80529 47 54 71
-4.78659 -1.50243 -1.81817 74 89 119
-4.77281 -1.48201 -1.81069 75 90 120
-4.92055 -1.19722 -1.79465 79 95 121
-5.07192 -1.0382 -1.80926 67 82 105
-5.26065 -0.798728 -1.81584 82 70 77
-2.06129 -5.33803 -1.79166 123 121 122
-2.26462 -4.99192 -1.7786 69 82 101
-2.47236 -4.76751 -1.79785 70 85 108
-2.64046 -4.45848 -1.78478 68 82 108
-2.67034 -4.46526 -1.79269 66 80 105
-2.72232 -4.30243 -1.77469 68 80 104
-2.97379 -4.03595 -1.79753 70 82 104
-3.20396 -3.65445 -1.78842 62 73 91
-3.21913 -3.63902 -1.78766 67 75 94
-4.49521 -1.83592 -1.80145 66 72 82
-4.4984 -1.82149 -1.80068 69 73 84
-4.81015 -1.47804 -1.82488 74 89 118
-4.92526 -1.17421 -1.79464 79 96 122
-5.05425 -1.01822 -1.80135 67 81 103
-5.24933 -0.780327 -1.81094 83 72 72
-5.2546 -0.764342 -1.81233 78 66 65
-5.70346 -0.122014 -1.81424 73 85 107
-2.26281 -5.03141 -1.79152 70 82 104
-2.438 -4.75088 -1.78665 67 81 107
-2.61857 -4.44946 -1.77759 68 82 107
-2.69363 -4.29796 -1.76737 69 81 107
-2.93654 -4.04632 -1.79231 66 78 102
-2.95045 -4.04098 -1.7938 66 78 100
-3.18377 -3.67442 -1.7892 66 77 99
-3.20029 -3.67233 -1.79302 66 77 97
-3.71207 -2.96151 -1.80371 71 83 101
-3.73795 -2.95535 -1.81072 65 77 93
-3.75212 -2.94879 -1.81383 69 81 97
-3.75775 -2.93513 -1.81227 63 75 93
-3.7651 -2.91346 -1.80914 68 79 96
-3.77776 -2.90558 -1.81148 66 77 93
-3.79038 -2.89765 -1.81381 64 73 88
-3.79151 -2.88044 -1.80991 67 77 90
-3.80575 -2.86441 -1.81068 65 74 89
-3.81396 -2.85291 -1.81067 66 75 90
-3.82647 -2.84479 -1.81301 67 77 89
-3.83037 -2.82066 -1.80832 67 76 91
-3.84282 -2.81245 -1.81066 64 73 88
-3.84794 -2.79859 -1.80909 65 74 89
-3.86475 -2.78446 -1.81142 67 76 91
-3.89622 -2.7905 -1.82389 64 71 87
-3.91007 -2.78311 -1.827 72 80 94
-3.88849 -2.74929 -1.8114 63 71 86
-3.89769 -2.72943 -1.80984 65 74 89
-3.89953 -2.71327 -1.80672 68 77 92
-3.91471 -2.70687 -1.81061 68 77 92
-3.92219 -2.68583 -1.80826 68 77 92
-3.93881 -2.68037 -1.81293 65 74 89
-3.94944 -2.67055 -1.81449 68 77 92
-3.95552 -2.65751 -1.8137 69 78 93
-3.9597 -2.63422 -1.8098 69 78 93
-3.97475 -2.62745 -1.81369 67 77 92
-3.97615 -2.6112 -1.81056 70 81 98
-3.98918 -2.59412 -1.81134 64 76 98
-3.99044 -2.57786 -1.80821 54 68 94
-3.99926 -2.56677 -1.80899 36 50 77
-4.51012 -1.81053 -1.80374 88 91 103
-4.5109 -1.78711 -1.80067 79 86 101
-4.8286 -1.45971 -1.8301 75 90 121
-4.83408 -1.44539 -1.83084 75 90 119
-4.92264 -1.15759 -1.79244 79 94 122
-4.92901 -1.14307 -1.7939 79 94 123
-5.06387 -1.00399 -1.80421 64 76 92
-5.04608 -0.984165 -1.7963 75 81 91
-5.66526 -0.103606 -1.80103 70 82 104
-2.0382 -5.34972 -1.79298 128 123 122
-2.23889 -5.01496 -1.78268 70 83 101
-2.42551 -4.76115 -1.78806 68 82 108
-2.5913 -4.46258 -1.77688 66 80 106
-2.60796 -4.46183 -1.77975 66 82 105
-2.67476 -4.32453 -1.7725 66 80 106
-2.68562 -4.31367 -1.77103 66 80 106
-2.92664 -4.05783 -1.79381 65 77 101
-3.15763 -3.69884 -1.78997 65 77 99
-3.1661 -3.68679 -1.78844 69 82 101
-3.65422 -3.06092 -1.81077 64 73 88
-3.66925 -3.04564 -1.81154 63 72 87
-3.68219 -3.03825 -1.81387 65 74 89
-3.68956 -3.02596 -1.81309 63 72 87
-3.68993 -3.00764 -1.8084 63 72 87
-3.70332 -2.99096 -1.8084 63 74 90
-3.71896 -2.98577 -1.81229 62 74 91
-4.01209 -2.54955 -1.80976 122 136 165
-4.02391 -2.5404 -1.81209 137 154 173
-4.03416 -2.53018 -1.81364 139 154 175
-4.03051 -2.51087 -1.80818 137 149 175
-4.04156 -2.49246 -1.80817 134 148 177
-4.06252 -2.48911 -1.81518 137 154 181
-4.06798 -2.47575 -1.8144 136 151 179
-4.07263 -2.45324 -1.81127 139 154 187
-4.5208 -1.77536 -1.80296 63 73 100
-4.53927 -1.76696 -1.80907 67 81 108
-4.836 -1.42995 -1.83009 75 90 119
-4.93165 -1.1196 -1.79316 79 94 123
-5.06627 -0.963849 -1.80276 83 81 92
-5.25728 -0.739551 -1.81232 88 75 69
-5.69488 -0.0861511 -1.81158 70 82 104
-2.02573 -5.36583 -1.79694 123 120 121
-2.22275 -5.04179 -1.78948 72 84 108
-2.40983 -4.76459 -1.78666 68 82 108
-2.65435 -4.33429 -1.77177 66 80 106
-2.89532 -4.07711 -1.79307 64 76 100
-2.91131 -4.07504 -1.79605 64 76 100
-3.13259 -3.71271 -1.78768 65 77 100
-3.14454 -3.70508 -1.78844 67 79 102
-3.58386 -3.1307 -1.8069 63 71 89
-3.61817 -3.13326 -1.81859 63 70 86
-3.61091 -3.1075 -1.80923 63 72 87
-3.61854 -3.09542 -1.80844 62 71 88
-3.62961 -3.07664 -1.80688 64 73 88
-3.64672 -3.0731 -1.81155 64 73 88
-4.07797 -2.43985 -1.81049 144 159 187
-4.0817 -2.42549 -1.80892 144 159 188
-4.10017 -2.41165 -1.81281 149 163 189
-4.09596 -2.39243 -1.80735 147 163 189
-4.10424 -2.3809 -1.80812 152 168 194
-4.11565 -2.37123 -1.81046 151 165 193
-4.52604 -1.73811 -1.79988 69 84 111
-4.53582 -1.72625 -1.80217 70 83 110
-4.54384 -1.7137 -1.80369 72 84 110
-4.8383 -1.40652 -1.82859 76 91 120
-4.85072 -1.39427 -1.83232 75 90 119
-4.93248 -1.10381 -1.79242 79 94 123
-5.05929 -0.946298 -1.79916 82 80 91
-5.26245 -0.723507 -1.81372 90 81 74
-5.26756 -0.707431 -1.81511 103 95 88
-2.00346 -5.35139 -1.78968 126 124 129
-2.20231 -5.03392 -1.78404 72 84 108
-2.38433 -4.76623 -1.78316 68 82 108
-2.5628 -4.49077 -1.7812 68 80 104
-2.57443 -4.48018 -1.77976 70 82 106
-2.6416 -4.34182 -1.77177 68 80 106
-2.86733 -4.08732 -1.79008 61 76 97
-2.89027 -4.09633 -1.7983 65 77 99
-3.09183 -3.74129 -1.78616 66 78 100
-3.10499 -3.73526 -1.78769 66 79 98
-3.11475 -3.72481 -1.78692 72 85 104
-3.52641 -3.1829 -1.80303 65 74 89
-3.54494 -3.18124 -1.80848 63 72 87
-3.57122 -3.17669 -1.81549 69 79 91
-3.57639 -3.1622 -1.81315 64 74 87
-3.58688 -3.15274 -1.81392 64 73 88
-4.13076 -2.35522 -1.81279 153 169 198
-4.12784 -2.33699 -1.8081 152 169 194
-4.13597 -2.32533 -1.80888 154 167 193
-4.15089 -2.30916 -1.81121 156 170 196
-4.16212 -2.29925 -1.81354 156 172 197
-4.54929 -1.69219 -1.80292 69 83 110
-4.84003 -1.37512 -1.82633 77 92 121
-4.9405 -1.0896 -1.79461 77 92 121
-4.93213 -1.07186 -1.79021 78 93 122
-5.06323 -0.930892 -1.79987 80 77 89
-5.26519 -0.690389 -1.8137 102 96 91
-5.70003 -0.0593821 -1.81356 70 82 104
-1.99037 -5.3656 -1.79298 130 126 128
-2.19458 -5.05933 -1.79153 71 83 107
-2.3756 -4.78487 -1.78806 70 84 110
-2.55284 -4.50466 -1.78408 69 81 105
-2.61603 -4.35675 -1.77178 66 80 106
-2.63153 -4.35418 -1.77397 66 80 106
-2.85376 -4.10743 -1.79382 63 78 101
-3.07163 -3.75023 -1.78387 64 77 96
-3.49064 -3.2365 -1.80695 70 79 94
-3.5171 -3.24284 -1.81708 67 76 91
-3.50805 -3.2143 -1.80616 67 76 91
-3.53436 -3.21007 -1.81317 65 74 89
-4.15736 -2.28013 -1.80808 156 172 197
-4.16569 -2.26017 -1.80729 153 169 195
-4.18 -2.25195 -1.81118 152 168 194
-4.18627 -2.23918 -1.81118 151 169 193
-4.18444 -2.22192 -1.80727 152 169 195
-4.5572 -1.67955 -1.80445 70 84 111
-4.56163 -1.6656 -1.80444 70 84 111
-4.56079 -1.64973 -1.80214 69 85 111
-4.86127 -1.36539 -1.8338 77 92 121
-4.85256 -1.33881 -1.82781 77 92 121
-4.9399 -1.04952 -1.79166 77 92 121
-5.05573 -0.905189 -1.79555 84 77 93
-5.70311 -0.0415021 -1.81487 70 82 104
-2.17946 -5.0654 -1.79153 72 84 108
-2.35912 -4.78642 -1.78597 69 83 110
-2.53154 -4.51376 -1.78336 72 84 108
-2.82856 -4.12206 -1.79308 65 77 101
-2.84262 -4.11713 -1.79457 65 77 101
-3.05191 -3.77084 -1.78541 64 76 98
-3.06513 -3.76497 -1.78694 64 76 97
-3.45015 -3.2857 -1.80853 68 78 90
-3.45193 -3.26754 -1.80385 68 78 91
-3.46271 -3.25854 -1.80462 67 76 91
-3.49041 -3.2664 -1.81553 67 74 90
-4.20378 -2.20803 -1.81194 153 170 196
-4.20022 -2.18989 -1.80726 156 170 194
-4.21601 -2.1823 -1.81193 162 175 197
-4.57114 -1.63003 -1.80366 69 85 111
-4.56671 -1.61293 -1.79983 70 86 112
-4.86661 -1.32688 -1.83229 77 92 121
-4.94776 -1.03522 -1.79385 78 93 121
-5.07603 -0.892791 -1.80273 81 80 96
-5.26011 -0.664632 -1.81089 63 60 57
-5.25574 -0.647418 -1.80879 94 88 85
-5.68542 -0.0236095 -1.80892 71 83 105
-1.96597 -5.37336 -1.79298 132 130 135
-2.34264 -4.78791 -1.78387 73 85 111
-2.52227 -4.52924 -1.78696 66 80 106
-2.58704 -4.3817 -1.77471 67 81 107
-2.6017 -4.37762 -1.77618 69 81 107
-3.02716 -3.79717 -1.78771 65 77 99
-3.03714 -3.78695 -1.78694 66 79 98
-3.41224 -3.31751 -1.80621 69 78 92
-3.4347 -3.32057 -1.814 69 78 92
-3.42636 -3.29185 -1.80308 72 82 95
-4.2271 -2.16381 -1.8127 156 168 192
-4.22334 -2.1457 -1.80802 158 171 197
-4.23415 -2.13534 -1.81035 158 167 188
-4.23849 -2.11334 -1.80801 154 166 187
-4.58484 -1.60385 -1.80594 70 87 113
-4.86814 -1.31137 -1.83153 78 93 122
-4.87521 -1.28933 -1.83227 77 92 121
-4.95012 -1.01977 -1.79385 79 94 123
-5.06882 -0.875329 -1.79913 72 72 78
-5.26619 -0.631939 -1.81228 68 64 68
-5.69592 -0.00572046 -1.81287 61 73 95
-2.15175 -5.06208 -1.78677 68 82 108
-2.32618 -4.80972 -1.78877 70 82 106
-2.50063 -4.51958 -1.77977 66 80 106
-2.57151 -4.3841 -1.77252 66 80 106
-2.79868 -4.14367 -1.79384 63 78 101
-2.8157 -4.1436 -1.79757 66 78 102
-3.00165 -3.81004 -1.78542 67 79 101
-3.01169 -3.79991 -1.78465 65 77 99
-3.36174 -3.35617 -1.80233 68 77 92
-3.3715 -3.34616 -1.80232 67 76 91
-3.38125 -3.33612 -1.80232 67 76 93
-3.39729 -3.33271 -1.80621 68 77 92
-4.26068 -2.1088 -1.81579 154 165 187
-4.25011 -2.08736 -1.80799 148 159 181
-4.25749 -2.07518 -1.80877 149 160 180
-4.58278 -1.57974 -1.80211 70 87 113
-4.58689 -1.5657 -1.8021 69 86 112
-4.87483 -1.27332 -1.83077 78 93 122
-4.94125 -0.994057 -1.78871 79 93 124
-5.07572 -0.852273 -1.80056 126 112 101
-5.06651 -0.834564 -1.79624 96 78 76
-2.13855 -5.0733 -1.78881 73 85 109
-2.30668 -4.80422 -1.78387 69 81 105
-2.48415 -4.53849 -1.78337 62 76 102
-2.55173 -4.39496 -1.77252 65 80 103
-2.79028 -4.15797 -1.79683 67 82 105
-2.96686 -3.82249 -1.78084 66 79 98
-2.98775 -3.82743 -1.78772 66 78 100
-3.32936 -3.39365 -1.8039 69 78 93
-3.33799 -3.3824 -1.80312 70 77 93
-3.34785 -3.37247 -1.80311 68 77 92
-4.26975 -2.05725 -1.81032 146 159 177
-4.27704 -2.04499 -1.81109 148 160 178
-4.28429 -2.03269 -1.81186 153 165 181
-4.60143 -1.55521 -1.80669 71 86 115
-4.59845 -1.53874 -1.80362 71 86 115
-4.88154 -1.25923 -1.83226 78 94 120
-4.8364 -1.22341 -1.81133 76 92 118
-4.94348 -0.978621 -1.78871 79 94 122
-4.94749 -0.963524 -1.78943 82 96 125
-5.06092 -0.817532 -1.79336 94 73 74
-5.26269 -0.606452 -1.81017 80 71 69
-2.11762 -5.06329 -1.7827 71 85 105
-2.29242 -4.81067 -1.78388 66 80 106
-2.46905 -4.54209 -1.78193 65 81 106
-2.54224 -4.40872 -1.77546 67 79 103
-2.75256 -4.16649 -1.7916 66 81 104
-2.77051 -4.16823 -1.79608 67 82 105
-2.9578 -3.83399 -1.78237 66 79 98
-3.28918 -3.42254 -1.8008 69 78 95
-3.30038 -3.41414 -1.80157 67 76 93
-3.30787 -3.40161 -1.80001 66 78 94
-4.28976 -2.01136 -1.8103 98 107 133
-4.30519 -2.00302 -1.81497 24 35 64
-4.29573 -1.98264 -1.80795 29 40 72
-4.61358 -1.52048 -1.80744 72 87 116
-4.61047 -1.50403 -1.80437 72 87 116
-4.84118 -1.20894 -1.81207 77 94 120
-5.0663 -0.802361 -1.79479 104 83 80
-2.09701 -5.07907 -1.78542 69 84 107
-2.27207 -4.82369 -1.78528 68 82 108
-2.45157 -4.54059 -1.77834 67 81 108
-2.52582 -4.40929 -1.77253 67 79 103
-2.72704 -4.18043 -1.79086 68 83 106
-2.7459 -4.18388 -1.79609 66 80 105
-2.91482 -3.8589 -1.78008 67 80 98
-2.93564 -3.86416 -1.78697 66 79 98
-2.94693 -3.85573 -1.78697 67 78 101
-3.25723 -3.46061 -1.80315 68 80 96
-3.26976 -3.45372 -1.80471 70 79 96
-3.27496 -3.4385 -1.80158 67 76 93
-4.30925 -1.96523 -1.81028 45 57 83
-4.31628 -1.95279 -1.81105 43 53 72
-4.31993 -1.93876 -1.81026 44 52 66
-4.6161 -1.49045 -1.80513 72 87 116
-4.84232 -1.19353 -1.81131 77 92 121
-4.85238 -1.1804 -1.8143 78 93 122
-4.96207 -0.942364 -1.79382 79 96 123
-4.95866 -0.925854 -1.79161 83 98 127
-2.08057 -5.08128 -1.78406 69 84 108
-2.25849 -4.83174 -1.78598 67 83 107
-2.44287 -4.55756 -1.78266 71 85 112
-2.49287 -4.42696 -1.77253 70 83 106
-2.50505 -4.41827 -1.7718 73 86 110
-2.90791 -3.88658 -1.78774 61 73 94
-3.22902 -3.48182 -1.8016 67 77 93
-3.2459 -3.46885 -1.80238 67 79 96
-4.33189 -1.92859 -1.81338 47 52 67
-4.34015 -1.90863 -1.81337 44 51 64
-4.62928 -1.47145 -1.80818 73 88 119
-4.62599 -1.45501 -1.80512 74 91 120
-4.88224 -1.16417 -1.82475 75 92 120
-4.95154 -0.908712 -1.78794 83 94 121
-5.10966 -0.785147 -1.81059 85 64 67
-5.07445 -0.763428 -1.79621 84 71 74
-2.06352 -5.08166 -1.78202 69 84 107
-2.24053 -4.82939 -1.78248 67 82 105
-2.42371 -4.57117 -1.7841 67 81 107
-2.48152 -4.43726 -1.774 68 83 106
-2.70126 -4.20927 -1.79535 65 79 105
-2.7118 -4.19839 -1.79385 65 80 104
-2.87887 -3.89396 -1.78316 66 78 100
-2.89444 -3.89182 -1.78621 62 74 98
-3.19041 -3.51221 -1.80006 65 76 94
-3.21099 -3.50365 -1.80317 69 80 98
-3.22002 -3.49275 -1.80239 68 80 96
-4.34365 -1.89454 -1.81258 41 51 63
-4.34375 -1.87893 -1.81024 38 46 62
-4.63498 -1.44246 -1.8074 73 90 120
