-9.21258 -12.9298 -1.00933 111 85 72
-9.30012 -12.9264 -1.01302 111 93 72
-9.427 -12.9355 -1.01934 114 81 76
-9.50565 -12.9178 -1.0218 107 87 71
-9.02322 -6.90897 -0.764202 105 99 86
-9.05503 -6.88956 -0.765414 113 111 123
-16.3096 -12.0498 -1.35089 153 144 152
-16.4235 -12.0557 -1.35831 153 148 150
-16.5582 -12.0365 -1.36588 126 119 122
-16.6758 -12.0434 -1.3736 130 119 116
-16.7968 -12.052 -1.38164 130 116 109
-16.9212 -12.0623 -1.38998 135 120 114
-17.0567 -12.0396 -1.39755 125 111 103
-17.1751 -12.0438 -1.40528 126 111 103
-17.3003 -12.0519 -1.41363 128 111 104
-17.4413 -12.0299 -1.42166 135 117 107
-17.5504 -12.0252 -1.42846 139 121 109
-17.6267 -11.9974 -1.43217 140 121 106
-17.6971 -11.9249 -1.43355 135 116 100
-17.7336 -11.8697 -1.43355 106 93 84
-17.7766 -11.8188 -1.43416 123 109 100
-24.194 -8.1072 -1.63182 143 134 134
-24.1939 -8.02315 -1.62995 135 128 135
-23.5154 -7.67425 -1.57533 137 130 136
-23.5026 -7.58882 -1.57259 136 131 134
-29.3437 -3.27755 -1.70439 103 109 124
-29.3451 -3.18445 -1.70389 106 113 131
-5.71882 -13.9906 -0.876747 94 92 74
-5.88853 -13.9762 -0.880314 100 105 82
-9.07248 -17.1779 -1.1881 102 102 97
-9.16904 -17.1681 -1.19068 80 77 82
-9.25102 -17.0659 -1.18689 74 63 68
-9.33709 -17.0356 -1.18788 139 116 111
-7.72146 -12.891 -0.944023 77 69 51
-8.0122 -12.8807 -0.954943 123 102 93
-8.0216 -12.8069 -0.950445 126 106 96
-8.06736 -12.7481 -0.948417 135 115 109
-8.47479 -13.2235 -0.99651 143 117 106
-8.41029 -12.986 -0.978237 143 114 108
-8.50055 -13.0391 -0.985497 133 105 101
-18.1971 -11.536 -1.44976 124 110 105
-18.2779 -11.5079 -1.45393 130 116 109
-18.3638 -11.4827 -1.45856 128 115 106
-18.4406 -11.4113 -1.46072 103 92 90
-18.4857 -11.36 -1.46165 110 95 88
-18.5578 -11.3252 -1.46505 117 100 92
-18.634 -11.2526 -1.46721 117 98 91
-18.6821 -11.2026 -1.46844 128 116 110
-18.7164 -11.1443 -1.46844 124 112 111
-18.7867 -11.0677 -1.47014 120 110 111
-18.7827 -10.9868 -1.46674 121 112 113
-18.7611 -10.896 -1.46179 121 112 113
-18.7547 -10.8145 -1.45823 122 112 118
-18.7942 -10.7206 -1.4573 116 107 112
-18.8218 -10.6589 -1.45683 118 109 114
-23.8534 -7.62068 -1.5976 137 131 135
-24.2071 -7.60945 -1.62188 137 130 137
-24.2148 -7.52878 -1.62073 135 130 134
-24.1956 -7.4399 -1.61756 136 132 136
-24.199 -7.3582 -1.61612 135 131 135
-24.2153 -7.23917 -1.61483 133 133 135
-23.4889 -6.94051 -1.55818 134 132 137
-23.5326 -6.8736 -1.55992 137 132 139
-23.5677 -6.76398 -1.56022 134 132 135
-23.5899 -6.69063 -1.56037 133 131 136
-23.6214 -6.61988 -1.56124 137 131 138
-5.77767 -14.2737 -0.89745 114 109 88
-5.87223 -14.2556 -0.898722 91 88 77
-5.95863 -14.3454 -0.907097 87 88 78
-8.89815 -17.4348 -1.19901 103 102 95
-9.00543 -17.3112 -1.19449 83 88 87
-9.05987 -17.2855 -1.19462 87 89 88
-7.358 -12.9965 -0.937156 132 84 82
-10.3118 -6.80189 -0.851104 118 103 98
-19.0659 -10.332 -1.46131 117 110 117
-19.0922 -10.2696 -1.46084 118 111 119
-19.1393 -10.2184 -1.46223 116 109 117
-19.1987 -10.1735 -1.46471 114 109 116
-19.2491 -10.0853 -1.46501 116 110 120
-19.2993 -10.0352 -1.46671 115 112 121
-19.3263 -9.97304 -1.46641 116 113 120
-19.3918 -9.89233 -1.4681 119 113 123
-19.4468 -9.84432 -1.47027 117 111 123
-19.4608 -9.77543 -1.46888 119 113 123
-19.537 -9.73772 -1.4729 118 112 122
-19.614 -9.66189 -1.47568 117 114 123
-19.6882 -9.62244 -1.47955 119 116 125
-19.7318 -9.56782 -1.48078 121 115 127
-18.5092 -7.62441 -1.33345 139 131 130
-18.5089 -7.52322 -1.33051 142 133 135
-18.5538 -7.47422 -1.33237 134 128 128
-23.6822 -6.51725 -1.56356 136 130 132
-23.7324 -6.45138 -1.56588 136 131 135
-23.7882 -6.38682 -1.56863 137 133 134
-23.8862 -6.33328 -1.57457 133 131 133
-23.9611 -6.23298 -1.57804 134 130 136
-29.5302 -2.22206 -1.71075 86 101 125
-29.5223 -2.1282 -1.70986 154 159 178
-8.7282 -17.8534 -1.22094 101 105 102
-8.83602 -17.7945 -1.22048 107 108 106
-8.88241 -17.6787 -1.21438 97 98 102
-8.90114 -17.5781 -1.20843 102 99 94
-10.3923 -6.90129 -0.861698 116 101 93
-10.3987 -6.8137 -0.858046 116 102 98
-10.3731 -6.72827 -0.852137 120 106 102
-10.39 -6.6939 -0.851787 127 116 107
-10.4285 -6.67348 -0.853694 128 118 110
-19.81 -9.49158 -1.48372 123 118 127
-19.8785 -9.44844 -1.48712 124 118 128
-19.9415 -9.40242 -1.49006 127 119 130
-20.0389 -9.33405 -1.4947 125 118 126
-20.0909 -9.28223 -1.49671 128 119 130
-20.168 -9.2418 -1.50089 124 119 126
-20.2197 -9.18941 -1.5029 126 121 128
-20.2801 -9.10263 -1.50444 125 119 126
-20.326 -9.04727 -1.50599 124 119 126
-20.3571 -8.98526 -1.5063 118 108 110
-20.3929 -8.88726 -1.50584 116 102 94
-24.1224 -6.19472 -1.58874 142 135 142
-24.4495 -6.19788 -1.61188 140 134 133
-24.8349 -6.17225 -1.63862 145 135 134
-8.60603 -17.9555 -1.22388 108 112 115
-8.66666 -17.94 -1.22473 89 92 95
-13.3667 -7.50179 -1.06827 121 111 119
-13.346 -7.43571 -1.06406 122 112 121
-13.3731 -7.36949 -1.06339 119 109 117
-13.4214 -7.34235 -1.06591 119 111 119
-20.4272 -8.8266 -1.50646 118 99 87
-20.4577 -8.76422 -1.50677 155 143 134
-20.4887 -8.66424 -1.506 144 135 128
-20.5297 -8.60627 -1.50724 144 138 132
-20.576 -8.5504 -1.50894 142 135 129
-20.7452 -8.28128 -1.51343 123 118 125
-20.7906 -8.18672 -1.51405 124 118 130
-20.8377 -8.1303 -1.51591 127 121 133
-25.2032 -6.18076 -1.66478 140 130 123
-25.5409 -6.17946 -1.68864 131 120 116
-26.115 -6.23285 -1.73013 139 131 130
-26.2207 -6.12813 -1.73591 124 121 132
-6.07372 -12.9901 -0.891982 107 109 103
-20.8864 -8.07438 -1.51793 136 130 138
-20.9532 -7.98758 -1.5204 142 137 140
-21.0166 -7.93673 -1.52365 153 146 148
-21.048 -7.8737 -1.52427 154 143 142
-21.0943 -7.81606 -1.52613 151 137 135
-21.1693 -7.73127 -1.52938 150 138 128
-21.2152 -7.67307 -1.53124 105 88 80
-21.2722 -7.6187 -1.53403 102 87 89
-26.2137 -6.03999 -1.73405 127 125 136
-26.2317 -5.95771 -1.73405 127 125 136
-26.245 -5.83114 -1.73305 124 123 137
-26.2487 -5.74575 -1.73205 119 119 131
-26.2561 -5.66125 -1.73134 125 124 132
-26.2894 -5.53925 -1.73192 132 128 142
-5.73434 -12.9791 -0.88062 100 104 99
-5.79847 -12.9624 -0.881375 103 105 108
-5.85177 -12.976 -0.883993 93 93 98
-5.90283 -12.9839 -0.886146 92 90 88
-5.94673 -12.9752 -0.886906 88 89 87
-6.04918 -13.0429 -0.894936 71 79 82
-6.36032 -13.3494 -0.926619 59 59 62
-9.60907 -16.0079 -1.22701 114 79 74
-9.58532 -15.855 -1.21585 116 79 73
-9.78806 -16.0261 -1.23533 119 81 71
-9.79944 -15.933 -1.22959 115 79 73
-21.3164 -7.52201 -1.5348 98 83 83
-21.356 -7.46113 -1.5362 96 82 83
-21.3766 -7.39356 -1.53605 76 60 63
-21.4121 -7.3311 -1.53714 119 100 95
-21.4853 -7.24377 -1.54039 126 109 104
-21.526 -7.18274 -1.54194 113 98 98
-21.5628 -7.12028 -1.54318 106 96 97
-21.6218 -7.02749 -1.54535 101 96 94
-26.2824 -5.45183 -1.7302 120 117 132
-26.2888 -5.36732 -1.72949 118 117 131
-26.3125 -5.28637 -1.73007 119 121 136
-26.3303 -5.16127 -1.72965 112 111 127
-26.3612 -5.08164 -1.73082 113 112 128
-26.3723 -4.99813 -1.73054 115 114 130
-5.47706 -12.9811 -0.87311 110 116 106
-5.52221 -12.9776 -0.87418 111 113 110
-5.57271 -12.9869 -0.876333 103 111 102
-5.63218 -12.9599 -0.876159 88 92 91
-5.68899 -12.9834 -0.879551 85 87 90
-6.4466 -13.7044 -0.954497 78 76 71
-9.20306 -16.226 -1.22604 122 90 84
-9.27648 -16.2396 -1.22974 126 89 83
-9.34811 -16.2493 -1.23313 131 89 90
-9.42568 -16.2097 -1.23341 122 83 77
-9.45886 -16.1514 -1.23077 119 81 73
-9.47979 -16.0723 -1.22627 122 94 83
-13.1431 -12.1808 -1.28547 88 106 54
-13.2664 -12.1822 -1.29319 112 127 74
-21.6657 -6.96704 -1.54721 108 93 96
-21.6981 -6.90274 -1.54814 100 87 91
-21.7619 -6.8108 -1.55077 95 86 89
-21.8014 -6.74847 -1.55233 112 108 109
-21.8407 -6.68595 -1.55388 135 130 134
-21.8761 -6.62209 -1.55512 137 132 138
-21.9444 -6.53054 -1.55822 133 128 134
-26.3868 -4.87244 -1.72997 105 107 123
-26.3992 -4.78923 -1.72983 98 100 118
-26.423 -4.70809 -1.73057 100 104 122
-26.4421 -4.58328 -1.73043 100 103 122
-26.4712 -4.50293 -1.7316 98 103 122
-26.4824 -4.41947 -1.73147 98 103 122
-5.20312 -12.9914 -0.866071 109 108 104
-5.267 -12.9773 -0.866825 102 103 99
-5.30905 -12.9671 -0.867275 103 103 102
-5.35913 -12.9772 -0.869429 105 104 102
-5.40492 -12.9759 -0.870653 103 104 92
-8.76433 -16.3806 -1.22043 88 71 72
-8.79632 -16.3185 -1.21732 96 75 75
-8.89059 -16.3743 -1.22458 98 76 72
-8.95172 -16.3054 -1.22208 124 97 88
-9.0011 -16.2762 -1.22191 132 99 90
-9.04753 -16.2416 -1.22128 125 90 85
-9.46837 -12.4749 -1.09546 118 81 73
-9.53061 -12.3976 -1.09342 120 82 77
-9.65847 -12.4876 -1.10601 124 85 78
-9.81154 -12.5683 -1.11927 119 84 78
-10.4072 -12.6844 -1.15817 133 89 78
-10.4299 -12.6322 -1.15598 133 90 79
-10.4461 -12.5722 -1.15294 132 88 79
-10.4414 -12.4469 -1.14453 127 85 75
-10.6214 -12.5869 -1.16334 136 100 86
-10.5876 -12.4668 -1.15375 114 85 68
-10.7502 -12.543 -1.16751 127 95 84
-10.9362 -12.685 -1.18683 118 86 76
-11.1798 -12.8928 -1.21353 120 86 80
-11.2668 -12.8728 -1.21705 120 89 84
-11.3362 -12.8727 -1.2209 113 82 78
-11.3966 -12.8618 -1.22358 121 90 82
-11.372 -12.7531 -1.21534 111 88 80
-11.2246 -12.4659 -1.18895 114 85 76
-11.3025 -12.4759 -1.19398 118 85 75
-11.3169 -12.4143 -1.19094 119 87 80
-11.5942 -12.606 -1.21865 109 86 72
-11.8882 -12.852 -1.25073 116 99 75
-11.9076 -12.7932 -1.2482 117 103 76
-11.8429 -12.6032 -1.23273 124 104 86
-12.0723 -12.7726 -1.25641 114 92 76
-11.9459 -12.5576 -1.23591 111 91 72
-12.0131 -12.5511 -1.23943 94 85 56
-12.115 -12.5417 -1.24479 108 103 69
-12.1535 -12.5042 -1.24478 100 102 64
-12.2071 -12.4824 -1.24662 94 98 63
-12.2732 -12.4343 -1.24762 88 95 59
-12.3697 -12.4563 -1.25466 84 94 60
-12.4665 -12.4777 -1.26171 84 95 57
-12.4628 -12.3966 -1.25666 97 108 68
-12.6902 -12.5095 -1.27698 91 112 73
-12.7173 -12.4589 -1.27563 68 85 53
-12.7951 -12.4588 -1.28032 70 87 50
-12.8883 -12.4342 -1.28451 94 115 71
-12.9008 -12.3693 -1.28148 98 115 71
-12.9359 -12.3265 -1.28114 94 110 67
-13.0289 -12.3009 -1.28532 90 110 61
-13.1213 -12.3128 -1.2917 84 106 52
-13.1677 -12.2804 -1.2927 93 109 63
-13.3723 -12.2047 -1.30107 99 112 57
-13.4712 -12.22 -1.30812 98 111 53
-13.5322 -12.1613 -1.30862 180 153 59
-13.5872 -12.1354 -1.31062 199 162 71
-13.6731 -12.1373 -1.31616 90 67 35
-13.8154 -12.1506 -1.32589 91 88 65
-13.8883 -12.1395 -1.32992 76 77 51
-13.9106 -12.0832 -1.32823 78 78 47
-13.9926 -12.0794 -1.33326 63 62 36
-14.0981 -12.0574 -1.3388 101 98 80
-14.1953 -12.0656 -1.34551 114 107 92
-14.3002 -12.0799 -1.35306 122 115 99
-14.4107 -12.0597 -1.3591 135 128 110
-14.5101 -12.0676 -1.36598 133 124 114
-14.6019 -12.0686 -1.37202 128 119 111
-14.697 -12.0717 -1.3784 129 115 110
-14.8143 -12.0539 -1.38511 127 116 109
-14.9174 -12.0621 -1.39233 121 110 105
-15.0176 -12.0674 -1.39921 122 111 108
-15.14 -12.0511 -1.40642 122 112 103
-15.2437 -12.0576 -1.41364 121 109 103
-15.3584 -12.0722 -1.42203 130 121 114
-15.4752 -12.0487 -1.42857 129 121 112
-13.3943 -7.53641 -1.11495 123 114 120
-13.3615 -7.46354 -1.10939 125 115 121
-13.3886 -7.39719 -1.10869 124 113 119
-21.9927 -6.47015 -1.56054 135 131 137
-22.0312 -6.40675 -1.56209 134 132 137
-22.1025 -6.31513 -1.5655 135 133 136
-22.2001 -6.26797 -1.57185 135 130 134
-22.2323 -6.2021 -1.57293 136 131 138
-26.4953 -4.3363 -1.73148 100 105 124
-26.5205 -4.21241 -1.73192 99 106 122
-26.5367 -4.12973 -1.73222 101 108 124
-26.5742 -4.05031 -1.73411 101 108 124
-26.5843 -3.92393 -1.73354 107 113 127
-8.64037 -16.7073 -1.23861 99 99 73
-8.74796 -16.791 -1.24819 85 88 63
-8.778 -16.7217 -1.24446 100 103 78
-8.75558 -16.5515 -1.23191 100 99 79
-9.26785 -12.7758 -1.10595 101 90 64
-9.15969 -12.5395 -1.08443 102 92 64
-9.40993 -12.8079 -1.11517 101 94 63
-9.46818 -12.763 -1.11499 121 106 82
-9.54717 -12.7887 -1.12069 117 93 78
-9.54655 -12.7048 -1.11496 119 88 76
-9.82958 -12.8806 -1.14115 119 83 79
-9.9941 -12.7264 -1.13926 119 82 76
-10.2409 -12.9654 -1.16798 115 78 70
-10.3071 -12.926 -1.16881 129 97 87
-10.2598 -12.7829 -1.15686 117 85 75
-10.2781 -12.7248 -1.154 120 84 75
-10.4474 -12.816 -1.16894 125 86 76
-15.8016 -11.9548 -1.44568 110 102 113
-15.8098 -11.8839 -1.44265 111 110 124
-15.8922 -11.8695 -1.44752 138 134 148
-15.9454 -11.7941 -1.44734 156 149 157
-15.9863 -11.7481 -1.44784 156 150 153
-16.0415 -11.7125 -1.44985 143 138 143
-16.1229 -11.6576 -1.4527 118 109 101
-16.1876 -11.6285 -1.45572 118 107 97
-16.2554 -11.6014 -1.45908 118 105 100
-16.3281 -11.5775 -1.46293 126 114 106
-16.427 -11.5335 -1.46763 119 109 107
-16.503 -11.5111 -1.47183 114 105 103
-16.5708 -11.4826 -1.47518 127 117 116
-16.6549 -11.4267 -1.47836 129 119 118
-16.7209 -11.3963 -1.48155 125 115 113
-16.764 -11.3498 -1.48239 127 117 115
-16.8312 -11.2815 -1.48389 122 113 108
-16.8905 -11.2458 -1.48641 123 110 110
-16.9559 -10.7643 -1.46908 123 114 110
-16.9703 -10.6996 -1.46723 123 114 109
-17.0164 -10.6553 -1.46857 123 114 112
-17.0774 -10.5831 -1.46974 99 88 86
-17.1114 -10.5309 -1.46991 112 97 89
-17.1604 -10.488 -1.47159 116 97 91
-17.1924 -10.4345 -1.47158 113 94 87
-17.2813 -10.3788 -1.47561 120 107 102
-17.3283 -10.3342 -1.47712 119 110 112
-17.3581 -10.2791 -1.47695 120 111 114
-17.4517 -10.2253 -1.48148 120 109 113
-17.4777 -10.1678 -1.48097 121 110 114
-17.4864 -10.1003 -1.47879 126 116 118
-13.4248 -7.36313 -1.11008 130 118 120
-22.4124 -6.13899 -1.58516 138 132 135
-22.7369 -6.15126 -1.60975 141 135 135
-23.0752 -6.16514 -1.63543 144 136 134
-23.4234 -6.17949 -1.66188 139 129 128
-26.6016 -3.84128 -1.73399 100 104 122
-26.6008 -3.75604 -1.73313 94 101 119
-26.643 -3.63421 -1.73502 108 113 131
-26.6614 -3.55158 -1.73561 107 113 129
-26.6794 -3.46886 -1.7362 105 111 129
-8.54916 -16.9827 -1.25461 81 75 69
-8.5972 -16.9476 -1.25382 98 97 84
-8.60064 -16.8233 -1.24529 86 89 67
-8.27505 -12.6575 -1.05067 118 82 71
-8.33428 -12.6642 -1.05385 116 89 68
-8.43013 -12.7276 -1.06275 114 80 69
-8.53572 -12.7608 -1.06996 119 87 77
-8.66628 -12.8748 -1.08406 116 83 69
-8.7026 -12.8433 -1.08355 109 73 69
-8.72123 -12.7852 -1.08034 115 78 78
-8.80269 -12.7782 -1.08369 108 81 72
-8.90971 -12.8521 -1.09393 110 88 71
-8.9693 -12.8545 -1.09694 105 79 67
-8.96156 -12.7147 -1.08684 100 75 67
-9.04014 -12.7446 -1.09271 113 94 79
-9.16888 -12.8462 -1.10598 107 95 72
-9.32438 -12.9411 -1.12008 118 109 84
-17.5206 -10.0477 -1.47912 123 114 118
-17.5876 -9.97756 -1.48113 129 118 126
-17.9233 -9.65997 -1.49321 130 117 123
-17.9492 -9.60213 -1.49288 133 121 124
-18.0082 -9.56211 -1.49573 130 119 123
-18.0321 -9.50308 -1.49523 126 115 119
-18.0775 -9.41954 -1.49539 122 113 121
-18.1238 -9.37231 -1.49707 125 119 123
-18.1699 -9.32489 -1.49875 123 116 123
-18.2287 -9.24792 -1.50026 124 117 125
-23.7912 -6.15692 -1.6891 136 127 119
-24.1227 -6.16199 -1.71416 143 133 124
-24.2823 -6.12179 -1.72546 146 133 124
-26.6893 -3.38505 -1.73622 105 110 129
-26.7022 -3.25901 -1.73608 106 110 127
-26.7521 -3.09489 -1.73842 86 94 113
-28.5269 -0.520046 -1.72901 84 98 125
-28.5282 -0.392142 -1.72894 85 101 127
-8.14951 -17.0976 -1.2493 92 94 81
-8.23188 -17.1359 -1.2547 92 94 81
-8.30521 -17.154 -1.2584 88 89 74
-8.38596 -17.1177 -1.25853 92 97 73
-8.41984 -17.0526 -1.25511 93 97 77
-8.47773 -17.0377 -1.25602 93 94 81
-7.54823 -12.3828 -0.998687 119 86 80
-8.01015 -12.9388 -1.059 127 93 83
-8.05405 -12.9212 -1.05966 128 91 82
-8.05047 -12.8252 -1.05259 131 92 86
-8.12724 -12.8618 -1.05863 121 83 79
-8.19531 -12.8382 -1.05995 126 91 80
-8.19699 -12.7523 -1.05389 111 77 66
-8.28686 -12.8083 -1.06195 119 78 74
-11.6474 -12.3284 -1.25179 102 98 61
-12.052 -12.3336 -1.27658 90 98 56
-12.1647 -12.3346 -1.28351 101 115 71
-12.2345 -12.3296 -1.28749 103 122 73
-12.2975 -12.3172 -1.29061 84 100 58
-12.3798 -12.2855 -1.29372 73 90 46
-12.4823 -12.3118 -1.3017 90 109 67
-12.479 -12.2325 -1.29666 91 106 67
-12.5662 -12.2427 -1.30273 90 102 66
-12.6584 -12.2191 -1.30706 85 103 63
-12.7602 -12.2422 -1.31486 82 98 59
-12.8436 -12.2468 -1.32041 84 95 60
-12.8902 -12.1774 -1.31919 86 101 62
-12.9506 -12.1594 -1.32196 95 112 75
-13.0458 -12.1738 -1.32889 85 101 60
-13.102 -12.1511 -1.33114 87 99 59
-13.1538 -12.0861 -1.33061 80 89 46
-13.2508 -12.1006 -1.33772 73 81 37
-13.3305 -12.0984 -1.34275 87 91 47
-13.4321 -12.0778 -1.34812 181 149 67
-13.5253 -12.0868 -1.35471 201 162 68
-18.2657 -9.1955 -1.5011 126 120 125
-18.3202 -9.15191 -1.50362 123 116 120
-18.389 -9.07938 -1.50614 123 114 118
-18.4308 -9.02901 -1.50748 123 114 117
-18.4797 -8.98196 -1.5095 122 113 114
-18.5499 -8.94516 -1.51353 125 117 110
-18.6125 -8.86855 -1.51554 144 135 127
-18.6483 -8.81469 -1.51638 149 136 127
-18.7092 -8.77261 -1.51957 148 135 127
-18.7819 -8.70006 -1.52259 146 134 125
-18.8227 -8.64808 -1.52394 147 138 128
-24.6257 -6.08522 -1.75067 123 112 110
-24.702 -6.02208 -1.75532 121 113 111
-24.7413 -5.94969 -1.75703 119 115 115
-24.774 -5.83459 -1.7575 120 118 122
-24.7253 -5.74157 -1.75225 119 117 128
-24.6355 -5.63961 -1.74375 118 115 126
-28.5205 -0.306769 -1.72832 84 101 126
-28.5106 -0.221431 -1.72757 83 101 125
-28.5402 -0.136375 -1.72967 81 98 124
-28.5198 -0.00837042 -1.72817 83 99 125
-7.49713 -12.9313 -1.03659 106 75 70
-7.51157 -12.8634 -1.03221 126 93 87
-7.62832 -12.9295 -1.04194 123 95 86
-7.68391 -12.9339 -1.04462 129 103 91
-7.72867 -12.9192 -1.04544 127 96 88
-7.80972 -12.92 -1.04896 129 92 85
-7.93471 -12.9495 -1.0565 119 87 74
-9.59406 -12.3851 -1.13921 116 83 76
-10.4283 -12.6487 -1.20251 133 95 86
-10.3852 -12.5164 -1.19121 128 88 76
-10.3329 -12.3349 -1.17608 130 98 78
-10.5437 -12.5113 -1.19969 127 112 77
-10.6344 -12.5414 -1.2068 113 101 65
-10.7373 -12.5454 -1.21287 131 108 84
-11.0296 -12.811 -1.24707 108 84 64
-10.959 -12.5299 -1.22447 109 85 72
-11.2167 -12.7485 -1.25364 122 97 83
-11.3487 -12.7404 -1.26074 96 87 65
-11.3601 -12.6343 -1.25447 99 88 67
-11.2503 -12.433 -1.23501 99 96 65
-11.3803 -12.5004 -1.24698 106 100 72
-11.4582 -12.4697 -1.24957 123 114 86
-11.7233 -12.6826 -1.27892 102 94 62
-11.6073 -12.4779 -1.25893 112 108 66
-11.6163 -12.3716 -1.25267 90 91 49
-11.7438 -12.3548 -1.25925 96 92 54
-11.8733 -12.4154 -1.27088 97 99 59
-11.9871 -12.4193 -1.27798 99 109 66
-12.0362 -12.3937 -1.27936 106 115 73
-13.6158 -12.0926 -1.36096 142 105 44
-13.7268 -12.0781 -1.36737 139 129 119
-13.819 -12.0842 -1.37379 127 120 112
-13.9234 -12.1003 -1.3816 128 121 113
-14.0115 -12.1015 -1.38749 121 110 106
-14.1248 -12.0856 -1.39408 121 112 107
-14.2147 -12.087 -1.40015 124 115 110
-14.3048 -12.0881 -1.40622 123 114 106
-14.4231 -12.074 -1.41333 125 114 108
-14.5287 -12.0867 -1.42114 121 111 108
-14.6239 -12.0899 -1.42773 123 115 112
-14.7366 -12.0686 -1.43414 119 107 109
-14.8413 -12.0783 -1.44177 117 107 107
-14.9154 -12.0623 -1.44594 114 106 103
-14.9864 -12.0435 -1.44975 118 109 106
-15.0296 -11.9636 -1.44835 115 104 99
-15.0616 -11.9132 -1.44782 110 100 96
-15.1152 -11.8799 -1.44973 115 107 102
-15.1748 -11.8131 -1.45024 114 100 98
-15.2094 -11.7646 -1.45006 112 99 96
-15.3938 -11.6432 -1.45646 114 108 117
-15.4357 -11.6001 -1.45715 123 122 136
-15.4919 -11.5676 -1.4594 136 133 147
-15.6124 -11.5451 -1.46669 160 151 159
-15.6766 -11.5178 -1.46981 154 149 152
-15.731 -11.4832 -1.47189 144 139 143
-15.8114 -11.4296 -1.47483 120 111 112
-15.8658 -11.3943 -1.47691 124 114 113
-15.9168 -11.3565 -1.47864 126 117 120
-15.9596 -11.3127 -1.4795 120 111 113
-16.0216 -11.245 -1.48054 123 114 117
-16.0674 -11.2031 -1.48175 121 112 115
-16.1065 -11.1565 -1.48226 122 113 116
-16.176 -11.0936 -1.48417 122 112 113
-16.2099 -11.0433 -1.48416 124 114 115
-16.2123 -10.9715 -1.48086 119 108 112
-16.2514 -10.8879 -1.47964 119 111 108
-16.4128 -10.4157 -1.46919 120 111 114
-16.4597 -10.3741 -1.47075 119 110 113
-18.867 -8.59757 -1.52562 132 123 124
-18.8713 -8.5287 -1.52361 129 119 124
-18.9358 -8.45164 -1.52596 122 116 116
-18.9796 -8.40058 -1.52764 122 111 116
-18.9795 -8.32996 -1.52529 97 87 87
-19.0541 -8.2569 -1.52865 122 102 95
-19.1887 -8.24484 -1.53873 138 125 126
-19.2995 -8.22181 -1.54662 126 123 128
-19.306 -8.11804 -1.54377 130 125 132
-19.3086 -8.04841 -1.54175 131 125 135
-18.5258 -7.58393 -1.46583 129 124 133
-18.542 -7.48951 -1.46415 131 126 136
-18.7177 -7.49343 -1.4781 132 126 134
-24.6483 -5.56143 -1.74345 145 142 153
-24.6247 -5.43468 -1.73959 109 105 120
-24.6175 -5.35235 -1.73774 115 114 130
-24.6255 -5.27343 -1.73713 116 116 130
-24.6298 -5.15341 -1.73559 111 113 125
-24.645 -5.07611 -1.7356 104 107 119
-26.8238 -2.29505 -1.73837 93 111 135
-26.8499 -2.21241 -1.73983 102 120 141
-26.846 -2.12722 -1.73912 141 155 173
-7.03114 -12.931 -1.01771 122 100 94
-7.0774 -12.922 -1.01887 112 80 81
-7.13577 -12.9358 -1.02222 111 82 78
-7.21278 -12.9349 -1.02523 102 77 69
-7.26769 -12.9411 -1.02791 98 73 66
-7.32176 -12.9452 -1.03042 103 80 74
-7.39531 -12.9363 -1.03275 110 84 76
-7.45631 -12.9522 -1.03644 108 77 74
-9.26872 -12.6339 -1.13965 93 95 65
-9.23479 -12.4641 -1.12591 99 97 65
-9.3823 -12.5851 -1.14206 107 97 70
-9.5708 -12.7597 -1.16411 112 90 73
-9.45053 -12.4746 -1.13786 116 85 77
-9.52098 -12.4885 -1.14254 114 83 76
-9.57365 -12.4784 -1.14461 114 84 76
-9.8051 -12.5815 -1.16404 106 79 68
-9.83882 -12.545 -1.16334 109 85 72
-10.1848 -12.9108 -1.2071 124 98 85
-10.279 -12.9076 -1.21194 132 100 85
-10.2434 -12.7807 -1.20134 117 84 69
-10.2603 -12.7211 -1.1982 131 99 88
-10.3404 -12.7001 -1.20114 118 87 75
-10.4231 -12.7225 -1.20721 125 90 78
-11.1426 -12.8632 -1.25696 109 90 73
-11.4142 -12.8952 -1.27464 104 100 74
-9.03891 -6.91206 -0.869031 117 111 115
-9.04556 -6.87307 -0.867305 115 115 127
-16.5049 -10.3313 -1.47213 128 119 122
-16.5423 -10.2478 -1.47108 101 90 88
-16.6108 -10.2192 -1.4749 105 92 84
-16.664 -10.1809 -1.47715 110 93 85
-16.7018 -10.1331 -1.47785 119 95 91
-16.7553 -10.059 -1.47853 129 119 117
-16.7979 -10.0139 -1.47975 122 116 120
-16.8438 -9.97068 -1.48131 124 114 122
-16.9274 -9.914 -1.48512 122 116 119
-17.0385 -9.90832 -1.49328 121 115 121
-17.0979 -9.87212 -1.49623 121 114 118
-17.1433 -9.79205 -1.49622 125 114 120
-17.1558 -9.72872 -1.49449 121 110 118
-19.2741 -7.96352 -1.53638 128 124 131
-19.3887 -7.69465 -1.53706 134 129 135
-19.4405 -7.61024 -1.53857 132 125 132
-19.4838 -7.55741 -1.54042 132 125 133
-19.5084 -7.49718 -1.54059 134 129 136
-19.552 -7.40916 -1.54143 130 127 133
-24.6639 -4.99955 -1.73592 117 120 136
-24.6826 -4.9229 -1.73624 112 110 129
-24.6968 -4.80516 -1.73563 99 99 116
-24.7012 -4.72577 -1.73486 103 105 123
-24.7229 -4.64969 -1.73549 103 106 124
-26.9237 -1.92084 -1.74377 84 98 125
-26.9435 -1.75222 -1.74452 84 101 130
-6.67857 -12.9318 -1.00418 96 92 75
-6.72989 -12.9348 -1.00635 100 98 73
-6.8034 -12.931 -1.00886 111 104 74
-6.8468 -12.9175 -1.00952 125 113 94
-6.90106 -12.9251 -1.01219 146 125 122
-6.95906 -12.9397 -1.01554 141 122 113
-8.69551 -12.8576 -1.12712 135 105 94
-8.70627 -12.7879 -1.12259 120 89 84
-8.83774 -12.8552 -1.13386 112 88 80
-8.90734 -12.8726 -1.13854 100 86 69
-9.01638 -12.9472 -1.1493 103 83 69
-8.99505 -12.7878 -1.13677 97 81 68
-9.09556 -12.8485 -1.14614 90 82 66
-9.17715 -12.8809 -1.15256 96 86 69
-9.30566 -12.9362 -1.16296 102 92 71
-9.39608 -12.979 -1.1706 106 101 71
-9.43708 -12.9518 -1.17076 93 92 62
-17.4391 -9.39449 -1.50228 122 115 120
-17.4448 -9.32782 -1.50003 129 120 125
-17.4679 -9.27055 -1.4995 131 121 124
-17.4873 -9.21136 -1.49863 141 131 131
-17.579 -9.15519 -1.50349 133 121 127
-17.6333 -9.11402 -1.50609 132 120 123
-17.6875 -9.07259 -1.5087 124 112 114
-17.7505 -9.00049 -1.51078 127 111 113
-17.7796 -8.94594 -1.51095 122 108 106
-17.8317 -8.90286 -1.51338 143 130 124
-17.8743 -8.82014 -1.51355 145 129 121
-17.9207 -8.77393 -1.51546 149 132 125
-17.9562 -8.72229 -1.51633 148 136 122
-17.9558 -8.6532 -1.51373 145 133 117
-19.6134 -7.3628 -1.54496 133 128 135
-19.6523 -7.30773 -1.54648 133 128 135
-19.6911 -7.25249 -1.54799 133 128 135
-19.754 -7.17099 -1.55068 136 128 133
-19.7924 -7.11528 -1.55219 134 126 136
-19.8251 -7.05738 -1.5532 134 127 135
-19.8741 -6.97027 -1.55472 132 128 132
-19.912 -6.91399 -1.55623 132 126 132
-24.7633 -4.53684 -1.73704 98 103 122
-24.7865 -4.46085 -1.73783 97 103 122
-24.7936 -4.382 -1.73737 97 104 122
-24.825 -4.26723 -1.73831 95 102 118
-24.8512 -4.1916 -1.7394 100 107 125
-26.925 -1.53871 -1.74238 86 102 128
-26.9607 -1.45582 -1.74471 86 102 128
-26.9445 -1.32758 -1.74313 84 101 127
-6.34608 -12.9594 -0.994019 104 99 73
-6.40375 -12.9253 -0.993495 96 84 74
-6.46063 -12.9419 -0.996844 100 83 80
-6.50995 -12.9422 -0.99868 103 89 82
-6.55931 -12.9423 -1.00052 115 103 99
-6.62907 -12.9322 -1.00235 113 105 98
-7.57717 -12.4648 -1.046 120 79 75
-7.97116 -12.812 -1.08974 121 84 75
-8.1415 -12.9124 -1.105 117 85 75
-8.19607 -12.8666 -1.10412 118 90 76
-8.15107 -12.7068 -1.09021 120 91 77
-8.14654 -12.6129 -1.08307 121 91 76
-8.34185 -12.7903 -1.10529 125 95 85
-8.37035 -12.748 -1.10354 114 96 76
-8.49694 -12.8578 -1.1176 136 113 100
-8.63048 -12.932 -1.1294 114 93 78
-8.65377 -12.8807 -1.12678 111 88 70
-10.3101 -6.8171 -0.964306 116 110 113
-10.3536 -6.686 -0.961046 117 112 118
-18.017 -8.57927 -1.51581 148 135 126
-18.0826 -8.54168 -1.51963 138 132 126
-18.094 -8.4784 -1.51824 131 124 122
-18.1871 -8.41863 -1.52344 121 114 120
-18.2017 -8.35679 -1.5224 124 119 123
-18.2433 -8.30732 -1.52397 124 119 123
-18.3376 -8.24705 -1.52935 128 123 129
-18.4899 -8.2465 -1.5415 126 120 123
-19.9402 -6.85428 -1.55691 134 127 134
-19.9903 -6.76706 -1.55859 134 127 133
-20.0313 -6.7115 -1.56044 135 129 135
-20.0627 -6.65258 -1.56145 134 130 134
-20.111 -6.59915 -1.56398 134 131 135
-20.1694 -6.51394 -1.5665 136 129 136
-20.1984 -6.45384 -1.56734 135 128 135
-24.8595 -4.11292 -1.7391 104 109 128
-24.8754 -4.0355 -1.73942 106 109 126
-24.9071 -3.92047 -1.74051 108 112 127
-24.9185 -3.84225 -1.74052 109 112 129
-24.9375 -3.76519 -1.74115 108 111 128
-26.9577 -1.24333 -1.74387 86 102 129
-26.9507 -1.15814 -1.74316 88 104 130
-26.951 -1.03088 -1.74288 86 102 128
-26.9454 -0.945854 -1.74232 88 102 129
-6.10496 -13.0167 -0.98989 83 72 70
-6.14992 -13.0093 -0.990885 84 74 65
-6.18834 -12.9872 -0.990535 80 74 66
-6.25865 -12.9809 -0.992533 74 67 59
-6.30529 -12.9766 -0.993864 86 78 68
-7.37588 -12.6542 -1.05146 111 78 73
-7.50087 -12.5563 -1.0495 118 94 78
-7.66689 -12.7055 -1.06808 114 81 71
-7.92917 -12.9679 -1.0995 116 82 73
-8.00468 -12.9571 -1.10209 112 85 72
-8.11215 -12.954 -1.10675 124 90 80
-10.3844 -6.79756 -0.96928 117 107 115
-10.3533 -6.7313 -0.963344 116 110 114
-10.4125 -6.65603 -0.964297 122 115 122
-18.6642 -8.25473 -1.55574 101 90 96
-18.8405 -8.26274 -1.57015 104 94 93
-19.0501 -8.24869 -1.58647 119 99 91
-19.2397 -8.2598 -1.6021 138 127 126
-19.3179 -8.22222 -1.60713 126 123 128
-19.0528 -7.86527 -1.57397 127 124 131
-18.5402 -7.58632 -1.52345 128 125 132
-18.5656 -7.49555 -1.52258 128 125 136
-20.2499 -6.40088 -1.5702 134 129 136
-20.2941 -6.31051 -1.57155 139 132 138
-20.3871 -6.26996 -1.57811 136 131 135
-20.4344 -6.21487 -1.58063 136 131 135
-20.5539 -6.18149 -1.58954 139 131 136
-24.9462 -3.64655 -1.74054 94 101 119
-24.9587 -3.56849 -1.74071 104 110 126
-24.9843 -3.37246 -1.74073 107 110 126
-25.0078 -3.29579 -1.74182 102 108 124
-26.9553 -0.861392 -1.74291 88 102 129
-26.9451 -0.776284 -1.74206 88 102 129
-26.9377 -0.648933 -1.74135 84 100 126
-5.44893 -12.5234 -0.929651 98 100 71
-5.90546 -13.0556 -0.986084 85 80 78
-5.93143 -13.005 -0.983043 80 78 83
-5.99693 -13.0456 -0.98841 86 79 85
-6.03871 -13.0313 -0.988732 90 82 85
-7.25576 -12.9498 -1.0689 99 72 68
-7.31846 -12.9697 -1.07306 99 74 70
-7.38339 -12.945 -1.07391 97 78 71
-7.43284 -12.9399 -1.07564 109 80 76
-7.50476 -12.9745 -1.08136 113 79 77
-7.62243 -12.9483 -1.08445 110 82 68
-7.68902 -12.9717 -1.08913 101 85 66
-19.3298 -8.12074 -1.6047 125 121 127
-19.3157 -8.0442 -1.60106 129 124 131
-19.2224 -7.69104 -1.58214 130 124 134
-19.3141 -7.65802 -1.58856 132 127 134
-19.3194 -7.55573 -1.58578 130 125 132
-19.3143 -7.48447 -1.58318 130 125 132
-19.3238 -7.41903 -1.58197 128 125 132
-19.3335 -7.31911 -1.57971 129 127 132
-19.3275 -7.24811 -1.57711 130 127 132
-19.3195 -7.17652 -1.57433 133 128 134
-20.805 -6.15145 -1.6092 143 134 135
-21.081 -6.16225 -1.63188 143 133 131
-21.3745 -6.17639 -1.65607 142 131 127
-25.0251 -3.21825 -1.74245 106 115 130
-25.0244 -3.13841 -1.74169 97 107 122
-25.0717 -3.02451 -1.74433 84 96 114
-25.0743 -2.94506 -1.74387 90 102 124
-26.9289 -0.564013 -1.74064 87 104 130
-26.9018 -0.478807 -1.73863 83 100 126
-5.75322 -13.0908 -0.983778 93 88 70
-5.80507 -13.1012 -0.986286 85 77 69
-5.85007 -13.0948 -0.987281 93 83 76
-6.8465 -12.9496 -1.05215 106 89 74
-6.90268 -12.9607 -1.05527 104 81 69
-6.97656 -12.9558 -1.05786 108 90 77
-7.02929 -12.9593 -1.06028 115 98 82
-7.08586 -12.9696 -1.06339 109 82 74
-7.14441 -12.9833 -1.06685 112 88 82
-7.2112 -12.963 -1.06805 95 71 69
-19.3205 -7.10848 -1.57243 132 127 133
-19.2555 -6.98246 -1.5634 133 128 134
-19.2165 -6.90066 -1.55784 130 126 133
-19.2484 -6.84449 -1.55889 129 126 132
-19.242 -6.7409 -1.55542 135 128 136
-19.2772 -6.68586 -1.55681 134 127 134
-19.3331 -6.63774 -1.56011 136 129 135
-19.4048 -6.5609 -1.56393 137 129 137
-21.678 -6.15478 -1.68027 150 136 126
-21.9758 -6.16595 -1.7048 147 133 124
-22.2165 -6.15923 -1.72429 136 125 116
-22.3442 -6.08216 -1.73303 137 127 117
-25.0712 -2.7455 -1.74204 90 104 128
-5.72661 -13.4363 -1.00989 103 94 70
-5.67578 -13.1923 -0.989194 100 95 74
-6.55864 -12.9748 -1.04285 112 82 79
-6.63113 -12.97 -1.04526 99 71 66
-6.67538 -12.9588 -1.04612 86 64 56
-6.73214 -12.9724 -1.04941 105 88 71
-6.80488 -12.9667 -1.05182 92 79 63
-9.00094 -6.90882 -0.913658 118 113 119
-9.03904 -6.89428 -0.915858 110 107 117
-9.05033 -6.85905 -0.914653 120 122 136
-19.4527 -6.50958 -1.56654 135 129 136
-19.5006 -6.45802 -1.56915 134 129 135
-19.5369 -6.4025 -1.57071 135 130 136
-19.5717 -6.3125 -1.57124 133 130 135
-19.6589 -6.27293 -1.57749 135 134 138
-19.6624 -6.20654 -1.5761 134 130 134
-22.3624 -6.01213 -1.73304 116 107 103
-22.3976 -5.94668 -1.73456 123 119 113
-22.4422 -5.8836 -1.73691 113 112 105
-22.4688 -5.77806 -1.73692 111 105 108
-22.4571 -5.70023 -1.7344 110 100 109
-22.4952 -5.63519 -1.73626 101 95 103
-5.74137 -13.7805 -1.03734 96 87 71
-6.23674 -12.9686 -1.03025 135 109 111
-6.2774 -12.9516 -1.03041 116 90 93
-6.3392 -12.9795 -1.03492 94 80 69
-6.40451 -12.9616 -1.03594 107 92 75
-6.44862 -12.9512 -1.03679 108 86 74
-6.50746 -12.9712 -1.0406 115 88 82
-19.8199 -6.15417 -1.58791 135 129 135
-20.0649 -6.16146 -1.60858 136 130 134
-20.3292 -6.17304 -1.63098 142 133 133
-22.5516 -5.53705 -1.73895 115 111 119
-22.5776 -5.46871 -1.7398 151 148 159
-22.6093 -5.40166 -1.74115 155 153 165
-22.6279 -5.29393 -1.74065 101 103 115
-22.6668 -5.22839 -1.74267 109 112 124
-25.1402 -2.03632 -1.74275 119 127 147
-25.1417 -1.957 -1.74245 85 99 125
-25.1637 -1.83948 -1.74354 81 97 123
-25.1546 -1.75944 -1.74247 85 101 127
-5.94782 -14.1759 -1.07482 103 91 77
-5.94926 -12.973 -1.02025 134 114 112
-5.97455 -12.9225 -1.01711 144 123 124
-6.06222 -12.9571 -1.023 132 110 109
-6.1094 -12.9552 -1.02455 120 96 91
-6.16324 -12.9676 -1.02749 114 89 85
-10.2963 -6.76291 -1.01253 114 108 113
-13.3665 -7.55152 -1.25333 123 116 119
-13.4045 -7.49084 -1.25371 120 110 114
-13.3542 -7.40814 -1.24567 123 111 112
-13.3835 -7.3703 -1.24643 134 121 120
-20.6053 -6.15131 -1.65356 139 127 122
-20.8911 -6.16543 -1.67787 146 132 123
-21.1696 -6.1756 -1.70149 146 132 120
-21.4407 -6.18186 -1.72442 147 133 124
-22.6745 -5.15555 -1.74201 103 107 121
-22.7072 -5.0884 -1.74353 108 109 127
-22.7184 -4.97899 -1.74253 110 109 125
-22.7622 -4.9141 -1.74505 108 110 124
-22.7689 -4.84105 -1.74439 102 105 118
-22.7867 -4.7331 -1.74406 99 102 119
-25.1314 -1.67854 -1.74032 92 108 134
-25.1735 -1.60192 -1.74327 84 101 129
-25.172 -1.48275 -1.74266 86 103 129
-25.1518 -1.40233 -1.74082 89 104 131
-5.96514 -14.48 -1.09924 101 87 77
-5.5614 -12.8373 -0.996017 141 129 118
-5.68484 -12.9644 -1.01042 153 133 131
-5.72543 -12.9493 -1.01058 152 128 133
-5.78162 -12.9705 -1.01422 147 122 128
-5.84966 -12.9627 -1.01594 148 121 123
-5.89504 -12.9579 -1.01714 143 117 117
-10.3598 -6.75926 -1.01774 115 110 114
-10.3618 -6.71513 -1.01554 117 112 117
-10.3724 -6.65387 -1.01313 123 118 122
-10.4191 -6.63877 -1.01633 109 102 109
-13.4608 -7.33154 -1.25122 150 132 124
-21.5415 -6.10158 -1.73102 140 127 120
-21.5635 -6.03511 -1.73137 134 123 120
-21.5796 -5.96697 -1.7312 122 112 112
-21.6162 -5.86805 -1.73207 113 106 106
-21.6375 -5.80129 -1.73243 103 94 99
-22.8025 -4.66204 -1.74423 103 106 123
-22.8338 -4.59408 -1.74575 99 106 122
-22.8641 -4.48856 -1.7466 97 103 119
-22.8713 -4.4157 -1.7461 98 103 122
-22.894 -4.34583 -1.74695 99 102 121
-25.1832 -1.3247 -1.743 85 102 128
-25.1803 -1.20557 -1.74239 86 101 130
-25.1314 -1.12415 -1.73838 89 105 131
-25.124 -1.04474 -1.73762 88 104 130
-6.00223 -14.7094 -1.11843 120 103 95
-5.25646 -12.7064 -0.97541 118 103 93
-5.45155 -12.9664 -1.00285 138 122 113
-5.51917 -12.9604 -1.00456 139 124 115
-5.5688 -12.9678 -1.00681 144 126 118
-21.7164 -5.7497 -1.73799 113 103 115
-21.6602 -5.66252 -1.7314 106 98 109
-21.7302 -5.57193 -1.73539 115 109 117
-21.7429 -5.5028 -1.73505 145 141 149
-21.7457 -5.43124 -1.73384 157 156 162
-21.7953 -5.33503 -1.7361 110 108 120
-22.9321 -4.2788 -1.74914 100 103 122
-25.1119 -0.92568 -1.73639 84 101 128
-25.068 -0.845228 -1.73285 89 106 133
-25.0438 -0.76565 -1.73085 87 104 130
-5.19719 -12.9645 -0.994581 123 108 98
-5.24631 -12.9731 -0.996826 132 115 108
-5.30501 -12.9459 -0.996458 139 120 116
-5.40728 -12.9715 -1.00182 150 130 122
-11.0367 -12.1431 -1.35231 91 91 69
-11.0939 -12.1312 -1.35517 85 91 68
-11.1524 -12.1204 -1.35823 66 74 49
-11.2193 -12.0803 -1.35975 64 67 43
-11.2725 -12.0631 -1.36204 76 73 52
-11.3324 -12.053 -1.36528 91 81 62
-11.4127 -12.0645 -1.3714 123 112 94
-11.5026 -12.0476 -1.37618 134 126 110
-11.5791 -12.0539 -1.38173 155 143 128
-11.6531 -12.0569 -1.38689 155 143 127
-11.753 -12.0486 -1.393 139 126 119
-11.8203 -12.0436 -1.39721 127 116 104
-11.9113 -12.0625 -1.40467 129 119 114
-12.0033 -12.044 -1.40964 120 113 110
-12.0822 -12.0492 -1.41537 119 112 110
-12.1583 -12.0512 -1.42073 119 113 111
-12.2403 -12.0584 -1.42685 123 114 116
-12.3385 -12.0434 -1.43258 112 104 106
-12.4165 -12.0455 -1.43813 118 109 112
-12.5003 -12.0529 -1.44444 115 106 109
-12.6004 -12.0375 -1.45036 107 101 105
-12.6802 -12.0398 -1.4561 105 100 103
-12.7559 -12.0375 -1.46126 104 101 98
-12.8362 -12.0013 -1.46451 110 99 98
-12.8686 -11.9573 -1.46393 109 98 96
-12.8849 -11.8983 -1.46124 96 85 82
-12.9418 -11.8772 -1.46392 100 90 89
-13.0069 -11.8262 -1.46525 109 96 89
-13.049 -11.7912 -1.46601 125 104 77
-13.0631 -11.7305 -1.46313 190 154 72
-13.1572 -11.7055 -1.46829 186 144 67
-13.1931 -11.6646 -1.46829 142 117 88
-13.2065 -11.6037 -1.46541 121 111 108
-13.293 -11.571 -1.46962 125 116 116
-13.3344 -11.5349 -1.47038 126 120 120
-13.3622 -11.4869 -1.46942 118 113 112
-13.3943 -11.4427 -1.46903 121 114 117
-13.4729 -11.4021 -1.47227 113 108 113
-13.5093 -11.3615 -1.47246 118 112 117
-13.5577 -11.331 -1.47418 118 112 115
-13.6223 -11.2779 -1.4757 125 116 119
-13.6766 -11.252 -1.47819 111 106 112
-13.7264 -11.2221 -1.4801 117 113 118
-13.773 -11.1895 -1.48163 115 110 116
-13.82 -11.1214 -1.48105 114 107 114
-13.8741 -11.0946 -1.48353 112 107 113
-13.9344 -11.0726 -1.48678 114 109 113
-14.0042 -11.0223 -1.48907 115 108 116
-14.0426 -10.9824 -1.48964 116 109 117
-14.0824 -10.9435 -1.4904 117 110 117
-14.2559 -10.7634 -1.49326 110 107 123
-14.3246 -10.7111 -1.49555 133 132 145
-14.3971 -10.6963 -1.50033 148 142 151
-14.4346 -10.655 -1.50091 158 147 153
-14.5029 -10.6016 -1.5032 146 137 145
-14.5273 -10.5505 -1.50224 123 117 129
-14.5595 -10.5052 -1.50224 115 109 119
-14.6144 -10.4417 -1.503 115 110 117
-14.6414 -10.3927 -1.50242 116 111 118
-14.686 -10.3562 -1.50395 117 112 118
-14.7014 -10.2989 -1.50203 118 111 119
-14.7538 -10.2335 -1.5026 116 110 121
-14.7948 -10.1943 -1.50375 116 109 117
-14.8226 -10.1459 -1.50336 118 111 119
-14.8808 -10.0844 -1.5047 117 112 119
-14.9297 -10.0502 -1.5068 115 110 117
-14.9619 -10.0048 -1.50699 115 110 117
-15.2199 -9.70599 -1.51234 118 112 114
-15.2578 -9.66383 -1.5133 125 120 124
-15.3242 -9.60615 -1.51578 134 123 129
-15.382 -9.57628 -1.51903 97 85 89
-15.428 -9.53877 -1.52095 105 90 87
-15.4824 -9.50629 -1.52382 114 97 89
-15.538 -9.441 -1.52516 120 101 86
-15.5633 -9.39039 -1.52477 111 93 83
-15.597 -9.34486 -1.52535 122 110 110
-15.6519 -9.27887 -1.52668 123 113 118
-21.813 -5.26713 -1.73628 105 104 118
-21.8673 -5.20788 -1.73976 109 111 123
-21.8617 -5.0982 -1.73716 105 108 123
-21.8748 -5.02917 -1.73699 103 106 121
-21.9051 -4.96404 -1.73839 109 112 127
-21.914 -4.89401 -1.73788 104 107 123
-25.0632 -0.687371 -1.73225 87 104 130
-25.0614 -0.569074 -1.73196 87 103 129
-25.0423 -0.489897 -1.73042 88 104 130
-25.0389 -0.411086 -1.73013 89 105 131
-10.1527 -12.3359 -1.31069 106 117 70
-10.2345 -12.3586 -1.31738 96 113 63
-10.2862 -12.3439 -1.31948 93 111 61
-10.2837 -12.263 -1.31335 94 110 61
-10.4167 -12.3071 -1.32482 97 105 63
-10.4723 -12.2963 -1.3275 106 108 67
-10.5651 -12.3293 -1.33572 108 112 69
-10.6338 -12.2939 -1.33743 101 105 63
-10.7064 -12.3019 -1.34259 95 94 56
-10.7078 -12.2265 -1.33723 100 100 64
-10.7778 -12.231 -1.342 102 107 70
-10.8397 -12.1869 -1.34276 110 110 76
-10.9007 -12.1803 -1.3462 91 91 61
-10.9618 -12.1733 -1.34964 91 89 64
-15.6921 -9.23708 -1.52802 124 118 122
-15.7287 -9.1931 -1.52898 119 110 114
-15.7778 -9.12334 -1.52974 117 108 105
-15.809 -9.07603 -1.53013 124 112 112
-15.8366 -9.02662 -1.53013 124 113 110
-16.0731 -8.70401 -1.53529 147 134 121
-16.1048 -8.65659 -1.53587 146 134 124
-16.1515 -8.58477 -1.53663 137 127 121
-16.1881 -8.53986 -1.53778 125 117 113
-16.228 -8.49666 -1.53931 123 117 112
-16.2502 -8.44405 -1.53893 118 111 117
-21.9534 -4.79465 -1.73944 101 103 118
-21.9675 -4.72575 -1.73945 106 109 124
-21.9989 -4.66051 -1.74102 104 108 124
-22.0139 -4.55573 -1.7405 101 104 123
-22.0526 -4.49177 -1.74277 98 104 120
-25.0437 -0.293014 -1.73045 86 101 130
-25.0597 -0.214367 -1.7317 85 101 127
-25.1192 -0.135821 -1.73635 85 102 128
-6.54488 -16.4933 -1.27554 151 128 125
-6.62496 -16.5499 -1.28242 153 132 129
-9.18903 -12.3895 -1.2578 106 102 67
-9.33802 -12.4722 -1.27272 103 99 62
-9.30675 -12.3489 -1.26141 106 99 64
-9.36006 -12.341 -1.26389 108 100 70
-9.38626 -12.2563 -1.2589 114 113 74
-9.54114 -12.3831 -1.27766 105 107 70
-9.58397 -12.36 -1.27841 109 113 78
-9.64362 -12.3589 -1.28185 108 115 75
-9.76401 -12.3961 -1.29179 105 112 77
-9.79841 -12.3613 -1.29121 106 104 70
-9.86816 -12.3718 -1.29618 111 103 72
-9.95627 -12.3651 -1.30096 107 95 69
-10.0597 -12.4169 -1.31109 111 102 75
-10.1611 -12.4651 -1.32085 104 106 72
-16.2907 -8.3687 -1.53912 119 114 120
-16.3249 -8.32228 -1.54008 123 117 121
-16.3536 -8.27302 -1.54047 125 119 123
-16.4075 -8.20429 -1.54219 125 118 126
-16.4395 -8.15651 -1.54296 141 135 142
-16.4766 -8.11126 -1.5443 144 139 145
-16.5065 -8.06234 -1.54487 145 141 144
-16.5524 -7.98917 -1.54583 151 144 141
-16.5783 -7.93823 -1.54602 160 149 148
-16.6077 -7.88892 -1.5466 154 144 139
-16.6546 -7.81602 -1.54775 159 145 133
-16.6836 -7.76642 -1.54832 172 151 134
-22.0717 -4.42372 -1.7433 94 101 117
-25.1028 -0.0173215 -1.73513 83 100 126
-8.92129 -12.6705 -1.26476 84 85 61
-8.92792 -12.5541 -1.25594 77 80 58
-9.20735 -12.787 -1.28981 87 92 64
-9.1938 -12.684 -1.281 90 94 61
-9.19479 -12.5606 -1.27141 88 86 55
-9.24497 -12.5484 -1.27331 99 95 62
-16.7323 -7.72593 -1.55101 157 132 112
-16.7821 -7.65397 -1.55254 129 105 93
-16.7997 -7.59896 -1.55197 122 105 96
-16.8371 -7.55291 -1.5535 117 103 96
-16.8853 -7.51157 -1.55618 121 103 97
-16.9305 -7.43706 -1.55733 108 94 93
-16.9712 -7.39203 -1.55925 110 96 87
-17.0117 -7.34681 -1.56117 122 103 96
-17.0452 -7.26686 -1.56117 123 106 99
-7.84685 -12.3793 -1.1843 111 106 76
-8.36984 -12.6936 -1.2369 111 109 68
-8.3862 -12.6328 -1.23287 102 96 64
-8.43692 -12.6254 -1.23497 106 102 68
-8.53588 -12.648 -1.24204 102 97 65
-8.5934 -12.65 -1.24528 106 101 69
-8.60249 -12.5789 -1.2401 91 84 59
-8.71311 -12.6598 -1.25254 97 85 71
-8.82424 -12.697 -1.26153 91 81 54
-8.8823 -12.6978 -1.26477 108 103 75
-9.2158 -12.8837 -1.29787 87 89 67
-13.3929 -7.5013 -1.31933 142 129 120
-13.341 -7.41791 -1.31072 143 133 125
-13.3616 -7.37532 -1.31052 139 131 123
-13.4127 -7.32228 -1.31252 128 119 119
-17.0818 -7.2197 -1.5627 115 99 95
-17.1218 -7.17393 -1.56462 125 111 106
-17.1619 -7.0965 -1.56539 124 110 107
-17.1869 -7.04425 -1.56577 120 108 106
-17.2191 -6.99492 -1.56693 119 106 105
-17.2402 -6.94098 -1.56693 113 100 100
-17.2921 -6.86804 -1.56904 98 87 91
-17.322 -6.81752 -1.57 96 85 91
-17.3554 -6.76832 -1.57134 133 127 127
-7.48342 -12.3828 -1.16637 100 98 60
-7.63804 -12.5127 -1.18474 103 83 64
-7.79261 -12.5954 -1.19927 100 87 67
-7.85721 -12.5698 -1.20041 106 101 64
-7.81704 -12.4168 -1.18584 115 104 70
-8.0964 -12.6967 -1.22297 101 95 66
-8.17956 -12.6982 -1.22736 109 106 66
-8.29917 -12.801 -1.24191 100 98 57
-8.30866 -12.7285 -1.23653 89 88 58
-12.3997 -11.4544 -1.47099 112 106 108
-12.4347 -11.416 -1.47099 113 111 115
-12.4874 -11.3581 -1.47098 112 106 109
-12.5237 -11.3206 -1.47117 118 103 91
-12.5671 -11.2898 -1.47237 183 150 78
-12.6399 -11.2498 -1.47516 186 143 73
-12.6773 -11.2132 -1.47556 136 114 87
-12.7101 -11.1725 -1.47535 118 114 114
-12.7736 -11.1238 -1.47695 115 113 116
-12.8106 -11.0867 -1.47734 118 113 120
-12.852 -11.0535 -1.47834 119 114 121
-12.8888 -11.0161 -1.47874 116 110 120
-12.9441 -10.9599 -1.47933 118 112 122
-12.9776 -10.9197 -1.47932 117 112 119
-13.0246 -10.8909 -1.48112 118 113 120
-13.1008 -10.8518 -1.48452 117 111 123
-13.1263 -10.8047 -1.48351 114 108 120
-13.17 -10.7728 -1.48491 114 111 122
-13.2366 -10.7251 -1.48711 114 110 121
-13.2879 -10.699 -1.48951 116 109 119
-13.319 -10.6564 -1.4893 116 112 118
-13.3531 -10.6163 -1.4895 114 111 119
-13.4005 -10.5527 -1.48929 115 110 120
-13.4358 -10.5135 -1.48969 113 108 120
-13.4725 -10.4754 -1.49029 115 109 122
-13.6916 -10.3437 -1.49988 107 104 120
-13.7424 -10.2821 -1.50028 130 129 142
-13.7817 -10.2453 -1.50128 142 141 145
-13.8081 -10.1988 -1.50067 156 151 152
-13.8583 -10.1367 -1.50107 145 140 146
-13.91 -10.1088 -1.50367 125 122 131
-13.9441 -10.0678 -1.50406 113 110 121
-13.9968 -10.0073 -1.50486 114 111 119
-14.0322 -9.96713 -1.50546 115 113 119
-14.0771 -9.93377 -1.50726 109 108 114
-14.1025 -9.88649 -1.50665 111 107 114
-14.148 -9.82056 -1.50665 115 109 120
-14.1958 -9.78892 -1.50885 117 108 118
-14.2452 -9.75821 -1.51125 119 113 121
-14.3131 -9.70725 -1.51405 119 112 120
-14.3656 -9.67823 -1.51685 118 113 118
-14.3918 -9.63124 -1.51645 119 114 120
-14.446 -9.57052 -1.51765 121 114 120
-17.4103 -6.69605 -1.57383 137 132 136
-17.4434 -6.64647 -1.57518 126 124 129
-17.4708 -6.59462 -1.57595 129 125 126
-17.5194 -6.51943 -1.57786 134 130 131
-17.5781 -6.47904 -1.58189 133 126 133
-17.5937 -6.42256 -1.58151 133 128 134
-17.6242 -6.37148 -1.58266 135 130 136
-7.44132 -12.7143 -1.19189 99 75 68
-7.42521 -12.5949 -1.18115 97 79 65
-7.60486 -12.7709 -1.2045 103 98 67
-7.47728 -12.4606 -1.17251 96 100 62
-7.80472 -12.7046 -1.20886 127 106 87
-11.1607 -12.027 -1.42308 130 122 120
-11.2366 -12.0348 -1.42889 129 121 120
-11.3086 -12.0379 -1.43409 118 108 106
-11.3808 -12.0406 -1.43929 134 125 120
-11.4774 -12.0311 -1.44529 129 122 122
-11.5484 -12.0316 -1.45029 131 124 124
-11.6264 -12.039 -1.45629 131 123 118
-11.707 -12.0107 -1.45988 131 122 122
-11.788 -12.0201 -1.46629 122 111 113
-11.8304 -11.9892 -1.46708 113 101 99
-11.8942 -11.9427 -1.46827 105 94 91
-11.9196 -11.8946 -1.46666 103 92 90
-11.9673 -11.8689 -1.46826 102 94 90
-12.0022 -11.8304 -1.46805 99 94 92
-12.0456 -11.7634 -1.46644 116 110 110
-12.0873 -11.7317 -1.46724 131 122 124
-12.1004 -11.672 -1.46402 127 116 120
-12.1801 -11.6405 -1.46762 129 119 124
-12.21 -11.5973 -1.46681 124 116 123
-12.2685 -11.5813 -1.47001 116 109 116
-12.3162 -11.5188 -1.4692 119 113 117
-12.3631 -11.4914 -1.4708 114 108 110
-9.02506 -6.91922 -1.00295 115 109 119
-9.07083 -6.88831 -1.00489 109 107 123
-14.7084 -9.32413 -1.52665 116 114 118
-14.7731 -9.26905 -1.52925 125 118 124
-14.8147 -9.2314 -1.53085 82 72 79
-14.8461 -9.18727 -1.53125 107 95 91
-14.8689 -9.13783 -1.53065 118 101 91
-14.9244 -9.07648 -1.53224 117 99 88
-14.9248 -9.01344 -1.52904 110 91 85
-14.9862 -8.98735 -1.53304 142 128 123
-15.0274 -8.91716 -1.53304 143 126 122
-15.0767 -8.8834 -1.53564 142 126 118
-15.1088 -8.83936 -1.53624 143 128 117
-15.1579 -8.77356 -1.53724 138 126 114
-15.1879 -8.72822 -1.53764 141 128 119
-15.2023 -8.67389 -1.53624 143 132 126
-15.2234 -8.62348 -1.53564 137 129 123
-15.4066 -8.35216 -1.53884 126 120 124
-17.6644 -6.2926 -1.58381 130 125 131
-17.7094 -6.24653 -1.5865 130 125 130
-17.7431 -6.19628 -1.58803 132 127 131
-17.8238 -6.13102 -1.5934 137 131 133
-17.9945 -6.12736 -1.60891 137 127 131
-7.3072 -12.8935 -1.20055 97 74 64
-7.34492 -12.8677 -1.20016 117 101 91
-7.37944 -12.7889 -1.19517 95 75 64
-7.40705 -12.7456 -1.19286 112 90 79
-9.75102 -12.1178 -1.33713 93 104 64
-9.90979 -12.163 -1.35074 104 108 71
-9.98862 -12.1449 -1.35433 102 111 77
-10.0673 -12.1649 -1.36093 95 107 69
-10.1147 -12.1462 -1.36253 101 114 75
-10.1696 -12.1364 -1.36532 80 94 54
-10.2347 -12.1 -1.36671 87 96 61
-10.268 -12.0639 -1.3661 88 89 67
-10.3242 -12.055 -1.3691 93 89 66
-10.4058 -12.0374 -1.37309 112 105 85
-10.4711 -12.0384 -1.37749 148 134 122
-10.5509 -12.0557 -1.3841 160 142 134
-10.6275 -12.0307 -1.38729 145 130 117
-10.7024 -12.0412 -1.39309 147 133 122
-10.7695 -12.0424 -1.39769 136 123 116
-10.8368 -12.0433 -1.40229 134 122 116
-10.931 -12.0359 -1.40809 131 122 117
-10.9932 -12.0302 -1.41189 128 120 117
-11.0754 -12.0462 -1.41869 123 118 118
-15.4144 -8.2946 -1.53684 130 124 128
-15.4506 -8.22139 -1.53663 128 123 127
-15.4842 -8.17776 -1.53764 130 125 129
-15.5054 -8.12753 -1.53724 128 123 128
-15.5441 -8.08643 -1.53884 129 124 130
-15.5934 -8.0199 -1.54024 130 124 128
-15.63 -7.97749 -1.54164 130 123 130
-15.6754 -7.93942 -1.54405 129 122 129
-15.7081 -7.86411 -1.54365 130 123 130
-15.7408 -7.81943 -1.54465 131 125 130
-15.7608 -7.76846 -1.54425 129 126 129
-15.8106 -7.70147 -1.54585 129 126 130
-18.2124 -6.13866 -1.62921 143 134 133
-18.4249 -6.14673 -1.64893 141 131 126
-18.6567 -6.12743 -1.66961 144 131 121
-6.89586 -12.7937 -1.17324 99 97 74
-7.01451 -12.9242 -1.1897 104 97 73
-7.08847 -12.9185 -1.19256 109 97 81
-7.00835 -12.6724 -1.16803 110 91 80
-7.14335 -12.8296 -1.18756 105 84 73
-7.2409 -12.8668 -1.1952 104 86 74
-9.18752 -12.2801 -1.3154 96 99 61
-9.25592 -12.2933 -1.3206 94 92 57
-9.29957 -12.2729 -1.32159 94 92 61
-9.44238 -12.3442 -1.336 94 100 60
-9.48626 -12.3231 -1.33699 94 103 62
-9.51564 -12.2828 -1.33558 98 116 67
-9.60287 -12.3182 -1.34379 84 100 54
-9.65995 -12.2738 -1.34377 94 111 66
-9.75987 -12.324 -1.35398 94 110 63
-9.71921 -12.1939 -1.34115 102 114 70
-9.85506 -12.1716 -1.34794 105 113 74
-10.3275 -6.75953 -1.10915 120 115 122
-10.3429 -6.7242 -1.10851 118 113 120
-10.3982 -6.66971 -1.11044 117 115 120
-15.8356 -7.6529 -1.54605 130 125 129
-15.8604 -7.60424 -1.54625 130 124 128
-15.9085 -7.56659 -1.54906 131 124 131
-15.9556 -7.49785 -1.55046 126 120 127
-15.9854 -7.4513 -1.55126 127 122 125
-16.0096 -7.40213 -1.55146 132 127 128
-16.0596 -7.33441 -1.55327 141 133 129
-16.0943 -7.28991 -1.55467 143 133 131
-16.1199 -7.24118 -1.55507 148 134 136
-16.1453 -7.19236 -1.55548 147 139 135
-18.8961 -6.14124 -1.69202 143 127 119
-19.1302 -6.15175 -1.71385 137 123 115
-19.3722 -6.12988 -1.73548 134 119 112
-6.57071 -12.6916 -1.15013 108 95 78
-6.68822 -12.828 -1.16697 95 81 61
-6.78419 -12.9195 -1.17903 109 98 67
-6.84961 -12.8991 -1.18016 82 72 64
-6.89019 -12.88 -1.18034 97 89 78
-9.13529 -12.5722 -1.33607 100 95 60
-9.07423 -12.4054 -1.31884 102 100 64
-9.09137 -12.3485 -1.31522 108 105 70
-9.10589 -12.2885 -1.3112 101 103 66
-10.359 -6.84961 -1.11735 117 113 117
-10.3963 -6.71392 -1.11281 118 113 119
-10.482 -6.65575 -1.11734 119 109 111
-16.1944 -7.12374 -1.55728 146 136 135
-16.2213 -7.07544 -1.55788 138 124 126
-16.2699 -7.03651 -1.56089 134 120 121
-16.3056 -6.96165 -1.56129 134 121 120
-16.3302 -6.91216 -1.56169 127 115 115
-16.3674 -6.86795 -1.5635 120 110 108
-16.406 -6.79411 -1.5643 111 102 100
-16.4337 -6.74576 -1.5651 130 120 119
-16.4852 -6.70702 -1.56851 154 146 144
