46.0908 9.41474 -1.59298 114 121 138
46.0922 9.03219 -1.59014 71 75 100
46.0799 8.87702 -1.58853 75 80 102
46.0201 8.7132 -1.58512 76 78 103
45.9847 8.47854 -1.58216 75 81 103
45.8941 8.31047 -1.57762 76 80 105
45.8402 8.1496 -1.57451 78 78 104
45.7903 7.91465 -1.5711 74 80 102
45.737 7.75509 -1.56806 76 81 103
45.6693 7.59368 -1.5645 77 80 101
45.6029 7.35829 -1.56056 76 80 102
45.5457 7.19988 -1.55745 75 80 102
45.5019 7.04402 -1.55487 76 81 103
45.4563 6.81409 -1.55183 78 79 103
45.4131 6.65934 -1.54932 77 77 103
45.3674 6.50462 -1.54674 78 78 102
45.3034 6.34782 -1.54348 76 81 103
45.2505 6.11943 -1.54028 79 81 102
45.1872 5.96393 -1.5371 77 79 101
45.1491 5.81216 -1.53489 74 81 100
45.143 5.59151 -1.53358 74 76 99
45.1156 5.44172 -1.53182 77 79 100
45.1193 5.29588 -1.53127 75 82 101
45.1346 5.07841 -1.53086 74 77 99
45.1074 4.92938 -1.52918 78 79 102
45.0164 4.77394 -1.52509 77 79 102
44.9307 4.61971 -1.52123 76 79 100
44.8991 4.39904 -1.51916 71 78 97
44.844 4.24896 -1.5165 71 82 100
44.8202 4.10218 -1.51505 74 81 100
44.8079 3.88452 -1.51381 76 78 101
44.7909 3.73881 -1.51265 76 79 104
44.8389 3.59843 -1.51398 77 81 102
44.4983 2.42788 -1.49782 120 120 138
44.3786 2.20799 -1.49283 115 106 114
22.7086 0.853557 -0.769993 49 40 65
22.5524 0.774814 -0.763309 74 69 94
22.3504 0.514409 -0.754422 51 49 70
22.3367 0.441659 -0.753738 44 47 64
22.3468 0.369351 -0.754054 44 49 69
22.4967 0.262191 -0.760199 45 54 83
22.2907 0.187811 -0.751516 43 56 90
22.3 0.115579 -0.751832 44 59 98
22.3031 0.00712348 -0.751895 42 57 96
22.2958 -0.065146 -0.751544 43 59 95
22.3002 -0.137449 -0.751693 43 57 92
22.3401 -0.246347 -0.753338 45 53 76
22.3691 -0.464195 -0.754535 41 42 62
22.4133 -0.574117 -0.756429 40 43 62
22.48 -0.648717 -0.759244 93 100 119
22.5585 -0.724124 -0.762558 61 77 100
34.9248 15.7908 -1.42406 70 84 106
35.2584 15.8026 -1.43698 62 76 101
35.6107 15.8204 -1.45073 63 74 95
35.9635 15.8362 -1.46448 62 72 97
36.3177 15.7814 -1.47715 58 71 93
36.5224 15.7298 -1.48415 72 83 105
36.5355 15.5971 -1.48246 82 93 116
36.6462 15.4362 -1.48412 88 97 117
36.6601 15.3042 -1.48252 81 92 112
36.7309 15.1954 -1.48351 79 92 111
36.8399 15.0332 -1.48516 80 91 109
36.9303 14.9318 -1.48706 82 90 111
37.0038 14.8234 -1.48822 82 90 109
37.0925 14.6523 -1.48904 82 90 111
37.1503 14.5375 -1.48952 82 90 111
37.2245 14.4289 -1.49076 81 89 108
37.2573 14.3045 -1.49016 82 90 110
37.3212 14.1236 -1.48998 82 90 111
37.3736 14.0066 -1.4903 82 90 111
37.42 13.8873 -1.49036 82 90 111
37.5308 13.7232 -1.49235 82 90 113
37.6065 13.6141 -1.49375 82 90 111
37.695 13.5093 -1.49574 69 78 103
37.7816 13.3356 -1.49672 58 63 84
37.8316 13.217 -1.49704 56 59 83
37.849 13.0873 -1.49594 55 56 77
37.9304 12.9792 -1.49767 60 63 79
37.9691 12.7891 -1.49665 99 99 113
37.9946 12.6623 -1.49597 101 99 112
38.0977 12.5606 -1.4987 100 100 111
38.1514 12.3755 -1.49843 99 98 112
38.1451 12.2388 -1.49641 95 97 110
38.2108 12.1247 -1.49756 92 94 110
38.3121 11.9542 -1.49946 92 93 113
38.3999 11.8464 -1.50161 91 94 111
38.4663 11.7318 -1.50285 94 93 114
38.5276 11.5484 -1.50308 93 95 116
38.6105 11.4382 -1.50506 93 94 114
38.6354 11.3111 -1.50454 96 97 117
38.6926 11.1932 -1.50544 93 94 114
38.7572 11.0103 -1.50592 92 96 115
38.8173 10.8929 -1.50698 93 95 112
38.8001 10.7543 -1.50471 93 94 112
38.8645 10.5713 -1.50527 94 91 112
38.9195 10.4523 -1.50617 96 93 112
38.9355 10.3231 -1.5054 95 93 112
39.0328 10.1481 -1.50746 91 92 111
39.1349 10.0405 -1.51044 91 95 111
39.2813 9.94343 -1.51534 102 103 124
43.5621 -5.23634 -1.46864 71 65 79
43.4493 -5.36372 -1.46492 68 61 77
43.4707 -5.50716 -1.46631 80 72 85
43.2692 -5.69267 -1.45959 87 80 94
43.1929 -5.96336 -1.45794 80 72 86
42.4605 -6.07137 -1.43109 103 92 98
41.4259 -6.06114 -1.39238 103 90 98
40.3306 -6.03549 -1.35135 109 103 110
39.995 -6.11681 -1.33922 98 94 108
39.9253 -6.30216 -1.33761 92 89 106
39.7978 -6.41268 -1.33344 94 91 103
39.6544 -6.51991 -1.32868 93 89 102
39.3783 -6.66921 -1.31925 94 92 108
39.3561 -6.79477 -1.31915 95 91 106
39.8482 9.88077 -1.53767 57 59 79
40.4408 9.88747 -1.56175 60 65 85
41.1251 9.9121 -1.58975 66 72 89
41.7924 9.92845 -1.61699 55 52 72
42.5069 9.87987 -1.64557 77 75 96
43.2688 9.90785 -1.67682 60 63 80
42.2008 8.67905 -1.62214 74 77 96
42.1503 8.52849 -1.61878 70 78 99
42.0738 8.37337 -1.61434 75 78 99
42.0292 8.15538 -1.61073 73 78 100
41.9749 8.00584 -1.60728 76 78 103
41.8946 7.85205 -1.60276 77 77 101
41.8415 7.63479 -1.59889 75 79 101
41.7835 7.48639 -1.59537 76 79 104
41.7544 7.34354 -1.59309 78 79 104
39.361 -6.925 -1.32009 99 95 110
39.3092 -7.11024 -1.3193 100 94 111
39.2287 -7.22527 -1.31701 97 94 110
39.1793 -7.34562 -1.31593 99 95 112
39.0923 -7.52348 -1.31386 100 96 110
39.0126 -7.63754 -1.31165 101 99 113
39.001 -7.76454 -1.31207 98 94 109
38.9324 -7.88029 -1.31031 99 96 110
44.0195 9.92858 -1.70757 65 67 85
44.7669 9.86889 -1.73747 63 58 80
41.6751 7.124 -1.58823 76 78 103
41.6429 6.98159 -1.58587 76 83 102
41.5846 6.8353 -1.58243 74 81 100
41.5599 6.62676 -1.57998 76 81 103
41.5162 6.48382 -1.57721 77 79 102
41.47 6.34093 -1.57435 78 79 102
41.3917 6.19375 -1.57015 75 80 102
41.35 5.98497 -1.56712 75 81 103
41.3338 5.84773 -1.5656 74 80 104
41.2993 5.70823 -1.56332 78 80 103
41.2711 5.50276 -1.56096 75 81 103
41.287 5.37045 -1.56085 74 80 102
41.2905 5.23663 -1.56024 72 80 103
41.2878 5.0351 -1.55904 74 80 102
41.2427 4.89587 -1.55643 72 78 102
41.2269 4.76033 -1.55507 72 79 103
41.1881 4.55579 -1.55246 75 79 102
41.1296 4.4163 -1.54935 73 79 100
41.1043 4.28065 -1.54766 75 80 100
41.0945 4.14679 -1.54663 74 79 101
41.0766 3.946 -1.54501 72 79 102
41.0458 3.81062 -1.54315 73 79 101
41.0424 3.67791 -1.54246 73 79 101
41.0621 3.48111 -1.54251 72 77 99
38.8137 -8.05023 -1.30712 98 94 109
38.7071 -8.15734 -1.30393 96 93 110
38.6685 -8.27821 -1.30337 98 94 108
38.6281 -8.46317 -1.30326 102 96 107
38.5925 -8.58452 -1.30285 104 99 104
38.5215 -8.69796 -1.30109 102 96 101
38.4052 -8.86544 -1.29812 95 89 103
38.3217 -8.97524 -1.29591 94 87 105
41.0696 3.34939 -1.54232 74 74 98
40.7433 2.40636 -1.52564 113 115 126
40.6416 2.13961 -1.52067 111 97 101
40.5852 1.68123 -1.51725 107 100 108
38.2088 -9.07781 -1.29257 89 85 100
38.1054 -9.18205 -1.28961 99 96 113
38.0568 -9.36332 -1.28935 89 86 103
37.9971 -9.47738 -1.28811 86 83 100
37.9081 -9.58394 -1.28575 87 83 100
37.8403 -9.75979 -1.28481 95 92 111
37.7737 -9.87133 -1.28335 93 90 107
37.7164 -9.98504 -1.28227 92 89 106
37.668 -10.1653 -1.28215 92 89 106
37.5694 -10.2676 -1.27949 94 91 108
37.5398 -10.3882 -1.27953 94 92 106
37.4329 -10.4876 -1.27657 92 89 106
37.313 -10.6471 -1.27375 93 90 105
37.2688 -10.7631 -1.27327 92 90 104
37.2319 -10.8811 -1.27309 93 90 107
37.1678 -11.0557 -1.27252 94 92 106
37.1166 -11.1694 -1.27181 94 92 106
37.025 -11.2709 -1.26953 94 92 106
36.8847 -11.4217 -1.26603 95 88 102
36.7562 -11.5108 -1.26232 101 95 108
36.6694 -11.6123 -1.26026 93 85 97
36.5905 -11.7803 -1.25925 91 84 93
36.4403 -11.8608 -1.25471 106 95 101
36.0054 -11.8485 -1.23892 117 107 107
35.5822 -11.8374 -1.22359 125 113 114
35.1902 -11.8962 -1.21019 65 55 54
34.9853 -11.9523 -1.20348 75 65 57
34.6936 -11.9778 -1.19333 71 68 51
34.2814 -12.0216 -1.17911 75 71 64
34.0297 -12.0566 -1.17052 67 60 52
33.9173 -12.139 -1.16749 75 61 58
33.5959 -12.2074 -1.15688 84 67 60
33.5189 -12.3007 -1.15527 95 78 65
33.3948 -12.3766 -1.15179 77 63 60
33.0853 -12.3838 -1.14088 83 72 70
33.2144 -12.6121 -1.14834 80 66 58
33.2614 -12.7507 -1.15176 83 64 55
31.5905 -12.5273 -1.08986 96 70 83
40.0699 -5.48359 -1.50645 67 63 82
40.0988 -5.61794 -1.50833 68 65 86
40.1201 -5.81691 -1.51029 77 70 87
40.063 -5.93931 -1.50859 79 73 86
39.8535 -6.03866 -1.50049 104 93 99
38.8862 -6.02086 -1.46041 104 92 96
38.0736 -6.08349 -1.42723 98 93 101
37.6276 -6.13639 -1.40914 100 94 106
37.6542 -6.26417 -1.41102 100 96 110
37.5543 -6.4328 -1.40798 97 93 107
37.3793 -6.52612 -1.40137 96 95 108
33.1755 -12.8394 -1.14985 85 67 67
32.7565 -12.8603 -1.13534 88 67 70
31.5631 -12.6328 -1.09028 96 68 80
31.797 -12.9008 -1.10209 102 70 83
31.6055 -12.9417 -1.09591 102 69 86
31.2957 -12.9336 -1.08493 101 74 81
30.9809 -12.9793 -1.07454 103 73 80
30.6221 -12.9465 -1.06154 104 73 81
30.3393 -12.9431 -1.05162 105 78 85
30.022 -12.9232 -1.04026 105 76 82
37.2573 -6.62772 -1.39701 97 96 108
37.1519 -6.79297 -1.39381 97 92 107
37.0625 -6.89917 -1.39087 97 95 109
37.0238 -7.01441 -1.39009 96 92 108
36.9593 -7.12462 -1.38822 99 96 111
36.8811 -7.29311 -1.38627 101 95 110
36.8354 -7.40641 -1.38524 99 96 115
36.8225 -7.52619 -1.38563 98 97 111
29.6995 -12.9554 -1.0295 104 75 90
29.4068 -12.9417 -1.01913 103 72 84
29.1017 -12.9207 -1.00823 99 68 76
28.817 -12.9617 -0.998969 107 74 75
28.5474 -12.9521 -0.989494 113 78 81
28.2672 -12.936 -0.97957 112 77 81
27.9726 -12.9657 -0.969862 108 73 79
27.6805 -12.9401 -0.959414 64 28 46
27.4469 -12.9396 -0.951366 69 50 69
27.1882 -12.9259 -0.942267 68 45 63
22.5253 0.804677 -0.923746 63 62 80
22.4498 0.65613 -0.919727 67 63 86
22.4027 0.581989 -0.91728 30 29 47
22.382 0.472473 -0.916093 27 28 46
22.3762 0.399716 -0.915687 29 30 48
22.3542 0.326772 -0.914503 44 44 68
22.3483 0.217929 -0.914094 43 49 73
22.3736 0.145623 -0.915242 42 49 77
22.3469 0.0729185 -0.913864 40 50 77
22.3158 -0.0357802 -0.912288 42 51 80
22.3168 -0.180539 -0.912253 44 51 77
36.7426 -7.69353 -1.38367 99 94 113
36.6819 -7.80325 -1.38206 99 95 110
36.6288 -7.91432 -1.38078 98 94 109
36.5861 -8.08874 -1.38049 99 96 111
36.5341 -8.1997 -1.37929 95 91 106
36.435 -8.29992 -1.3761 96 94 107
36.3672 -8.46797 -1.37481 102 96 108
26.9132 -12.9556 -0.933311 43 41 54
22.3244 -0.289183 -0.91262 43 45 66
22.3741 -0.362312 -0.915032 39 40 61
22.3876 -0.435103 -0.915694 39 40 68
22.4489 -0.618194 -0.918764 44 56 80
22.5099 -0.765759 -0.921837 39 41 62
36.3257 -8.58066 -1.37411 103 95 106
36.2469 -8.68444 -1.37183 104 94 105
36.197 -8.79479 -1.3708 106 100 112
36.0766 -8.94895 -1.36735 94 91 106
36.0007 -9.05233 -1.36524 92 89 106
35.8781 -9.14364 -1.36113 94 91 108
35.8007 -9.3068 -1.35959 96 93 110
35.7547 -9.41679 -1.35881 95 92 109
35.6679 -9.51591 -1.35628 95 92 109
35.585 -9.67665 -1.35458 94 91 107
35.5206 -9.78105 -1.35305 93 90 106
35.4135 -9.87351 -1.34969 94 91 107
35.3774 -9.98517 -1.34941 94 91 107
35.279 -10.1402 -1.34712 93 90 108
35.1749 -10.2321 -1.34393 96 93 112
35.1147 -10.3363 -1.34265 93 90 107
35.0474 -10.499 -1.34177 93 91 105
34.9787 -10.6003 -1.34016 94 92 106
34.8964 -10.6971 -1.33797 94 92 106
34.8351 -10.861 -1.33743 96 92 107
32.1973 13.7516 -1.53404 81 89 111
32.2569 13.5936 -1.53374 81 90 107
32.3223 13.4988 -1.53489 81 93 109
32.3468 13.3871 -1.53391 82 93 115
32.4286 13.2382 -1.53487 82 90 109
32.4986 13.1447 -1.53631 80 91 111
32.5906 13.0597 -1.53893 82 89 114
32.6693 12.9692 -1.54086 83 91 111
32.7028 12.8006 -1.53939 88 90 109
32.7566 12.7003 -1.54005 95 97 113
32.8362 12.6095 -1.54208 102 102 111
32.9053 12.4544 -1.54256 97 94 110
32.9936 12.3663 -1.54507 94 92 112
33.003 12.2492 -1.5435 90 91 112
33.0611 12.0897 -1.54349 86 93 112
33.1278 11.9933 -1.54493 85 92 111
33.1716 11.8887 -1.54521 86 91 113
33.2506 11.7363 -1.54636 86 92 114
33.3219 11.6409 -1.54809 87 94 113
33.3723 11.5382 -1.54876 86 93 111
33.4412 11.4415 -1.5504 85 93 114
33.5182 11.2876 -1.55155 88 95 113
33.556 11.1804 -1.55163 87 96 113
33.6221 11.0822 -1.55317 88 95 114
33.6993 10.9278 -1.55442 88 95 113
33.7494 10.8241 -1.55518 86 95 112
33.7935 10.7185 -1.55565 87 96 113
33.8595 10.5601 -1.55641 88 93 112
33.9295 10.4622 -1.55824 87 92 111
34.005 10.3656 -1.56037 87 93 109
34.0725 10.2664 -1.5621 88 94 110
34.1671 10.1154 -1.56442 86 93 111
34.2838 10.0297 -1.56868 101 102 122
34.4464 9.95653 -1.57528 101 104 123
34.9239 9.9103 -1.59704 38 43 65
35.4286 9.92825 -1.62095 53 58 78
35.9261 9.94103 -1.64447 72 81 98
34.8111 -10.9754 -1.33781 94 90 105
34.724 -11.07 -1.33545 94 90 104
34.6386 -11.1647 -1.33317 95 91 106
34.5333 -11.3137 -1.3308 97 91 105
34.4092 -11.3951 -1.32686 97 90 106
34.359 -11.5001 -1.32616 98 90 105
31.8245 14.448 -1.531 79 92 109
31.8765 14.2869 -1.53011 79 90 108
31.953 14.1976 -1.53176 78 89 107
32.0018 14.0962 -1.53194 80 89 108
32.096 13.9532 -1.53339 79 89 108
32.1533 13.8552 -1.53406 81 89 111
36.4722 9.90108 -1.66964 58 67 82
37.0805 9.93589 -1.69871 67 74 90
37.6025 9.94436 -1.72339 59 61 82
38.1598 9.89347 -1.74905 50 51 69
38.7851 9.92052 -1.77888 91 93 105
39.3607 9.93119 -1.80619 90 96 111
36.8089 8.85933 -1.67279 72 67 97
36.8626 8.74706 -1.67404 57 59 82
36.906 8.56999 -1.67411 73 74 97
36.8809 8.43972 -1.67146 75 77 100
36.8593 8.31057 -1.66901 75 77 98
36.8091 8.11364 -1.66452 75 82 98
36.7572 7.97885 -1.66061 76 78 99
36.7008 7.84365 -1.6565 77 77 101
36.6873 7.65647 -1.65395 76 76 100
36.6317 7.52254 -1.64994 78 80 103
36.5679 7.38747 -1.64554 79 80 100
36.5506 7.26208 -1.64348 80 76 99
36.5146 7.07263 -1.63996 80 81 102
36.4609 6.9411 -1.63614 77 77 101
36.4597 6.81975 -1.63495 78 80 103
36.4136 6.63012 -1.63104 77 79 102
36.4075 6.50842 -1.62966 78 80 103
36.3558 6.37901 -1.62604 77 79 101
36.3233 6.19341 -1.6229 77 77 102
36.2193 6.05639 -1.61675 69 70 91
36.2704 5.94523 -1.61829 105 109 128
36.1598 5.62994 -1.61046 72 74 94
36.2116 5.51891 -1.61209 72 77 99
36.2216 5.40152 -1.61168 75 78 101
36.2059 5.22125 -1.60961 76 76 100
36.1913 5.10066 -1.60803 75 75 100
36.1506 4.97674 -1.60519 76 79 102
36.1308 4.79702 -1.60303 78 76 100
36.1326 4.67931 -1.60232 75 78 101
36.0787 4.55471 -1.5989 72 79 100
36.043 4.37416 -1.59605 74 78 103
36.0593 4.25873 -1.59612 73 79 101
36.0416 4.13943 -1.59455 73 81 99
36.0037 4.01808 -1.592 73 81 99
35.9674 3.83891 -1.58925 74 79 101
35.9384 3.71924 -1.58718 74 80 102
34.2598 -11.6497 -1.32412 94 86 96
34.1729 -11.742 -1.32185 91 81 90
34.0687 -11.8281 -1.31882 124 116 112
33.7344 -11.8946 -1.30647 94 82 89
33.3831 -11.8922 -1.29255 83 70 66
33.2562 -11.967 -1.28852 85 70 66
32.9955 -12.053 -1.27942 94 82 65
32.7632 -12.0877 -1.27074 88 76 62
32.6042 -12.1479 -1.2653 82 75 57
32.3757 -12.1816 -1.25679 88 78 68
32.289 -12.3257 -1.25542 84 72 64
31.8907 -12.2925 -1.23933 83 70 64
31.452 -12.2412 -1.22143 75 64 62
31.6256 -12.4818 -1.2317 97 87 89
31.4774 -12.5401 -1.22676 84 74 76
31.4257 -12.6357 -1.22615 82 65 73
31.5224 -12.849 -1.23309 92 74 77
30.9942 -12.7523 -1.21111 99 78 83
30.8827 -12.8221 -1.20784 96 73 85
30.8709 -12.9324 -1.20905 104 74 81
30.5415 -12.9684 -1.19688 104 73 81
30.2458 -12.9585 -1.18529 102 75 84
29.9412 -12.943 -1.17329 103 74 93
29.6277 -12.978 -1.16177 104 75 86
29.3276 -12.96 -1.14994 100 72 88
29.0426 -12.9467 -1.13877 102 72 84
28.7267 -12.973 -1.12709 106 73 86
28.4588 -12.9632 -1.11667 109 76 84
28.1877 -12.9503 -1.10609 111 76 80
35.6958 -2.10351 -1.56626 120 118 132
27.8876 -12.9763 -1.09508 114 79 86
27.6263 -12.9639 -1.08491 69 47 63
27.369 -12.9517 -1.0749 72 56 67
27.1012 -12.9328 -1.0644 45 29 49
22.7013 0.905174 -1.04774 87 90 109
22.4669 0.786806 -1.03488 41 41 55
22.3812 0.638499 -1.02993 39 40 58
22.37 0.56552 -1.02916 41 38 59
22.3452 0.456064 -1.02764 43 40 59
22.3314 0.383281 -1.02677 40 43 62
22.3173 0.310594 -1.0259 39 44 63
22.3134 0.201885 -1.02555 38 43 62
22.2788 0.129273 -1.02361 39 44 63
22.3058 0.0569911 -1.02498 39 44 64
22.3126 -0.0516266 -1.02528 40 46 62
22.3032 -0.12399 -1.02473 38 43 63
22.2935 -0.196278 -1.02418 42 40 61
22.2876 -0.268563 -1.02384 38 45 63
22.3387 -0.37796 -1.0266 40 41 59
22.3582 -0.450868 -1.02765 37 38 56
22.3534 -0.523316 -1.02742 38 39 60
22.4452 -0.634772 -1.03242 42 38 61
35.0331 -4.7285 -1.54476 77 75 94
34.9359 -4.82957 -1.54065 75 75 91
34.8938 -4.9377 -1.53926 73 70 90
34.8414 -5.04422 -1.53739 71 69 89
34.7668 -5.20417 -1.53483 77 78 98
34.7235 -5.31146 -1.53344 75 79 103
22.5321 -0.783529 -1.0372 60 63 78
34.6898 -5.42002 -1.53254 82 85 105
34.6411 -5.58302 -1.53133 83 82 101
34.5848 -5.6877 -1.52936 82 78 103
34.5932 -5.80272 -1.5306 79 80 101
34.6234 -5.97859 -1.53338 82 83 104
34.5562 -6.08107 -1.53092 82 82 102
34.4827 -6.18216 -1.52817 78 77 98
34.4188 -6.3415 -1.52638 79 77 96
34.4035 -6.4525 -1.52655 80 81 100
34.3917 -6.56419 -1.52691 89 89 104
34.3385 -6.66806 -1.52523 94 92 108
34.2978 -6.83115 -1.52471 87 80 96
34.3709 -6.95963 -1.52934 80 75 88
34.3067 -7.06108 -1.52717 69 59 76
29.9887 12.3858 -1.57178 89 90 109
30.0227 12.2868 -1.57145 89 92 108
30.0976 12.148 -1.5724 81 88 107
30.1606 12.0602 -1.57378 80 89 108
30.2139 11.9687 -1.57462 83 91 110
30.2707 11.8224 -1.57461 85 93 112
30.3308 11.7331 -1.57588 83 91 110
30.3832 11.6408 -1.57672 85 91 113
30.4572 11.5006 -1.57778 86 94 115
30.5145 11.4099 -1.57895 85 93 112
30.5528 11.3121 -1.57904 86 92 112
30.6309 11.1729 -1.58042 85 93 113
30.6967 11.0847 -1.58212 85 93 113
30.7566 10.9942 -1.58349 85 93 112
30.7955 10.8963 -1.58369 84 92 111
30.8397 10.7447 -1.58325 84 92 113
30.8664 10.6428 -1.58281 85 89 114
30.9327 10.5539 -1.58461 83 91 112
31.0112 10.4136 -1.5862 86 93 109
31.0483 10.3148 -1.5864 87 92 112
31.125 10.2287 -1.58885 85 92 113
31.2364 10.0979 -1.59237 83 89 108
31.2877 10.0032 -1.59342 94 99 119
31.4475 9.94165 -1.60058 91 98 120
31.8785 9.90572 -1.62208 45 51 73
32.2867 9.91565 -1.64315 60 65 87
32.7623 9.94292 -1.66797 73 80 93
33.1599 9.94433 -1.6884 71 79 92
33.6289 9.90535 -1.71194 63 73 92
33.6322 9.49714 -1.706 80 83 92
33.8224 9.43241 -1.71486 97 106 113
33.9084 9.33863 -1.71795 117 129 144
33.8216 9.14046 -1.71065 66 74 89
33.7505 9.00555 -1.70507 70 77 95
33.762 8.89254 -1.70409 75 77 100
33.7383 8.77073 -1.70118 72 77 99
33.7257 8.59444 -1.69816 70 77 93
33.7087 8.47505 -1.69568 71 78 97
33.6758 8.35211 -1.69234 72 76 98
33.667 8.17814 -1.68965 72 79 97
33.6603 8.06214 -1.68781 70 78 98
33.6259 7.94001 -1.68447 74 76 102
33.615 7.76682 -1.68178 73 78 98
33.5933 7.64834 -1.67919 75 78 101
33.5496 7.52538 -1.67542 75 77 101
33.5523 7.35643 -1.67358 74 79 100
33.5311 7.23909 -1.6711 75 79 99
33.5154 7.12314 -1.66894 76 77 99
33.4895 7.0054 -1.66625 76 78 103
33.4935 6.838 -1.66462 73 80 101
33.4568 6.7188 -1.66139 73 78 100
33.4295 6.60177 -1.65869 74 79 101
33.4218 6.43313 -1.65653 70 75 97
33.419 6.32132 -1.65523 73 77 101
33.3728 6.20178 -1.65157 74 76 100
33.2825 6.01967 -1.64502 61 64 85
33.3787 5.92589 -1.64917 110 115 134
33.282 5.63375 -1.64131 72 74 97
33.3062 5.52768 -1.64162 70 74 101
33.2808 5.41372 -1.63924 71 75 100
33.3102 5.30855 -1.63986 70 78 101
33.2962 5.14193 -1.6377 70 77 96
33.2932 5.03195 -1.63661 71 79 98
33.2583 4.91752 -1.6338 70 76 101
33.2364 4.75077 -1.63132 72 78 104
33.1985 4.63666 -1.62841 71 79 102
33.1919 4.52703 -1.62721 70 78 100
33.1582 4.35985 -1.62419 71 77 101
33.1528 4.25074 -1.6231 72 76 100
33.137 4.14054 -1.62147 71 76 98
33.1169 4.03002 -1.61963 69 76 102
33.1006 3.86625 -1.61768 70 77 101
34.1138 -7.19289 -1.51917 73 69 84
33.9884 -7.28051 -1.514 72 69 88
33.8414 -7.36284 -1.50775 74 70 88
33.7273 -7.50807 -1.50373 83 80 98
33.6032 -7.59376 -1.49866 84 82 96
33.5956 -7.70492 -1.4994 90 86 100
33.5546 -7.80858 -1.4985 90 84 100
29.4493 13.3472 -1.56557 76 87 105
29.5125 13.2045 -1.56556 78 88 107
29.5912 13.125 -1.56769 80 89 107
29.6422 13.0333 -1.56821 79 87 106
29.7021 12.8889 -1.56809 83 85 103
29.7524 12.7968 -1.56862 89 95 109
29.8172 12.7107 -1.57 93 94 112
29.859 12.5587 -1.56892 91 96 109
29.9378 12.478 -1.57115 90 93 111
34.1462 9.93495 -1.739 56 60 80
34.6217 9.94955 -1.76371 57 57 80
33.1015 3.7585 -1.61701 71 76 99
33.0941 3.64994 -1.61592 67 75 96
33.0799 3.48708 -1.61419 69 70 93
33.5066 -7.96711 -1.49788 91 87 104
33.4629 -8.06989 -1.49688 96 92 111
33.349 -8.15576 -1.49238 98 93 115
33.2278 -8.29567 -1.48817 94 87 96
33.2102 -8.40405 -1.48853 93 87 97
33.0917 -8.48717 -1.48384 95 91 104
33.0406 -8.64322 -1.48322 96 92 107
33.0026 -8.74608 -1.48261 96 90 102
32.9584 -8.84727 -1.4817 95 89 103
32.8633 -8.9912 -1.47895 93 86 104
32.8127 -9.09023 -1.47775 95 89 104
32.7156 -9.17637 -1.47423 90 86 101
32.6817 -9.2796 -1.47391 96 93 110
32.5848 -9.42143 -1.47115 98 94 109
32.5272 -9.51761 -1.46966 96 93 112
32.4673 -9.61295 -1.46808 96 95 111
32.3862 -9.75824 -1.4662 97 95 111
32.341 -9.85746 -1.46539 97 94 111
32.2707 -9.94899 -1.46332 98 95 113
32.886 -2.14975 -1.59472 111 107 126
32.1824 -10.0912 -1.46115 98 95 112
32.119 -10.1842 -1.45947 98 96 110
32.0573 -10.2776 -1.45789 96 93 110
31.9858 -10.3677 -1.45582 96 94 108
31.8749 -10.5012 -1.45258 98 96 109
31.8085 -10.5922 -1.4508 96 93 108
31.7589 -10.6885 -1.4499 100 97 114
31.6826 -10.8322 -1.4485 95 93 107
31.5983 -10.9165 -1.44585 95 92 109
31.4968 -10.9945 -1.44233 97 93 110
31.3626 -11.1171 -1.43802 96 93 109
31.2738 -11.1985 -1.43517 97 93 107
31.1867 -11.2801 -1.43243 99 95 109
31.122 -11.3693 -1.43085 101 97 107
31.0071 -11.4964 -1.4276 83 77 89
30.953 -11.5889 -1.4266 85 81 92
32.0172 -4.95441 -1.56271 73 75 95
31.9451 -5.0483 -1.55958 78 79 97
31.9474 -5.20622 -1.56094 80 83 102
31.8924 -5.30233 -1.55877 78 79 98
31.8646 -5.40274 -1.5581 76 75 94
30.9528 -11.7013 -1.42842 108 100 109
30.8927 -11.8479 -1.42809 66 61 65
30.6977 -11.8868 -1.41981 84 77 84
30.5623 -11.9475 -1.41464 99 90 93
31.818 -5.55243 -1.55689 110 112 127
31.7384 -5.64357 -1.55345 85 83 105
31.7449 -5.74965 -1.5547 76 77 98
31.7059 -5.84763 -1.5535 82 84 105
31.673 -5.99917 -1.55314 81 82 102
31.6705 -6.1038 -1.55397 78 79 99
31.6539 -6.20583 -1.55405 79 77 97
30.5215 -12.1001 -1.41538 94 83 89
30.5436 -12.2212 -1.41845 105 94 102
30.4874 -12.3118 -1.41745 107 101 103
30.393 -12.4434 -1.41547 104 91 98
30.3287 -12.5304 -1.41408 88 75 82
31.6076 -6.35472 -1.55305 82 83 104
31.5609 -6.45066 -1.55153 84 85 106
31.5061 -6.54477 -1.54958 82 84 101
31.47 -6.6952 -1.54922 86 85 105
31.436 -6.7933 -1.54844 85 87 102
31.3958 -6.88998 -1.54735 85 82 99
30.2698 -12.6193 -1.41299 110 94 101
30.2143 -12.7095 -1.41208 104 89 86
30.1402 -12.8485 -1.41127 107 89 86
30.0547 -12.9258 -1.40881 102 82 82
29.8293 -12.9434 -1.39898 99 79 80
31.3541 -7.03894 -1.54678 99 98 112
31.3268 -7.13826 -1.54643 95 94 108
31.2681 -7.2304 -1.54437 96 95 111
31.2461 -7.33074 -1.54434 94 92 109
31.1849 -7.47472 -1.54281 97 93 109
31.1679 -7.57619 -1.5431 94 92 107
31.0983 -7.66494 -1.54051 94 90 111
29.5142 -12.9772 -1.38546 90 71 71
29.2199 -12.9615 -1.37195 89 67 73
28.9186 -12.9408 -1.35805 100 77 80
28.5938 -12.9627 -1.34395 107 78 80
28.3152 -12.9477 -1.33121 119 85 84
28.0643 -12.9435 -1.31993 113 77 78
27.7956 -12.9295 -1.30768 108 74 88
31.053 -7.81221 -1.53994 99 96 113
30.9769 -7.89877 -1.53703 99 96 113
30.9064 -7.9864 -1.53443 101 97 114
30.7939 -8.11564 -1.53023 95 92 111
30.7113 -8.19928 -1.527 92 91 109
30.6669 -8.29272 -1.5259 90 87 106
27.5124 -12.9607 -1.29572 69 52 71
27.2444 -12.9432 -1.28347 62 44 68
27.0112 -12.9402 -1.27306 56 54 71
22.6504 0.85849 -1.22294 62 60 81
22.425 0.777114 -1.20885 46 45 61
22.6529 0.711539 -1.22266 69 41 72
22.3768 0.521275 -1.20524 36 38 56
22.401 0.449189 -1.20657 36 42 60
22.4016 0.34024 -1.20643 38 46 59
22.3676 0.267171 -1.20421 33 42 51
30.5761 -8.37352 -1.52224 90 87 104
30.5333 -8.51962 -1.52199 87 86 100
30.4496 -8.60161 -1.51875 90 89 103
30.4386 -8.70365 -1.51958 91 88 107
30.3444 -8.83479 -1.51655 91 88 105
22.3711 0.194687 -1.20431 37 38 58
22.3765 0.0859401 -1.20454 34 38 54
22.3576 0.013379 -1.2033 34 38 56
22.3822 -0.0591189 -1.20475 32 35 55
22.3787 -0.131639 -1.20449 32 38 52
22.3846 -0.240478 -1.20483 35 33 51
22.3945 -0.31314 -1.20543 32 37 57
22.4141 -0.386017 -1.20663 39 46 65
22.3969 -0.494626 -1.20563 37 35 57
30.3193 -8.93272 -1.51663 99 97 111
30.244 -9.01601 -1.51393 103 102 115
30.2078 -9.16328 -1.51422 100 96 113
30.1473 -9.25044 -1.51237 104 101 119
30.1418 -9.35416 -1.51363 104 101 120
22.5522 -0.643937 -1.21527 63 53 80
22.4343 -0.749886 -1.20815 47 49 74
30.0583 -9.48682 -1.51135 93 92 108
30.0463 -9.58864 -1.51228 92 91 109
29.9256 -9.65615 -1.50712 93 90 109
29.8333 -9.73211 -1.50357 86 85 101
29.7064 -9.84913 -1.49894 84 82 103
29.6553 -9.93762 -1.49773 84 82 103
29.9981 7.98163 -1.74032 70 77 99
29.9871 7.87553 -1.73797 70 76 99
29.9738 7.76909 -1.73551 69 77 98
29.9563 7.66183 -1.7328 70 76 98
29.9637 7.50987 -1.73094 72 76 99
29.9511 7.4044 -1.7286 72 77 97
29.9304 7.29722 -1.72576 71 76 96
29.934 7.14527 -1.72379 69 77 100
29.9221 7.04076 -1.72157 71 79 102
29.9099 6.9364 -1.71934 70 78 101
29.9118 6.78487 -1.71737 70 78 101
29.8909 6.67911 -1.71466 71 79 102
29.8871 6.57734 -1.71305 69 80 100
29.8834 6.42546 -1.71082 72 76 101
29.8788 6.32391 -1.70921 72 80 101
29.8505 6.21766 -1.70613 72 80 101
29.855 6.11835 -1.70514 71 77 101
29.8529 5.9679 -1.70316 71 79 98
29.837 5.86493 -1.70094 72 80 100
29.8149 5.76101 -1.69835 69 76 102
29.8287 5.61438 -1.69747 69 76 98
29.8391 5.51683 -1.69696 69 75 99
29.8276 5.41546 -1.69511 70 74 101
29.8339 5.2679 -1.69386 65 76 98
29.8412 5.17011 -1.69323 69 75 99
29.8364 5.07038 -1.69187 67 78 96
29.8156 4.96814 -1.68952 67 78 98
29.802 4.81812 -1.68717 68 79 99
29.7883 4.71751 -1.68532 70 78 101
29.7722 4.61676 -1.68334 72 80 103
29.7628 4.46824 -1.68136 71 78 104
29.7636 4.37038 -1.68049 71 77 99
29.7543 4.27114 -1.679 71 77 99
29.7452 4.12333 -1.67714 70 76 100
29.7193 4.02227 -1.67467 68 76 98
29.7187 3.92473 -1.6738 70 76 100
29.7198 3.77892 -1.67267 70 77 96
29.7125 3.68077 -1.67143 68 73 93
29.697 3.58178 -1.66969 69 73 94
29.6891 3.48383 -1.66845 70 72 95
29.6861 3.3382 -1.6672 70 72 93
29.6695 3.23961 -1.66547 70 72 95
29.6506 3.14095 -1.66361 69 70 94
29.6341 2.99452 -1.66163 75 74 97
29.5907 -10.0215 -1.49578 99 96 115
29.5176 -10.1549 -1.49425 93 89 111
29.4864 -10.2497 -1.49422 89 87 108
29.4021 -10.3261 -1.4912 91 90 108
27.0655 11.1562 -1.63155 79 90 108
27.1325 11.0813 -1.63362 78 89 109
27.1567 10.9892 -1.63288 78 89 110
27.2237 10.8632 -1.63385 81 89 108
27.2732 10.781 -1.63481 81 89 110
27.3095 10.6935 -1.63492 81 89 112
27.3751 10.5667 -1.63589 83 91 112
27.4237 10.4838 -1.63686 81 89 110
27.502 10.4118 -1.63979 81 89 110
27.5664 10.2839 -1.64075 82 90 110
27.5936 10.1928 -1.64037 81 90 108
27.6618 10.1164 -1.64269 89 97 116
27.7812 10.0075 -1.64733 74 82 103
27.8884 9.94395 -1.65222 56 64 85
28.1987 9.95002 -1.67033 63 70 88
28.5189 9.95746 -1.68906 68 76 95
28.8681 9.9209 -1.70864 62 69 87
29.2229 9.93527 -1.72957 60 68 87
29.5724 9.94565 -1.75013 58 59 87
29.9396 9.90632 -1.77082 49 54 74
30.0339 9.82987 -1.77484 59 67 90
30.09 9.74089 -1.77642 72 72 93
30.062 9.57225 -1.77163 78 85 105
30.0336 9.45713 -1.76782 116 125 146
30.102 9.37195 -1.77025 88 94 116
30.0805 9.25941 -1.76693 58 63 85
30.0499 9.09189 -1.76214 73 79 99
30.0313 8.98103 -1.75906 70 76 98
30.0218 8.87315 -1.7566 70 77 98
30.0198 8.71545 -1.75376 72 76 101
30.0133 8.60899 -1.75154 69 77 100
29.9986 8.50054 -1.74883 69 77 101
29.991 8.3424 -1.74575 69 77 100
29.987 8.23747 -1.74378 70 76 100
29.9672 8.12852 -1.74082 70 77 101
29.5901 2.65349 -1.65679 71 76 102
29.5554 2.55446 -1.65408 66 62 85
29.57 2.45976 -1.65443 110 113 130
29.4629 2.2122 -1.64655 113 101 103
29.5062 2.11985 -1.64873 83 76 84
29.5002 1.78538 -1.64683 71 70 91
29.5164 1.69095 -1.64742 114 106 113
29.4552 1.54474 -1.64312 86 75 87
29.4408 1.44891 -1.64187 109 109 132
29.4679 1.3551 -1.6432 114 118 134
29.3615 -10.4702 -1.49159 97 97 116
29.2729 -10.5445 -1.48836 95 94 112
29.2349 -10.6365 -1.48801 89 90 108
29.1684 -10.7181 -1.48606 90 91 111
29.1053 -10.8537 -1.48528 91 87 110
26.6 12.0344 -1.62651 80 88 107
26.6292 11.9444 -1.62588 81 90 107
26.6693 11.808 -1.62477 79 90 110
26.7289 11.7311 -1.62623 80 92 110
26.7773 11.6493 -1.62695 80 90 110
26.8656 11.5332 -1.62915 79 89 109
26.9189 11.4532 -1.63024 80 88 110
26.9536 11.3654 -1.63011 78 89 111
27.0259 11.2421 -1.63132 78 89 109
29.027 -10.9305 -1.48268 84 85 105
28.9653 -11.0132 -1.48105 84 87 105
28.8897 -11.1434 -1.47963 90 89 108
28.8443 -11.2319 -1.47896 86 87 106
28.7855 -11.3151 -1.47754 81 80 101
28.703 -11.442 -1.47579 84 85 105
28.6437 -11.5246 -1.47438 81 77 99
28.6045 -11.6151 -1.47414 77 74 93
28.5613 -11.7039 -1.47368 82 79 98
28.5104 -11.8429 -1.47386 80 77 96
28.4758 -11.9351 -1.47393 81 78 99
28.3929 -12.0074 -1.47124 83 80 99
28.3425 -12.1464 -1.47152 80 78 97
22.6855 0.845439 -1.31654 75 73 86
22.5173 0.766415 -1.30533 46 47 64
29.3255 -3.14591 -1.63965 71 69 90
29.2906 -3.23745 -1.63804 69 67 88
29.2495 -3.32813 -1.63606 82 82 106
29.1671 -3.46144 -1.63187 75 82 101
29.1253 -3.55148 -1.62989 76 83 99
28.2646 -12.2202 -1.46914 85 82 99
28.2178 -12.307 -1.46858 84 80 95
28.1274 -12.4285 -1.46662 81 77 92
28.0909 -12.5196 -1.4667 88 82 93
22.4229 0.508629 -1.29851 36 35 51
22.3853 0.435198 -1.29589 36 34 50
22.3779 0.326164 -1.29522 36 35 51
22.3816 0.253606 -1.29533 33 36 49
22.3691 0.180925 -1.2944 35 39 51
22.3585 0.0720829 -1.2936 32 34 49
22.3654 -0.000434168 -1.29397 33 39 53
22.3844 -0.254494 -1.29509 37 35 56
22.4043 -0.327376 -1.29637 32 34 49
29.0852 -3.64152 -1.62803 77 83 103
29.0607 -3.78078 -1.62751 77 83 105
29.0021 -3.86808 -1.62455 75 82 104
28.9394 -3.95451 -1.62134 72 83 101
28.8941 -4.04299 -1.61924 74 81 103
28.8619 -4.18038 -1.61835 75 81 100
28.812 -4.26778 -1.61601 75 82 100
28.7481 -4.35287 -1.6128 75 77 100
28.0103 -12.5913 -1.46421 87 81 93
27.9534 -12.7269 -1.46428 99 90 100
27.9705 -12.842 -1.46756 101 90 95
28.0517 4.64698 -1.69213 72 78 102
28.0385 4.50572 -1.68977 71 79 101
28.0237 4.41077 -1.6878 72 81 102
22.5576 -0.768551 -1.30669 52 59 78
22.7095 -0.847373 -1.31669 70 73 92
28.6888 -4.48551 -1.61033 74 79 100
28.6676 -4.57653 -1.60981 75 77 100
28.6165 -4.66277 -1.60746 78 75 102
28.5833 -4.79883 -1.6067 73 78 98
28.5219 -4.88286 -1.60374 74 79 98
28.4778 -4.96955 -1.60188 76 77 98
28.4413 -5.05737 -1.60051 75 80 100
27.9055 -12.9202 -1.46604 110 104 110
27.7005 -12.9342 -1.45629 102 95 103
27.4827 -12.9945 -1.44697 106 103 112
27.2293 -12.9831 -1.43434 101 102 110
26.969 -12.9668 -1.42129 99 97 108
28.1673 8.39832 -1.75558 66 77 99
28.1617 8.29809 -1.75335 69 77 100
28.1571 8.14931 -1.75034 70 78 99
28.1468 8.04831 -1.74786 68 76 99
28.1304 7.94587 -1.74498 70 76 100
28.1374 7.80138 -1.74288 68 75 101
28.1356 7.70338 -1.74104 69 77 100
28.1237 7.60297 -1.73855 70 76 102
28.1096 7.50221 -1.73593 70 76 102
28.1145 7.35826 -1.73383 69 77 98
28.1034 7.2588 -1.73147 68 76 97
28.09 7.159 -1.72898 70 78 101
28.0951 7.01597 -1.72701 69 76 102
28.0848 6.91742 -1.72478 70 76 102
28.0741 6.81902 -1.72255 71 75 102
28.0814 6.67729 -1.72084 68 77 101
28.0641 6.57784 -1.71822 71 77 101
28.0523 6.47985 -1.71599 69 77 100
28.0697 6.34107 -1.71507 71 76 96
28.0688 6.24588 -1.71362 71 78 97
28.0617 6.14951 -1.71178 69 77 100
28.0426 6.05079 -1.70916 71 79 100
28.0403 5.90866 -1.70706 73 79 103
28.0399 5.81426 -1.70574 73 80 104
28.0412 5.7203 -1.70455 70 78 101
28.0373 5.57854 -1.70245 71 79 100
28.0398 5.48512 -1.70139 69 77 98
28.0537 5.39394 -1.70111 71 76 102
28.0639 5.2553 -1.70005 71 75 100
28.0928 5.16687 -1.70082 70 75 97
28.0979 5.07419 -1.70002 70 77 96
28.0928 4.9332 -1.69804 71 79 100
28.0794 4.83766 -1.69607 70 78 101
28.0735 4.74353 -1.69463 69 79 100
28.0126 4.31656 -1.68609 73 77 106
28.0097 4.17761 -1.68451 72 76 101
28.0254 4.08752 -1.68462 71 77 101
28.0092 3.99305 -1.68265 69 77 100
28.0048 3.85438 -1.68107 68 79 99
27.9938 3.76096 -1.67949 68 73 95
27.9686 3.66591 -1.677 71 71 95
27.9848 3.57619 -1.67724 70 74 94
27.9882 3.43917 -1.6763 67 72 91
27.964 3.34477 -1.67394 67 72 92
27.9632 3.25326 -1.67314 68 73 94
27.9592 3.11585 -1.67182 71 73 94
27.9498 3.02362 -1.6705 72 75 96
27.8172 2.19524 -1.65642 72 73 93
27.8021 2.05885 -1.6547 70 67 89
27.8252 1.97029 -1.65572 65 67 87
27.7776 1.74211 -1.65152 64 61 88
27.7757 1.65209 -1.65098 66 70 89
27.7955 1.56328 -1.65187 74 74 94
27.7635 1.42689 -1.64924 71 72 93
27.7567 1.33682 -1.64844 72 74 97
27.8114 1.24947 -1.65167 74 75 99
27.7801 1.15838 -1.64931 72 73 93
28.4259 -5.1959 -1.60097 78 84 100
28.3594 -5.27805 -1.59777 79 85 101
28.3514 -5.37066 -1.59823 78 83 102
28.2836 -5.49919 -1.59551 81 81 105
28.2847 -5.59351 -1.59659 82 83 103
28.219 -5.67485 -1.5935 82 83 103
25.6072 10.5396 -1.6446 82 90 111
25.6521 10.4611 -1.64537 79 87 106
25.6875 10.3788 -1.64549 82 90 111
25.7443 10.2568 -1.646 82 90 110
25.7679 10.1699 -1.64534 81 89 110
25.8173 10.0928 -1.6465 79 87 108
25.8952 9.9786 -1.64857 87 97 115
26.0433 9.93764 -1.65663 62 72 92
26.3207 9.94314 -1.67368 50 58 77
26.6572 9.91957 -1.69372 62 70 89
26.9559 9.92861 -1.7122 65 74 91
27.1684 9.90526 -1.72468 54 65 82
27.5958 9.95582 -1.75202 60 71 89
27.9319 9.92152 -1.77193 54 64 82
28.1866 9.90732 -1.78728 59 65 79
28.1881 9.80611 -1.78518 55 61 86
28.2083 9.66076 -1.78334 62 69 87
28.1805 9.55038 -1.77929 67 72 92
28.1978 9.45509 -1.77837 67 72 91
28.239 9.3173 -1.77809 63 75 95
28.1976 9.1033 -1.77116 70 74 99
28.2143 8.95849 -1.76933 69 75 99
28.1801 8.84824 -1.76502 70 74 99
28.1837 8.74981 -1.76331 67 75 99
28.1659 8.64517 -1.76017 67 74 100
28.1687 8.49756 -1.75755 69 77 99
28.2085 -5.81403 -1.59445 82 85 104
28.1987 -5.9063 -1.59492 82 85 104
28.1478 -5.99006 -1.59281 87 86 109
28.1609 -6.0871 -1.59475 86 87 107
28.1036 -6.21655 -1.59288 86 88 106
28.079 -6.3056 -1.59249 87 87 108
25.1651 11.3719 -1.63948 79 90 110
25.2161 11.2967 -1.64051 78 91 108
25.2643 11.1717 -1.64012 78 91 110
25.3203 11.0984 -1.64154 79 91 110
25.3577 11.0172 -1.64166 79 90 112
25.3935 10.887 -1.64048 80 92 108
25.4542 10.8154 -1.64229 80 91 109
25.5017 10.7382 -1.64319 81 92 113
25.5472 10.6601 -1.64396 79 89 110
27.9763 -6.37727 -1.58721 83 82 104
27.9488 -6.51255 -1.5873 75 80 102
27.8903 -6.59344 -1.58483 75 80 102
27.8761 -6.68443 -1.58517 76 82 104
27.8123 -6.81093 -1.58306 78 80 103
27.7723 -6.89563 -1.58181 71 72 92
27.6934 -6.97064 -1.57812 82 81 101
27.6341 -7.09734 -1.57637 84 85 106
27.5644 -7.1739 -1.57329 88 88 106
27.5349 -7.26051 -1.57278 97 96 117
27.48 -7.34046 -1.57067 100 97 114
27.4288 -7.4683 -1.56954 114 116 133
27.3868 -7.55128 -1.56829 110 114 130
27.3504 -7.63563 -1.56741 108 111 130
27.2844 -7.75892 -1.56543 109 110 131
27.209 -7.83206 -1.5621 110 111 131
27.1449 -7.90807 -1.55951 110 111 127
27.4512 -3.15807 -1.63469 79 77 98
27.4468 -3.2918 -1.63532 73 73 97
27.3995 -3.3756 -1.63282 77 82 105
27.3459 -3.4584 -1.62994 76 82 103
27.2902 -3.54064 -1.62692 78 82 102
27.2562 -3.67006 -1.62573 77 82 102
27.2137 -3.75352 -1.62362 75 82 100
27.2026 -3.84113 -1.6236 77 79 102
27.0681 -8.02727 -1.55691 60 62 77
27.0418 -8.1137 -1.55676 60 62 77
26.954 -8.18194 -1.5527 56 64 77
26.8871 -8.25599 -1.54999 60 63 78
26.8013 -8.37105 -1.5469 65 66 84
27.1653 -3.96964 -1.62227 74 81 100
27.1456 -4.05593 -1.62173 78 85 104
27.1 -4.13829 -1.61949 75 79 100
27.0829 -4.26943 -1.61959 72 80 98
27.019 -4.34852 -1.61619 76 78 101
26.9862 -4.43232 -1.61487 76 76 100
26.9285 -4.5564 -1.61237 74 79 98
26.7434 -8.44722 -1.54479 106 107 125
26.6796 -8.52131 -1.54232 104 107 124
26.6173 -8.64268 -1.54083 101 103 118
26.553 -8.71607 -1.53836 106 105 120
26.5131 -8.79711 -1.53747 107 104 121
26.8971 -4.64009 -1.61117 76 77 98
26.8341 -4.71819 -1.6079 75 79 98
26.814 -4.80353 -1.60749 77 78 99
26.7565 -4.9266 -1.60512 75 77 100
26.7359 -5.01165 -1.6047 78 81 100
26.6835 -5.09074 -1.60221 77 83 101
26.4402 -8.9143 -1.53536 111 113 126
26.3903 -8.99174 -1.53387 108 107 121
26.3345 -9.06704 -1.53201 110 107 124
26.2472 -9.17851 -1.52905 108 103 122
26.6561 -5.2188 -1.60192 77 81 102
26.6091 -5.29848 -1.59982 79 80 100
26.5931 -5.38413 -1.59979 83 81 103
26.5389 -5.50654 -1.59781 77 78 98
26.5067 -5.58873 -1.59675 73 77 100
26.5074 -5.67773 -1.5979 69 75 97
26.461 -5.75681 -1.59592 74 79 102
26.2041 -9.25767 -1.52804 93 90 106
26.1438 -9.33075 -1.52594 85 86 103
26.0852 -9.4042 -1.52396 86 88 107
26.004 -9.51651 -1.52148 91 90 106
25.9431 -9.5886 -1.51938 85 83 99
26.4285 -5.88325 -1.5955 84 84 104
26.399 -5.96572 -1.5947 80 81 102
26.3556 -6.045 -1.59298 78 83 103
26.3452 -6.17622 -1.59412 83 86 103
26.3129 -6.25784 -1.59319 82 85 104
25.895 -9.66516 -1.51813 82 79 96
25.8184 -9.77821 -1.51602 86 83 100
25.753 -9.84796 -1.51368 85 82 101
25.6986 -9.9216 -1.51206 87 85 103
26.2376 -6.32921 -1.5894 81 83 104
26.183 -6.44976 -1.58768 83 85 107
26.1402 -6.52834 -1.58609 81 85 104
26.1029 -6.60814 -1.5849 80 85 102
26.0519 -6.68437 -1.58279 77 84 102
25.647 -10.0433 -1.51166 91 90 105
25.6125 -10.1243 -1.51139 87 86 104
25.5815 -10.2066 -1.51137 89 91 106
25.5446 -10.2866 -1.51098 88 89 107
25.9861 -6.80119 -1.58042 82 83 103
25.9249 -6.87429 -1.57767 78 78 102
25.902 -6.95721 -1.57752 76 77 99
25.8216 -7.06931 -1.57424 73 72 91
25.7365 -7.13517 -1.56992 72 71 87
25.6724 -7.20637 -1.56704 64 67 84
25.4746 -10.4009 -1.50948 93 91 105
25.428 -10.4768 -1.50848 91 90 106
25.3866 -10.5548 -1.50784 93 92 108
25.6179 -7.32436 -1.56558 76 75 93
25.5744 -7.40083 -1.56412 74 75 93
25.5327 -7.47764 -1.5628 82 81 97
25.4712 -7.59305 -1.56095 87 86 103
25.4212 -7.66713 -1.55911 90 88 108
25.2989 -10.6612 -1.50524 97 96 110
25.268 -10.7433 -1.50534 99 95 113
25.2112 -10.8145 -1.50372 94 91 109
25.1481 -10.9305 -1.50284 93 92 107
25.3844 -7.74495 -1.55817 113 113 133
25.3627 -7.82722 -1.55828 115 115 135
25.2863 -7.93733 -1.55552 121 121 136
25.2239 -8.00687 -1.55289 118 121 137
25.169 -8.07849 -1.55079 121 119 138
25.1017 -11.0058 -1.50196 94 92 109
25.0679 -11.0865 -1.50193 93 92 110
25.0321 -11.1663 -1.50178 93 90 109
25.472 5.2763 -1.73708 70 76 100
25.4697 5.19 -1.73562 67 75 96
25.4692 5.06145 -1.73371 69 75 99
25.4701 4.97607 -1.73253 70 78 99
25.4687 4.89034 -1.73121 71 77 99
25.4668 4.76209 -1.72931 69 77 98
25.4412 4.67232 -1.72624 71 77 100
25.431 4.58552 -1.72434 71 79 100
25.4127 4.49747 -1.72185 73 79 103
25.3931 4.3672 -1.71878 74 76 99
25.3918 4.28247 -1.71761 72 78 100
25.3843 4.19683 -1.71599 69 80 100
25.3829 4.07026 -1.71438 73 78 100
25.3963 3.98817 -1.71436 70 77 98
25.3799 3.90158 -1.71217 74 80 102
25.3574 3.77239 -1.7091 69 71 94
25.3916 3.69347 -1.71068 69 71 96
25.3782 3.60779 -1.70877 70 71 94
25.3878 3.48359 -1.70817 70 71 91
25.3816 3.39916 -1.70685 72 73 93
25.3633 3.31328 -1.70466 73 71 93
25.3447 3.22756 -1.70246 72 73 91
25.3643 3.10508 -1.70273 75 76 95
25.349 3.02006 -1.70083 72 73 94
25.3275 2.93449 -1.69849 76 78 101
25.3299 2.81035 -1.6976 75 77 100
25.3057 2.72486 -1.69511 76 79 102
25.2615 2.63755 -1.69117 75 78 101
25.3061 2.51813 -1.69348 77 78 102
25.3147 2.4363 -1.69346 80 81 105
25.2714 2.34974 -1.68967 77 82 103
25.2556 2.26592 -1.68791 71 78 94
22.8373 0.936482 -1.50476 70 69 90
22.7606 0.822512 -1.49878 37 35 52
22.7579 0.74855 -1.49833 36 35 51
23.0075 0.570253 -1.516 48 46 60
23.3065 0.502254 -1.53761 42 41 55
23.3984 0.428469 -1.54413 41 37 53
23.391 0.314681 -1.54338 38 34 48
23.3847 0.238854 -1.54278 35 31 46
23.3443 0.162808 -1.53971 35 31 43
25.1144 -8.19451 -1.54959 113 114 132
25.0722 -8.26983 -1.5484 107 110 125
25.0545 -8.353 -1.54889 105 106 122
24.9765 -11.2853 -1.50151 84 83 101
24.9382 -11.3639 -1.50124 84 81 98
24.8815 -11.4342 -1.49975 83 83 99
24.8065 -11.5442 -1.49825 83 82 99
25.3811 7.34857 -1.76746 69 75 97
25.3837 7.26051 -1.76585 69 77 97
25.386 7.17251 -1.76424 71 77 98
25.3991 7.04347 -1.76263 69 75 98
25.393 6.95354 -1.76043 70 76 98
25.3827 6.86271 -1.75795 69 75 100
25.3837 6.77502 -1.75634 68 74 98
25.3968 6.64681 -1.75487 71 77 101
25.3932 6.55827 -1.75297 70 78 99
25.4009 6.47271 -1.75194 70 78 99
25.4047 6.34276 -1.74989 71 77 99
25.402 6.25495 -1.74813 72 79 98
25.3991 6.16723 -1.74637 72 79 100
25.3995 6.03716 -1.74418 71 77 101
25.3997 5.95049 -1.74271 72 79 100
25.4054 5.86523 -1.74168 70 78 97
25.4089 5.77957 -1.7405 71 77 99
25.4307 5.65495 -1.74005 69 75 99
25.4316 5.5689 -1.73873 70 76 100
25.4458 5.48578 -1.73842 70 77 95
25.4741 5.36268 -1.73855 70 76 98
25.2569 2.1426 -1.68716 76 77 95
25.2425 2.05918 -1.68554 72 75 92
25.2396 1.97681 -1.6848 74 78 100
25.2236 1.85254 -1.68289 69 66 92
25.2381 1.77155 -1.68346 75 72 95
25.2224 1.6885 -1.68184 79 79 99
25.2309 1.5662 -1.68182 76 78 99
25.2325 1.48441 -1.68151 72 78 97
25.2239 1.40207 -1.68048 76 77 98
25.2409 1.28027 -1.68118 74 78 95
25.2277 1.19783 -1.67986 66 69 88
25.2202 1.11577 -1.67897 69 70 88
25.2386 0.748939 -1.67903 33 32 46
23.3734 0.0873533 -1.54173 37 36 50
23.4101 -0.0261591 -1.54432 33 32 50
23.4028 -0.101923 -1.54372 35 32 49
23.3992 -0.17766 -1.54341 35 32 49
23.4108 -0.291411 -1.54426 35 33 47
23.4126 -0.367219 -1.54439 30 29 45
23.3325 -0.441624 -1.53856 39 36 55
23.0005 -0.547634 -1.51445 37 34 53
22.8211 -0.691568 -1.5015 35 32 53
22.8164 -0.802358 -1.50133 35 33 48
22.8583 -0.877831 -1.5045 83 86 103
25.0138 -8.47329 -1.54873 86 87 106
24.9992 -8.55759 -1.54949 87 85 105
24.9693 -8.63677 -1.5492 83 80 98
24.9088 -8.70551 -1.54684 89 88 106
24.8514 -8.81983 -1.54564 87 85 106
24.7602 -11.619 -1.49749 83 81 102
24.7064 -11.6902 -1.49624 82 83 103
24.6286 -11.7983 -1.49462 82 80 101
25.3427 8.50525 -1.78997 67 73 99
25.3434 8.36929 -1.78691 70 78 101
25.3476 8.27996 -1.78516 69 77 100
25.3457 8.18888 -1.78296 69 77 100
25.3473 8.0991 -1.78106 70 78 100
25.3535 7.96603 -1.77858 71 77 100
25.3601 7.87816 -1.77711 73 78 100
25.374 7.79261 -1.77623 73 78 100
25.3596 7.65415 -1.77229 70 78 99
25.3708 7.56815 -1.77126 68 76 97
25.3761 7.4805 -1.7698 70 78 99
25.153 -0.676325 -1.67147 40 37 54
24.8056 -8.8932 -1.54432 84 83 101
24.7501 -8.96304 -1.54234 86 85 102
24.6765 -9.07101 -1.5401 88 86 99
24.6318 -9.1443 -1.53891 90 88 101
25.2168 9.51849 -1.80607 59 61 76
25.3203 9.46336 -1.81173 74 76 91
25.2953 9.13025 -1.80167 63 68 90
25.303 8.99493 -1.7989 66 75 96
25.3112 8.90585 -1.79729 66 75 95
25.2983 8.80977 -1.79408 66 76 96
25.3232 8.68114 -1.79276 66 75 95
25.317 8.58787 -1.79013 66 74 98
25.2032 -1.12571 -1.67586 85 85 109
25.1852 -1.32866 -1.67509 84 85 106
25.1657 -1.53137 -1.67432 87 86 108
25.1238 -1.61031 -1.67155 88 89 109
24.5794 -9.21465 -1.53719 96 92 109
24.5365 -9.33327 -1.53716 97 94 112
24.4836 -9.40312 -1.53545 103 100 116
24.4417 -9.47696 -1.53452 106 104 123
22.9227 10.3674 -1.6748 82 91 112
22.9614 10.2953 -1.67523 78 89 111
23.0286 10.1911 -1.67667 79 90 108
23.0686 10.1194 -1.67724 83 94 113
23.1285 10.056 -1.67941 89 97 120
23.2002 9.95318 -1.68129 52 60 83
23.3849 9.94089 -1.69334 49 60 79
23.6397 9.95622 -1.7109 66 73 92
23.8673 9.9588 -1.72629 65 74 91
24.1439 9.93429 -1.74429 58 71 87
24.396 9.9433 -1.76156 57 69 88
24.6614 9.95593 -1.77985 57 68 88
24.9483 9.92873 -1.79858 41 48 66
25.1902 9.92851 -1.81498 51 52 72
25.2164 9.84476 -1.81453 64 69 88
25.2875 9.73125 -1.81641 77 79 95
25.2962 9.64099 -1.81466 86 89 105
25.0896 -1.6895 -1.66935 84 82 104
25.106 -1.81266 -1.67106 86 85 106
24.3902 -9.59205 -1.53397 115 114 128
24.3663 -9.67271 -1.53433 118 117 131
24.3255 -9.74677 -1.53353 110 108 124
24.264 -9.81258 -1.53129 109 106 123
24.8796 -2.80857 -1.66023 80 78 99
24.8615 -2.88777 -1.65948 78 76 97
24.8109 -3.00373 -1.6567 77 75 96
24.8081 -3.08453 -1.65712 76 74 96
24.2091 -9.92596 -1.53061 107 105 124
24.149 -9.9919 -1.52851 101 100 114
24.0961 -10.0606 -1.52693 98 97 113
24.7695 -3.16094 -1.65492 71 71 91
24.7701 -3.24214 -1.65562 66 66 88
24.8087 -3.36904 -1.65951 75 82 102
24.6666 -3.43132 -1.64977 74 81 100
24.6369 -3.50821 -1.6483 76 81 100
24.6248 -3.62803 -1.64856 75 82 100
24.5885 -3.70377 -1.64666 75 81 103
24.5658 -3.78137 -1.64577 76 81 102
24.0308 -10.1692 -1.5256 92 93 110
23.9701 -10.2343 -1.52349 90 89 105
23.9074 -10.2983 -1.52126 86 85 101
23.8576 -10.4129 -1.5211 91 88 105
24.5249 -3.89664 -1.644 75 81 103
24.5153 -3.9761 -1.64412 75 83 104
24.4839 -4.05206 -1.64265 74 79 101
24.4522 -4.12786 -1.64118 74 80 102
24.4078 -4.24191 -1.63926 75 80 99
24.3678 -4.31596 -1.63721 72 79 98
23.7908 -10.4747 -1.51861 100 98 112
23.7366 -10.5417 -1.51702 92 89 106
23.6987 -10.6157 -1.51661 95 94 110
24.349 -4.39357 -1.63676 71 78 97
24.2897 -4.50437 -1.63383 72 77 99
24.2724 -4.58204 -1.63352 71 77 99
24.2313 -4.65526 -1.63146 72 78 99
24.1923 -4.76916 -1.63013 74 76 101
24.1487 -4.84153 -1.62793 72 78 98
23.6328 -10.7228 -1.51541 99 96 113
23.5743 -10.7875 -1.51356 92 90 108
23.5393 -10.8625 -1.51341 92 89 108
24.1108 -4.91483 -1.62617 73 77 100
24.057 -5.02519 -1.62382 76 78 99
24.0166 -5.0976 -1.62191 76 81 100
23.9935 -5.17347 -1.62131 75 80 99
23.9487 -5.24469 -1.61911 76 81 101
23.9071 -5.35678 -1.61778 77 77 101
23.4705 -10.9678 -1.51208 89 88 104
23.4186 -11.035 -1.51076 92 91 109
23.3793 -11.1079 -1.51034 95 96 111
23.3058 -11.2106 -1.50875 95 94 110
23.7157 4.97117 -1.73513 71 77 99
23.7398 4.8958 -1.73573 71 77 103
23.7128 4.81038 -1.7323 70 78 100
23.7007 4.68828 -1.72949 72 80 103
23.7063 4.60955 -1.7287 72 78 102
23.6862 4.52616 -1.72589 73 81 102
23.6854 4.4465 -1.72463 73 79 101
23.6891 4.32815 -1.72321 72 80 100
23.6857 4.24825 -1.7218 72 77 97
23.6702 4.16643 -1.71945 72 78 100
23.7061 4.05385 -1.72068 67 78 96
23.6743 3.96966 -1.71709 67 72 94
23.6874 3.89289 -1.71707 72 73 94
23.6865 3.77463 -1.7155 72 70 94
23.6695 3.69338 -1.71316 70 71 97
23.6719 3.61516 -1.71237 73 74 95
23.7013 3.50169 -1.71328 69 71 92
23.6991 3.42292 -1.71218 70 71 95
23.7244 3.34796 -1.71325 69 75 94
23.6901 3.26501 -1.70966 68 73 94
23.6922 3.14801 -1.70855 73 78 97
23.7087 3.07193 -1.709 74 76 100
23.7031 2.99314 -1.70774 74 78 103
23.7039 2.87625 -1.70664 77 82 103
23.676 2.79514 -1.70367 79 80 105
23.6577 2.71533 -1.70148 82 83 104
23.6293 2.59588 -1.6982 80 86 105
23.6421 2.51968 -1.69849 81 81 106
23.5991 2.43793 -1.69444 78 80 104
23.6091 2.32297 -1.69426 77 82 104
23.5933 2.24427 -1.69238 81 86 106
23.5871 2.16655 -1.69128 76 81 102
23.5489 2.08622 -1.68769 81 85 107
23.5692 1.97249 -1.68845 75 82 105
23.5422 1.8935 -1.68579 73 76 97
23.5489 1.81719 -1.68577 83 89 112
23.5162 1.69981 -1.68249 82 85 103
23.5321 1.62421 -1.68325 81 85 107
23.5439 1.54831 -1.6837 82 84 107
22.9231 0.912789 -1.63232 74 72 93
22.8263 0.797942 -1.62438 30 28 42
23.8599 -5.42706 -1.61544 78 79 100
23.8475 -5.50492 -1.61571 75 81 100
23.7464 -5.603 -1.61002 80 83 102
23.7004 -5.67287 -1.60783 77 79 100
23.695 -5.75209 -1.60867 80 84 102
23.6482 6.58049 -1.76008 71 79 98
23.6296 6.45215 -1.75602 70 76 100
23.6621 6.37847 -1.75694 70 76 98
23.6577 6.29523 -1.75491 70 76 98
23.6762 6.17711 -1.75396 71 75 101
23.6576 6.09068 -1.75084 71 77 101
23.6832 6.01533 -1.75129 69 76 101
23.6539 5.88607 -1.74662 70 76 98
23.6866 5.81253 -1.74769 70 76 102
23.6784 5.72934 -1.7455 68 74 100
23.7001 5.61272 -1.74502 67 79 95
23.6872 5.52883 -1.74252 67 75 96
23.7286 5.45715 -1.74437 68 76 99
23.6919 5.36827 -1.74 65 76 94
23.7255 5.25461 -1.74061 71 74 99
23.7173 5.1723 -1.73858 71 75 100
23.7147 5.09133 -1.73701 72 76 100
23.5557 1.43408 -1.68399 76 78 99
23.5509 1.35718 -1.6832 78 83 101
23.5539 1.28075 -1.68302 78 83 102
23.5924 1.20605 -1.68565 73 76 95
23.5907 1.09102 -1.685 67 69 88
23.5848 1.01416 -1.68421 67 68 86
22.8334 0.724024 -1.62467 26 25 44
23.566 0.669268 -1.68149 33 32 48
23.5697 0.554734 -1.68147 36 33 52
23.606 0.479001 -1.6841 33 34 47
23.6162 0.402636 -1.6847 32 34 47
23.6066 0.287748 -1.68375 34 31 49
23.6102 0.211277 -1.68388 36 33 50
23.5876 0.134687 -1.682 33 30 49
23.6743 -5.86816 -1.60908 82 83 103
23.6546 -5.94407 -1.60891 82 87 106
23.6232 -6.01705 -1.60788 84 85 105
23.578 -6.0865 -1.60582 83 83 105
23.5499 -6.2006 -1.6058 83 86 105
23.5967 7.60695 -1.77933 70 74 99
23.5945 7.52213 -1.77714 70 76 98
23.6171 7.40316 -1.77604 69 77 100
23.6124 7.31792 -1.7737 71 75 100
23.6016 7.23108 -1.77089 69 77 98
23.6439 7.11835 -1.7715 69 77 98
23.6113 7.02566 -1.76698 69 77 98
23.6283 6.94737 -1.7665 71 77 99
23.6327 6.82428 -1.76415 70 78 99
23.6336 6.74175 -1.76243 71 78 98
23.6266 6.65718 -1.76009 70 78 98
23.5927 0.0582706 -1.68229 34 33 51
23.5716 -0.0562896 -1.68056 35 34 50
23.5661 -0.132604 -1.68008 35 34 52
23.5564 -0.208841 -1.67928 34 31 50
23.54 -0.323078 -1.67802 33 35 50
23.5377 -0.399291 -1.67785 34 33 51
23.573 -0.476268 -1.68062 30 31 49
23.5673 -0.59068 -1.68029 35 32 51
23.1415 -0.6549 -1.6472 33 32 50
22.895 -0.722122 -1.62808 33 31 49
22.8655 -0.795355 -1.62589 30 31 48
23.0277 -0.913045 -1.63875 71 72 91
23.5022 -6.2691 -1.6036 76 82 98
23.464 -6.33988 -1.60213 75 80 100
23.427 -6.45136 -1.60152 75 81 103
23.4229 -6.53111 -1.60266 77 84 103
23.3877 -6.60247 -1.60148 76 83 105
