-3.31611 -3.29095 -1.76398 64 80 105
-4.20376 -2.11751 -1.79194 146 160 189
-4.18509 -2.09188 -1.78027 146 161 187
-4.20225 -2.085 -1.78573 148 161 187
-4.51563 -1.56264 -1.76842 68 84 110
-4.51791 -1.54821 -1.76767 68 82 109
-4.73548 -1.24239 -1.76944 72 89 119
-4.85639 -1.00038 -1.75356 78 95 124
-4.84586 -0.98269 -1.74845 81 96 125
-4.95526 -0.83889 -1.75221 76 63 79
-5.13037 -0.632504 -1.76111 96 81 67
-5.11843 -0.614857 -1.75623 101 94 77
-5.5794 -0.00624652 -1.7701 67 79 103
-2.07599 -4.94623 -1.73304 83 101 137
-2.2429 -4.69373 -1.73125 85 103 141
-2.4026 -4.40107 -1.71619 83 105 144
-2.46904 -4.29774 -1.71718 77 95 131
-2.48593 -4.29903 -1.72082 80 99 137
-2.69714 -4.06992 -1.74009 74 92 127
-2.88414 -3.76502 -1.7341 70 87 117
-2.89884 -3.74964 -1.73256 69 86 116
-3.24908 -3.3295 -1.7554 62 79 105
-3.25875 -3.31988 -1.75541 62 79 105
-3.26588 -3.30751 -1.75385 65 81 106
-4.19485 -2.05732 -1.77795 138 152 179
-4.2218 -2.05532 -1.78809 136 151 176
-4.2044 -2.0308 -1.7772 143 158 181
-4.52254 -1.52687 -1.76691 66 83 111
-4.53344 -1.51538 -1.76998 67 82 111
-4.74937 -1.22289 -1.77319 73 90 120
-4.74694 -1.20683 -1.77096 72 89 119
-4.84407 -0.958933 -1.74627 81 96 123
-4.96434 -0.824726 -1.7551 84 77 93
-2.2158 -4.68925 -1.72567 76 94 132
-2.38212 -4.42619 -1.72123 81 103 142
-2.3936 -4.41617 -1.71979 74 96 135
-2.45472 -4.30133 -1.71572 79 98 136
-2.66856 -4.07702 -1.73637 71 90 122
-2.68145 -4.0711 -1.73711 73 91 126
-2.87738 -3.77927 -1.73716 69 86 116
-3.21582 -3.3643 -1.75618 64 80 106
-3.21579 -3.34379 -1.74995 62 77 106
-3.22057 -3.3288 -1.74684 64 80 108
-4.21972 -2.01477 -1.78033 148 160 184
-4.22026 -1.9994 -1.778 103 117 144
-4.23065 -1.98891 -1.78035 25 38 73
-4.54256 -1.50325 -1.77229 68 83 112
-4.74983 -1.19219 -1.77098 74 91 121
-4.84252 -0.943111 -1.74483 80 94 121
-4.95811 -0.799975 -1.75153 74 69 80
-5.14734 -0.601859 -1.76675 98 91 73
-2.04714 -4.937 -1.72627 84 102 138
-2.4362 -4.31323 -1.71647 76 94 132
-2.64923 -4.08663 -1.73564 73 91 127
-2.85008 -3.78797 -1.73335 67 84 114
-2.87374 -3.79807 -1.74252 70 87 117
-3.1677 -3.38202 -1.74761 65 80 106
-3.18237 -3.37822 -1.75073 67 79 105
-3.19096 -3.36743 -1.74995 68 79 107
-4.22778 -1.97192 -1.77647 9 23 60
-4.24783 -1.95807 -1.78193 39 53 82
-4.24482 -1.94109 -1.77805 43 55 80
-4.554 -1.4841 -1.7746 68 83 112
-4.53843 -1.46387 -1.7662 69 84 113
-4.75813 -1.17113 -1.77248 73 90 120
-4.85004 -0.929012 -1.74704 79 94 122
-4.96525 -0.785435 -1.7537 73 71 77
-5.13994 -0.576549 -1.76327 95 83 73
-2.03244 -4.94256 -1.72628 84 103 135
-2.1787 -4.67899 -1.7166 74 94 129
-2.20847 -4.71089 -1.73197 80 100 137
-2.35811 -4.42763 -1.71766 81 103 142
-2.41767 -4.30841 -1.71136 75 95 133
-2.63355 -4.0876 -1.73266 75 93 129
-2.82197 -3.80811 -1.73337 72 89 117
-2.84035 -3.81077 -1.73871 68 85 115
-3.15095 -3.41506 -1.75306 65 81 107
-3.17829 -3.41506 -1.76084 67 81 107
-4.25674 -1.93122 -1.78118 41 56 73
-4.26498 -1.91164 -1.78119 42 53 76
-4.54917 -1.45222 -1.76927 69 84 113
-4.55637 -1.43939 -1.77082 70 85 114
-4.7609 -1.15645 -1.7725 73 90 120
-4.75105 -1.13862 -1.76729 75 90 121
-4.85023 -0.913525 -1.74632 83 94 122
-4.98521 -0.772935 -1.7609 74 74 77
-2.02265 -4.96226 -1.73173 81 100 133
-2.16844 -4.69364 -1.72011 75 93 129
-2.33811 -4.45421 -1.72342 73 95 134
-2.34659 -4.43754 -1.7191 82 104 145
-2.40669 -4.31845 -1.71283 78 100 139
-2.627 -4.10466 -1.73714 75 94 128
-2.8119 -3.81763 -1.73414 70 87 117
-3.1227 -3.42369 -1.7476 67 81 108
-3.15648 -3.44259 -1.76318 66 82 108
-4.27013 -1.89855 -1.78121 42 53 71
-4.27024 -1.88315 -1.77888 40 52 68
-4.28328 -1.86577 -1.78123 40 52 66
-4.57104 -1.42119 -1.77465 71 86 116
-4.7591 -1.1175 -1.7688 74 89 120
-4.84626 -0.88948 -1.74341 81 95 123
-4.96583 -0.746152 -1.7523 76 73 78
-2.00417 -4.95709 -1.72766 82 100 136
-2.14506 -4.69737 -1.71803 80 96 131
-2.3889 -4.33178 -1.71431 81 103 144
-2.59638 -4.12296 -1.73716 74 93 126
-2.60576 -4.11081 -1.73492 77 96 129
-2.7866 -3.84206 -1.73645 69 88 120
-2.79165 -3.82493 -1.73186 70 88 120
-3.10828 -3.48122 -1.76162 67 83 109
-3.09607 -3.44513 -1.74682 69 83 109
-3.13089 -3.46571 -1.76318 71 82 110
-4.29668 -1.8564 -1.78514 39 50 68
-4.30335 -1.84396 -1.78593 38 50 70
-4.55519 -1.40117 -1.76626 71 86 115
-4.5587 -1.3872 -1.76627 71 86 115
-4.75272 -1.10064 -1.76508 74 91 119
-4.85179 -0.874979 -1.74489 76 91 120
-4.8518 -0.859497 -1.74418 77 89 115
-4.97097 -0.731236 -1.75375 78 77 79
-1.98218 -4.96698 -1.72836 74 92 128
-2.13329 -4.70847 -1.72014 82 99 133
-2.31483 -4.45708 -1.72056 80 102 141
-2.37289 -4.33174 -1.71139 83 105 144
-2.58425 -4.1302 -1.73717 75 94 127
-2.77234 -3.8453 -1.73416 67 86 118
-3.05133 -3.48715 -1.7476 65 82 108
-3.06032 -3.47675 -1.74682 68 83 112
-3.07395 -3.47204 -1.74916 68 83 110
-3.64068 -2.67402 -1.75864 69 80 100
-3.64675 -2.66192 -1.75784 67 78 98
-3.67765 -2.62646 -1.76026 66 79 98
-4.30661 -1.83 -1.78517 38 51 70
-4.30931 -1.80795 -1.78285 39 52 71
-4.56962 -1.36781 -1.76858 71 88 118
-4.75708 -1.08639 -1.76584 74 91 121
-4.76141 -1.07213 -1.76661 74 91 121
-4.85306 -0.836434 -1.74346 79 90 114
-4.99263 -0.718785 -1.76168 80 79 75
-1.96916 -4.97767 -1.73041 75 94 129
-2.12007 -4.71605 -1.72084 76 95 128
-2.28616 -4.46469 -1.71843 85 105 144
-2.30318 -4.46687 -1.72201 83 105 145
-2.36261 -4.34332 -1.71359 83 105 144
-2.57478 -4.14229 -1.73942 73 93 128
-2.73977 -3.85857 -1.73112 70 87 117
-2.75706 -3.86011 -1.7357 71 87 118
-3.01849 -3.50074 -1.74293 71 87 113
-3.03653 -3.49032 -1.74448 68 84 110
-3.50724 -2.85817 -1.75935 68 80 105
-3.51254 -2.84527 -1.75775 68 80 105
-3.51496 -2.83001 -1.75456 64 76 101
-3.53023 -2.81647 -1.75616 64 79 104
-3.54246 -2.80933 -1.75857 66 78 103
-3.54472 -2.79403 -1.75538 66 78 102
-3.55974 -2.78911 -1.75938 65 77 101
-3.57486 -2.77531 -1.76098 64 78 101
-3.587 -2.76795 -1.76339 67 78 100
-3.59626 -2.75827 -1.7642 67 78 98
-3.6026 -2.73747 -1.761 65 78 97
-3.61466 -2.72997 -1.76341 67 78 98
-3.6122 -2.71121 -1.75782 69 80 100
-3.63574 -2.70375 -1.76422 68 79 99
-3.63751 -2.68833 -1.76103 69 77 96
-3.67604 -2.65848 -1.76744 69 82 101
-3.68351 -2.64736 -1.76745 67 80 99
-3.72918 -2.63882 -1.78186 67 78 96
-3.72766 -2.62109 -1.77707 70 81 99
-3.73353 -2.60873 -1.77628 70 81 99
-3.74492 -2.59175 -1.77628 70 81 99
-3.76268 -2.58778 -1.78189 66 78 98
-3.75493 -2.56586 -1.7739 67 81 104
-3.78016 -2.56702 -1.7835 62 77 103
-3.75663 -2.52591 -1.76512 76 95 128
-3.75764 -2.51037 -1.76193 124 142 171
-3.76616 -2.49999 -1.76274 137 154 181
-3.78007 -2.48488 -1.76434 134 152 183
-3.78853 -2.47441 -1.76515 133 151 187
-3.79542 -2.4629 -1.76516 133 150 182
-3.80919 -2.4476 -1.76677 137 154 187
-4.31583 -1.79544 -1.78364 35 46 65
-4.3274 -1.78509 -1.78677 80 85 92
-4.57125 -1.35327 -1.76783 70 87 117
-4.57461 -1.33923 -1.76784 70 87 117
-4.76192 -1.04924 -1.76513 73 90 120
-4.86576 -0.82307 -1.74787 83 90 115
-4.98587 -0.69408 -1.7581 83 82 67
-2.27296 -4.47098 -1.71844 81 100 139
-2.34467 -4.35645 -1.71507 80 102 141
-2.54814 -4.13835 -1.73272 77 95 132
-2.71521 -3.87084 -1.7296 73 89 122
-2.7295 -3.86784 -1.73189 74 90 123
-3.00029 -3.52125 -1.74449 68 82 109
-3.01397 -3.5168 -1.74682 71 86 115
-3.42049 -2.95082 -1.75531 63 75 99
-3.43625 -2.93786 -1.75691 66 78 102
-3.44186 -2.92514 -1.75532 66 78 102
-3.44742 -2.9124 -1.75373 64 78 104
-3.45845 -2.90446 -1.75533 61 75 101
-3.47819 -2.89485 -1.75933 62 76 102
-3.4892 -2.88679 -1.76094 62 76 102
-3.49599 -2.87512 -1.76014 62 76 102
-3.81754 -2.43701 -1.76758 136 155 188
-3.81969 -2.42241 -1.76519 137 156 190
-3.8295 -2.41278 -1.7668 138 157 190
-3.83225 -2.39037 -1.7628 144 163 195
-3.84971 -2.38555 -1.76841 150 169 200
-3.85789 -2.3748 -1.76922 146 166 199
-3.86663 -2.3562 -1.76843 146 166 201
-3.86534 -2.33961 -1.76444 149 169 202
-4.34003 -1.76729 -1.78912 64 62 75
-4.33286 -1.74895 -1.78368 42 48 65
-4.33919 -1.73634 -1.78447 42 52 67
-4.57289 -1.31612 -1.76479 69 86 116
-4.77878 -1.03781 -1.77112 72 91 121
-4.88211 -0.810221 -1.75374 81 87 113
-4.97979 -0.677473 -1.75524 88 83 71
-1.95254 -4.97763 -1.72839 78 97 130
-2.09733 -4.72126 -1.71947 78 94 128
-2.31747 -4.366 -1.71363 83 105 144
-2.32546 -4.34953 -1.70923 84 103 143
-2.52813 -4.16067 -1.73646 77 93 126
-2.54209 -4.15688 -1.73795 80 96 131
-2.97294 -3.54162 -1.74371 67 82 111
-2.99907 -3.5533 -1.75461 68 83 112
-3.36793 -3.00171 -1.75209 64 76 100
-3.38727 -3.00156 -1.75849 66 77 102
-3.38502 -2.98153 -1.7521 67 79 103
-3.4036 -2.97124 -1.7553 65 77 101
-3.40797 -2.95737 -1.75291 67 79 103
-3.89056 -2.33932 -1.77405 149 168 200
-3.88345 -2.31107 -1.76526 151 170 203
-3.89768 -2.30395 -1.76927 149 169 205
-3.90245 -2.29112 -1.76848 149 168 207
-3.89144 -2.26893 -1.75969 149 169 203
-4.34821 -1.71702 -1.78526 38 47 64
-4.35106 -1.70295 -1.7845 36 47 67
-4.58147 -1.3036 -1.7671 71 88 118
-4.59891 -1.29353 -1.77323 70 87 120
-4.78115 -1.02304 -1.77113 74 91 121
-4.86479 -0.784148 -1.74571 70 80 105
-4.97548 -0.661164 -1.75311 89 81 69
-1.93394 -4.99798 -1.73316 74 93 126
-2.08406 -4.72873 -1.72017 77 93 126
-2.25565 -4.48717 -1.72133 80 102 141
-2.30386 -4.37071 -1.71291 82 104 144
-2.50847 -4.16954 -1.73573 75 94 128
-2.68942 -3.89454 -1.73192 69 88 119
-2.71063 -3.90259 -1.73955 70 89 121
-2.95211 -3.57057 -1.74761 65 82 108
-2.97938 -3.57224 -1.75539 66 83 109
-3.31639 -3.06279 -1.75288 64 78 104
-3.32464 -3.04288 -1.74968 67 79 103
-3.33997 -3.03925 -1.75368 67 79 103
-3.35264 -3.03304 -1.75608 65 79 102
-3.35863 -3.02052 -1.75449 63 77 103
-3.91861 -2.26131 -1.7685 148 168 203
-3.92166 -2.2475 -1.76691 153 172 205
-3.92308 -2.23278 -1.76452 154 173 206
-3.93906 -2.21843 -1.76773 153 172 205
-4.35384 -1.68888 -1.78373 39 52 69
-4.35829 -1.67548 -1.78375 38 50 70
-4.59317 -1.27693 -1.76942 70 89 121
-4.78142 -1.00009 -1.76966 74 91 121
-4.87184 -0.769771 -1.74792 73 82 105
-4.9822 -0.646388 -1.75528 91 84 66
-1.91555 -4.99245 -1.7291 73 92 124
-2.07076 -4.73616 -1.72088 74 92 125
-2.22539 -4.49093 -1.71776 87 109 147
-2.24162 -4.49165 -1.72062 82 104 143
-2.49705 -4.17814 -1.73649 76 96 131
-2.6595 -3.91176 -1.73117 69 88 121
-2.67705 -3.90052 -1.73116 69 88 121
-2.93782 -3.59658 -1.75228 66 80 107
-2.95608 -3.5983 -1.75773 67 84 110
-3.26209 -3.11152 -1.74966 62 76 102
-3.26838 -3.09923 -1.74807 64 78 104
-3.28902 -3.10106 -1.75527 64 78 104
-3.2975 -3.08122 -1.75207 64 78 104
-3.31157 -3.07649 -1.75527 65 79 105
-3.95151 -2.21002 -1.77093 153 172 205
-3.95279 -2.19524 -1.76855 153 172 204
-3.96383 -2.178 -1.76935 151 170 203
-3.97942 -2.1712 -1.77416 152 171 203
-4.3756 -1.65941 -1.78844 47 57 78
-4.36624 -1.64058 -1.78222 33 45 68
-4.5947 -1.25478 -1.76791 69 88 120
-4.58705 -1.23778 -1.76334 72 88 118
-4.77823 -0.984138 -1.76743 74 91 121
-4.76774 -0.966678 -1.76222 75 90 120
-4.85315 -0.75149 -1.73989 72 81 99
-4.98063 -0.622576 -1.75386 92 86 61
-1.90009 -4.99579 -1.72843 74 93 126
-2.04462 -4.73237 -1.71601 70 89 122
-2.26973 -4.3831 -1.71147 81 103 142
-2.28417 -4.3802 -1.71292 84 105 143
-2.48732 -4.19 -1.73874 78 96 132
-2.65193 -3.92551 -1.73424 72 91 123
-2.92838 -3.6066 -1.75306 64 80 106
-3.24183 -3.15705 -1.75685 63 79 105
-3.24313 -3.13959 -1.75206 66 80 106
-3.25858 -3.13643 -1.75606 63 79 105
-3.98215 -2.15726 -1.77257 151 170 202
-3.9816 -2.14157 -1.76939 154 171 202
-3.99724 -2.12676 -1.7726 153 172 204
-3.99658 -2.11107 -1.76941 151 170 202
-4.37225 -1.6278 -1.78301 34 46 68
-4.38422 -1.60956 -1.78536 29 41 65
-4.59004 -1.22368 -1.76335 71 87 119
-4.86378 -0.737648 -1.74357 74 86 102
-4.98723 -0.607736 -1.75603 93 87 64
-2.20646 -4.50348 -1.71921 84 106 145
-2.25918 -4.39439 -1.71368 82 104 143
-2.47008 -4.2036 -1.74024 81 99 135
-2.6366 -3.92661 -1.73119 71 90 122
-2.88328 -3.62582 -1.74761 67 82 111
-2.91019 -3.63972 -1.75929 67 83 109
-2.90554 -3.61046 -1.74839 67 83 109
-3.19145 -3.19078 -1.75125 63 79 104
-3.19934 -3.17998 -1.75045 64 80 106
-3.21737 -3.1797 -1.75605 63 79 105
-3.2225 -3.15617 -1.75045 64 78 104
-4.00394 -2.09969 -1.77022 151 172 202
-4.0113 -2.08044 -1.76943 153 171 201
-4.01859 -2.06899 -1.77024 157 174 204
-4.03071 -2.06005 -1.77345 158 175 205
-4.3712 -1.58955 -1.77759 24 39 60
-4.38223 -1.57867 -1.78072 32 45 67
-4.59488 -1.20251 -1.76336 69 88 120
-4.59956 -1.18884 -1.76414 72 89 119
-4.78589 -0.947569 -1.76821 73 88 119
-4.87365 -0.715854 -1.74651 74 81 94
-5.01412 -0.595397 -1.76611 92 86 64
-1.87561 -4.99801 -1.72641 75 94 126
-2.04522 -4.77642 -1.7314 72 91 124
-2.19382 -4.51122 -1.71994 83 105 145
-2.43528 -4.19734 -1.73131 78 97 137
-2.45349 -4.20216 -1.73652 79 99 136
-2.60648 -3.94336 -1.73044 72 91 123
-2.62369 -3.94556 -1.73502 69 88 120
-2.87873 -3.6548 -1.75618 68 83 112
-3.16 -3.22503 -1.75204 67 81 108
-3.1655 -3.21166 -1.74965 65 79 105
-3.18227 -3.21026 -1.75445 65 79 105
-4.04603 -2.04484 -1.77666 156 173 203
-4.04995 -2.03161 -1.77587 158 175 205
-4.05053 -2.01671 -1.77348 155 172 202
-4.39744 -1.56159 -1.78463 37 48 71
-4.60955 -1.17652 -1.76722 71 89 119
-4.8152 -0.938319 -1.77943 74 89 120
-4.87132 -0.700081 -1.74506 77 84 97
-4.98456 -0.568128 -1.75391 96 89 63
-1.86238 -5.00839 -1.72846 73 92 124
-2.02452 -4.76446 -1.72442 72 91 123
-2.18047 -4.5172 -1.71995 81 103 142
-2.23708 -4.39859 -1.7115 82 104 143
-2.42541 -4.20903 -1.73355 82 101 141
-2.60529 -3.96812 -1.73886 70 89 121
-2.84339 -3.65193 -1.74606 67 82 111
-2.85301 -3.64216 -1.74528 68 83 112
-3.13382 -3.24561 -1.75044 61 77 103
-3.14065 -3.23364 -1.74884 62 79 105
-4.04942 -2.00101 -1.7703 153 170 200
-4.06452 -1.98561 -1.77351 160 176 202
-4.06987 -1.97314 -1.77352 159 173 199
-4.4015 -1.54804 -1.78464 33 45 68
-4.40377 -1.53384 -1.78388 47 59 81
-4.60162 -1.15211 -1.76188 69 88 120
-4.87446 -0.685073 -1.74581 79 84 96
-4.98544 -0.552557 -1.75393 101 90 64
-1.84356 -5.00078 -1.72372 75 94 126
-2.01694 -4.78749 -1.73142 71 90 122
-2.15573 -4.51574 -1.71566 83 105 145
-2.21121 -4.41078 -1.71152 83 103 140
-2.22567 -4.40809 -1.71297 80 102 141
-2.5843 -3.95945 -1.73122 71 90 122
-2.82689 -3.66427 -1.74606 71 86 115
-3.09192 -3.2683 -1.74484 64 80 106
-3.11753 -3.26679 -1.75204 66 80 107
-3.1294 -3.26028 -1.75364 64 78 105
-4.07519 -1.96064 -1.77353 161 177 203
-4.08023 -1.94028 -1.77194 153 168 195
-4.40773 -1.52026 -1.78389 42 57 79
-4.41055 -1.49864 -1.78235 54 68 94
-4.6205 -1.14193 -1.76877 69 88 120
-4.59626 -1.12117 -1.75732 71 88 121
-4.87305 -0.661685 -1.74437 80 83 93
-5.00293 -0.538878 -1.76042 103 90 79
-1.99525 -4.79566 -1.73144 69 89 124
-2.14515 -4.52851 -1.71854 82 104 143
-2.3964 -4.23064 -1.73582 78 100 139
-2.4113 -4.229 -1.73805 82 101 141
-2.55762 -3.98216 -1.73354 75 94 126
-2.56276 -3.96383 -1.72818 75 94 126
-2.80327 -3.67756 -1.74451 68 83 114
-2.83091 -3.6936 -1.75697 69 84 113
-3.0608 -3.30279 -1.74644 66 80 106
-3.08035 -3.29471 -1.74963 68 80 107
-3.09226 -3.28834 -1.75124 66 80 107
-4.08874 -1.92932 -1.77355 155 170 197
-4.09225 -1.91598 -1.77276 151 164 190
-4.10039 -1.89711 -1.77278 149 159 185
-4.42482 -1.48868 -1.78704 55 69 95
-4.41995 -1.47202 -1.78316 62 77 100
-4.61505 -1.1109 -1.76422 72 89 119
-4.87422 -0.646417 -1.74438 78 79 86
-1.8314 -5.01466 -1.72713 74 93 125
-1.96575 -4.75884 -1.71468 73 93 128
-2.13105 -4.5326 -1.71783 84 105 144
-2.19208 -4.42151 -1.71227 80 102 140
-2.37827 -4.22555 -1.7306 75 97 136
-2.54229 -3.98284 -1.73049 76 95 127
-2.77686 -3.69927 -1.74529 68 83 112
-2.80189 -3.69932 -1.75152 66 83 113
-3.0405 -3.31938 -1.74564 67 81 108
-3.0597 -3.32146 -1.75203 68 82 109
-3.52707 -2.67697 -1.76317 66 78 100
-3.55488 -2.65736 -1.76809 68 79 97
-3.57542 -2.63182 -1.76892 67 80 99
-3.59436 -2.63007 -1.77547 64 76 98
-3.5859 -2.60702 -1.76647 65 77 99
-3.60749 -2.58231 -1.76812 69 80 100
-3.62785 -2.58138 -1.77549 68 79 97
-3.62343 -2.56173 -1.76895 69 82 100
-3.64634 -2.55411 -1.7755 64 76 98
-3.63884 -2.53232 -1.76733 66 79 102
-3.65398 -2.5028 -1.7657 132 149 179
-4.11211 -1.88758 -1.77599 153 163 188
-4.12048 -1.87647 -1.7776 146 158 180
-4.12382 -1.86304 -1.77681 141 153 175
-4.4173 -1.44859 -1.77928 70 85 108
-4.65354 -1.09761 -1.77876 72 89 119
-4.86796 -0.630223 -1.74148 89 92 96
-4.97677 -0.5124 -1.74966 83 75 77
-1.95736 -4.77998 -1.72098 77 95 131
-2.11763 -4.53838 -1.71784 82 102 142
-2.17536 -4.41896 -1.70862 78 100 139
-2.36075 -4.23866 -1.73211 79 100 140
-2.52709 -3.99823 -1.7328 72 91 124
-2.75923 -3.72137 -1.74841 68 85 114
-2.77219 -3.71643 -1.74997 64 79 108
-3.01589 -3.36168 -1.75203 67 81 108
-3.01962 -3.34583 -1.74804 67 81 108
-3.02927 -3.33694 -1.74804 67 81 108
-3.41784 -2.81436 -1.76148 62 76 99
-3.43269 -2.81019 -1.76557 65 77 101
-3.45306 -2.81074 -1.77294 66 78 100
-3.4461 -2.77862 -1.76149 67 78 100
-3.46922 -2.7814 -1.77049 66 78 100
-3.45625 -2.75332 -1.75823 66 78 102
-3.49209 -2.75783 -1.77214 63 75 99
-3.4943 -2.74272 -1.76887 64 76 100
-3.49504 -2.72645 -1.76479 66 78 100
-3.51963 -2.72996 -1.77461 67 79 101
-3.51469 -2.7003 -1.76479 64 76 100
-3.53788 -2.70246 -1.7738 65 77 101
-3.56161 -2.67938 -1.77626 67 80 99
-3.57813 -2.65916 -1.77709 67 80 98
-3.61059 -2.60961 -1.7763 66 78 100
-3.66211 -2.53325 -1.77634 63 78 106
-3.68319 -2.50782 -1.77799 133 150 179
-3.67685 -2.48718 -1.77063 133 150 179
-3.69272 -2.48246 -1.77555 133 151 182
-3.7125 -2.47209 -1.78046 136 154 185
-3.69848 -2.44626 -1.76901 136 154 185
-3.7143 -2.44137 -1.77393 140 158 189
-3.73095 -2.42871 -1.77721 146 165 197
-3.72567 -2.40923 -1.77067 147 166 198
-3.74897 -2.40927 -1.77968 147 166 199
-3.74129 -2.38009 -1.76987 146 166 200
-4.13671 -1.84626 -1.77922 147 155 173
-4.13826 -1.83204 -1.77763 66 74 110
-4.42622 -1.43672 -1.78163 64 79 102
-4.42464 -1.42131 -1.77931 75 89 112
-4.97006 -0.496061 -1.7468 72 72 76
-2.09905 -4.55216 -1.72002 78 97 130
-2.15009 -4.43245 -1.70938 82 102 139
-2.16385 -4.42829 -1.7101 79 98 138
-2.35386 -4.25684 -1.73735 78 100 139
-2.51084 -3.99718 -1.72898 72 91 124
-2.73832 -3.72715 -1.7453 69 85 114
-2.98405 -3.3753 -1.74724 63 79 105
-2.99908 -3.36212 -1.74723 64 80 106
-3.34657 -2.88981 -1.75818 61 76 99
-3.36554 -2.88976 -1.76473 62 74 98
-3.38049 -2.88592 -1.76882 64 76 100
-3.37971 -2.85859 -1.76064 61 75 101
-3.40005 -2.85953 -1.76801 62 77 100
-3.41225 -2.85307 -1.77047 64 79 102
-3.41354 -2.83685 -1.76638 62 77 100
-3.78886 -2.39616 -1.79197 147 165 201
-3.78378 -2.3217 -1.77318 147 167 202
-3.79942 -2.31619 -1.7781 149 168 201
-3.81099 -2.29993 -1.77892 151 170 202
-3.79422 -2.27379 -1.76666 150 170 203
-4.13979 -1.81782 -1.77605 12 24 59
-4.14576 -1.79797 -1.77526 35 50 79
-4.43571 -1.40253 -1.78166 74 89 115
-4.88289 -0.608881 -1.74662 92 94 101
-4.87283 -0.592283 -1.74224 94 94 93
-4.9874 -0.482237 -1.75329 94 99 106
-1.93633 -4.78963 -1.7217 76 95 129
-2.08489 -4.55609 -1.71931 79 97 133
-2.33419 -4.24819 -1.73064 83 105 144
-2.50365 -4.01219 -1.73281 75 94 127
-2.71437 -3.7398 -1.74375 67 82 111
-2.72533 -3.73196 -1.74375 71 86 115
-2.97151 -3.40123 -1.75203 64 80 106
-2.99304 -3.4066 -1.76003 64 80 106
-3.30675 -2.94157 -1.75981 64 78 104
-3.33564 -2.94192 -1.76962 64 78 104
-3.34139 -2.92952 -1.76799 65 79 104
-3.35106 -2.92086 -1.76881 64 77 101
-3.82832 -2.27977 -1.7814 148 167 199
-3.82114 -2.25181 -1.7724 150 169 201
-3.83512 -2.24503 -1.7765 153 169 202
-3.8522 -2.24009 -1.78224 153 169 202
-3.83187 -2.21231 -1.76834 155 172 202
-4.15725 -1.78811 -1.77847 35 52 75
-4.15693 -1.77314 -1.77609 53 63 81
-4.4375 -1.38826 -1.78089 70 86 111
-4.45327 -1.3785 -1.78636 74 90 115
-4.87193 -0.576793 -1.74153 90 90 96
-4.98802 -0.466645 -1.75331 106 112 124
-1.91843 -4.78423 -1.71752 82 101 134
-2.06871 -4.55476 -1.71645 82 100 136
-2.13081 -4.44289 -1.71013 81 101 138
-2.31653 -4.26109 -1.73215 79 101 140
-2.47201 -4.02618 -1.73131 77 95 131
-2.4829 -4.0177 -1.73054 73 91 127
-2.70247 -3.75922 -1.74765 65 82 110
-2.92498 -3.41726 -1.74404 65 79 106
-2.94062 -3.4158 -1.74804 64 80 106
-2.96673 -3.42704 -1.75923 66 80 109
-3.28638 -3.00322 -1.77125 65 79 105
-3.27485 -2.96443 -1.7557 66 80 106
-3.30429 -2.97505 -1.7688 67 78 106
-3.31805 -2.97032 -1.77207 67 82 107
-3.86174 -2.20713 -1.77898 155 172 202
-3.85372 -2.18701 -1.77163 149 170 201
-3.86286 -2.17719 -1.77328 150 169 201
-3.87695 -2.16239 -1.77574 153 172 202
-3.88289 -2.15063 -1.77575 156 174 205
-4.16606 -1.75464 -1.7769 47 56 71
-4.18422 -1.74747 -1.78331 47 55 70
-4.18206 -1.73176 -1.78012 68 69 74
-4.44796 -1.36195 -1.78248 72 88 115
-4.87837 -0.562124 -1.74374 69 71 83
-4.99115 -0.443424 -1.75404 107 113 122
-1.90182 -4.7823 -1.71473 80 99 132
-2.11632 -4.44523 -1.70867 87 107 144
-2.30554 -4.27078 -1.73365 82 101 141
-2.4611 -4.03462 -1.73208 76 94 130
-2.67339 -3.76385 -1.7422 68 85 115
-2.68642 -3.75924 -1.74376 69 86 116
-2.91541 -3.43722 -1.74804 66 80 107
-3.2418 -3.04143 -1.76797 66 81 104
-3.24537 -3.02668 -1.7647 67 79 103
-3.26007 -3.01357 -1.76551 65 79 105
-3.27387 -3.00907 -1.76879 66 80 106
-3.43053 -2.74025 -1.76202 63 75 99
-3.44808 -2.73819 -1.76782 66 78 102
-3.44739 -2.721 -1.76286 65 77 101
-3.46638 -2.71137 -1.767 66 78 102
-3.46273 -2.69188 -1.76038 67 79 101
-3.48165 -2.69071 -1.76701 64 76 98
-3.47496 -2.66039 -1.75625 67 79 101
-3.50955 -2.67153 -1.77198 66 78 100
-3.50277 -2.64981 -1.76371 63 75 97
-3.53601 -2.65956 -1.77861 66 78 100
-3.52323 -2.62477 -1.76455 66 79 99
-3.5479 -2.62759 -1.77448 66 79 100
-3.53362 -2.6004 -1.76208 64 76 98
-3.54501 -2.58457 -1.76208 67 79 101
-3.56533 -2.58384 -1.76953 67 79 101
-3.56675 -2.56882 -1.76623 69 81 99
-3.59553 -2.56583 -1.77616 68 79 97
-3.58659 -2.54321 -1.76707 64 77 96
-3.60105 -2.53785 -1.77121 67 80 99
-3.59492 -2.51745 -1.76377 69 81 103
-3.61918 -2.51086 -1.77122 50 67 95
-3.61732 -2.49367 -1.76626 124 144 176
-3.63912 -2.49337 -1.77454 130 149 183
-3.6351 -2.46654 -1.76627 132 149 183
-3.65242 -2.46294 -1.77207 136 155 188
-3.65032 -2.44576 -1.76712 134 154 189
-3.66396 -2.43139 -1.76877 147 166 201
-3.66322 -2.41527 -1.76464 148 167 200
-3.68802 -2.41652 -1.77458 147 166 198
-3.68718 -2.40036 -1.77045 145 164 198
-3.69513 -2.36661 -1.7655 145 165 199
-3.9014 -2.14616 -1.7823 157 172 203
-3.90905 -2.12749 -1.78149 158 175 205
-3.91646 -2.11653 -1.78232 155 172 202
-3.91271 -2.09926 -1.77742 154 173 205
-4.18152 -1.71678 -1.77774 89 88 93
-4.19888 -1.70157 -1.78255 61 58 72
-4.43769 -1.33638 -1.77549 72 86 112
-4.44983 -1.32539 -1.7794 70 84 111
-4.9972 -0.428324 -1.75622 117 123 131
-2.04934 -4.56658 -1.7179 82 102 138
-2.10824 -4.46295 -1.7138 88 107 146
-2.28832 -4.26695 -1.72919 80 102 141
-2.44313 -4.03002 -1.72674 74 92 128
-2.67122 -3.78551 -1.74921 70 87 120
-2.88433 -3.46121 -1.74724 66 82 108
-2.89208 -3.44989 -1.74564 65 81 107
-2.90204 -3.44143 -1.74564 63 79 105
-3.18287 -3.0644 -1.75569 64 78 104
-3.20686 -3.07077 -1.76551 63 78 103
-3.21694 -3.06262 -1.76633 65 80 103
-3.23052 -3.04837 -1.76633 66 81 104
-3.34591 -2.82847 -1.75703 63 77 103
-3.36793 -2.82202 -1.76283 64 78 104
-3.38277 -2.81802 -1.76697 64 79 102
-3.37703 -2.79607 -1.7587 64 78 104
-3.38657 -2.77867 -1.75704 64 76 100
-3.40689 -2.77926 -1.76449 63 75 99
-3.40506 -2.76091 -1.75871 68 80 102
-3.4226 -2.75901 -1.7645 65 80 101
-3.70064 -2.38576 -1.77211 145 165 200
-3.71841 -2.36649 -1.77461 148 166 202
-3.71799 -2.34277 -1.76882 147 166 199
-3.73977 -2.34145 -1.77711 146 166 201
-3.73553 -2.32332 -1.77132 144 166 203
-3.75173 -2.31035 -1.77464 144 164 199
-3.76428 -2.30293 -1.77795 149 169 202
-3.75059 -2.27904 -1.76721 149 170 201
-3.92638 -2.09184 -1.78152 154 173 203
-3.94016 -2.07659 -1.78399 155 173 203
-3.92503 -2.0532 -1.77336 155 171 202
-4.19995 -1.68725 -1.78096 43 44 58
-4.44962 -1.31056 -1.77785 71 84 116
-4.87638 -0.538779 -1.74229 54 58 84
-4.98654 -0.411708 -1.75192 125 129 140
-1.88257 -4.79699 -1.71755 71 90 123
-2.03647 -4.57383 -1.71863 79 99 134
-2.08881 -4.47318 -1.71456 84 104 144
-2.27804 -4.27823 -1.73144 77 99 138
-2.42845 -4.0466 -1.72981 73 92 129
-2.64622 -3.78451 -1.74299 68 87 119
-2.8543 -3.47635 -1.74405 66 81 110
-2.86435 -3.46801 -1.74405 64 79 108
-3.15504 -3.11957 -1.76386 65 80 106
-3.16273 -3.10896 -1.76305 64 79 105
-3.17164 -3.09965 -1.76305 63 79 105
-3.19045 -3.09091 -1.76632 66 80 106
-3.30327 -2.90206 -1.76363 62 76 102
-3.30347 -2.88492 -1.75867 67 80 103
-3.31301 -2.87639 -1.7595 62 77 100
-3.32254 -2.86782 -1.76033 63 77 100
-3.33789 -2.8555 -1.76199 66 78 102
-3.35821 -2.85653 -1.76944 63 77 103
-3.75687 -2.26775 -1.76721 149 169 202
-3.76823 -2.25171 -1.76805 150 169 201
-3.76821 -2.23656 -1.76475 154 173 205
-3.75415 -2.21293 -1.754 151 170 202
-3.94183 -2.04738 -1.7791 155 172 202
-3.95703 -2.03287 -1.78238 155 172 202
-3.96575 -2.02255 -1.78403 156 173 201
-4.22989 -1.68449 -1.79297 54 57 72
-4.2335 -1.66356 -1.79138 40 48 63
-4.45315 -1.28939 -1.77709 70 85 115
-4.45105 -1.27404 -1.77477 70 86 117
-4.91412 -0.52726 -1.75695 62 67 91
-1.87078 -4.8091 -1.72036 78 96 132
-2.01836 -4.56706 -1.71362 76 96 129
-2.07216 -4.47021 -1.71091 80 102 139
-2.2625 -4.29595 -1.73519 82 103 142
-2.42092 -4.06144 -1.73364 77 93 127
-2.62784 -3.80588 -1.74611 69 88 120
-2.65073 -3.81708 -1.75545 66 85 117
-2.84979 -3.49193 -1.74805 67 82 111
-3.1181 -3.14643 -1.76059 60 74 101
-3.1296 -3.13996 -1.76223 61 77 102
-3.13243 -3.12406 -1.75814 63 79 105
-3.26709 -2.92973 -1.75949 66 80 106
-3.27542 -2.9201 -1.75949 62 77 101
-3.28107 -2.90795 -1.75784 63 78 102
-3.97123 -2.01049 -1.78404 155 171 204
-3.96853 -1.98642 -1.77832 157 174 204
-3.97713 -1.97603 -1.77997 160 175 204
-4.24467 -1.65315 -1.7946 39 51 65
-4.24555 -1.63873 -1.79301 38 47 62
-4.45418 -1.26027 -1.77478 69 86 116
-4.88898 -0.509273 -1.74672 63 70 91
-4.99683 -0.389082 -1.75554 108 112 134
-1.86425 -4.83714 -1.72946 80 98 135
-2.0597 -4.4775 -1.71165 79 98 136
-2.24832 -4.2987 -1.7337 81 103 142
-2.40644 -4.06318 -1.73136 78 96 133
-2.61156 -3.81871 -1.7469 68 87 119
-2.82289 -3.51112 -1.74725 65 80 111
-2.82973 -3.4985 -1.74485 65 80 109
-3.10348 -3.17868 -1.76632 64 78 105
-3.09425 -3.14928 -1.75405 62 78 104
-3.21292 -2.98438 -1.75783 68 80 104
-3.23576 -2.98891 -1.76693 64 78 104
-3.23328 -2.95944 -1.757 64 78 104
-3.2614 -2.96882 -1.76942 66 80 106
-3.26724 -2.95669 -1.76777 67 82 105
-3.99866 -1.97231 -1.78816 159 175 204
-3.98453 -1.95013 -1.77835 155 172 202
-4.00096 -1.93605 -1.78245 157 174 204
-3.99313 -1.9173 -1.77592 159 176 206
-4.25236 -1.61906 -1.79302 37 49 65
-4.25828 -1.60657 -1.79384 37 49 65
-4.8849 -0.485731 -1.74454 86 97 110
-4.99343 -0.373148 -1.75412 103 112 132
-1.84994 -4.8421 -1.72947 75 94 129
-2.00468 -4.5944 -1.72154 83 101 137
-2.23188 -4.29631 -1.72998 77 99 138
-2.37362 -4.07467 -1.72909 77 98 136
-2.38897 -4.0747 -1.73214 76 97 137
-2.5843 -3.82572 -1.74301 70 89 121
-2.59457 -3.81674 -1.74223 68 87 119
-2.79475 -3.5286 -1.74566 64 79 110
-2.8105 -3.51638 -1.74565 63 78 109
-3.05035 -3.18702 -1.75241 64 78 104
-3.07785 -3.18862 -1.7614 64 78 105
-3.08703 -3.1796 -1.76141 65 79 106
-3.17124 -3.02397 -1.75617 61 76 99
-3.19658 -3.03141 -1.76693 63 77 103
-3.1945 -3.00192 -1.757 66 81 104
-3.21474 -3.00404 -1.76445 66 78 102
-4.01788 -1.91491 -1.78575 158 175 205
-4.02437 -1.89573 -1.78494 155 174 204
-4.259 -1.59213 -1.79225 35 47 63
-4.26311 -1.57897 -1.79227 36 48 64
-4.87996 -0.46989 -1.74237 109 121 134
-4.99 -0.357231 -1.7527 80 87 108
-1.97111 -4.58753 -1.71438 82 100 136
-1.98915 -4.5945 -1.7194 84 102 138
-2.04018 -4.4875 -1.7124 83 102 142
-2.20873 -4.29685 -1.72627 79 101 140
-2.36083 -4.07951 -1.72834 79 99 136
-2.56506 -3.8336 -1.74146 75 94 127
-2.77099 -3.54034 -1.74326 67 82 111
-2.78125 -3.53228 -1.74326 65 80 109
-3.0427 -3.21719 -1.75977 64 80 106
-3.06158 -3.21928 -1.76632 64 78 104
-3.13156 -3.06549 -1.75617 66 80 107
-3.14794 -3.06416 -1.76113 65 79 105
-3.15543 -3.05362 -1.76031 64 78 104
-3.17023 -3.04103 -1.76113 66 81 104
-3.91289 -2.05617 -1.78556 153 169 202
-3.92651 -2.0486 -1.78971 154 171 201
-3.93207 -2.0367 -1.78972 155 172 202
-4.01799 -1.87784 -1.77922 154 172 202
-4.03943 -1.87356 -1.78742 156 173 203
-4.27309 -1.56046 -1.79388 36 47 65
-4.27882 -1.54787 -1.79469 37 48 65
-4.99818 -0.334342 -1.75559 80 86 108
-1.83147 -4.86012 -1.73369 76 95 128
-2.02766 -4.49469 -1.71315 82 104 143
-2.19606 -4.30281 -1.72628 80 102 141
-2.33576 -4.07597 -1.72224 77 99 138
-2.56604 -3.86149 -1.75159 70 89 122
-2.76393 -3.55281 -1.74566 69 84 113
-2.999 -3.23558 -1.75241 63 80 106
-3.02493 -3.24624 -1.76386 65 81 107
-3.03666 -3.24017 -1.7655 62 77 103
-3.10394 -3.10134 -1.75865 66 81 104
-3.10407 -3.08301 -1.75286 64 78 104
-3.1242 -3.08578 -1.76031 61 77 103
-3.94725 -2.02985 -1.79469 160 175 204
-3.92524 -1.99595 -1.77898 157 174 202
-3.92418 -1.98071 -1.77568 157 172 203
-3.93923 -1.97378 -1.78066 159 176 206
-4.04737 -1.85507 -1.78743 160 175 204
-4.05727 -1.84507 -1.7899 158 173 202
-4.05396 -1.82879 -1.78582 156 171 199
-4.27763 -1.53279 -1.79231 35 46 64
-4.93048 -0.458963 -1.76214 105 118 134
-4.97974 -0.317404 -1.74842 64 67 93
-1.81247 -4.85072 -1.72811 71 90 123
-1.96062 -4.60156 -1.71798 82 100 136
-2.01511 -4.50184 -1.71389 84 103 143
-2.20239 -4.35303 -1.7457 82 102 139
-2.33045 -4.09555 -1.72837 77 99 138
-2.53207 -3.857 -1.74225 70 89 122
-2.54904 -3.85928 -1.74692 68 87 120
-2.74192 -3.5787 -1.74887 68 83 112
-2.74587 -3.56182 -1.74407 65 80 109
-2.99271 -3.27834 -1.76468 65 81 107
-2.99394 -3.25983 -1.75896 63 79 105
-3.06601 -3.12619 -1.75451 64 77 104
-3.07993 -3.12257 -1.75782 63 77 104
-3.08507 -3.09976 -1.75203 65 78 103
-3.93465 -1.94927 -1.77404 153 171 202
-3.94153 -1.93814 -1.77488 158 175 205
-3.9337 -1.91969 -1.76827 156 173 203
-4.06378 -1.81873 -1.78828 157 171 200
-4.07477 -1.80164 -1.78993 149 161 184
-4.28395 -1.51294 -1.79232 37 48 66
-4.28435 -1.49848 -1.79073 34 47 66
-4.9169 -0.434503 -1.75631 115 124 136
-1.94095 -4.61288 -1.71944 76 94 130
-2.00252 -4.50895 -1.71463 82 101 141
-2.31596 -4.09693 -1.72608 79 98 138
-2.52015 -3.87734 -1.74693 69 88 122
-2.72409 -3.57617 -1.74327 70 85 114
-2.97371 -3.29571 -1.76468 63 79 105
-2.98206 -3.28564 -1.76386 65 81 107
-3.04672 -3.15248 -1.757 62 78 104
-3.06931 -3.14853 -1.76278 65 79 106
-3.95654 -1.90899 -1.77573 157 174 204
-3.96494 -1.89857 -1.77739 157 174 204
-3.96838 -1.88572 -1.77658 157 174 204
-4.07791 -1.78844 -1.78912 147 158 177
-4.06771 -1.76918 -1.78177 155 165 184
-4.28469 -1.48403 -1.78915 35 48 67
-4.29946 -1.46708 -1.79316 39 50 68
-4.92292 -0.419502 -1.75852 106 114 127
-4.98357 -0.302056 -1.74988 42 45 67
-1.79982 -4.86085 -1.73022 72 91 123
-1.92605 -4.6145 -1.71802 74 92 130
-1.97953 -4.51 -1.71173 74 93 133
-2.15401 -4.33017 -1.72931 78 100 139
-2.18269 -4.36191 -1.74572 79 100 139
-2.30475 -4.10488 -1.72686 79 97 135
-2.50874 -3.88449 -1.74693 69 88 121
-2.68299 -3.59752 -1.74008 67 82 111
-2.69657 -3.59426 -1.74248 66 81 110
-2.71017 -3.59095 -1.74488 65 80 109
-2.93519 -3.32012 -1.76141 64 80 106
-2.94477 -3.31158 -1.76141 63 80 106
-2.96242 -3.31289 -1.76714 66 83 109
-3.01561 -3.18471 -1.75783 65 79 106
-3.03097 -3.17288 -1.75865 62 76 103
-3.04129 -3.16539 -1.75948 62 77 106
-3.97998 -1.87681 -1.7799 158 175 203
-3.97479 -1.85241 -1.77329 157 172 201
-4.10177 -1.76249 -1.79488 29 34 68
-4.10311 -1.74846 -1.79325 45 50 83
-4.08604 -1.72634 -1.78262 49 59 75
-4.30491 -1.45436 -1.79397 37 50 67
-4.27381 -1.42945 -1.77799 38 49 67
-4.92333 -0.404036 -1.75854 113 121 132
-4.99521 -0.27933 -1.75421 50 54 74
-1.77554 -4.86081 -1.72745 73 92 124
-1.91235 -4.6196 -1.71803 73 91 129
-1.96101 -4.50136 -1.70589 73 92 132
-2.14479 -4.34451 -1.73305 78 98 138
-2.28868 -4.11924 -1.72917 78 98 134
-2.49087 -3.88042 -1.74149 72 90 124
-2.6679 -3.61061 -1.74089 65 80 109
-2.89082 -3.33686 -1.75405 65 77 103
-2.91407 -3.34561 -1.76387 64 78 105
-2.91805 -3.33001 -1.75978 64 78 106
-2.98681 -3.20949 -1.757 66 80 106
-2.99603 -3.20081 -1.757 66 80 106
-3.01004 -3.19755 -1.76031 73 87 114
-4.00605 -1.85272 -1.78654 158 174 202
-3.99122 -1.8313 -1.77662 157 173 202
-4.01383 -1.81993 -1.78408 157 173 202
-4.10665 -1.71342 -1.78918 50 56 68
-4.09276 -1.69289 -1.78019 38 44 56
-4.27394 -1.41507 -1.7764 38 49 67
-4.92 -0.38829 -1.75709 113 121 131
-5.01937 -0.265093 -1.76357 64 67 86
-2.12915 -4.3434 -1.73008 79 98 138
-2.27499 -4.12212 -1.72765 75 97 136
-2.47601 -3.8958 -1.74383 72 90 126
-2.64378 -3.62138 -1.7385 66 81 110
-2.66669 -3.63191 -1.74809 67 82 111
-2.88824 -3.3652 -1.76306 64 78 105
-2.96437 -3.23244 -1.75783 63 79 105
-2.97128 -3.22108 -1.75617 60 76 102
-4.00378 -1.8009 -1.77664 158 175 203
-4.03008 -1.79848 -1.78741 159 175 201
-4.01609 -1.77039 -1.77666 156 171 195
-4.12402 -1.69187 -1.7933 47 53 66
-4.10327 -1.66855 -1.78103 41 47 63
-4.31455 -1.40652 -1.79242 38 49 67
-4.31109 -1.39091 -1.78923 38 49 67
-4.99699 -0.248134 -1.75497 84 85 106
-1.76336 -4.87262 -1.73026 75 94 127
-1.89676 -4.64305 -1.72451 80 98 134
-1.95361 -4.52221 -1.71248 74 94 134
-2.26128 -4.12494 -1.72613 77 97 137
-2.46633 -3.90603 -1.74539 73 91 127
-2.63838 -3.63657 -1.7425 69 84 113
-2.8687 -3.38187 -1.76306 65 81 106
-2.87512 -3.36922 -1.76061 63 79 105
-2.93821 -3.25104 -1.75618 66 82 108
-2.96213 -3.24934 -1.76279 60 77 103
-4.03739 -1.76554 -1.78495 155 166 192
-4.03206 -1.74884 -1.77999 153 165 187
-4.12539 -1.65605 -1.78841 36 44 57
-4.12298 -1.64062 -1.78515 51 58 74
-4.31458 -1.37755 -1.78925 38 50 66
-4.92088 -0.365096 -1.75711 110 118 132
-1.87408 -4.62153 -1.71375 83 101 137
-1.93962 -4.54738 -1.71982 77 98 136
-2.09316 -4.34895 -1.72638 80 99 139
-2.11579 -4.36738 -1.73681 78 97 137
-2.24347 -4.13577 -1.72691 81 101 137
-2.43528 -3.92017 -1.74385 77 95 131
-2.46289 -3.92749 -1.7524 74 92 128
-2.62612 -3.65403 -1.7457 67 82 113
-2.84259 -3.40106 -1.76225 65 80 109
-2.8589 -3.39015 -1.76306 65 81 107
-2.91243 -3.2596 -1.75122 64 78 105
-2.92882 -3.25953 -1.75618 64 78 105
-4.05168 -1.7431 -1.78745 128 132 163
-4.04062 -1.71665 -1.77836 44 53 83
-4.14244 -1.63424 -1.79253 35 42 60
-4.12899 -1.60696 -1.78272 38 45 61
-4.30791 -1.35366 -1.78366 37 49 65
-4.92482 -0.349869 -1.75859 109 120 133
-4.99686 -0.232477 -1.75498 126 137 146
-1.86389 -4.63708 -1.71808 79 97 133
-1.92176 -4.5403 -1.71471 71 91 128
-2.23528 -4.15018 -1.73075 80 100 136
-2.42019 -3.92058 -1.74074 74 92 130
-2.59475 -3.65375 -1.73771 67 84 114
-2.61346 -3.65851 -1.74411 72 89 119
-2.81627 -3.40865 -1.75734 63 79 105
-2.82723 -3.40197 -1.75816 61 78 105
-2.88238 -3.2931 -1.7537 62 78 104
-2.88956 -3.28195 -1.75205 61 77 103
-2.90596 -3.28202 -1.75701 62 78 104
-4.05683 -1.70933 -1.78417 47 58 76
-4.05296 -1.6934 -1.78004 50 58 69
-4.14838 -1.60044 -1.7901 39 47 64
-4.14236 -1.58367 -1.7852 38 48 65
-4.32702 -1.34518 -1.79088 38 50 66
-4.33212 -1.3323 -1.79169 37 50 67
-4.90834 -0.333339 -1.75202 110 117 130
-4.9933 -0.208809 -1.75356 116 127 139
-1.90775 -4.54362 -1.71399 76 95 131
-2.08378 -4.36314 -1.73012 79 99 136
-2.21839 -4.14616 -1.72617 77 97 134
-2.41478 -3.93874 -1.74619 72 90 126
-2.58335 -3.67256 -1.74172 64 83 114
-2.79537 -3.43473 -1.76062 63 80 108
-2.80098 -3.4208 -1.75735 66 81 110
-2.87514 -3.30423 -1.75536 62 79 105
-4.07681 -1.68187 -1.78833 43 50 64
-4.07449 -1.66664 -1.78503 41 47 62
-4.15573 -1.56729 -1.78848 36 48 64
-4.14278 -1.54792 -1.78031 38 50 66
-4.31642 -1.30581 -1.7821 42 50 66
-1.84224 -4.64263 -1.71738 79 98 133
-2.06811 -4.38178 -1.73462 79 99 138
-2.20279 -4.16181 -1.72925 77 98 138
-2.39792 -3.93582 -1.74153 72 90 126
-2.56193 -3.68731 -1.74172 67 85 118
-2.57364 -3.68149 -1.74252 68 86 117
-2.77786 -3.43246 -1.7549 63 78 107
-2.84116 -3.33305 -1.75537 63 79 105
-2.84512 -3.31774 -1.75123 62 79 105
-2.86379 -3.32089 -1.75785 62 79 105
-4.06875 -1.65005 -1.78007 39 48 63
-4.08405 -1.63483 -1.78422 51 61 72
-4.15867 -1.53982 -1.78606 38 47 64
-4.15242 -1.52314 -1.78116 41 50 66
-4.33369 -1.2966 -1.78852 40 50 67
-4.33865 -1.28367 -1.78933 37 50 66
-1.82502 -4.6368 -1.71308 71 91 126
-1.8835 -4.54064 -1.70963 78 96 132
-2.05382 -4.38382 -1.73314 86 105 145
-2.19672 -4.18117 -1.73537 71 93 132
-2.39135 -3.96707 -1.75166 77 95 131
-2.54045 -3.69054 -1.73773 68 87 120
-2.73287 -3.44688 -1.74754 65 80 109
-2.75458 -3.45531 -1.75654 63 79 108
-2.76566 -3.44885 -1.75736 64 79 108
-2.81211 -3.34764 -1.75207 64 79 108
-2.82289 -3.34098 -1.75289 63 79 105
-4.0765 -1.61761 -1.77844 38 47 63
-4.08409 -1.6065 -1.78011 39 48 63
-4.19282 -1.51691 -1.79754 39 50 67
-4.16767 -1.49318 -1.78364 37 48 64
-4.33474 -1.26816 -1.78615 39 52 70
-1.8726 -4.55259 -1.71257 80 98 134
-2.03753 -4.38062 -1.72942 88 107 147
-2.17679 -4.17024 -1.72774 76 98 137
-2.35506 -3.95601 -1.73999 75 93 129
-2.36756 -3.95099 -1.74076 77 95 131
-2.51893 -3.70501 -1.73774 68 87 119
-2.53459 -3.70554 -1.74173 68 87 119
-2.72919 -3.46364 -1.75245 63 79 108
-2.79713 -3.36951 -1.75538 65 80 109
-2.81132 -3.36722 -1.75869 64 79 108
-4.10009 -1.59869 -1.78591 39 48 64
-4.09654 -1.57593 -1.78096 38 47 65
-4.18175 -1.48419 -1.78856 36 47 65
-1.8249 -4.6842 -1.73033 71 88 123
-1.86041 -4.561 -1.71404 82 102 139
-2.1615 -4.16934 -1.72469 78 100 139
-2.33541 -3.96264 -1.73844 80 100 135
-2.512 -3.71841 -1.74094 69 88 120
-2.69833 -3.47563 -1.74837 61 76 105
-2.70945 -3.46938 -1.74919 66 81 110
-2.77985 -3.37861 -1.75373 62 77 106
-4.09892 -1.56275 -1.78014 36 47 65
-4.10124 -1.54957 -1.77933 36 47 65
-4.17072 -1.45867 -1.78039 39 49 66
-4.20186 -1.45578 -1.7935 41 50 67
-1.80256 -4.66229 -1.71957 75 94 127
-1.84576 -4.56235 -1.71259 80 102 139
-2.03226 -4.4268 -1.74586 85 107 146
-2.14194 -4.1763 -1.72395 84 106 145
-2.32709 -3.97574 -1.74156 74 93 129
-2.49146 -3.72288 -1.73775 69 88 121
-2.70174 -3.50283 -1.75901 64 80 111
-2.75695 -3.39012 -1.75125 67 82 111
-2.76676 -3.38221 -1.75125 63 78 107
-4.10934 -1.53139 -1.78017 37 49 65
-4.10987 -1.51755 -1.77852 39 51 67
-4.20728 -1.44349 -1.79433 40 49 66
-1.7797 -4.66397 -1.71744 75 94 129
-2.00998 -4.40789 -1.73542 85 107 146
-2.13115 -4.1854 -1.72549 82 104 143
-2.32291 -3.99702 -1.74858 74 92 130
-2.47965 -3.7284 -1.73696 71 90 123
-2.67477 -3.52056 -1.7582 65 80 111
-2.68188 -3.50838 -1.75575 65 80 111
-2.7384 -3.41853 -1.75623 69 84 113
-2.74286 -3.40339 -1.75209 67 82 111
-4.12569 -1.50938 -1.78433 36 48 64
-4.1891 -1.4156 -1.78288 37 48 66
-4.19612 -1.40393 -1.78453 37 48 66
-1.82337 -4.56429 -1.71042 80 99 136
-1.99241 -4.40103 -1.73021 82 102 142
-2.12034 -4.19447 -1.72703 82 104 143
-2.30361 -3.98873 -1.74157 77 95 131
-2.47448 -3.74485 -1.74176 70 89 122
-2.65323 -3.53428 -1.75739 67 82 113
-2.66144 -3.52366 -1.75575 65 82 112
-2.72418 -3.42048 -1.75292 66 81 110
-4.12335 -1.48732 -1.7802 36 48 64
-4.12201 -1.47285 -1.77773 36 47 65
-4.21001 -1.3946 -1.78946 39 50 68
-4.18417 -1.37162 -1.77556 38 50 66
-1.76859 -4.67749 -1.72105 75 94 130
-1.8111 -4.57255 -1.7119 81 99 136
-1.98844 -4.43061 -1.74068 82 104 141
-2.28136 -3.99014 -1.73769 78 97 130
-2.44013 -3.75133 -1.73617 72 91 123
-2.45766 -3.75538 -1.74177 70 89 122
-2.63432 -3.54105 -1.75494 67 82 111
-2.6815 -3.43716 -1.74714 62 77 108
-2.6989 -3.43983 -1.75293 63 80 110
-2.70565 -3.4277 -1.75044 63 80 110
-4.12746 -1.46084 -1.77857 37 49 65
-4.14488 -1.45304 -1.78521 38 50 66
-1.75254 -4.67493 -1.71819 77 96 129
-1.80057 -4.58606 -1.71557 76 96 131
-2.10361 -4.20801 -1.72934 84 103 143
-2.2737 -4.00475 -1.74159 78 97 130
-2.41822 -3.76512 -1.73618 71 90 123
-2.43292 -3.76455 -1.73938 73 92 125
-2.60163 -3.53771 -1.74513 65 82 112
-2.63106 -3.55919 -1.76067 66 83 111
-2.6661 -3.44858 -1.74715 64 79 110
-4.14053 -1.4304 -1.78025 41 50 66
-1.94766 -4.42267 -1.73175 77 99 138
-1.97282 -4.45062 -1.74592 83 105 144
-2.08688 -4.2034 -1.72477 79 101 140
-2.25941 -4.00613 -1.73926 74 94 131
-2.59868 -3.56866 -1.75578 67 84 114
-2.6471 -3.46518 -1.74798 63 80 110
-2.65503 -3.45467 -1.74632 62 79 109
-4.15273 -1.42067 -1.78441 38 50 64
-4.14082 -1.40266 -1.77697 36 49 65
-1.72861 -4.67277 -1.71462 78 97 130
-1.77349 -4.57363 -1.70754 76 94 131
-1.93147 -4.41903 -1.72803 79 100 139
-2.07741 -4.21574 -1.72784 82 104 145
-2.24121 -4.01556 -1.73927 78 98 135
-2.39486 -3.79008 -1.74019 71 89 125
-2.40499 -3.7817 -1.73939 71 90 123
-2.57392 -3.57724 -1.75251 65 82 113
-2.58332 -3.56837 -1.75169 65 81 113
-2.6464 -3.48613 -1.75543 63 80 110
-4.17413 -1.39287 -1.79022 40 51 69
-4.16035 -1.37434 -1.78196 39 51 67
-1.72001 -4.6951 -1.72182 75 94 127
-1.76459 -4.59234 -1.71341 79 99 136
-2.05339 -4.21204 -1.72251 83 105 146
-2.22936 -4.02179 -1.73928 77 96 134
-2.38379 -3.79684 -1.7402 72 90 126
-2.55784 -3.58816 -1.75252 64 83 115
-2.61527 -3.4749 -1.74303 64 81 111
-4.17242 -1.36441 -1.78611 41 51 67
-1.70084 -4.68162 -1.71465 67 86 119
-1.91267 -4.43007 -1.72955 81 100 140
-2.04455 -4.226 -1.72634 84 106 147
-2.21669 -4.02632 -1.7385 76 95 130
-2.37033 -3.81329 -1.74341 74 92 128
-2.54153 -3.58614 -1.74761 63 82 114
-2.60224 -3.5002 -1.74883 66 83 113
-2.61855 -3.50182 -1.75379 67 82 111
-4.15718 -1.33849 -1.77619 43 50 66
-4.17782 -1.33127 -1.78448 40 49 66
-1.74935 -4.59158 -1.71123 81 101 136
-1.89897 -4.43329 -1.72882 80 99 138
-2.03002 -4.22626 -1.72406 86 108 149
-2.19602 -4.03054 -1.73618 77 95 133
-2.35559 -3.81358 -1.74021 75 93 129
-2.54271 -3.61189 -1.75743 68 85 115
-2.58551 -3.50971 -1.74801 60 79 111
-4.14643 -1.30748 -1.76794 38 50 66
-1.72917 -4.60008 -1.71198 85 105 138
-1.88527 -4.43647 -1.72808 80 100 137
-2.02039 -4.23845 -1.72713 86 108 149
-2.18334 -4.03495 -1.73541 78 96 134
-2.33909 -3.81061 -1.73542 73 92 125
-2.51685 -3.63134 -1.75827 68 87 119
-2.52359 -3.618 -1.75499 73 90 120
-2.56407 -3.52276 -1.74719 66 82 115
-2.57732 -3.52004 -1.74967 64 80 113
-2.17298 -4.04433 -1.73697 78 96 132
-2.3193 -3.81564 -1.73303 73 92 125
-2.50246 -3.63222 -1.755 69 88 121
-2.55425 -3.54272 -1.75216 65 84 116
-1.71394 -4.59919 -1.7098 83 101 137
-1.86755 -4.4508 -1.73109 82 103 143
-2.00055 -4.24468 -1.72639 84 106 147
-2.15769 -4.06002 -1.7401 75 94 127
-2.29874 -3.83184 -1.73464 73 92 126
-2.31608 -3.83661 -1.74024 74 93 126
-2.49186 -3.63927 -1.755 70 89 122
-2.53858 -3.56471 -1.75631 68 87 119
-2.535 -3.5362 -1.74472 65 84 116
-1.70094 -4.60535 -1.71055 81 100 133
-1.98534 -4.24306 -1.72334 78 100 139
-2.14186 -4.0576 -1.73621 78 97 130
-2.46016 -3.64891 -1.75092 70 89 122
-2.47548 -3.64978 -1.75501 69 88 121
-2.51342 -3.54889 -1.7439 67 88 119
-1.68789 -4.61146 -1.7113 81 100 133
-1.86568 -4.48901 -1.74529 79 103 142
-1.97355 -4.24998 -1.72412 81 103 142
-2.12607 -4.05511 -1.73233 76 95 127
-2.27286 -3.85272 -1.73706 73 92 125
-2.28672 -3.85117 -1.73945 75 93 128
-2.45416 -3.66367 -1.75502 70 89 122
-2.48519 -3.5634 -1.74226 70 86 119
-2.50141 -3.56561 -1.74722 69 85 118
-1.85065 -4.48855 -1.74306 81 103 143
-1.95569 -4.26114 -1.72567 79 101 141
-2.11331 -4.05928 -1.73155 78 97 130
-2.26075 -3.85745 -1.73626 75 94 126
-2.43859 -3.67557 -1.75585 76 95 127
-2.4845 -3.58577 -1.75054 66 82 115
-1.66651 -4.6161 -1.71059 81 100 133
-1.84145 -4.50565 -1.7483 83 102 142
-1.94048 -4.25934 -1.72263 79 101 140
-2.09936 -4.07808 -1.73624 76 95 128
-2.24862 -3.86214 -1.73547 74 93 126
-2.41162 -3.67973 -1.75095 70 89 122
-2.42142 -3.67137 -1.75013 75 94 127
-2.45686 -3.57765 -1.74062 69 88 121
-1.80896 -4.4757 -1.73265 89 107 143
-1.93258 -4.27646 -1.72799 79 101 140
-2.08657 -4.08216 -1.73547 76 94 130
-2.23123 -3.87153 -1.73548 72 91 124
-2.43601 -3.59136 -1.74063 73 92 125
-2.45697 -3.60156 -1.74973 69 88 121
-2.07301 -4.0845 -1.73392 75 93 131
-2.21992 -3.87775 -1.73549 75 94 127
-2.37437 -3.67907 -1.74196 73 92 125
-2.40048 -3.69935 -1.75587 72 90 126
-1.79687 -4.48387 -1.73416 86 106 142
-1.91325 -4.28397 -1.72801 81 103 142
-2.20691 -3.88066 -1.7339 74 93 126
-2.37079 -3.69842 -1.74852 74 92 128
-2.40939 -3.60829 -1.74065 72 91 124
-2.4331 -3.62333 -1.75223 77 96 129
-1.78248 -4.48492 -1.73268 84 102 138
-1.89419 -4.27162 -1.72038 79 101 139
-2.05665 -4.09807 -1.73627 80 100 137
-2.18612 -3.8833 -1.73071 73 91 124
-2.36532 -3.7146 -1.75343 74 92 128
-2.38833 -3.62167 -1.74066 70 89 122
-2.40822 -3.63062 -1.74893 72 91 123
-1.88611 -4.28864 -1.72575 82 104 143
-2.04524 -4.10539 -1.73705 78 97 133
-2.19286 -3.9254 -1.74831 72 90 123
-2.33332 -3.72301 -1.74936 78 97 130
-2.34948 -3.72607 -1.75426 74 93 126
-1.76159 -4.48995 -1.73196 75 94 127
-1.87031 -4.28483 -1.72194 82 105 145
-2.0338 -4.11267 -1.73784 77 96 129
-2.18138 -3.93148 -1.74831 69 88 121
-2.3233 -3.7311 -1.75018 75 94 127
-2.36697 -3.64764 -1.74564 76 94 130
-2.38312 -3.65045 -1.7506 74 92 126
-1.75655 -4.521 -1.74317 72 90 126
-2.01085 -4.11077 -1.73318 76 96 129
-2.3065 -3.74077 -1.75019 71 90 123
-2.35269 -3.6479 -1.74234 74 93 126
-1.73229 -4.49 -1.72825 71 89 125
-1.85409 -4.30072 -1.72578 84 107 148
-1.99587 -4.10943 -1.73008 72 91 124
-2.15213 -3.94652 -1.74833 70 89 122
-2.16366 -3.94053 -1.74833 70 89 122
-2.29815 -3.752 -1.75265 71 89 123
-2.33901 -3.66241 -1.74483 67 86 119
-1.8402 -4.302 -1.72427 83 105 145
-1.9879 -4.12508 -1.73476 73 92 125
-2.13738 -3.94586 -1.74514 73 92 125
-2.28289 -3.7503 -1.74857 72 91 124
-2.32652 -3.66571 -1.74318 69 88 121
-1.71354 -4.50187 -1.73052 75 92 125
-1.82753 -4.30671 -1.72428 81 101 138
-1.97917 -4.139 -1.73866 76 95 128
-2.12502 -3.95011 -1.74435 74 93 126
-2.26938 -3.76623 -1.75185 73 92 124
-2.31493 -3.67056 -1.74236 72 91 124
-1.70235 -4.5133 -1.73352 70 86 119
-2.25331 -3.76279 -1.74695 70 89 122
-2.29932 -3.68173 -1.7432 70 89 122
-1.68794 -4.51402 -1.73204 70 86 119
-1.8105 -4.32068 -1.72737 70 89 126
-1.95967 -4.14532 -1.73789 79 98 131
-2.09252 -3.95804 -1.74117 79 98 131
-2.11117 -3.96716 -1.74836 71 90 123
-2.2356 -3.75604 -1.74041 68 87 119
-2.27693 -3.69278 -1.74238 69 88 121
-2.28857 -3.68807 -1.74321 72 91 124
-1.79357 -4.31306 -1.72203 71 90 127
-1.9433 -4.14035 -1.73323 78 97 130
-2.08324 -3.96877 -1.74358 84 103 136
-2.23209 -3.77682 -1.74778 67 86 118
-2.26092 -3.68946 -1.73743 68 87 120
-1.67459 -4.51825 -1.73206 65 84 117
-1.78266 -4.32286 -1.72434 77 97 134
-1.93376 -4.15245 -1.73635 74 92 128
-2.21342 -3.78278 -1.74616 69 88 121
-2.24605 -3.70197 -1.73909 72 91 124
-2.07075 -3.98898 -1.74919 72 91 124
-2.18556 -3.78348 -1.74044 73 92 125
-2.19988 -3.78397 -1.74371 71 90 123
-2.23524 -3.70813 -1.7391 72 91 123
-1.65359 -4.52273 -1.73134 70 89 122
-1.76548 -4.33663 -1.72742 71 89 124
-1.91488 -4.16026 -1.73637 75 93 129
-2.05296 -3.98132 -1.7428 76 94 130
-2.22955 -3.7239 -1.74407 70 89 121
-1.6397 -4.52506 -1.7306 78 97 130
-1.90388 -4.16885 -1.73794 76 94 130
-2.0428 -3.99028 -1.74441 74 92 126
-2.17335 -3.80228 -1.74537 69 88 120
-2.206 -3.72015 -1.73747 68 87 119
-1.62482 -4.52378 -1.72838 79 98 130
-1.75447 -4.34636 -1.72973 64 83 116
-1.89482 -4.18257 -1.74184 75 93 129
-2.02782 -4.00532 -1.74762 76 95 128
-2.14469 -3.80102 -1.73883 71 90 122
-2.1614 -3.8066 -1.74455 69 88 120
-2.20439 -3.74393 -1.74658 72 91 123
-1.73877 -4.34201 -1.72592 71 90 124
-1.87061 -4.17638 -1.73562 73 92 125
-2.01459 -4.0075 -1.74603 74 93 127
-2.18593 -3.73541 -1.73914 71 90 123
-1.72597 -4.34638 -1.72593 74 93 126
-2.00654 -4.02138 -1.75003 72 89 125
-2.13386 -3.82296 -1.74539 69 88 120
-2.17408 -3.75406 -1.74411 72 91 124
-1.85951 -4.18484 -1.73719 72 90 126
-1.9918 -4.02012 -1.74684 71 88 124
-2.12344 -3.83043 -1.74622 75 94 126
-2.15322 -3.74051 -1.73419 70 89 122
-1.7052 -4.34934 -1.72443 73 92 125
-1.84585 -4.18635 -1.73564 74 92 128
-1.95769 -3.9912 -1.72926 79 95 130
-2.113 -3.83787 -1.74704 75 94 126
-2.14312 -3.74798 -1.73503 71 90 123
-1.69406 -4.35889 -1.72674 75 94 126
-1.83344 -4.19128 -1.73565 77 95 131
-2.09944 -3.83866 -1.7446 72 91 123
-2.13541 -3.76031 -1.73834 69 88 121
-1.68122 -4.36311 -1.72675 75 94 126
-1.80999 -4.18644 -1.73022 74 93 126
-1.93571 -4.00513 -1.73088 79 98 131
-1.95031 -4.00661 -1.73407 77 95 128
-2.08288 -3.84886 -1.74543 75 94 126
-2.12171 -3.77551 -1.74167 73 92 125
-2.07008 -3.8512 -1.7438 74 93 125
-2.10987 -3.77963 -1.74085 72 91 124
-1.65933 -4.3623 -1.72372 76 95 128
-1.80068 -4.19993 -1.73412 77 93 126
-1.91908 -4.01634 -1.7325 78 96 132
-2.05352 -3.84517 -1.73808 73 92 124
-2.1004 -3.78861 -1.74251 72 91 124
-1.79193 -4.21513 -1.7388 75 94 127
-1.90237 -4.00966 -1.72691 74 92 130
-2.04363 -3.87014 -1.74628 69 88 120
-2.08177 -3.79382 -1.74087 69 88 120
-1.64862 -4.37348 -1.72679 75 94 127
-1.89481 -4.02494 -1.73171 70 89 122
-2.02708 -3.86399 -1.74056 71 90 122
-1.63201 -4.36518 -1.72146 77 96 129
-1.77031 -4.21527 -1.7357 76 95 128
