-20.3031 -12.8258 -0.16693 135 71 84
-20.4559 -12.8338 -0.169033 227 165 181
-20.5987 -12.8345 -0.170947 156 64 95
-20.7823 -12.8147 -0.173242 204 176 168
-20.9375 -12.8209 -0.175375 197 160 155
-21.0896 -12.8242 -0.177446 239 194 189
-21.2688 -12.7977 -0.179647 151 55 74
-21.4368 -12.8083 -0.182 255 214 219
-21.5947 -12.8118 -0.184165 228 159 174
-21.7832 -12.7866 -0.186522 219 121 150
-31.4506 -12.7809 -0.205932 133 48 82
-31.7637 -12.7933 -0.209541 166 100 119
-32.1046 -12.7565 -0.213252 178 130 146
-32.4333 -12.7706 -0.217056 185 140 149
-31.7342 -12.3793 -0.207379 193 146 160
-33.0994 -12.7958 -0.224761 153 103 119
-33.4605 -12.7558 -0.228716 208 167 169
-32.663 -12.3333 -0.217794 203 159 171
-34.1701 -12.7835 -0.236957 193 146 163
-21.0837 -7.40108 -0.141539 216 145 166
-21.0228 -7.30621 -0.140159 136 65 83
-30.5839 -7.29489 -0.175673 90 88 74
-30.5125 -7.17684 -0.174497 74 86 72
-31.6342 -6.71368 -0.186658 212 203 205
-31.582 -6.59918 -0.185749 60 41 48
-21.9399 -12.7871 -0.188655 136 57 76
-22.1176 -12.7988 -0.191165 220 172 183
-22.2868 -12.8045 -0.193517 216 175 180
-22.4938 -12.7841 -0.196188 137 80 84
-22.6671 -12.7895 -0.198603 155 59 84
-22.8581 -12.8038 -0.201331 193 122 134
-23.066 -12.779 -0.204002 173 119 132
-23.2523 -12.788 -0.206636 153 64 92
-23.4547 -12.8045 -0.209552 214 129 153
-23.6758 -12.7819 -0.212442 131 96 110
-34.5773 -12.7518 -0.241497 210 154 160
-34.9557 -12.768 -0.24591 159 114 110
-35.3495 -12.7873 -0.250518 120 88 89
-35.7807 -12.7543 -0.25535 136 89 91
-37.0655 -12.7585 -0.270202 139 71 91
-37.4655 -12.7658 -0.274858 213 159 169
-37.8922 -12.7797 -0.279856 205 157 171
-11.0973 -7.39279 -0.128929 184 107 119
-11.1096 -7.32654 -0.128269 159 61 87
-11.1301 -7.29088 -0.128217 181 57 94
-11.1872 -7.27938 -0.129286 196 63 94
-23.8736 -12.793 -0.215264 139 127 126
-24.0841 -12.8095 -0.218306 171 153 145
-24.3292 -12.7943 -0.221602 197 180 171
-24.5333 -12.8043 -0.224519 203 176 168
-24.7448 -12.8169 -0.22756 242 180 187
-24.9602 -12.8301 -0.230664 216 137 149
-25.8849 -12.7994 -0.243435 207 177 171
-38.3081 -12.7871 -0.284707 160 100 121
-38.7767 -12.742 -0.289978 178 123 149
-39.2029 -12.7468 -0.29495 151 106 129
-39.6979 -12.7712 -0.300801 198 154 168
-40.2306 -12.735 -0.306876 148 59 83
-40.7554 -12.7615 -0.313092 81 30 44
-36.1312 -7.26059 -0.241802 85 80 61
-26.1055 -12.8074 -0.246601 185 148 147
-26.3354 -12.8186 -0.249925 152 54 72
-26.5857 -12.7868 -0.253253 191 122 150
-26.8199 -12.7967 -0.256639 152 123 137
-27.0471 -12.8018 -0.259899 110 85 80
-27.2964 -12.8157 -0.263536 121 99 93
-27.5443 -12.7751 -0.266801 222 175 176
-27.7979 -12.7875 -0.2705 250 180 192
-46.0222 -14.0229 -0.379103 70 66 75
-46.3901 -13.9767 -0.383246 65 63 73
-47.4872 -14.1463 -0.39668 69 60 77
-44.7228 -13.1672 -0.360929 72 60 74
-44.7719 -12.9532 -0.360784 82 61 69
-44.7769 -12.8027 -0.360342 88 72 73
-26.1575 -7.3362 -0.217247 75 77 74
-26.081 -7.18296 -0.21546 68 70 69
-41.1046 -7.39704 -0.301794 83 79 70
-5.74153 -13.2846 -0.15708 90 76 65
-5.75567 -13.1443 -0.153952 76 72 62
-5.75358 -13.0256 -0.151174 92 84 79
-5.76952 -12.9512 -0.149612 74 65 58
-5.84237 -12.9544 -0.150435 89 78 74
-5.88944 -12.9533 -0.150899 94 77 72
-5.94055 -12.9612 -0.151617 74 61 53
-6.01134 -12.9579 -0.152288 99 91 79
-6.05046 -12.9379 -0.152246 91 78 61
-6.1059 -12.9542 -0.153217 97 78 64
-6.15241 -12.9503 -0.153631 97 79 62
-6.22934 -12.9586 -0.154656 92 72 56
-6.28186 -12.967 -0.155425 80 67 58
-29.144 -12.7509 -0.289569 178 133 135
-29.4253 -12.7647 -0.293706 202 138 154
-29.7015 -12.7745 -0.29775 177 140 136
-29.9945 -12.7897 -0.302075 163 109 113
-30.3357 -12.7674 -0.306875 191 147 171
-30.1054 -12.56 -0.302304 208 150 178
-48.8513 -12.9832 -0.408934 77 87 79
-46.871 -12.2977 -0.383422 61 63 66
-50.2618 -13.0226 -0.425728 66 63 70
-50.3441 -12.8756 -0.426259 83 70 75
-49.4195 -12.3908 -0.41387 78 85 80
-49.7926 -12.3188 -0.418084 98 102 79
-49.7603 -12.1453 -0.4172 110 104 80
-46.0686 -7.25393 -0.361288 74 68 67
-8.43372 -12.4566 -0.171562 133 99 70
-8.49818 -12.4277 -0.171877 125 102 81
-8.61248 -12.4317 -0.173617 132 106 86
-8.71627 -12.4597 -0.175709 135 108 85
-30.9405 -12.7951 -0.315808 169 94 127
-31.2867 -12.7667 -0.320671 176 101 129
-31.5873 -12.7744 -0.32509 227 148 180
-31.9087 -12.7885 -0.329854 198 166 170
-32.2506 -12.7503 -0.334622 157 98 115
-32.569 -12.7586 -0.339323 192 146 157
-32.9028 -12.7709 -0.344275 160 114 132
-33.2444 -12.784 -0.349352 184 148 147
-33.5989 -12.7397 -0.354309 162 101 115
-32.7054 -12.2844 -0.338707 222 175 195
-30.6469 -7.26169 -0.285155 76 87 70
-52.8732 -12.0323 -0.45391 83 95 70
-56.3718 -12.6455 -0.497238 92 104 79
-53.3788 -11.796 -0.45931 76 87 70
-53.5298 -11.6534 -0.460741 84 98 77
-47.233 -6.68013 -0.374319 115 111 112
-9.66057 -12.7523 -0.195904 135 113 17
-9.72483 -12.7562 -0.196978 154 135 57
-9.92808 -12.9028 -0.203083 153 135 60
-9.84023 -12.541 -0.19447 163 136 56
-10.0232 -12.6565 -0.199661 121 71 38
-10.3295 -12.4808 -0.20113 240 114 102
-10.3489 -12.4257 -0.200375 240 114 101
-10.4162 -12.4292 -0.20155 244 111 104
-34.3292 -12.7715 -0.365214 160 88 115
-34.73 -12.7354 -0.370922 181 126 125
-35.1243 -12.7555 -0.376845 103 60 63
-35.5267 -12.7759 -0.382893 132 106 97
-35.9534 -12.739 -0.389008 188 126 135
-31.6519 -6.66649 -0.298536 131 113 113
-31.7718 -6.58782 -0.300128 75 65 73
-61.2306 -11.9332 -0.553561 113 111 76
-61.4402 -11.674 -0.555482 107 108 72
-61.986 -11.5766 -0.561812 100 104 74
-64.0989 -11.7644 -0.587601 102 99 66
-56.1811 -7.14381 -0.483359 88 82 87
-6.08214 -14.8271 -0.196484 115 87 76
-6.11547 -14.7771 -0.195634 82 68 58
-8.15518 -14.2428 -0.206275 130 109 70
-8.1835 -14.1899 -0.205472 84 78 37
-10.6554 -12.6405 -0.209583 240 114 104
-11.2441 -12.8565 -0.223546 219 79 89
-11.0473 -7.38131 -0.175969 201 145 164
-11.0628 -7.31754 -0.17533 139 63 91
-11.0849 -7.28311 -0.17533 220 157 171
-14.0809 -7.17074 -0.192251 229 171 179
-14.1048 -7.10022 -0.191996 182 106 144
-14.1565 -7.07147 -0.19286 191 146 153
-37.6501 -12.7461 -0.414207 201 153 158
-38.0951 -12.7639 -0.420913 128 49 82
-38.552 -12.7829 -0.427806 202 140 158
-39.0103 -12.7317 -0.434391 168 132 143
-39.4625 -12.7426 -0.44119 127 86 92
-39.9722 -12.7691 -0.448929 185 135 140
-40.4891 -12.7248 -0.456454 127 53 76
-36.0965 -7.18687 -0.368406 86 85 57
-67.0572 -11.5487 -0.62271 123 115 94
-66.1768 -11.1827 -0.611359 120 113 92
-61.1249 -7.09331 -0.543199 76 57 54
-66.2744 -6.95584 -0.605495 101 93 95
-64.7472 -6.38372 -0.586224 117 101 72
-6.48435 -15.3606 -0.21288 92 78 68
-6.49335 -15.2465 -0.210308 85 72 63
-7.58346 -15.3344 -0.22388 82 75 54
-7.76161 -15.3984 -0.227352 87 83 61
-8.10535 -15.311 -0.229398 97 87 75
-8.2349 -15.27 -0.230032 74 68 47
-8.13523 -14.7974 -0.218292 92 80 58
-8.54048 -15.2154 -0.232573 113 98 67
-8.96335 -15.0313 -0.233925 50 29 7
-9.06653 -14.8347 -0.231017 101 68 43
-9.03843 -14.6834 -0.227373 189 159 132
-9.29483 -14.901 -0.235511 95 77 64
-9.26937 -14.3506 -0.223378 107 94 53
-9.68755 -14.8107 -0.238977 95 78 56
-10.1993 -14.4457 -0.238675 150 115 80
-10.3259 -14.4837 -0.241328 95 65 41
-5.92211 -7.30199 -0.136445 236 116 99
-5.92335 -7.2573 -0.135182 238 114 104
-5.94413 -7.23777 -0.13511 240 113 105
-5.98611 -7.22165 -0.135635 240 113 104
-6.01797 -7.21596 -0.136233 244 113 106
-11.1361 -13.0975 -0.22636 232 111 99
-11.1764 -13.0631 -0.226367 237 109 102
-11.1869 -12.9934 -0.225205 241 107 110
-11.347 -13.0585 -0.229128 213 53 94
-11.3462 -12.8943 -0.225991 232 109 107
-11.4139 -12.8506 -0.226307 234 106 98
-11.5009 -12.8693 -0.228142 230 101 94
-11.5761 -12.8741 -0.229521 228 101 96
-11.673 -12.8621 -0.230954 242 111 103
-11.7526 -12.8705 -0.232485 240 108 104
-11.835 -12.8816 -0.234118 242 109 104
-11.9189 -12.8937 -0.235802 243 109 106
-12.0165 -12.8795 -0.237235 216 103 124
-12.1075 -12.898 -0.239173 255 249 202
-12.1893 -12.9059 -0.240755 253 254 211
-12.2901 -12.8928 -0.24229 251 254 200
-12.375 -12.9027 -0.243973 255 245 205
-12.4586 -12.9107 -0.245606 255 252 203
-11.137 -7.26833 -0.176379 175 61 86
-41.0554 -12.7615 -0.465102 80 70 77
-42.3955 -12.8146 -0.485442 69 66 75
-44.8279 -13.0907 -0.52323 89 73 84
-44.871 -12.8748 -0.522951 113 97 100
-44.9932 -12.7575 -0.524296 115 100 95
-69.3358 -6.61838 -0.642254 123 102 88
-6.546 -15.6528 -0.220315 89 76 67
-7.5921 -15.6649 -0.231507 97 77 59
-7.60268 -15.4983 -0.227822 84 68 54
-7.87431 -15.5075 -0.231114 98 95 61
-7.93195 -15.5031 -0.231683 122 117 65
-7.96024 -15.4395 -0.230578 77 67 31
-8.12483 -15.5867 -0.235815 93 85 58
-8.10416 -15.4265 -0.231973 66 65 52
-8.3137 -15.3049 -0.231766 92 85 69
-8.43966 -15.255 -0.232197 94 78 55
-8.86187 -15.6312 -0.245774 101 86 60
-9.08972 -15.5267 -0.246379 133 100 74
-8.92898 -15.1347 -0.235737 90 67 55
-9.04602 -15.0659 -0.235761 111 85 55
-9.60879 -15.5266 -0.253208 181 161 133
-9.53242 -15.1322 -0.243694 99 80 47
-9.53186 -15.0264 -0.24142 107 83 51
-9.75979 -15.2889 -0.250158 138 116 68
-9.67063 -14.8859 -0.240337 108 99 70
-9.8809 -14.959 -0.244827 104 88 62
-10.2258 -14.5809 -0.241865 123 102 82
-10.7066 -14.9312 -0.256213 134 111 80
-10.8714 -15.0662 -0.261452 127 108 69
-10.809 -14.8795 -0.256689 78 65 33
-10.8514 -14.7921 -0.255534 86 75 48
-10.7449 -14.548 -0.248942 78 65 40
-10.9885 -14.6435 -0.254601 165 147 65
-11.1286 -14.4067 -0.251999 88 69 6
-12.5682 -12.9046 -0.247446 235 175 161
-12.6523 -12.9116 -0.249079 234 99 116
-12.7406 -12.9225 -0.250864 244 161 170
-12.8306 -12.9344 -0.252701 212 166 131
-12.9368 -12.9216 -0.254388 223 104 139
-13.0258 -12.931 -0.256173 255 217 214
-13.1078 -12.933 -0.257705 182 77 87
-13.2216 -12.9254 -0.259646 255 208 193
-13.3111 -12.9334 -0.261432 202 71 79
-13.3965 -12.9368 -0.263065 229 76 114
-13.5138 -12.93 -0.265108 255 211 205
-13.5966 -12.9296 -0.266639 237 160 167
-13.6883 -12.9371 -0.268476 173 87 97
-13.7772 -12.9414 -0.27021 215 158 158
-48.2091 -12.9369 -0.573648 67 69 71
-50.2101 -12.8845 -0.603791 61 53 52
-50.4338 -12.7736 -0.606765 111 104 86
-49.4655 -12.2816 -0.590187 88 91 73
-49.5555 -12.1392 -0.591029 108 101 69
-41.0835 -7.44266 -0.445937 97 90 80
-41.1039 -7.31336 -0.445897 115 108 97
-5.74096 -13.137 -0.205561 91 82 67
-5.73535 -13.0112 -0.202148 90 81 72
-5.75022 -12.9351 -0.2003 79 69 59
-5.81983 -12.9311 -0.201009 108 95 88
-5.86282 -12.9208 -0.201249 97 88 82
-5.91224 -12.925 -0.201954 98 88 77
-5.98366 -12.9237 -0.202779 95 82 66
-6.03409 -12.9293 -0.203542 94 74 55
-6.08543 -12.9365 -0.204363 102 75 56
-6.13106 -12.9308 -0.204777 101 74 61
-6.2054 -12.9337 -0.205776 83 56 38
-6.24941 -12.924 -0.206075 117 92 72
-8.48454 -12.4271 -0.226203 124 101 83
-8.52607 -12.406 -0.226385 131 108 90
-11.5688 -14.8921 -0.268615 179 154 74
-13.8967 -12.9333 -0.272305 166 69 83
-13.9801 -12.9311 -0.273836 242 176 169
-14.0754 -12.9394 -0.275774 197 114 122
-14.1867 -12.9211 -0.277563 208 68 100
-14.2823 -12.9283 -0.279501 196 103 112
-14.3722 -12.9296 -0.281236 244 181 170
-14.487 -12.912 -0.283127 254 238 185
-14.5831 -12.9177 -0.285065 192 101 71
-14.6809 -12.9241 -0.287054 240 183 176
-14.7714 -12.9235 -0.288788 251 212 185
-14.8854 -12.9019 -0.290628 224 99 118
-14.9837 -12.9068 -0.292617 199 119 135
-15.0822 -12.9111 -0.294606 255 231 205
-15.2011 -12.8914 -0.296599 221 102 115
-16.1014 -7.28468 -0.240149 142 65 82
-16.1419 -7.21238 -0.240352 189 162 162
-52.7371 -12.1316 -0.639527 75 87 65
-54.0185 -12.1587 -0.659207 72 81 63
-46.1211 -7.16248 -0.523067 113 108 112
-5.71965 -13.2586 -0.208564 96 79 67
-8.41546 -12.6176 -0.229663 78 63 41
-8.40591 -12.5184 -0.227114 130 107 85
-8.43225 -12.4742 -0.226483 106 81 53
-8.58661 -12.4128 -0.227555 133 108 88
-15.2939 -12.8894 -0.298384 255 226 187
-15.3852 -12.8857 -0.300119 183 85 70
-15.5137 -12.8715 -0.302416 226 83 106
-15.6223 -12.8808 -0.304711 233 111 141
-15.7172 -12.878 -0.306547 255 220 212
-15.8417 -12.8577 -0.308692 188 81 90
-15.9461 -12.8614 -0.310833 251 191 190
-16.0523 -12.8658 -0.313026 241 201 184
-16.1649 -12.8746 -0.315422 254 203 190
-16.2823 -12.8451 -0.317312 187 56 81
-16.3953 -12.8526 -0.319708 227 150 162
-16.5053 -12.8571 -0.322002 203 133 152
-16.6247 -12.8265 -0.323944 180 60 88
-61.3468 -11.798 -0.770501 119 119 72
-9.77718 -12.7154 -0.255167 123 108 59
-9.85626 -12.5755 -0.253386 149 126 57
-9.94651 -12.5708 -0.254909 102 65 27
-10.2877 -12.3635 -0.256534 242 114 101
-16.743 -12.8359 -0.326492 182 114 122
-16.8505 -12.836 -0.328684 221 148 161
-16.9925 -12.8201 -0.331338 179 93 108
-17.105 -12.8226 -0.333683 208 171 169
-17.2226 -12.828 -0.336181 140 78 86
-17.3323 -12.8269 -0.338424 146 57 74
-17.4816 -12.8123 -0.341281 165 86 103
-17.6174 -12.8287 -0.344338 173 66 92
-17.7391 -12.8338 -0.346938 144 69 71
-17.8988 -12.8233 -0.3501 130 96 70
-18.0289 -12.8327 -0.352954 169 123 98
-14.0663 -7.1736 -0.249496 199 143 148
-14.0706 -7.09323 -0.248565 218 156 171
-14.1152 -7.06089 -0.249321 196 140 147
-67.6655 -11.6949 -0.867614 102 99 82
-56.2595 -7.02155 -0.680079 110 106 107
-8.06188 -14.1899 -0.263154 102 83 55
-8.10074 -14.1565 -0.262873 108 88 36
-8.31209 -14.1714 -0.266332 96 73 58
-9.16441 -14.1919 -0.279878 102 88 57
-11.0292 -13.1834 -0.288699 242 112 105
-11.1259 -13.2169 -0.291265 230 107 110
-11.1787 -13.0726 -0.289074 248 173 140
-11.2797 -13.1095 -0.291814 252 187 156
-11.243 -12.9434 -0.287463 219 122 124
-11.2592 -12.8814 -0.286424 223 132 137
-11.325 -12.8767 -0.287594 255 185 173
-11.3821 -12.821 -0.287488 248 178 145
-11.4744 -12.8457 -0.289822 255 198 161
-11.551 -12.8519 -0.291457 252 195 146
-11.6304 -12.8608 -0.293209 229 106 88
-11.7316 -12.8527 -0.295023 241 107 104
-11.81 -12.8592 -0.296717 241 107 104
-11.894 -12.8713 -0.298643 241 107 106
-18.1626 -12.8437 -0.35591 190 127 107
-18.3068 -12.8185 -0.358563 194 63 91
-18.4573 -12.8394 -0.362028 194 113 121
-18.5835 -12.8423 -0.364729 157 76 99
-18.7361 -12.8628 -0.368244 162 56 89
-18.8912 -12.8404 -0.371203 173 110 121
-19.0246 -12.8455 -0.374108 163 87 97
-69.5005 -6.46058 -0.885317 96 90 88
-6.07584 -14.8241 -0.254499 119 84 74
-6.16054 -14.7706 -0.253999 90 77 68
-7.68329 -15.2433 -0.284935 96 99 63
-8.21824 -15.2424 -0.292112 84 75 59
-8.26144 -15.0402 -0.287552 92 76 53
-8.51186 -15.167 -0.294318 80 67 24
-8.65115 -15.0315 -0.292903 98 92 41
-8.90538 -15.0971 -0.298281 100 81 73
-8.9562 -14.9166 -0.294531 183 160 142
-9.04394 -14.9596 -0.296922 184 158 135
-9.13307 -15.0038 -0.299372 206 172 145
-9.19599 -14.7431 -0.293889 99 86 69
-9.78403 -14.8115 -0.304834 112 96 73
-10.3216 -14.7225 -0.311544 119 100 78
-10.3021 -14.5971 -0.308241 116 80 62
-10.5602 -14.6269 -0.31333 93 80 63
-10.6403 -14.4055 -0.309526 91 86 63
-11.084 -14.3489 -0.31604 116 92 49
-5.94972 -7.33272 -0.17615 241 111 102
-5.92606 -7.25674 -0.173096 240 112 101
-5.9594 -7.22973 -0.173101 241 113 100
-5.98504 -7.21631 -0.173351 243 112 104
-11.9997 -12.8658 -0.300632 241 109 113
-12.0801 -12.8725 -0.302383 217 159 139
-12.1687 -12.8876 -0.304484 241 208 170
-12.2696 -12.8745 -0.30624 254 244 207
-12.3587 -12.8886 -0.308341 185 144 103
-12.4466 -12.9008 -0.310384 220 173 148
-12.5508 -12.8888 -0.312256 208 94 91
-12.6404 -12.9015 -0.314358 241 96 112
-12.7261 -12.9094 -0.316284 235 97 124
-12.8148 -12.9198 -0.318327 255 222 215
-12.924 -12.9097 -0.320374 222 107 137
-13.0116 -12.9176 -0.322359 253 216 222
-13.1008 -12.9265 -0.324402 177 74 78
-13.2049 -12.9089 -0.326216 253 217 192
-19.7772 -12.8258 -0.389909 183 88 116
-19.9304 -12.838 -0.393374 190 110 127
-20.0688 -12.8396 -0.39638 175 91 115
-20.2292 -12.8544 -0.400048 165 53 78
-20.3865 -12.8215 -0.403007 226 170 175
-20.5508 -12.8365 -0.406776 173 58 89
-20.6867 -12.8326 -0.409681 182 86 111
-20.8632 -12.808 -0.413199 211 148 150
-21.0199 -12.8149 -0.416714 251 206 197
-21.1819 -12.824 -0.420382 216 156 156
-21.3455 -12.7875 -0.423493 219 74 107
-21.0736 -7.45045 -0.359863 192 124 137
-21.021 -7.3209 -0.357518 222 136 160
-6.42859 -15.5757 -0.278576 93 73 64
-6.4714 -15.3362 -0.27263 95 81 70
-6.74602 -15.8689 -0.289983 91 77 66
-7.61065 -15.707 -0.296081 104 85 69
-7.596 -15.4883 -0.290178 94 76 62
-7.67498 -15.5299 -0.292279 95 77 63
-7.65316 -15.3627 -0.287647 102 92 70
-7.99481 -15.6324 -0.299118 104 99 64
-8.04756 -15.6169 -0.29942 102 94 56
-8.12567 -15.5906 -0.299784 94 83 67
-8.11912 -15.4591 -0.296312 74 66 49
-8.15767 -15.4165 -0.295743 74 69 50
-8.59759 -15.5508 -0.305269 88 67 45
-9.10657 -15.2803 -0.305845 156 135 119
-9.42469 -15.3294 -0.311874 220 186 153
-9.38797 -15.1621 -0.30718 165 143 104
-9.49986 -15.0812 -0.306914 104 91 57
-9.86827 -15.0951 -0.313069 96 87 56
-10.6705 -14.9778 -0.323481 152 122 84
-10.6556 -14.8584 -0.320411 88 70 45
-10.6646 -14.6771 -0.316303 89 77 67
-10.9439 -14.5833 -0.318965 88 69 36
-11.1464 -14.7609 -0.326647 165 145 86
-13.293 -12.9154 -0.328201 200 75 84
-13.3871 -12.9271 -0.330418 219 74 103
-13.4916 -12.9076 -0.332233 248 204 185
-13.586 -12.9182 -0.33445 186 92 84
-13.6749 -12.9228 -0.336435 191 106 103
-13.7668 -12.9297 -0.338536 231 190 177
-13.8792 -12.9147 -0.340642 185 120 108
-13.9744 -12.9233 -0.342859 225 178 160
-14.0596 -12.9219 -0.34467 189 79 91
-14.1783 -12.9102 -0.347007 250 184 190
-14.2667 -12.9105 -0.348934 221 183 180
-14.3671 -12.9211 -0.351327 253 203 196
-14.476 -12.898 -0.353257 255 228 204
-14.5648 -12.8969 -0.355184 254 219 191
-14.6628 -12.9032 -0.35746 254 227 198
-21.5149 -12.7988 -0.427365 253 177 196
-21.6794 -12.806 -0.431083 236 184 179
-21.8441 -12.8123 -0.434802 168 84 95
-22.0309 -12.7843 -0.438575 216 125 144
-22.1997 -12.7906 -0.442395 188 133 136
-22.3756 -12.7998 -0.446419 153 70 85
-22.5787 -12.7768 -0.45065 224 157 166
-22.7604 -12.7867 -0.454827 236 151 181
-22.9406 -12.7947 -0.458952 205 137 154
-23.1534 -12.7723 -0.463438 216 170 176
-16.1323 -7.30144 -0.305659 150 57 80
-16.0982 -7.19551 -0.303502 218 134 156
-8.16708 -16.1024 -0.313558 88 86 58
-10.1714 -16.0558 -0.341313 97 83 46
-11.6688 -15.3626 -0.349792 65 48 23
-14.7564 -12.9051 -0.359561 255 212 197
-14.8689 -12.8821 -0.361608 235 94 110
-14.9673 -12.8868 -0.363884 209 110 141
-15.0675 -12.8923 -0.366218 253 235 203
-15.188 -12.8737 -0.368556 254 240 201
-15.2794 -12.8703 -0.370541 255 236 199
-15.3861 -12.8793 -0.373108 251 235 202
-15.4995 -12.8522 -0.375155 197 123 124
-15.6112 -12.8638 -0.377896 222 108 136
-15.7032 -12.8583 -0.379881 255 212 204
-15.8138 -12.8676 -0.382565 233 153 156
-15.9324 -12.8414 -0.384786 253 204 201
-16.0449 -12.8506 -0.387528 191 72 88
-16.1468 -12.8505 -0.389862 252 183 192
-23.3289 -12.775 -0.46741 169 67 89
-23.5415 -12.7968 -0.472453 190 61 95
-23.7692 -12.7774 -0.477345 122 93 107
-23.979 -12.7946 -0.482285 154 140 131
-24.182 -12.8069 -0.487022 187 157 151
-24.4013 -12.8264 -0.492216 151 71 87
-24.6304 -12.8006 -0.497109 216 135 158
-24.8504 -12.8172 -0.502303 219 127 139
-16.2736 -12.8283 -0.392375 208 63 98
-16.3758 -12.827 -0.394709 206 65 99
-16.4844 -12.8301 -0.397276 206 61 94
-16.626 -12.8165 -0.400312 210 133 143
-16.7334 -12.817 -0.402821 205 173 169
-16.841 -12.817 -0.40533 179 83 102
-16.9816 -12.7997 -0.408308 220 147 165
-17.0879 -12.7971 -0.410759 151 84 97
-17.2104 -12.806 -0.413792 211 173 174
-17.3203 -12.8047 -0.416359 199 168 166
-17.4714 -12.791 -0.419686 202 168 169
-17.5993 -12.8013 -0.422894 155 66 83
-25.761 -12.8345 -0.523288 215 128 154
-25.9975 -12.8011 -0.528333 162 74 99
-26.2105 -12.8051 -0.533273 183 93 120
-26.4507 -12.8209 -0.538976 196 71 100
-26.6841 -12.8319 -0.544476 185 80 110
-26.9271 -12.7942 -0.549673 104 48 64
-27.1558 -12.7996 -0.55502 109 84 80
-17.7276 -12.8109 -0.426102 157 98 92
-17.8907 -12.8024 -0.429837 141 107 82
-18.0146 -12.8069 -0.43287 166 118 87
-18.1615 -12.8269 -0.436718 185 105 94
-18.3108 -12.8049 -0.439929 185 60 86
-18.4484 -12.8162 -0.443428 242 161 173
-18.5863 -12.8269 -0.446927 182 59 87
-18.731 -12.8413 -0.450659 187 64 92
-18.8862 -12.8187 -0.454045 235 171 180
-19.0265 -12.8279 -0.457602 174 54 84
-27.3991 -12.8105 -0.560774 149 116 101
-27.6484 -12.7699 -0.566124 174 58 83
-27.8906 -12.7768 -0.571827 194 68 92
-28.9464 -12.7733 -0.596424 163 53 85
-29.2231 -12.787 -0.603043 181 65 100
-26.0136 -7.32626 -0.479359 77 73 72
-26.1144 -7.26665 -0.48144 67 71 68
-11.0283 -7.35365 -0.280999 211 155 168
-11.0356 -7.30939 -0.280328 214 157 171
-11.0625 -7.25356 -0.280033 192 63 92
-19.7969 -12.8175 -0.476268 192 60 88
-11.1259 -7.24679 -0.281897 171 51 79
-19.9404 -12.8227 -0.479883 208 103 135
-20.0823 -12.8261 -0.48344 191 64 91
-20.238 -12.8373 -0.487463 167 54 82
-20.4022 -12.8083 -0.491082 161 50 78
-20.5533 -12.8144 -0.49493 193 61 93
-20.7064 -12.8207 -0.498836 243 146 175
-29.5312 -12.7576 -0.609971 172 66 84
-29.8325 -12.7779 -0.617252 151 60 78
-30.1324 -12.7956 -0.624483 177 72 88
-30.2669 -12.6855 -0.626572 178 62 89
-29.9298 -12.4336 -0.616181 185 63 94
-31.0747 -12.7979 -0.646736 182 65 94
-31.4166 -12.767 -0.654529 185 63 91
-31.7332 -12.7808 -0.662166 178 65 93
-20.873 -12.7894 -0.502513 192 70 88
-21.0231 -12.7917 -0.506303 224 79 117
-21.1939 -12.8056 -0.510792 186 57 94
-21.3697 -12.7759 -0.51476 228 73 114
-21.5239 -12.7775 -0.518666 195 43 91
-21.6939 -12.7874 -0.523097 175 45 79
-21.8537 -12.7902 -0.527178 201 63 91
-22.046 -12.7648 -0.53167 179 52 89
-22.2236 -12.7756 -0.536334 191 56 97
-22.4033 -12.7863 -0.541056 180 54 90
-32.0337 -12.786 -0.669345 179 73 100
-32.3511 -12.7961 -0.676981 181 77 101
-32.6871 -12.7523 -0.68457 188 80 104
-33.0294 -12.7675 -0.692869 186 77 102
-33.4468 -12.8094 -0.703205 192 82 108
-33.7616 -12.7488 -0.710182 190 88 117
-34.1127 -12.7601 -0.718684 193 93 119
-21.0031 -7.41101 -0.439241 192 86 111
-20.9935 -7.29713 -0.437898 192 87 115
-30.4613 -7.31159 -0.589237 79 69 59
-30.6033 -7.19373 -0.592081 76 84 67
-22.5981 -12.7578 -0.545606 193 65 91
-22.7766 -12.7653 -0.55027 187 60 89
-22.9624 -12.7757 -0.555166 194 68 96
-23.1667 -12.7479 -0.560008 192 60 94
-23.367 -12.7635 -0.565371 191 68 95
-23.5765 -12.7828 -0.571025 181 66 94
-23.7792 -12.7972 -0.576445 132 84 106
-24.0147 -12.7794 -0.582278 161 147 138
-24.2288 -12.7966 -0.588048 173 108 112
-36.0595 -12.9151 -0.766751 138 104 93
-31.6104 -6.59946 -0.613968 64 46 45
-24.4414 -12.8117 -0.59376 187 68 95
-24.6744 -12.787 -0.599476 195 67 92
-24.8984 -12.8048 -0.605537 198 69 94
-25.8196 -12.8236 -0.629845 191 67 92
-26.0582 -12.7903 -0.635677 193 68 95
-26.277 -12.7962 -0.641505 194 67 97
-39.4283 -14.6169 -0.862303 109 51 65
-40.4932 -14.6533 -0.888172 116 85 88
-38.0657 -12.8343 -0.814507 114 47 72
-39.1442 -13.063 -0.842463 115 50 65
-38.6005 -12.7465 -0.826771 129 59 70
-39.1469 -12.7237 -0.839858 133 64 84
-39.5126 -12.7063 -0.848612 129 63 92
-8.39982 -12.492 -0.34727 92 81 56
-8.4273 -12.4496 -0.346533 91 78 57
-8.46009 -12.4155 -0.346169 122 102 85
-8.51994 -12.3799 -0.346329 123 100 82
-8.57248 -12.3754 -0.347305 128 103 83
-8.64854 -12.4054 -0.349843 131 108 87
-26.5123 -12.8086 -0.647858 195 89 104
-26.7641 -12.8275 -0.654735 190 85 101
-27.0021 -12.7863 -0.660509 107 80 75
-27.6706 -12.9973 -0.680789 112 84 79
-27.9422 -13.0186 -0.688249 139 95 92
-28.0296 -12.8997 -0.689127 193 85 103
-28.0492 -12.8027 -0.688486 189 87 109
-47.361 -14.8312 -1.05589 62 43 56
-44.7355 -13.0111 -0.978438 79 61 75
-44.8165 -12.8062 -0.978993 92 77 74
-36.0078 -7.28711 -0.727411 114 101 93
-36.0526 -7.11967 -0.727707 150 142 112
-5.72541 -13.1273 -0.320368 85 69 59
-5.74176 -12.9947 -0.316071 89 83 73
-5.74139 -12.8818 -0.312215 88 79 68
-5.79284 -12.8921 -0.313339 97 84 75
-5.85917 -12.8806 -0.313946 82 73 63
-5.91243 -12.8941 -0.315219 76 65 57
-5.96422 -12.9038 -0.316343 92 77 65
-6.01208 -12.9041 -0.317095 91 73 61
-6.08356 -12.9024 -0.318148 107 86 65
-6.13072 -12.9004 -0.318826 98 79 64
-6.17878 -12.9001 -0.319578 99 75 60
-6.24381 -12.883 -0.320037 118 99 79
-7.8911 -12.997 -0.352951 230 199 174
-8.21041 -13.0266 -0.36014 119 92 68
-9.8574 -12.5698 -0.38162 139 100 53
-9.79381 -12.4065 -0.375374 218 171 105
-5.94463 -7.23203 -0.23579 241 112 106
-5.97273 -7.22185 -0.236275 240 112 104
-14.0903 -7.13516 -0.376558 190 87 103
-14.0713 -7.04304 -0.374395 185 89 105
-29.8362 -12.343 -0.731151 95 38 58
-47.3683 -14.6705 -1.05487 68 60 73
-47.4991 -14.5481 -1.05715 66 65 72
-47.9811 -14.5317 -1.06881 65 64 74
-26.1081 -7.32222 -0.580852 64 62 68
-26.0185 -7.2094 -0.577466 71 71 73
-49.6236 -12.8463 -1.09771 65 59 66
-41.1358 -7.39289 -0.856488 103 94 86
-5.71895 -13.2275 -0.323703 75 63 55
-5.97959 -7.39353 -0.24292 235 116 99
-5.93127 -7.26097 -0.236462 241 113 102
-10.9556 -13.1799 -0.425105 240 112 103
-6.02836 -7.22276 -0.238016 240 111 105
-10.9693 -13.0305 -0.421174 241 112 107
-10.9559 -12.932 -0.418054 237 107 115
-11.2118 -13.1156 -0.42946 255 199 174
-11.2265 -13.0504 -0.427978 255 196 175
-11.3066 -13.0629 -0.430294 245 164 156
-11.3205 -12.9559 -0.427625 233 143 146
-11.3069 -12.8589 -0.424578 255 197 182
-11.3765 -12.8587 -0.426299 252 185 161
-11.4401 -12.8104 -0.426534 254 195 159
-11.5124 -12.8125 -0.428403 223 102 87
-11.5955 -12.8262 -0.430868 241 105 109
-11.676 -12.8366 -0.433184 240 106 105
-11.7796 -12.8314 -0.435654 241 107 107
-11.0614 -7.3903 -0.336774 202 59 91
-11.0124 -7.30819 -0.333217 197 58 90
-11.0476 -7.25798 -0.333303 197 60 89
-11.0912 -7.23796 -0.334379 195 59 89
-32.1008 -13.9907 -0.810641 84 32 48
-32.3967 -13.9391 -0.817988 69 25 45
-32.5718 -13.894 -0.822184 103 62 69
-33.1997 -14.0392 -0.840716 53 16 31
-32.6137 -13.6114 -0.820146 57 26 38
-32.9279 -13.5013 -0.82743 61 30 41
-32.831 -13.2819 -0.82242 60 31 43
-32.9237 -13.1997 -0.824051 60 32 44
-33.6007 -13.0458 -0.840834 130 91 97
-50.3202 -12.8589 -1.11501 79 68 75
-49.7092 -12.5362 -1.09789 72 68 61
-49.3541 -12.1994 -1.08703 78 85 68
-49.5251 -12.077 -1.09054 60 63 55
-52.7047 -12.0687 -1.16948 81 92 74
-53.3177 -12.0335 -1.18455 87 95 73
-46.0013 -7.23114 -0.978264 102 94 93
-8.05331 -14.0638 -0.390295 115 89 68
-8.15983 -14.1525 -0.39514 102 84 57
-11.8632 -12.8438 -0.438119 240 107 110
-11.9444 -12.8528 -0.440435 237 106 111
-12.0513 -12.8488 -0.443054 222 95 105
-12.1246 -12.8481 -0.444923 236 102 126
-12.2131 -12.8632 -0.447612 240 137 161
-12.3164 -12.853 -0.450007 227 79 107
-12.4053 -12.867 -0.452696 236 83 108
-12.4971 -12.8835 -0.455534 223 77 107
-12.5905 -12.9011 -0.458447 237 85 112
-12.6878 -12.8813 -0.460469 239 77 111
-12.7789 -12.8949 -0.463233 227 73 108
-12.8729 -12.9109 -0.466146 224 76 108
-12.9679 -12.8865 -0.468019 237 79 115
-13.0581 -12.8972 -0.470708 234 82 120
-13.1528 -12.9118 -0.473621 215 72 100
-13.2623 -12.8997 -0.47624 222 69 101
-35.1385 -13.96 -0.892297 80 56 70
-35.6963 -14.0524 -0.90844 88 57 72
-33.5959 -12.9232 -0.839434 139 100 99
-33.5944 -12.8021 -0.838149 85 61 68
-33.9153 -12.7423 -0.84631 87 71 74
-35.5532 -12.7889 -0.891705 103 88 81
-35.7938 -12.749 -0.897938 110 89 83
-30.5703 -7.29293 -0.706849 72 63 57
-30.5022 -7.12534 -0.703811 78 83 69
-58.0213 -12.6205 -1.30497 92 94 80
-59.4063 -12.7274 -1.34009 87 83 88
-47.1071 -6.72476 -1.00427 140 134 136
-5.85433 -14.2459 -0.360655 97 69 58
-8.28598 -14.9755 -0.424165 101 83 61
-8.62356 -14.8763 -0.427135 102 81 57
-8.69281 -14.8367 -0.42715 122 97 75
-8.77031 -14.8656 -0.429541 86 63 59
-8.65682 -14.5619 -0.417649 152 130 119
-8.93747 -14.8879 -0.433435 179 156 136
-8.88819 -14.5941 -0.423115 226 190 157
-8.90465 -14.5188 -0.421042 249 214 176
-9.03287 -14.5788 -0.425446 195 177 126
-9.28458 -14.8927 -0.440336 91 81 46
-9.21227 -14.517 -0.427043 111 90 64
-9.77543 -14.9583 -0.452239 92 76 50
-10.2846 -14.6769 -0.454204 133 109 86
-10.3694 -14.7028 -0.456819 127 100 83
-10.233 -14.4083 -0.44492 128 92 63
-10.6065 -14.7995 -0.464882 92 74 49
-10.6088 -14.6086 -0.45917 77 62 55
-10.7287 -14.3475 -0.454002 76 68 59
-10.761 -14.2513 -0.451857 69 58 40
-10.8263 -14.247 -0.453206 85 69 44
-10.8606 -14.2008 -0.45262 106 82 60
-11.4844 -14.7941 -0.48436 133 104 40
-11.9754 -14.5741 -0.489433 241 113 102
-13.3517 -12.9075 -0.478854 231 72 101
-13.4299 -12.9038 -0.480873 221 72 96
-13.5442 -12.894 -0.483715 223 69 105
-13.6341 -12.9004 -0.48633 223 69 96
-13.7328 -12.9146 -0.489392 220 65 96
-13.8174 -12.9146 -0.491709 217 68 99
-13.9266 -12.8968 -0.494253 216 69 98
-14.0128 -12.8971 -0.496644 219 67 99
-14.1051 -12.9025 -0.499333 223 68 100
-14.2265 -12.8936 -0.502474 215 63 92
-14.3073 -12.8871 -0.504567 234 87 106
-14.403 -12.8937 -0.507405 239 83 117
-14.5131 -12.8719 -0.50995 241 85 114
-14.6062 -12.8747 -0.512639 240 82 109
-14.6964 -12.8744 -0.515179 243 91 112
-14.8062 -12.8909 -0.518688 241 90 109
-14.9139 -12.8638 -0.521084 241 90 109
-16.0716 -7.2897 -0.446153 62 40 49
-16.05 -7.21966 -0.444361 63 43 48
-16.1229 -7.16239 -0.446003 72 50 61
-37.1059 -13.808 -0.944398 88 75 78
-38.0752 -12.76 -0.961049 94 77 64
-39.0549 -12.9521 -0.989954 115 86 73
-38.0352 -12.4822 -0.957426 122 92 88
-38.9522 -12.5803 -0.98377 75 62 71
-38.8003 -12.3973 -0.977936 74 62 70
-39.063 -12.3465 -0.984809 69 63 73
-31.6156 -6.70852 -0.732961 183 182 177
-31.5893 -6.5478 -0.731263 89 81 77
-61.2238 -11.9156 -1.38142 116 109 76
-62.5421 -11.9692 -1.41471 126 100 58
-63.6407 -11.8694 -1.44179 86 82 57
-56.0728 -7.20295 -1.23257 92 90 95
-6.35372 -15.1101 -0.39747 90 76 67
-7.56005 -15.292 -0.422144 92 85 59
-7.71876 -15.3789 -0.427668 107 104 71
-7.81057 -15.3848 -0.429394 91 89 61
-8.11208 -15.6308 -0.442664 125 121 73
-8.08745 -15.4013 -0.434649 97 91 58
-8.14411 -15.3944 -0.435404 117 109 69
-8.25013 -15.4832 -0.440175 92 80 65
-8.25589 -15.2025 -0.431055 89 83 58
-8.51779 -15.2947 -0.438753 123 102 78
-8.58977 -15.3143 -0.440698 104 71 42
-8.57385 -15.1724 -0.4358 119 86 59
-9.77983 -15.2257 -0.460696 107 84 47
-10.3091 -15.6899 -0.485959 92 77 55
-11.0903 -15.0384 -0.482718 79 72 55
-11.7861 -15.29 -0.505867 160 140 81
-12.6401 -15.1566 -0.521999 241 111 104
-15.0091 -12.8659 -0.523848 238 90 111
-15.1105 -12.8728 -0.52691 243 91 113
-15.2262 -12.8502 -0.529677 240 88 110
-15.328 -12.8559 -0.532739 236 82 105
-15.4223 -12.8546 -0.535429 244 78 114
-15.5399 -12.8313 -0.538271 236 76 109
-15.6437 -12.8365 -0.541408 232 78 109
-15.7492 -12.8425 -0.544619 239 74 116
-15.8565 -12.8492 -0.547905 234 75 107
-15.9763 -12.8243 -0.550822 228 68 102
-16.0839 -12.8297 -0.554107 232 71 106
-16.1933 -12.8359 -0.557468 208 47 91
-16.3105 -12.8062 -0.560235 204 64 89
-16.4234 -12.8135 -0.563745 202 61 88
-35.9928 -7.22231 -0.861095 90 82 60
-58.8287 -7.08898 -1.30199 46 45 62
-6.56391 -15.4253 -0.411307 76 63 47
-7.68911 -15.8808 -0.443973 106 88 74
-8.09301 -15.7144 -0.445106 111 103 57
-8.52137 -15.8279 -0.456254 84 75 52
-10.2232 -16.0461 -0.495359 103 81 58
-8.50443 -12.3693 -0.406464 122 99 83
-8.55588 -12.3631 -0.407463 130 105 85
-16.527 -12.8129 -0.566807 195 60 84
-16.6603 -12.7932 -0.57032 196 63 87
-16.769 -12.795 -0.573606 196 64 87
-16.8732 -12.7925 -0.576668 198 65 89
-16.9965 -12.8041 -0.580624 196 61 87
-17.1321 -12.7823 -0.584212 197 65 88
-17.2464 -12.7852 -0.587722 199 65 92
-17.3671 -12.7923 -0.591529 203 67 92
-17.5098 -12.7726 -0.595415 200 77 98
-17.6487 -12.7912 -0.600043 152 89 86
-17.7766 -12.8008 -0.604149 134 100 81
-17.941 -12.7934 -0.609004 155 119 91
-43.3276 -12.8019 -1.10777 97 85 84
-43.2594 -12.6345 -1.1045 94 81 81
-43.2116 -12.4738 -1.10187 114 95 97
-44.8011 -12.704 -1.14832 110 96 93
-46.4311 -12.3048 -1.19118 65 57 59
-64.7606 -6.2256 -1.4545 155 133 111
-6.56642 -15.9264 -0.428581 83 65 53
-8.37627 -16.4122 -0.473051 93 85 59
-8.42727 -12.5464 -0.41073 104 89 74
-8.41524 -12.4439 -0.406939 99 88 70
-8.44353 -12.4032 -0.406204 121 105 90
-8.62647 -12.3848 -0.409865 124 100 80
-9.76981 -12.3827 -0.438017 109 60 31
-18.0743 -12.8049 -0.613334 171 118 101
-18.229 -12.8307 -0.618633 178 95 94
-18.3959 -12.8212 -0.623563 192 91 104
-18.5399 -12.837 -0.62834 190 88 105
-19.0166 -13.0833 -0.648255 187 89 108
-19.3817 -13.2485 -0.663025 195 91 108
-14.0452 -7.11469 -0.438659 100 80 83
-14.067 -7.04357 -0.438164 95 75 80
-48.1685 -12.9263 -1.24481 86 80 82
-47.3752 -12.3958 -1.21851 89 82 76
-47.3529 -12.1522 -1.21611 79 69 65
-49.6116 -12.5652 -1.28296 98 86 74
-49.7275 -12.4287 -1.28528 78 79 65
-49.3034 -12.0767 -1.27082 74 76 57
-50.2297 -12.1364 -1.2975 84 80 75
-41.0007 -7.29119 -1.0051 102 96 85
-69.339 -6.46188 -1.57383 94 86 86
-54.9008 -0.77628 -1.19524 75 91 124
-54.8423 -0.607225 -1.19383 151 170 195
-5.7203 -13.1357 -0.378606 86 79 61
-5.7394 -13.0106 -0.374166 90 84 70
-5.73872 -12.8978 -0.369887 91 84 69
-5.78869 -12.9044 -0.370968 95 83 68
-5.85666 -12.8966 -0.371806 95 79 69
-5.90279 -12.8936 -0.372475 102 85 70
-5.95543 -12.905 -0.373804 95 77 63
-6.00251 -12.9035 -0.374555 90 72 61
-6.07319 -12.9 -0.375641 107 89 75
-6.11787 -12.8926 -0.376145 89 76 67
-6.1701 -12.9013 -0.377391 93 73 62
-6.24102 -12.8969 -0.378477 99 81 66
-9.84776 -12.933 -0.457964 94 84 54
-11.0788 -13.0801 -0.494701 245 110 108
-11.3188 -12.9531 -0.49722 213 82 85
-11.3076 -12.8593 -0.494005 239 111 107
-11.3353 -12.8108 -0.493269 237 107 106
-11.437 -12.8061 -0.495925 246 108 111
-11.516 -12.8156 -0.498412 243 104 107
-11.5966 -12.8262 -0.500982 241 105 106
-11.676 -12.835 -0.503468 241 103 107
-20.0721 -13.5879 -0.69152 132 48 67
-20.81 -12.9391 -0.701723 80 29 44
-20.9512 -12.9374 -0.706202 81 29 45
-52.9883 -12.0127 -1.3751 99 98 71
-53.4305 -11.9366 -1.38721 105 102 71
-55.2401 -12.0674 -1.4396 92 91 68
-46.0009 -7.13858 -1.14833 113 109 110
-5.70801 -13.2211 -0.381648 90 78 66
-8.05544 -14.0735 -0.456337 128 96 71
-9.36709 -14.1226 -0.486515 100 86 60
-5.98107 -7.36806 -0.287288 240 112 105
-5.95383 -7.28735 -0.283041 242 111 102
-5.97587 -7.26932 -0.283044 242 111 107
-6.01675 -7.25146 -0.283687 241 109 105
-11.007 -13.1589 -0.495264 241 109 105
-6.06128 -7.26114 -0.285602 240 108 104
-11.0729 -13.1557 -0.496924 241 109 105
-11.227 -13.1326 -0.500332 243 107 109
-11.2919 -13.1269 -0.50191 242 104 106
-11.2973 -13.0509 -0.499687 226 63 104
-11.7758 -12.8251 -0.50596 241 103 111
-11.8569 -12.8345 -0.508529 242 102 110
-11.9409 -12.8463 -0.511264 242 98 106
-12.0466 -12.8407 -0.514086 242 96 108
-12.1296 -12.8501 -0.516738 239 86 107
-12.2183 -12.865 -0.519721 242 88 110
-12.3246 -12.8575 -0.522542 240 79 113
-12.4109 -12.8685 -0.52536 238 78 112
-12.5016 -12.8834 -0.528426 236 81 112
-12.5842 -12.8893 -0.530995 239 82 114
-12.6969 -12.8851 -0.534148 241 76 116
-12.784 -12.8942 -0.536966 244 75 117
-12.8741 -12.9058 -0.539949 240 77 112
-12.986 -12.8982 -0.543019 239 75 112
-13.0822 -12.9144 -0.546333 238 71 110
-13.1715 -12.9231 -0.549233 231 69 111
-13.2841 -12.9135 -0.552303 229 66 103
-21.9315 -14.1707 -0.761659 64 21 37
-21.9582 -14.0913 -0.760918 69 27 41
-22.675 -14.3566 -0.788895 68 32 39
-22.2895 -13.9645 -0.768917 78 39 50
-21.4575 -13.1146 -0.725825 83 41 49
-22.3472 -13.142 -0.75501 139 84 83
-22.3651 -13.0589 -0.754044 141 90 90
-22.3961 -12.9369 -0.752783 83 47 57
-22.3978 -12.8448 -0.751145 72 50 50
-22.4786 -12.7986 -0.752938 88 69 70
-22.6834 -12.7759 -0.75921 88 71 82
-22.8633 -12.7843 -0.765255 83 66 76
-20.9739 -7.36884 -0.618229 102 90 89
-20.9905 -7.26433 -0.617556 108 110 74
-56.2223 -12.0969 -1.46779 85 83 75
-60.8037 -11.6895 -1.59646 145 139 92
-47.093 -6.62752 -1.1777 106 97 101
-8.01006 -14.1468 -0.458056 118 92 53
-8.53134 -14.7126 -0.489041 106 81 59
-8.48087 -14.4653 -0.479152 106 85 59
-8.62811 -14.6176 -0.487664 94 78 62
-8.83889 -14.5114 -0.488371 240 203 172
-9.06064 -14.6246 -0.497147 247 223 165
-9.15044 -14.6701 -0.500707 103 89 48
-9.11627 -14.5127 -0.494444 134 122 64
-9.34843 -14.5342 -0.500341 100 82 50
-9.61576 -14.7044 -0.512255 99 82 43
-10.2321 -14.596 -0.522849 133 107 90
-10.3487 -14.668 -0.528062 130 111 93
-10.3266 -14.5395 -0.5232 81 51 36
-10.2842 -14.3834 -0.516933 160 129 101
-10.492 -14.5346 -0.527024 117 100 70
-10.6618 -14.5818 -0.532742 100 89 64
-10.7422 -14.3615 -0.527408 79 71 61
-10.7709 -14.2605 -0.524779 73 66 47
-11.4105 -14.3621 -0.544351 136 74 54
-11.839 -14.3962 -0.55663 240 112 104
-11.9754 -14.4262 -0.561188 242 110 108
-13.3695 -12.917 -0.554956 227 64 100
-13.4622 -12.9269 -0.558021 219 71 98
-13.5464 -12.9281 -0.560591 216 68 90
-13.6511 -12.9078 -0.563165 218 66 96
-13.74 -12.9122 -0.565983 217 67 95
-13.8291 -12.9161 -0.568801 211 71 94
-13.9429 -12.9021 -0.571872 215 73 96
-14.0279 -12.9009 -0.574441 211 76 96
-14.1248 -12.9102 -0.577673 210 74 96
-14.2273 -12.8834 -0.580082 205 74 92
-14.3541 -12.9184 -0.584967 218 91 103
-14.4516 -12.926 -0.588198 231 94 108
-23.9077 -15.2486 -0.845645 82 50 63
-24.0563 -14.6147 -0.838003 101 61 69
-24.3586 -14.6959 -0.84927 102 62 69
-24.2984 -14.5044 -0.843685 95 54 57
-24.4148 -14.4713 -0.846822 140 86 86
-24.3228 -13.5078 -0.826125 79 66 72
-24.0591 -13.1155 -0.810471 100 83 89
-16.0465 -7.27338 -0.516616 71 61 68
-16.0539 -7.21668 -0.515953 68 57 66
-16.0939 -7.17467 -0.516779 69 58 64
-62.3116 -11.7761 -1.64016 143 118 71
-63.1116 -11.7219 -1.66281 150 120 84
-66.5606 -12.0372 -1.76345 96 79 65
-56.0687 -7.07926 -1.439 107 101 103
-5.75508 -14.1994 -0.419756 132 88 77
-8.17152 -15.1547 -0.497763 89 85 60
-8.13828 -14.7011 -0.480636 99 85 58
-8.44373 -15.1554 -0.503177 120 95 69
-8.30269 -14.7861 -0.487013 114 88 45
-8.4849 -14.7368 -0.488948 112 90 58
-9.12084 -15.1991 -0.518726 179 157 132
-9.06939 -14.7944 -0.503323 254 224 189
-9.6913 -15.2886 -0.534251 103 79 50
-9.72249 -14.9731 -0.523969 107 86 59
-10.068 -15.306 -0.543311 102 87 55
-10.9172 -15.0355 -0.554123 116 97 73
-11.0955 -15.0368 -0.558527 93 80 64
-11.5501 -15.1132 -0.572378 107 95 60
-11.6578 -15.109 -0.574954 128 102 58
-11.7165 -15.0888 -0.57579 168 140 77
-11.9433 -15.2869 -0.588027 172 129 67
-15.6952 -12.9451 -0.627979 162 48 82
-25.9345 -14.0411 -0.888648 70 56 62
-25.0593 -13.2116 -0.845246 109 98 91
-25.3072 -13.0917 -0.851446 89 71 72
-25.1683 -12.9199 -0.843914 90 78 78
-58.4501 -6.91297 -1.50738 102 102 104
-58.8399 -6.77153 -1.5182 113 112 110
-7.3193 -15.0887 -0.479373 100 86 73
-7.6441 -15.4668 -0.499282 78 61 51
-7.56326 -15.1774 -0.487084 88 76 60
-7.68185 -15.3016 -0.493861 84 83 58
-7.85233 -15.5292 -0.505423 96 95 70
-8.04404 -15.612 -0.512052 101 89 41
-8.16875 -15.739 -0.519077 102 87 61
-8.18118 -15.5823 -0.513566 103 97 61
-8.23662 -15.5716 -0.514237 98 87 54
-9.23727 -15.5639 -0.534145 148 129 113
-10.1576 -15.9295 -0.566956 132 109 77
-11.9639 -16.1283 -0.616189 83 74 63
-15.9433 -14.1392 -0.667754 207 95 115
-15.9883 -14.0909 -0.667845 212 98 121
-16.3285 -14.2139 -0.681834 195 88 108
-16.4001 -14.0539 -0.679787 154 62 75
-16.5706 -14.1121 -0.686741 140 47 53
-16.6437 -14.0411 -0.687166 98 21 23
-16.5617 -13.7961 -0.678084 94 14 31
-16.8289 -13.1135 -0.669141 82 29 34
-16.8456 -13.0427 -0.667907 73 30 40
-16.8744 -12.9395 -0.666263 73 32 44
-16.8793 -12.8601 -0.664449 70 33 41
-16.9346 -12.8196 -0.665282 66 30 33
-17.0504 -12.8247 -0.669258 72 37 41
-17.1928 -12.8072 -0.673568 70 39 37
-17.317 -12.8169 -0.677958 67 43 46
-17.5072 -12.2152 -0.669983 87 60 65
-11.0675 -7.37942 -0.427171 89 63 79
-11.0254 -7.30157 -0.423405 82 62 71
-11.0408 -7.26294 -0.423019 80 59 63
-27.3511 -14.7035 -0.947059 118 114 115
-27.6319 -14.6888 -0.956093 141 136 127
-27.0759 -14.1751 -0.928797 80 64 73
-27.5021 -13.6417 -0.934116 91 73 71
-26.8022 -13.188 -0.903159 99 80 81
-26.8075 -13.0348 -0.900852 87 66 66
-27.7588 -13.3935 -0.938751 77 55 65
-27.453 -13.1394 -0.924355 78 57 67
-27.5658 -13.0352 -0.926523 104 83 82
-26.4605 -12.408 -0.879152 119 101 87
-27.909 -12.9858 -0.937418 127 98 86
-27.9762 -12.8579 -0.937721 74 59 59
-64.7242 -6.21233 -1.6872 139 120 100
-6.3292 -15.3253 -0.471728 102 83 69
-6.64241 -15.8276 -0.49583 101 87 78
-6.68436 -15.7198 -0.492384 102 88 71
-17.5036 -15.1018 -0.742708 111 32 45
-17.613 -14.4478 -0.728881 85 21 31
-18.4678 -15.0581 -0.772307 89 25 34
-17.7668 -14.3909 -0.732369 92 29 36
-17.8775 -14.2522 -0.732388 151 82 76
-18.3975 -14.5762 -0.757621 136 79 74
-18.4317 -12.9495 -0.718786 75 56 56
-19.2083 -13.276 -0.752966 115 98 88
-19.1702 -13.1616 -0.749001 123 103 88
-19.4555 -12.6574 -0.747389 88 69 68
-29.6466 -12.9074 -0.995697 108 95 105
-30.5217 -12.8951 -1.02569 106 97 100
-30.1104 -12.5539 -1.0066 107 96 100
-26.0446 -7.283 -0.7988 122 105 97
-26.0031 -7.18363 -0.796332 113 104 91
-69.3716 -6.4366 -1.82277 110 109 106
-54.0048 -0.490478 -1.36483 120 147 167
-6.46459 -15.8088 -0.49233 125 86 79
-9.42142 -17.4056 -0.604141 81 84 57
-18.86 -14.8019 -0.778476 138 83 78
-19.6483 -14.459 -0.796085 83 62 60
-19.6735 -14.3363 -0.793946 80 54 51
-19.7046 -14.2655 -0.793291 132 105 97
-19.6967 -14.1665 -0.79065 123 96 76
-19.9702 -14.2231 -0.801249 166 130 104
-20.0644 -14.1966 -0.80382 145 113 94
-20.7948 -14.1879 -0.828591 104 82 68
-20.5853 -12.989 -0.794322 93 77 83
-20.2901 -12.5821 -0.775057 67 49 47
-20.0875 -12.3696 -0.763312 79 58 60
-32.1846 -13.8398 -1.09672 102 91 100
-32.5019 -13.8567 -1.10791 104 89 92
-31.4709 -13.0092 -1.06017 66 53 54
-31.4904 -12.9021 -1.05934 56 42 44
-31.8324 -12.8688 -1.07076 60 41 47
-31.9883 -12.8159 -1.07546 57 38 35
-32.1941 -12.7821 -1.08218 74 53 53
-32.5188 -12.7941 -1.09367 96 70 74
-32.8545 -12.749 -1.10478 126 92 90
-53.7535 -0.323589 -1.35749 160 187 201
-53.7355 -0.158848 -1.35711 172 190 216
-9.40647 -17.7093 -0.614917 88 75 58
-21.0984 -14.2519 -0.840514 88 69 60
-21.9547 -14.1455 -0.86786 96 81 72
-22.0486 -14.1092 -0.870348 97 79 78
-23.0129 -13.9325 -0.900593 89 55 61
-22.1815 -13.0987 -0.853364 129 83 83
-22.3679 -13.1154 -0.860401 130 84 83
-22.3737 -13.0254 -0.85875 137 95 93
-22.408 -12.9054 -0.857517 84 63 60
-22.406 -12.8114 -0.855535 86 66 67
-22.5355 -12.7927 -0.859841 81 63 64
-22.7355 -12.7663 -0.866552 74 60 64
-22.9385 -12.7868 -0.874334 64 55 59
-33.2189 -12.7717 -1.11784 124 96 90
-33.5485 -12.7787 -1.12948 130 107 95
-33.8946 -12.7292 -1.14097 129 105 87
-34.0978 -12.6843 -1.14753 128 99 81
-34.2544 -12.6209 -1.15223 122 95 77
-34.3686 -12.4801 -1.15447 95 76 63
-34.7687 -12.503 -1.16887 123 101 90
-35.0584 -12.4839 -1.17887 128 101 92
-20.9395 -7.40833 -0.707698 128 104 87
-20.9674 -7.34473 -0.707943 123 102 80
-20.9915 -7.24293 -0.707528 114 99 70
-24.9397 -15.8577 -1.01034 71 60 54
-24.2024 -15.1234 -0.968331 105 92 84
-24.1024 -14.6973 -0.955611 88 59 62
-24.237 -14.5732 -0.957773 95 59 63
-23.3285 -12.9098 -0.89097 84 71 72
-23.537 -12.882 -0.898011 83 68 62
-23.729 -12.8914 -0.905214 86 69 70
-23.916 -12.897 -0.912168 120 111 116
-24.1596 -12.9316 -0.92177 135 127 126
-24.5809 -13.01 -0.938742 184 168 157
-36.5048 -12.4246 -1.22937 111 96 65
-37.0816 -12.4276 -1.24989 116 104 68
-37.46 -12.4246 -1.26332 108 101 59
-37.9486 -12.4556 -1.28107 117 106 66
-38.0229 -12.2824 -1.28174 104 102 64
-30.5001 -7.26269 -0.960349 83 78 56
-31.548 -6.68223 -0.994023 181 179 176
-8.42462 -12.4401 -0.50954 89 74 55
-8.45737 -12.406 -0.509066 119 100 86
-8.50325 -12.3918 -0.509749 120 98 85
-8.56854 -12.3643 -0.510437 131 105 86
-8.63338 -12.3778 -0.512759 134 109 87
-25.2461 -13.2624 -0.96804 83 68 71
-25.1895 -13.1326 -0.963492 112 101 104
-25.2608 -13.0197 -0.963996 107 96 93
-25.9349 -13.2658 -0.993542 108 95 92
-14.0566 -7.11849 -0.546804 102 85 83
-14.0762 -7.07378 -0.546706 102 86 81
-26.4116 -13.0455 -1.00721 102 88 81
-26.5609 -13.0165 -1.01226 99 81 77
-26.5744 -12.869 -1.01012 77 59 58
-26.7235 -12.8385 -1.01517 76 60 61
-26.2403 -12.2548 -0.98679 140 116 103
-38.7647 -12.3891 -1.30942 106 97 65
-38.5934 -12.2009 -1.30121 109 96 68
-39.2926 -12.2877 -1.32717 112 97 68
-39.6843 -12.2061 -1.3403 117 101 77
-39.8512 -12.1211 -1.34537 113 92 75
-41.3845 -12.448 -1.40386 103 84 61
-39.6947 -11.734 -1.33567 100 94 63
-31.6153 -6.54126 -0.995434 104 93 95
-8.45467 -12.6141 -0.517337 97 85 61
-8.97403 -12.6685 -0.533706 139 109 88
-9.22191 -12.9431 -0.551458 129 87 63
-9.33125 -12.9289 -0.553983 122 102 74
-9.7853 -12.8402 -0.563605 95 79 61
-9.76032 -12.7238 -0.558405 87 70 53
-9.79104 -12.6826 -0.557738 133 109 73
-9.80837 -12.6239 -0.55601 177 141 95
-9.91291 -12.5578 -0.556609 122 71 55
-26.6998 -12.7247 -1.01227 78 61 58
-26.6304 -12.5388 -1.0064 110 93 82
-27.6015 -12.787 -1.04729 124 96 86
-27.8856 -12.7603 -1.05756 90 67 66
-41.8769 -12.2395 -1.41938 105 102 67
-41.9525 -12.119 -1.42086 102 95 68
-42.685 -12.1142 -1.4472 115 106 97
-35.9357 -7.20604 -1.15889 147 138 131
-5.91994 -12.8992 -0.469932 99 84 71
-5.96931 -12.9034 -0.471097 93 78 67
-6.01632 -12.9018 -0.471974 98 80 68
-6.06663 -12.9075 -0.473235 91 73 58
-6.13653 -12.9019 -0.474405 102 89 80
-6.18454 -12.9016 -0.475378 97 82 74
-6.23179 -12.8993 -0.476254 94 73 62
-6.68498 -13.0233 -0.491262 113 111 72
-7.15314 -12.9939 -0.500504 86 80 40
-7.21895 -12.924 -0.499077 88 79 57
-7.66918 -13.4115 -0.530239 111 86 63
-10.2631 -13.0973 -0.587565 151 104 74
-11.047 -13.0393 -0.609377 149 55 50
-11.2353 -13.1831 -0.620577 137 55 53
-11.3131 -13.1509 -0.621845 122 34 51
-11.3149 -13.0703 -0.618958 113 16 36
-11.3098 -12.9822 -0.61559 116 30 37
-11.3258 -12.8783 -0.612322 96 24 18
-11.3836 -12.8645 -0.613681 75 11 10
-11.4586 -12.87 -0.616294 71 5 7
-11.5486 -12.8514 -0.618526 81 6 12
-11.6277 -12.8605 -0.621428 105 30 30
-11.7018 -12.8634 -0.623945 94 24 27
-11.7733 -12.8629 -0.626269 123 66 61
-12.399 -12.9799 -0.651126 101 58 55
-11.0298 -7.37251 -0.489437 83 63 63
-11.0272 -7.32164 -0.487843 75 60 61
-11.0576 -7.29297 -0.488376 101 80 72
-11.1127 -7.25577 -0.489763 85 64 54
-28.7358 -12.5576 -1.08645 134 104 100
-29.243 -12.6709 -1.10764 128 98 92
-29.14 -12.4642 -1.10036 124 94 91
-29.8526 -12.6592 -1.13074 122 91 86
-30.3862 -12.774 -1.15301 121 87 85
-30.0378 -12.4618 -1.13472 123 88 86
-29.6827 -12.2058 -1.11709 120 85 81
-25.9672 -7.31072 -0.905804 109 93 78
-26.0258 -7.23944 -0.907372 106 93 77
-44.6765 -12.2287 -1.52023 98 87 68
-45.2966 -12.1702 -1.54209 93 89 59
-45.7537 -12.1397 -1.55835 96 92 64
-46.2572 -12.1187 -1.5764 93 97 65
-46.39 -11.9205 -1.57938 99 103 67
-47.0696 -11.9385 -1.60422 108 101 73
-47.7846 -11.9611 -1.6304 94 85 66
-5.7337 -13.1342 -0.476714 96 87 70
-5.72503 -12.9991 -0.47056 93 81 70
-5.75286 -12.896 -0.466528 95 81 68
-5.80511 -12.9082 -0.468079 95 81 69
-5.84881 -12.8999 -0.46857 92 78 69
-16.0556 -7.28379 -0.637918 126 95 90
-16.1302 -7.25764 -0.64072 125 95 89
-16.0939 -7.18101 -0.637627 118 90 86
-31.3484 -12.7771 -1.19001 122 88 85
-31.6685 -12.7347 -1.20168 120 90 83
-31.9559 -12.7345 -1.21277 123 93 84
-32.2771 -12.7458 -1.22535 124 93 87
-32.647 -12.7741 -1.24009 121 90 87
-32.2012 -12.4256 -1.21766 118 90 81
-32.7109 -12.5051 -1.2386 104 83 69
-32.8351 -12.435 -1.24241 117 97 80
-48.095 -11.7986 -1.64024 90 78 69
-48.6074 -11.7632 -1.65859 98 81 74
-41.0389 -7.30086 -1.34737 116 116 115
-8.12174 -14.0776 -0.568999 114 93 71
-8.44432 -14.5508 -0.596575 99 77 66
-8.61319 -14.5849 -0.602095 78 57 50
-9.01395 -14.6976 -0.61671 249 216 183
-9.11928 -14.6147 -0.615966 81 61 42
-9.08336 -14.4538 -0.608457 119 88 67
-10.1386 -14.5085 -0.638803 130 107 90
-10.4788 -14.6625 -0.654366 141 100 76
-10.4893 -14.4367 -0.645808 87 69 48
-11.1915 -14.9789 -0.687037 72 63 56
-5.94773 -7.3469 -0.357274 181 84 62
-5.96017 -7.31627 -0.356302 178 83 59
-5.97989 -7.29502 -0.35606 173 80 55
-12.3646 -14.9603 -0.72145 171 74 49
-6.01219 -7.26615 -0.355943 174 71 56
-12.1259 -14.5258 -0.697925 182 78 64
-6.05415 -7.27277 -0.357892 191 86 73
-12.423 -14.7951 -0.717134 204 103 89
-13.3271 -14.1464 -0.722909 95 57 55
-13.7146 -14.4748 -0.747334 95 59 57
-13.8385 -14.3813 -0.748226 113 81 81
-14.1676 -14.4563 -0.761958 87 55 51
-15.2824 -13.9093 -0.782681 78 59 55
-15.4257 -12.8573 -0.754694 75 51 49
-15.9849 -12.9547 -0.778671 98 58 57
-33.5618 -12.5306 -1.27204 124 97 78
-33.9203 -12.5438 -1.2862 119 94 72
-34.1386 -12.5033 -1.29414 109 88 74
-34.3202 -12.3874 -1.29961 113 98 84
-34.7828 -12.4316 -1.31831 127 107 89
-51.7408 -11.7532 -1.77279 141 134 131
-52.5682 -11.7684 -1.80314 141 135 134
-53.2996 -11.6693 -1.8291 138 134 133
-53.6955 -11.5797 -1.8429 128 121 126
-45.9129 -7.28254 -1.52727 93 84 88
-45.9662 -7.14308 -1.52846 133 128 129
-7.5576 -14.6289 -0.57944 88 87 39
-8.31836 -15.0867 -0.616158 100 95 57
-8.30659 -14.7861 -0.603176 97 78 49
-8.27854 -14.6259 -0.595766 98 76 56
-8.61191 -14.7423 -0.608634 113 85 67
-8.85126 -14.8943 -0.620806 147 125 113
