-18.3153 14.1267 -1.9212 85 86 99
-18.2639 14.175 -1.92048 83 85 98
-18.1941 14.2079 -1.91745 85 91 106
-18.1156 14.2785 -1.91617 105 111 125
-18.0411 14.3068 -1.91257 116 114 125
-18.0119 14.3736 -1.91472 102 101 108
-17.8981 14.4133 -1.90904 86 86 96
-17.8669 14.4785 -1.91099 84 84 93
-17.7966 14.5096 -1.90797 83 83 93
-11.127 11.0709 -1.28446 95 95 97
-11.0911 11.1367 -1.2871 91 92 96
-11.0029 11.1078 -1.2791 80 81 92
-9.33343 16.1685 -1.3733 72 80 93
-9.27295 16.1761 -1.37158 71 79 92
-9.2037 16.1656 -1.36812 69 79 91
-9.14071 16.1674 -1.36588 70 80 92
-9.04809 16.1723 -1.36278 71 81 93
-7.83705 16.1262 -1.2679 75 84 99
-7.77717 16.1267 -1.26607 74 83 98
-7.68977 16.1317 -1.26374 74 83 100
-7.62784 16.1261 -1.2614 77 87 99
-4.5998 11.4805 -0.838426 75 81 93
-4.55331 11.5251 -0.841063 72 80 93
-23.5781 9.483 -2.11377 98 95 104
-23.5895 9.57088 -2.11822 90 89 98
-23.5531 9.6384 -2.11769 81 80 89
-23.4775 9.73026 -2.11471 78 74 87
-23.4533 9.80302 -2.11552 80 78 90
-23.4779 9.89756 -2.12149 81 82 95
-23.4514 9.96956 -2.12212 68 72 87
-23.4342 10.0877 -2.12544 86 88 100
-23.3835 10.1488 -2.12358 86 88 100
-23.2118 10.1538 -2.1089 89 91 104
-23.0261 10.1927 -2.09444 84 88 100
-22.8205 10.1794 -2.07614 87 89 102
-17.7651 14.5746 -1.90992 83 83 92
-17.691 14.6482 -1.90941 82 82 90
-17.6145 14.6732 -1.90562 85 85 93
-17.5927 14.7471 -1.90891 82 85 92
-17.5119 14.8145 -1.90763 81 84 89
-17.4645 14.8654 -1.90767 75 78 81
-17.376 14.8785 -1.90234 80 80 88
-17.2933 14.9434 -1.90087 79 79 84
-17.2077 14.9584 -1.89593 85 83 88
-17.1888 15.0356 -1.8998 83 82 87
-17.1392 15.0842 -1.89965 81 82 87
-17.0342 15.1272 -1.8953 80 81 86
-17.0015 15.1919 -1.89745 80 80 86
-16.9472 15.2357 -1.89672 82 82 91
-10.9711 11.1428 -1.27973 93 93 103
-10.9774 11.2577 -1.28899 77 76 87
-8.9827 16.1681 -1.36002 71 81 93
-8.91739 16.1636 -1.35725 70 80 92
-8.83192 16.1817 -1.35555 71 79 92
-8.76091 16.1641 -1.35156 71 79 92
-8.70011 16.1678 -1.34967 72 80 91
-7.57113 16.1332 -1.26024 78 88 100
-7.5108 16.1309 -1.25824 80 90 102
-7.42303 16.1326 -1.25574 75 84 98
-7.36215 16.1279 -1.25357 78 87 102
-23.834 7.99795 -2.08264 52 49 66
-23.8342 8.07797 -2.08537 51 49 66
-23.8191 8.15266 -2.08656 51 50 65
-23.7982 8.2253 -2.08718 49 48 63
-23.7696 8.3352 -2.0884 50 52 64
-23.7761 8.41818 -2.09189 60 61 74
-23.7636 8.49425 -2.09346 66 65 79
-23.7393 8.60626 -2.09526 73 71 83
-23.7188 8.67947 -2.09607 77 75 86
-23.7258 8.76348 -2.09975 82 81 94
-23.6909 8.87184 -2.10058 83 82 96
-23.6843 8.95088 -2.10292 88 85 99
-23.6701 9.02701 -2.1045 81 80 93
-23.6408 9.09714 -2.10455 75 77 90
-23.619 9.21127 -2.10692 73 72 87
-23.6131 9.29117 -2.10945 86 84 98
-23.594 9.36574 -2.11064 116 114 127
-16.8674 15.3025 -1.89582 83 84 89
-16.7901 15.3235 -1.89202 82 85 91
-16.7609 15.3918 -1.89475 80 80 89
-16.679 15.4563 -1.89366 77 77 85
-16.7011 15.5765 -1.90347 76 76 84
-16.5051 15.5753 -1.89032 74 78 86
-16.4128 15.6285 -1.88789 81 84 92
-16.3669 15.6803 -1.8885 83 86 91
-16.281 15.6904 -1.88355 87 91 94
-9.65558 11.3763 -1.21651 73 79 97
-8.60738 16.1685 -1.3464 74 82 93
-8.54509 16.1681 -1.34415 74 82 93
-8.48531 16.1729 -1.34243 72 80 93
-8.41992 16.1648 -1.33949 72 80 93
-7.3042 16.1304 -1.25207 77 86 101
-7.21884 16.1367 -1.25008 79 86 102
-7.15544 16.1238 -1.24724 77 86 101
-24.0439 7.03983 -2.07133 47 55 72
-24.0287 7.15269 -2.07331 46 54 67
-24.0338 7.23295 -2.07622 48 56 69
-24.0063 7.30299 -2.07589 50 56 70
-23.9882 7.376 -2.07651 50 53 70
-23.9335 7.47641 -2.07467 51 51 67
-23.9261 7.553 -2.07643 55 54 68
-23.9034 7.62456 -2.07667 56 57 69
-23.889 7.73852 -2.07904 51 50 63
-23.8657 7.80998 -2.07928 46 48 62
-23.8628 7.88858 -2.08162 47 46 64
-16.2253 15.7812 -1.88629 85 88 93
-16.1667 15.8195 -1.88518 83 86 96
-16.0875 15.8358 -1.88119 86 88 96
-16.016 15.9099 -1.88183 102 106 107
-15.9908 15.9839 -1.8855 95 100 105
-15.9169 16.0053 -1.88228 96 96 104
-15.8536 16.0381 -1.88059 102 102 109
-15.7357 16.061 -1.87471 99 99 106
-15.6379 16.0547 -1.86803 94 92 102
-9.61781 11.4011 -1.21633 74 81 98
-9.57254 11.4533 -1.21797 73 82 94
-8.33169 16.1731 -1.33709 71 79 92
-8.26971 16.1717 -1.33485 70 78 91
-8.20389 16.1609 -1.33173 72 80 95
-8.11986 16.1772 -1.3302 75 85 97
-8.05503 16.1677 -1.32726 75 85 97
-7.09906 16.1293 -1.24608 77 86 101
-7.01259 16.1308 -1.24375 76 86 98
-6.95293 16.1265 -1.24174 77 87 99
-6.89468 16.1257 -1.24007 77 87 99
-24.1338 6.17275 -2.05512 80 89 106
-24.1497 6.2927 -2.05978 81 93 109
-24.1195 6.36164 -2.05887 77 88 105
-24.0948 6.43207 -2.05853 74 85 106
-24.1061 6.51277 -2.06183 75 86 106
-24.0763 6.6205 -2.06209 74 85 105
-24.1023 6.70588 -2.06691 77 88 106
-24.0842 6.77847 -2.06734 74 86 102
-24.0741 6.89245 -2.0697 76 84 103
-24.0781 6.97197 -2.07243 77 83 101
-20.4254 10.1761 -1.96712 95 99 110
-20.2701 10.1701 -1.95315 93 93 107
-20.164 10.1898 -1.94479 95 95 109
-20.1238 10.2833 -1.94585 97 94 108
-20.0924 10.3433 -1.94609 95 95 105
-20.0487 10.3964 -1.94493 98 98 108
-19.9867 10.4777 -1.9436 99 99 109
-19.9305 10.5235 -1.94104 98 101 110
-19.8828 10.5741 -1.93948 100 100 108
-19.8183 10.6535 -1.93794 105 105 113
-19.7977 10.7195 -1.93958 98 98 108
-19.7632 10.7775 -1.93962 98 100 109
-19.8534 10.9091 -1.95428 104 104 116
-19.5139 11.4573 -1.95468 92 91 107
-19.4905 11.5229 -1.95632 96 98 110
-19.187 12.0969 -1.96332 109 108 117
-18.9284 12.0029 -1.93653 111 112 121
-18.8784 12.0504 -1.93517 91 95 102
-18.8184 12.0908 -1.9326 86 88 94
-18.7199 12.1447 -1.92766 92 92 98
-18.6646 12.188 -1.92569 95 94 99
-18.6109 12.2321 -1.92393 96 94 100
-18.533 12.2996 -1.92159 99 97 103
-18.4694 12.3363 -1.91862 100 98 101
-18.4298 12.3901 -1.91866 104 103 99
-18.3673 12.4683 -1.91832 109 107 106
-18.3209 12.5172 -1.91756 107 106 104
-18.2776 12.5682 -1.9172 110 110 107
-18.2437 12.6262 -1.91804 107 106 103
-18.1706 12.6963 -1.9165 100 95 97
-18.0887 12.718 -1.91133 98 94 97
-18.0464 12.7695 -1.91117 95 94 96
-17.9774 12.8422 -1.91023 94 92 99
-17.9284 12.8884 -1.90927 83 85 94
-15.11 16.0705 -1.83604 97 94 106
-15.0158 16.0642 -1.82975 86 85 97
-14.9231 16.059 -1.82365 82 82 94
-14.8041 16.0732 -1.81738 73 77 89
-14.7054 16.0595 -1.81032 99 108 117
-14.6158 16.0559 -1.8046 101 109 114
-14.5212 16.0459 -1.79811 102 105 111
-14.403 16.0576 -1.79184 107 103 104
-14.3202 16.0604 -1.78708 100 95 102
-14.2225 16.0443 -1.78002 73 75 88
-14.1123 16.0635 -1.77489 74 78 91
-7.9965 16.1726 -1.32571 74 84 96
-7.90425 16.1676 -1.32226 75 85 97
-7.84734 16.1757 -1.32106 75 84 99
-7.78373 16.167 -1.3183 76 85 100
-6.83518 16.121 -1.23807 76 83 99
-6.74781 16.1173 -1.2354 71 77 91
-6.69496 16.1309 -1.23508 73 81 92
-24.2688 5.51729 -2.05107 84 95 113
-24.2679 5.59348 -2.05284 82 93 111
-24.2495 5.66544 -2.05289 81 94 111
-24.2314 5.77571 -2.05391 78 91 110
-24.2277 5.85148 -2.05549 79 90 108
-24.2412 5.93177 -2.05878 96 107 122
-24.2391 6.04667 -2.06152 109 115 131
-24.1712 6.10574 -2.0568 84 90 107
-21.4586 10.1636 -2.05827 80 84 95
-21.2843 10.1545 -2.0423 81 83 96
-21.0944 10.1756 -2.02636 83 85 100
-20.9189 10.1634 -2.01019 95 97 111
-20.7612 10.1594 -1.99603 101 105 117
-20.5808 10.1811 -1.98108 100 107 117
-20.2856 11.2852 -2.0112 101 101 113
-20.2544 11.3478 -2.01184 101 100 113
-20.2621 11.434 -2.01709 98 97 108
-20.2413 11.5438 -2.02116 95 95 105
-20.2481 11.6303 -2.02641 97 97 104
-20.2547 11.7169 -2.03165 95 95 104
-20.111 11.7512 -2.02131 101 99 111
-20.2415 12.0841 -2.05067 110 110 120
-20.177 12.1688 -2.04994 115 115 122
-20.0248 12.1543 -2.03636 114 118 121
-19.8811 12.1445 -2.02379 114 117 127
-19.7137 12.1595 -2.01064 82 80 91
-19.5755 12.1511 -1.99866 73 67 81
-19.4309 12.1376 -1.98589 121 118 127
-17.873 12.9296 -1.9075 92 87 100
-17.8081 13.0051 -1.90716 92 88 101
-17.7726 13.0618 -1.908 93 90 103
-17.7401 13.1209 -1.90924 93 93 104
-17.4923 13.4336 -1.91028 87 91 100
-17.4219 13.4615 -1.90671 88 92 101
-17.3605 13.4967 -1.90434 84 85 99
-17.3051 13.58 -1.90561 93 105 117
-17.2511 13.6212 -1.90424 113 117 127
-17.1743 13.6428 -1.89987 116 115 123
-17.0986 13.7083 -1.89853 85 85 95
-17.0383 13.7435 -1.89636 85 87 99
-16.9883 13.7877 -1.89559 83 85 98
-16.9739 13.8633 -1.89964 91 91 101
-14.0262 16.0604 -1.76955 72 77 88
-13.9303 16.0444 -1.76268 77 81 93
-13.8304 16.0744 -1.75909 77 79 92
-13.7423 16.0669 -1.75337 77 79 94
-13.6629 16.07 -1.74899 75 78 93
-13.5812 16.0696 -1.74423 74 80 93
-13.4755 16.0897 -1.73967 75 83 94
-13.3976 16.0932 -1.73549 74 80 95
-13.3247 16.1028 -1.73207 73 79 95
-7.72692 16.1747 -1.3171 76 85 100
-7.64177 16.1849 -1.31521 76 86 98
-7.57991 16.1791 -1.31279 78 88 100
-7.51524 16.1657 -1.30968 76 85 100
-6.64019 16.1387 -1.23426 73 81 92
-6.55117 16.1283 -1.23109 73 81 92
-6.49646 16.1357 -1.23026 73 81 92
-6.43743 16.1296 -1.22825 71 79 92
-24.9651 2.36842 -1.97378 149 134 126
-24.194 4.78189 -2.02753 88 96 115
-24.1996 4.89567 -2.03047 84 95 115
-24.2222 4.97583 -2.03433 86 97 117
-24.2484 5.05704 -2.03858 84 95 115
-24.272 5.17576 -2.04342 84 95 113
-24.2665 5.25039 -2.04461 82 93 111
-24.2665 5.32638 -2.04638 83 94 112
-24.283 5.44435 -2.05065 83 96 113
-22.3526 9.04012 -2.08999 78 80 98
-22.3379 9.11244 -2.09164 72 75 91
-22.3068 9.21693 -2.09311 80 83 100
-22.2842 9.286 -2.09395 105 109 119
-22.2723 9.3599 -2.096 124 126 137
-22.2548 9.43137 -2.09745 118 117 130
-22.2437 9.54556 -2.10132 88 89 104
-22.2291 9.6187 -2.10316 81 78 94
-22.1783 9.67509 -2.10101 82 80 96
-22.1353 9.77491 -2.10148 80 82 94
-22.1361 9.85556 -2.10512 78 80 92
-22.1419 9.93889 -2.10937 78 80 92
-22.0852 10.0325 -2.10844 79 82 97
-22.0689 10.1055 -2.11029 81 84 98
-21.9847 10.1452 -2.10453 87 91 103
-21.8381 10.1535 -2.09177 89 96 106
-21.6385 10.1743 -2.07483 90 94 105
-16.8722 13.9053 -1.89489 87 87 97
-16.8557 13.9794 -1.89873 84 84 92
-16.7962 14.0149 -1.89677 82 85 90
-16.744 14.1012 -1.89883 82 82 92
-16.6798 14.1322 -1.89626 84 84 95
-16.6288 14.1751 -1.8955 87 87 98
-16.5567 14.2432 -1.89495 82 83 88
-16.4996 14.2802 -1.89339 83 83 91
-16.4163 14.2924 -1.88821 84 84 94
-16.3821 14.3509 -1.88985 82 81 90
-16.2792 14.3888 -1.8851 81 82 86
-16.2275 14.4303 -1.88433 81 82 87
-16.1714 14.4675 -1.88296 83 82 87
-12.8714 16.1299 -1.70866 79 82 99
-12.7943 16.1309 -1.70447 80 83 100
-12.7092 16.1203 -1.69894 74 81 97
-12.607 16.1385 -1.69477 70 77 93
-12.5176 16.1205 -1.68847 69 78 93
-7.43252 16.1804 -1.30832 77 86 101
-7.36954 16.1702 -1.30555 77 86 101
-7.31229 16.1746 -1.30417 78 88 100
-6.35434 16.1352 -1.2266 71 79 90
-6.29607 16.1305 -1.22476 73 79 91
-6.23791 16.1255 -1.22292 72 80 93
-24.8314 2.07956 -1.9597 87 94 114
-24.8893 2.16349 -1.96544 89 95 113
-24.9193 2.24526 -1.96874 91 86 93
-24.1757 4.1815 -2.01381 92 101 118
-24.1823 4.29409 -2.01655 92 101 118
-24.1776 4.36762 -2.01755 89 100 118
-24.1962 4.44571 -2.02084 88 99 117
-24.18 4.55444 -2.02148 88 99 117
-24.1882 4.63083 -2.02382 87 98 116
-24.1961 4.70732 -2.02615 88 100 116
-22.5895 7.63177 -2.05811 87 87 100
-22.5871 7.70664 -2.06055 84 88 100
-22.575 7.77815 -2.062 86 88 101
-22.5505 7.88299 -2.06347 86 85 98
-22.5379 7.95448 -2.06491 85 87 99
-22.5362 8.03022 -2.06756 86 87 100
-22.4992 8.13073 -2.06783 84 84 101
-22.4969 8.20653 -2.07047 81 80 94
-22.4851 8.27878 -2.07212 84 86 99
-22.4783 8.39156 -2.07578 82 85 100
-22.4566 8.46016 -2.07643 83 85 100
-22.4402 8.53094 -2.07767 83 85 100
-22.4365 8.60698 -2.08032 83 86 102
-22.4244 8.71849 -2.08359 81 87 99
-22.3888 8.78163 -2.08283 81 87 99
-22.3823 8.85699 -2.08528 85 88 103
-22.3597 8.96467 -2.08755 85 86 102
-16.0966 14.532 -1.88222 82 82 89
-16.0558 14.584 -1.88306 85 85 92
-16.0063 14.6276 -1.88269 81 81 88
-15.9295 14.6897 -1.88175 84 85 90
-15.8741 14.7272 -1.88058 81 82 87
-15.8228 14.7688 -1.88001 82 83 88
-15.7451 14.7831 -1.87564 80 80 83
-15.669 14.8454 -1.87489 83 82 90
-15.6174 14.8863 -1.87433 79 79 91
-15.5478 14.9083 -1.87115 83 81 93
-12.4422 16.1217 -1.68447 74 79 93
-12.3381 16.1352 -1.67991 78 73 82
-12.2607 16.1323 -1.67553 80 73 81
-12.1811 16.1259 -1.67076 79 76 85
-12.0785 16.1395 -1.66639 78 79 92
-11.997 16.1289 -1.66124 72 77 92
-11.9223 16.128 -1.65724 71 77 92
-11.8444 16.1218 -1.65267 70 76 90
-7.22552 16.1771 -1.30177 77 86 101
-7.16633 16.1754 -1.29987 76 85 100
-7.10786 16.1754 -1.29815 75 84 99
-24.9557 1.61573 -1.96716 147 147 162
-24.8496 1.72671 -1.95865 89 97 107
-24.8333 1.8042 -1.95778 143 129 128
-24.93 1.89029 -1.96682 156 136 125
-24.1826 3.7021 -2.00588 82 91 108
-24.1818 3.7757 -2.00707 78 87 102
-24.1887 3.85066 -2.00902 78 90 106
-24.254 3.93575 -2.0167 92 101 118
-24.2051 4.03842 -2.01391 93 100 118
-24.166 4.1056 -2.01147 94 101 117
-22.7408 6.74722 -2.04275 78 87 107
-22.7452 6.82288 -2.0456 79 89 107
-22.7229 6.89008 -2.04564 83 91 107
-22.7137 6.96153 -2.04709 83 89 105
-22.6837 7.0634 -2.04755 86 91 108
-22.6794 7.13674 -2.0496 87 92 108
-22.6712 7.20883 -2.05124 86 89 106
-22.6513 7.31443 -2.05291 85 88 103
-22.6406 7.38592 -2.05435 88 90 105
-22.6278 7.45674 -2.0556 87 90 103
-22.5992 7.55964 -2.05647 86 86 99
-15.4835 14.9826 -1.87221 81 80 88
-15.4451 15.0373 -1.87365 83 82 89
-15.3916 15.0759 -1.87288 82 81 88
-15.3183 15.1408 -1.87274 85 80 87
-15.2632 15.1776 -1.87177 82 77 84
-15.2147 15.2215 -1.8718 86 83 89
-15.174 15.274 -1.87304 70 73 80
-15.1092 15.3482 -1.8743 82 83 87
-15.0283 15.3561 -1.86952 73 74 79
-11.7436 16.1351 -1.64849 70 78 91
-11.6703 16.1348 -1.64468 71 80 90
-11.5928 16.1275 -1.6401 70 80 90
-11.4945 16.1427 -1.63631 70 78 91
-11.4173 16.1346 -1.63173 70 76 92
-11.3445 16.133 -1.62792 72 78 92
-7.02071 16.175 -1.29556 76 86 98
-6.96175 16.1726 -1.29367 76 86 98
-6.90418 16.1738 -1.29212 76 86 99
-6.84403 16.1672 -1.28987 78 85 101
-24.8839 1.53231 -1.96038 93 97 118
-24.153 3.18412 -1.99488 85 94 109
-24.1579 3.25793 -1.99645 84 93 110
-24.1939 3.33637 -2.00107 85 94 111
-24.1673 3.44243 -2.00019 83 92 109
-24.1929 3.51976 -2.00386 81 92 110
-24.2006 3.59453 -2.00581 83 92 109
-22.8766 5.9418 -2.03165 118 126 139
-22.903 6.02229 -2.03649 86 94 107
-22.8603 6.08346 -2.03414 78 87 99
-22.8289 6.14771 -2.03298 82 90 105
-22.8275 6.25724 -2.03605 83 90 108
-22.8184 6.32807 -2.03729 83 93 110
-22.8205 6.40233 -2.03973 78 89 107
-22.8008 6.50693 -2.041 79 91 107
-22.7927 6.57839 -2.04244 80 89 106
-22.7674 6.64455 -2.04209 83 91 110
-14.6276 15.6909 -1.869 81 81 89
-14.5595 15.7116 -1.86623 95 98 105
-11.2422 16.1401 -1.62336 69 78 93
-11.1676 16.1344 -1.61917 69 79 91
-11.0993 16.1385 -1.61612 70 80 92
-10.9986 16.1459 -1.61175 70 79 94
-10.9274 16.1442 -1.60813 69 77 90
-10.8502 16.1321 -1.60336 69 76 92
-6.76055 16.1748 -1.28816 72 78 92
-6.70251 16.1734 -1.28643 72 80 92
-6.64516 16.1737 -1.28488 72 80 93
-24.019 2.65863 -1.97492 85 84 100
-24.0787 2.91931 -1.98404 80 91 109
-24.1336 2.99914 -1.99038 83 93 112
-24.1509 3.07434 -1.9931 82 90 109
-22.9116 5.26262 -2.01684 83 94 112
-22.9096 5.33416 -2.01848 85 94 113
-22.945 5.45132 -2.02494 88 96 115
-22.9001 5.51221 -2.02219 88 96 115
-22.9108 5.58739 -2.02523 87 94 113
-22.8892 5.69045 -2.0259 84 93 110
-22.8916 5.76377 -2.02814 79 86 104
-22.8956 5.83768 -2.03058 84 91 107
-14.6399 10.6876 -1.64385 105 102 98
-14.6209 10.7419 -1.64604 108 105 101
-14.5309 10.7733 -1.64069 106 102 97
-14.4475 15.7299 -1.86046 75 80 92
-14.4087 15.785 -1.8623 104 111 120
-14.3393 15.8033 -1.85932 105 109 112
-14.2564 15.8555 -1.85817 106 106 103
-14.2007 15.8901 -1.8574 108 106 105
-14.1812 15.9693 -1.86245 91 89 92
-10.7804 16.1316 -1.59993 70 77 91
-10.6781 16.1337 -1.59518 70 80 92
-10.6095 16.1342 -1.59194 68 78 90
-10.5329 16.1208 -1.58717 69 79 91
-10.4431 16.1421 -1.58471 71 79 92
-10.3689 16.1314 -1.58033 71 81 93
-6.5625 16.1822 -1.28335 73 81 92
-6.5003 16.1669 -1.2804 74 82 93
-6.44255 16.1646 -1.27867 71 81 93
-23.9106 2.14431 -1.95859 85 90 109
-23.9761 2.22221 -1.96569 76 77 91
-24.0675 2.33919 -1.97567 155 131 119
-23.9761 2.40174 -1.96771 132 128 119
-24.1071 2.59641 -1.9825 152 151 158
-22.9241 4.69322 -2.0043 89 100 118
-22.9201 4.76354 -2.00555 86 98 114
-22.9354 4.87392 -2.00961 88 100 116
-22.9462 4.94794 -2.01245 89 101 117
-22.9356 5.0171 -2.01309 86 97 115
-22.9226 5.12151 -2.01436 88 99 117
-22.9114 5.19066 -2.015 88 100 116
-14.5131 10.8286 -1.6431 111 108 101
-11.1216 11.1169 -1.40263 82 81 91
-11.0341 11.1245 -1.39706 82 82 92
-10.9931 11.1491 -1.39622 80 81 86
-11.0041 11.2336 -1.40401 82 81 87
-14.0802 15.999 -1.85849 99 100 104
-14.0179 16.0252 -1.85672 99 102 109
-13.9372 16.0278 -1.85194 95 98 107
-13.8265 16.0436 -1.84637 87 88 98
-13.7301 16.025 -1.83898 101 101 106
-13.6473 16.0233 -1.83379 85 84 89
-13.5598 16.0149 -1.82781 82 82 88
-13.4534 16.0332 -1.82284 79 82 87
-13.3674 16.0255 -1.81705 98 98 105
-13.2852 16.0222 -1.81187 80 79 87
-10.2977 16.1255 -1.57651 69 79 91
-10.1994 16.1301 -1.57233 70 78 91
-10.1324 16.1305 -1.56928 70 80 92
-10.0616 16.1237 -1.56547 70 80 92
-9.99761 16.1288 -1.563 70 78 91
-6.35951 16.1702 -1.27696 71 80 91
-6.3055 16.1788 -1.27628 73 81 92
-6.24377 16.1625 -1.27334 72 80 93
-6.18631 16.1593 -1.27161 71 81 93
-23.9419 1.82549 -1.95839 148 131 125
-23.9293 1.89588 -1.95787 153 141 130
-23.922 2.07385 -1.95893 90 94 109
-22.947 4.13163 -1.99437 93 102 118
-22.937 4.2002 -1.99481 93 102 119
-22.9571 4.31005 -1.99907 91 99 118
-22.9291 4.3751 -1.99772 91 100 117
-22.9592 4.45214 -2.00235 91 100 116
-22.9365 4.51834 -2.0016 91 100 116
-22.9647 4.63088 -2.00686 89 100 117
-10.997 11.3335 -1.41182 83 82 88
-13.1744 16.0325 -1.8061 89 87 97
-12.8202 16.0287 -1.78497 87 85 98
-12.74 16.0246 -1.77998 85 84 96
-12.66 16.0202 -1.77499 82 82 94
-12.5527 16.03 -1.76962 75 78 89
-9.90266 16.1369 -1.55939 69 78 91
-9.83413 16.1326 -1.55596 69 79 91
-9.76851 16.1334 -1.55311 71 81 93
-9.66928 16.1315 -1.54854 69 79 92
-9.60389 16.1316 -1.54568 69 79 91
-23.9886 1.5076 -1.96011 86 91 113
-24.0762 1.58504 -1.96911 152 151 168
-23.9354 1.64663 -1.95619 146 150 163
-22.9532 3.64156 -1.98548 81 90 107
-22.9408 3.70937 -1.98552 79 88 106
-22.9556 3.81695 -1.98898 78 86 105
-22.9739 3.89045 -1.99222 92 100 119
-22.9569 3.95761 -1.99186 96 104 122
-22.9314 4.05823 -1.99133 93 102 117
-18.9362 10.1836 -1.99436 98 101 113
-18.7987 10.1781 -1.98126 100 105 115
-18.6562 10.1687 -1.96751 99 100 113
-18.5208 10.1626 -1.95462 97 99 112
-18.414 10.2089 -1.94735 97 99 112
-18.3692 10.2554 -1.94588 98 100 112
-18.3327 10.3068 -1.94549 97 99 111
-18.2798 10.3848 -1.94512 94 98 107
-18.2277 10.4266 -1.94278 102 106 115
-18.2025 10.4848 -1.9439 99 101 113
-18.1421 10.5579 -1.94266 104 104 111
-18.0964 10.6033 -1.94119 108 105 114
-18.0572 10.6527 -1.94059 114 108 120
-18.0061 10.6946 -1.93847 103 99 107
-17.9565 10.7741 -1.93874 81 79 81
-17.9134 10.8209 -1.9377 81 78 81
-17.8769 10.8719 -1.93752 82 74 81
-17.7933 10.929 -1.93349 64 61 67
-17.768 10.9873 -1.93482 63 61 68
-17.7112 11.0245 -1.93205 69 66 75
-17.6633 11.105 -1.93276 101 92 98
-17.6226 11.1529 -1.93215 94 89 99
-17.5835 11.2018 -1.93176 100 100 112
-17.5376 11.2461 -1.9305 100 100 112
-17.4951 11.3304 -1.93207 98 101 113
-17.4408 11.3686 -1.92973 93 98 110
-17.3994 11.4157 -1.92912 101 104 113
-17.3463 11.4926 -1.9294 97 98 108
-17.298 11.5348 -1.92792 90 90 103
-17.2529 11.5791 -1.92688 85 87 98
-17.2071 11.6611 -1.92823 95 95 107
-17.1536 11.6992 -1.92611 96 96 108
-17.1032 11.7395 -1.92443 97 97 107
-17.0607 11.7855 -1.92382 96 96 108
-17.0185 11.8703 -1.92581 99 97 108
-16.9614 11.9052 -1.92326 97 97 107
-16.931 11.9603 -1.92438 98 99 104
-16.8722 12.0326 -1.92422 95 97 109
-16.8241 12.0741 -1.92296 94 97 104
-9.70916 11.4312 -1.33441 87 85 91
-9.64051 11.4146 -1.3286 89 89 94
-12.4708 16.0215 -1.76423 81 82 92
-12.4037 16.0339 -1.76145 87 86 94
-12.3058 16.0553 -1.75769 80 74 84
-12.2511 16.085 -1.75711 80 73 81
-12.1808 16.0916 -1.75373 78 73 80
-12.0863 16.1166 -1.75056 76 79 89
-9.53764 16.1297 -1.54263 69 76 92
-9.44433 16.1371 -1.53922 68 75 91
-9.3765 16.131 -1.53579 70 79 94
-9.31416 16.1354 -1.5335 69 79 92
-9.24384 16.1235 -1.5295 69 78 92
-22.9345 3.15135 -1.9752 82 93 111
-22.9402 3.25626 -1.97746 83 95 111
-22.933 3.32464 -1.9779 84 93 110
-22.9393 3.39519 -1.97974 82 94 110
-22.9576 3.5026 -1.9834 85 94 111
-22.9418 3.56978 -1.98304 86 95 112
-20.0221 10.1516 -2.09462 93 95 107
-19.8602 10.1775 -2.08068 92 95 110
-19.7057 10.1685 -2.06564 92 94 108
-19.5567 10.1616 -2.05125 90 93 107
-19.4075 10.1909 -2.03882 88 88 104
-19.2399 10.1713 -2.02205 82 81 96
-19.1002 10.1665 -2.00874 89 89 102
-16.7885 12.1253 -1.92343 95 98 107
-16.7429 12.2079 -1.92521 95 95 105
-16.6741 12.2329 -1.92115 97 95 106
-16.4321 12.4764 -1.9179 103 101 101
-16.3648 12.5412 -1.91688 108 104 104
-16.2879 12.558 -1.91174 112 108 105
-16.2218 12.5833 -1.9081 112 108 105
-16.1374 12.6329 -1.90471 98 102 112
-16.0968 12.6794 -1.90474 88 95 111
-16.0411 12.7129 -1.90262 122 124 136
-16.0183 12.7747 -1.90525 101 99 106
-15.9482 12.8361 -1.90401 96 89 93
-15.919 12.8926 -1.90577 97 91 96
-15.8776 12.9385 -1.9058 91 87 95
-9.60612 11.4441 -1.32905 94 97 101
-12.0116 16.1159 -1.74638 69 72 81
-11.9327 16.1083 -1.74139 72 74 86
-11.8528 16.0987 -1.7362 75 76 89
-11.7499 16.1087 -1.73143 74 77 92
-11.6855 16.1216 -1.72905 74 80 96
-11.6061 16.111 -1.72385 71 80 95
-11.5057 16.1228 -1.71948 70 80 92
-9.15811 16.1435 -1.52761 70 79 94
-9.08718 16.1293 -1.52341 70 80 92
-9.02514 16.1326 -1.52113 70 78 91
-8.93264 16.1371 -1.51771 70 77 93
-4.6718 11.4355 -0.944985 71 81 93
-4.62682 11.4199 -0.942306 72 82 92
-22.7884 2.6835 -1.95356 76 84 107
-22.866 2.89975 -1.96447 88 100 118
-22.8867 3.00604 -1.96812 82 90 111
-22.9137 3.07903 -1.97196 82 93 111
-20.7642 8.31995 -2.07723 78 88 100
-20.7627 8.39189 -2.08028 78 87 102
-20.75 8.45918 -2.08205 78 85 101
-20.7019 8.5473 -2.08125 78 86 101
-20.7014 8.62015 -2.08452 80 86 102
-20.688 8.6874 -2.08629 80 86 100
-20.6689 8.75221 -2.0874 80 86 102
-20.6628 8.85967 -2.09178 80 87 103
-20.6431 8.92447 -2.09289 79 86 102
-20.6016 8.97919 -2.09143 80 88 101
-20.5835 9.08168 -2.09451 79 85 99
-20.5648 9.14718 -2.09584 75 82 97
-20.5531 9.21609 -2.09804 67 75 90
-20.5266 9.31516 -2.10026 72 76 89
-20.509 9.38148 -2.10181 95 99 112
-20.4965 9.45041 -2.104 123 125 140
-20.4944 9.52466 -2.10749 123 126 141
-20.4894 9.63529 -2.11251 83 85 99
-20.4139 9.673 -2.10717 73 73 89
-20.3774 9.73017 -2.10656 78 77 91
-20.3677 9.83888 -2.11115 78 77 91
-20.3641 9.91326 -2.11464 76 79 94
-20.3426 9.97851 -2.11597 75 81 93
-20.2929 10.067 -2.11582 81 88 99
-20.2587 10.1256 -2.11565 86 87 100
-20.1788 10.1596 -2.10987 91 91 103
-15.8276 13.0176 -1.90758 91 87 92
-15.7489 13.03 -1.90222 89 84 92
-15.6836 13.0541 -1.89881 90 86 94
-15.646 13.1445 -1.90253 94 92 98
-15.5907 13.1774 -1.90062 91 90 96
-15.5558 13.229 -1.90174 90 89 96
-15.4896 13.2934 -1.90136 92 89 95
-15.434 13.3257 -1.89945 91 88 95
-15.4014 13.3796 -1.901 86 85 93
-15.3628 13.428 -1.90168 86 86 92
-15.2785 13.4749 -1.89871 88 89 95
-15.2425 13.5257 -1.89982 89 89 97
-11.4287 16.1147 -1.71469 72 82 94
-11.3551 16.1114 -1.7105 71 80 93
-11.2552 16.1218 -1.70613 71 81 91
-11.1797 16.1143 -1.70154 74 82 95
-11.1105 16.1167 -1.69815 74 82 93
-11.0363 16.1104 -1.69376 73 81 92
-8.86989 16.1381 -1.51524 69 76 92
-8.8021 16.128 -1.51161 70 79 92
-8.70828 16.1278 -1.50781 71 81 93
-8.64834 16.1333 -1.50591 80 86 98
-4.5779 11.4552 -0.944247 71 80 95
-4.54961 11.4945 -0.94714 71 80 93
-22.7878 2.2737 -1.94812 146 131 125
-22.8094 2.34425 -1.95115 151 131 110
-22.7559 2.44049 -1.94703 87 84 91
-22.8331 2.58636 -1.95669 149 151 156
-20.9759 7.1577 -2.05023 82 91 106
-20.9842 7.23093 -2.05393 81 90 105
-20.9752 7.33303 -2.05701 82 89 105
-20.9569 7.39673 -2.05769 80 89 104
-20.9383 7.46038 -2.05838 80 89 104
-20.9208 7.55971 -2.0606 81 89 102
-20.9091 7.62618 -2.06214 82 89 103
-20.9027 7.69482 -2.06434 82 89 102
-20.871 7.78906 -2.06505 82 87 106
-20.8494 7.85181 -2.06552 80 87 103
-20.8496 7.92346 -2.06858 82 89 105
-20.8312 7.98767 -2.06948 79 86 102
-20.8127 8.08773 -2.07191 83 89 103
-20.781 8.14653 -2.07131 81 87 101
-20.7856 8.22065 -2.07501 81 88 101
-15.1977 13.5681 -1.89964 92 91 98
-15.1116 13.6126 -1.89646 88 88 97
-15.0567 13.6448 -1.89477 86 87 93
-15.0144 13.6894 -1.89501 88 87 93
-14.9405 13.7455 -1.89377 85 86 90
-14.8923 13.7841 -1.89316 85 85 96
-14.8593 13.8382 -1.89492 84 82 96
-14.8011 13.8665 -1.89279 89 86 98
-14.721 13.9158 -1.89069 89 87 101
-14.6861 13.968 -1.89223 87 86 100
-10.9349 16.1156 -1.68899 72 80 91
-10.8691 16.1221 -1.6862 73 81 94
-10.7943 16.1131 -1.68161 72 80 93
-10.6963 16.122 -1.67744 74 82 93
-10.6268 16.1208 -1.67385 70 78 92
-10.5484 16.1039 -1.66846 72 78 94
-8.58262 16.126 -1.50267 74 75 85
-8.49251 16.1318 -1.49963 62 61 73
-8.43194 16.1348 -1.49754 69 74 86
-8.36409 16.1212 -1.49372 72 79 93
-22.8082 1.90147 -1.9459 149 135 122
-22.7296 2.09772 -1.94023 89 89 107
-22.7384 2.20041 -1.94229 79 81 97
-21.1539 6.35112 -2.03873 81 92 106
-21.1406 6.4157 -2.03963 83 92 107
-21.1403 6.48458 -2.04204 82 91 106
-21.1031 6.57583 -2.04146 83 90 106
-21.1079 6.64665 -2.04451 82 91 106
-21.1012 6.71374 -2.04628 82 91 107
-21.0648 6.8054 -2.04591 81 90 105
-21.0651 6.87509 -2.04853 81 90 107
-21.0258 6.93104 -2.04664 81 90 107
-21.0276 7.03629 -2.05079 80 91 106
-21.0159 7.10209 -2.05212 79 91 105
-14.6082 10.6738 -1.72212 95 94 107
-14.5677 10.7106 -1.72125 98 98 109
-14.5271 10.7817 -1.72288 98 98 110
-14.4833 10.8156 -1.72156 98 98 110
-14.6399 14.0086 -1.89205 86 86 98
-14.5634 14.0613 -1.89059 89 88 94
-14.5007 14.0842 -1.88782 90 89 97
-14.4637 14.1344 -1.88915 88 87 96
-14.3895 14.1891 -1.88812 88 89 94
-14.3252 14.2098 -1.88513 88 89 94
-14.281 14.2522 -1.88538 88 88 96
-14.222 14.2783 -1.88325 84 84 94
-10.9994 11.0851 -1.46176 82 82 92
-10.4538 16.1166 -1.66488 71 77 93
-10.3846 16.1145 -1.66129 72 78 93
-10.3126 16.1069 -1.6571 71 78 92
-10.2155 16.1131 -1.65293 71 79 94
-10.1457 16.1083 -1.64914 70 79 93
-8.30773 16.1328 -1.49259 71 78 94
-8.21559 16.1317 -1.48898 71 80 95
-8.14973 16.1209 -1.48554 75 84 99
-8.09349 16.1318 -1.48441 74 84 96
-22.7372 1.65827 -1.93637 154 161 170
-22.7212 1.72458 -1.93541 86 92 106
-22.7307 1.79299 -1.93705 137 126 127
-21.2355 5.65974 -2.02431 85 95 114
-21.2511 5.73199 -2.02823 82 91 110
-21.2365 5.82951 -2.02979 76 85 100
-21.2306 5.89584 -2.03134 92 100 113
-21.2226 5.96163 -2.03267 117 125 138
-21.2068 6.05917 -2.03424 109 113 127
-21.166 6.11505 -2.03192 81 87 103
-21.1516 6.17899 -2.0326 81 87 103
-21.1688 6.28712 -2.03805 83 95 111
-17.4944 10.1716 -1.95285 104 105 117
-17.3595 10.1575 -1.93915 97 100 110
-17.2582 10.164 -1.92995 97 100 111
-17.1937 10.1936 -1.92571 101 102 114
-17.1465 10.2693 -1.92599 102 103 109
-17.1001 10.3103 -1.92423 100 100 108
-17.0454 10.3456 -1.92134 105 105 113
-16.9858 10.4129 -1.92004 100 101 111
-16.9523 10.4621 -1.92008 98 100 110
-16.9005 10.4989 -1.91764 99 101 111
-16.8469 10.5699 -1.91724 99 99 108
-16.808 10.6153 -1.9166 105 105 115
-16.7754 10.665 -1.91686 100 102 115
-16.733 10.7078 -1.91577 101 102 114
-16.6784 10.7781 -1.91538 101 99 112
-16.6453 10.8274 -1.91564 98 98 111
-16.5975 10.8663 -1.91387 103 104 116
-16.5471 10.9393 -1.91415 101 101 113
-16.499 10.9778 -1.91238 103 103 115
-16.4637 11.0254 -1.91242 100 102 114
-16.4045 11.0919 -1.91157 100 100 112
-16.3688 11.1393 -1.91161 102 102 114
-10.969 11.1216 -1.46269 84 83 93
-14.1685 14.3553 -1.88568 86 85 94
-10.9618 11.185 -1.46767 86 86 95
-14.1106 14.3825 -1.88377 86 86 94
-10.9676 11.2998 -1.47809 87 85 96
-13.7554 14.6251 -1.87882 84 84 92
-10.0761 16.1032 -1.64535 71 79 90
-10.0094 16.1031 -1.64216 70 78 91
-9.91653 16.1146 -1.63878 69 77 90
-9.85002 16.1139 -1.6356 72 79 93
-9.77706 16.1006 -1.631 71 79 92
-8.00174 16.1295 -1.4808 75 85 97
-7.94245 16.1325 -1.4789 75 85 97
-7.88169 16.1317 -1.47661 75 84 98
-22.8064 1.25751 -1.93992 95 107 129
-22.7598 1.35593 -1.93599 91 105 129
-22.7724 1.42432 -1.93782 95 107 131
-22.7908 1.49323 -1.94026 88 98 118
-22.8743 1.56714 -1.94928 138 142 158
-21.3149 5.07585 -2.01512 85 96 114
-21.2866 5.1355 -2.01387 83 96 113
-21.2945 5.20453 -2.01671 84 97 114
-21.2613 5.29632 -2.01591 84 96 112
-21.2974 5.37319 -2.02198 85 97 111
-21.2644 5.43159 -2.0203 85 96 112
-21.2703 5.53428 -2.02402 86 95 112
-21.2635 5.59999 -2.02535 84 96 112
-18.4493 10.1425 -2.0428 87 89 102
-18.307 10.1669 -2.03047 90 93 106
-18.1622 10.1524 -2.01565 79 85 97
-18.0397 10.1506 -2.00376 81 87 99
-17.8862 10.1648 -1.98986 86 92 104
-17.7624 10.1603 -1.97774 93 99 111
-17.6236 10.1457 -1.9636 100 104 115
-16.3378 11.1901 -1.91232 99 101 113
-16.2923 11.2301 -1.911 100 102 114
-16.2227 11.2885 -1.9088 100 100 112
-16.1817 11.3317 -1.90816 100 100 110
-16.1421 11.3759 -1.90775 98 99 110
-16.086 11.4444 -1.90757 101 103 113
-16.043 11.4859 -1.90671 100 103 112
-15.9967 11.5248 -1.90539 99 102 111
-15.9322 11.5864 -1.90409 101 101 112
-15.8919 11.6298 -1.90368 100 100 111
-15.6637 11.8623 -1.90071 95 94 105
-15.613 11.9349 -1.90167 96 94 105
-15.5656 11.9721 -1.90035 97 96 104
-15.5241 12.0143 -1.89993 95 94 99
-15.4651 12.0798 -1.89976 93 96 108
-15.4083 12.1087 -1.89709 107 114 132
-13.6906 14.6431 -1.87583 87 87 97
-13.6489 14.6881 -1.87672 85 85 96
-13.5698 14.7357 -1.87526 78 82 93
-13.5099 14.759 -1.87313 100 109 118
-13.4513 14.7836 -1.87122 103 109 115
-13.3782 14.8378 -1.87084 109 107 108
-9.69011 16.1214 -1.62883 71 79 91
-9.61929 16.111 -1.62464 69 78 90
-9.55227 16.1074 -1.62125 69 79 91
-9.46188 16.12 -1.61827 69 79 91
-7.79335 16.1356 -1.47377 74 83 98
-7.72746 16.1214 -1.47014 73 83 95
-7.66698 16.1198 -1.46785 75 85 97
-7.61099 16.1291 -1.46672 75 85 97
-22.8096 1.1225 -1.93924 92 104 128
-22.8051 1.18983 -1.93928 97 109 131
-21.3372 4.5494 -2.00318 90 99 116
-21.3375 4.61564 -2.00495 89 98 115
-21.353 4.68555 -2.00843 86 98 115
-21.3338 4.78055 -2.00892 87 98 115
-21.3237 4.84462 -2.0096 86 97 115
-21.3056 4.90679 -2.00943 85 96 114
-21.3105 4.97464 -2.01184 86 98 114
-19.5633 8.37873 -2.05837 79 87 102
-19.5668 8.45014 -2.06223 77 86 101
-19.5555 8.51493 -2.0643 78 85 101
-19.5091 8.59809 -2.06368 77 87 99
-19.5207 8.67394 -2.06867 77 86 99
-19.5051 8.73704 -2.07029 79 86 102
-19.4452 8.81381 -2.0681 78 85 101
-19.4522 8.88816 -2.07264 78 85 101
-19.4288 8.94765 -2.07335 79 86 102
-19.3963 9.00264 -2.07294 79 84 102
-19.3937 9.10821 -2.07818 73 81 96
-19.3749 9.17029 -2.07957 67 74 87
-19.354 9.23142 -2.08073 71 78 92
-19.3096 9.3162 -2.08079 103 110 122
-19.3164 9.39194 -2.08556 124 126 136
-19.3036 9.45762 -2.08785 118 121 130
-19.2704 9.54871 -2.08949 82 87 93
-19.285 9.62942 -2.09538 73 76 85
-19.2278 9.67157 -2.09204 76 75 89
-19.2192 9.74008 -2.09501 83 82 101
-19.2245 9.853 -2.10182 80 79 99
-19.2135 9.92071 -2.10456 79 80 97
-19.2092 9.99234 -2.1082 84 85 101
-19.1802 10.0872 -2.11074 82 88 105
-19.158 10.1491 -2.11213 80 88 101
-19.017 10.1428 -2.09799 88 94 106
-18.8585 10.1622 -2.08365 91 93 105
-18.7282 10.16 -2.07086 95 97 109
-18.5929 10.1542 -2.05739 94 98 109
-15.3724 12.1556 -1.89757 110 114 125
-15.317 12.1854 -1.89513 107 105 116
-15.2512 12.2447 -1.89406 97 96 101
-15.2015 12.2793 -1.89251 93 93 95
-15.1636 12.3242 -1.89277 84 83 89
-15.0973 12.3828 -1.8917 101 97 97
-15.0443 12.4141 -1.8897 106 103 99
-14.9854 12.4398 -1.8868 106 102 97
-14.923 12.5015 -1.8864 110 105 102
-14.8639 12.5267 -1.88351 115 110 105
-14.7889 12.5368 -1.87813 114 109 103
-14.711 12.5439 -1.8723 114 109 102
-14.6597 12.6152 -1.87371 105 101 97
-14.612 12.6502 -1.87261 100 95 96
-14.5829 12.703 -1.87445 94 90 93
-13.3395 14.8866 -1.87238 108 104 101
-13.2956 14.9291 -1.87306 105 99 99
-13.202 14.9577 -1.86922 84 81 88
-13.1579 14.9998 -1.8699 86 85 91
-13.1074 15.034 -1.8695 83 82 88
-13.0433 15.0509 -1.86672 89 88 93
-12.9727 15.1078 -1.86699 88 87 92
-9.67592 11.3817 -1.39539 87 87 87
-9.61584 11.3761 -1.3909 86 86 88
-9.58861 11.4152 -1.39272 94 93 96
-9.39597 16.1175 -1.61508 69 79 91
-9.32479 16.1041 -1.61069 69 79 91
-9.26355 16.11 -1.6085 70 80 92
-9.17087 16.1158 -1.60493 71 81 93
-7.52381 16.1334 -1.46407 76 86 100
-7.46062 16.1237 -1.46101 75 84 99
-7.40475 16.1323 -1.45988 75 85 99
-22.8576 0.786787 -1.94203 96 109 133
-22.8628 0.888433 -1.94309 90 103 127
-22.859 0.955929 -1.94313 95 107 130
-21.3457 4.0253 -1.99125 92 101 116
-21.3477 4.09117 -1.99301 91 100 115
-21.3476 4.15669 -1.99456 91 100 115
-21.3297 4.21858 -1.99417 92 101 116
-21.3263 4.3163 -1.99616 90 99 116
-21.3332 4.3836 -1.99857 89 101 117
-21.3398 4.451 -2.00097 91 100 116
-19.8846 7.18143 -2.03689 81 91 103
-19.8723 7.24395 -2.03828 84 92 107
-19.8303 7.29479 -2.03607 82 91 106
-19.8226 7.39287 -2.03951 81 89 103
-19.8022 7.45234 -2.04 81 88 104
-19.7926 7.51628 -2.04184 81 90 105
-19.7773 7.57796 -2.043 82 90 105
-19.7553 7.67082 -2.04486 81 88 104
-19.7487 7.73632 -2.04715 83 89 103
-19.7272 7.79563 -2.04764 82 88 102
-19.7023 7.88764 -2.04927 80 87 103
-19.6894 7.9508 -2.05089 81 87 103
-19.6781 8.01475 -2.05273 82 85 102
-19.6503 8.10587 -2.05414 79 85 101
-19.6204 8.1617 -2.05373 78 84 100
-19.6246 8.23295 -2.05759 79 86 102
-19.616 8.29856 -2.05988 77 87 99
-14.5051 12.7489 -1.87179 98 98 97
-14.4756 12.8014 -1.87363 90 88 91
-14.4204 12.8289 -1.87141 91 89 93
-14.3619 12.8934 -1.87191 83 83 89
-14.3022 12.9162 -1.86901 87 88 93
-14.2692 12.9654 -1.87039 89 89 97
-14.1961 13.0151 -1.86864 91 89 100
-14.1878 13.0895 -1.87408 91 91 93
-14.1569 13.1413 -1.87592 92 93 97
-12.9098 15.1257 -1.86443 86 86 88
-12.8408 15.1354 -1.86079 86 86 87
-12.753 15.1693 -1.85803 89 88 91
-12.6925 15.1895 -1.8559 82 80 86
-12.6379 15.2174 -1.85485 87 83 88
-9.10187 16.105 -1.60093 69 79 91
-9.04172 16.1119 -1.59895 69 79 91
-8.94767 16.1129 -1.59497 70 78 91
-8.89018 16.1246 -1.59358 68 78 90
-8.82252 16.1145 -1.58979 69 79 91
-7.32068 16.143 -1.45799 77 86 101
-7.25565 16.127 -1.45436 77 87 99
-7.1978 16.1293 -1.45265 78 88 100
-4.66516 11.4198 -0.995165 73 83 95
-22.8935 0.652735 -1.94494 94 109 132
-21.3247 3.56588 -1.97893 82 91 108
-21.3204 3.62992 -1.97983 82 90 107
-21.3257 3.69577 -1.9818 81 88 107
-21.3287 3.79375 -1.98423 75 82 101
-21.3783 3.86839 -1.99115 91 99 119
-21.4431 3.94643 -1.99979 98 105 123
-20.0374 6.30738 -2.0179 86 95 112
-20.0374 6.37311 -2.02041 80 91 108
-20.0195 6.46562 -2.02205 81 90 108
-19.9871 6.52027 -2.02074 81 90 107
-19.9938 6.58872 -2.02415 82 91 108
-19.9861 6.6852 -2.02713 81 90 106
-19.9475 6.73759 -2.02515 81 90 105
-19.9515 6.80554 -2.02833 83 90 106
-19.92 6.86048 -2.02725 81 91 103
-19.9239 6.96186 -2.03181 81 91 102
-19.89 7.01593 -2.0305 81 91 104
-19.8949 7.08478 -2.03391 81 88 104
-14.13 13.1973 -1.87843 93 90 98
-14.0684 13.2591 -1.87871 90 91 95
-14.0314 13.3049 -1.87964 93 94 99
-13.9791 13.3348 -1.87809 94 94 104
-13.9222 13.4017 -1.87927 90 92 104
-13.8603 13.4211 -1.87615 90 90 99
-13.8214 13.4648 -1.87685 89 90 94
-12.3954 15.396 -1.85522 83 82 91
-12.3683 15.4615 -1.85935 84 82 86
-12.3014 15.4722 -1.85614 85 84 87
-8.72716 16.1107 -1.58541 70 80 92
-8.6648 16.1108 -1.58282 75 83 95
-8.60171 16.109 -1.58003 73 81 93
-8.53375 16.096 -1.57603 72 80 93
-7.1091 16.1259 -1.44942 75 85 99
-7.05276 16.1314 -1.44809 76 85 100
-6.99371 16.1293 -1.446 75 84 99
-4.60469 11.4172 -0.993174 72 82 94
-4.56682 11.4241 -0.992783 70 80 92
-4.54125 11.4729 -0.996815 71 81 93
-21.3552 3.18353 -1.97461 83 92 107
-21.3118 3.27311 -1.97166 82 91 108
-21.3162 3.33828 -1.97342 82 90 109
-21.3302 3.4052 -1.97625 82 90 109
-21.3187 3.46783 -1.97629 83 92 109
-20.1566 5.66201 -2.00737 86 95 112
-20.1404 5.75401 -2.00878 77 89 105
-20.1366 5.81769 -2.01062 77 86 101
-20.1269 5.87962 -2.01178 99 105 120
-20.1134 5.97282 -2.01364 118 121 137
-20.1051 6.03537 -2.01502 101 105 122
-20.0777 6.09176 -2.01416 78 84 100
-20.0728 6.15551 -2.016 81 87 103
-20.0673 6.25183 -2.01898 85 94 111
-13.7423 13.5077 -1.87442 94 92 102
-13.6843 13.5307 -1.87197 94 92 102
-13.6276 13.5549 -1.86975 92 90 101
-13.5868 13.5966 -1.87023 89 87 98
-13.5206 13.6529 -1.87005 92 90 101
-13.4636 13.6765 -1.86783 86 86 96
-12.2554 15.5116 -1.85682 87 85 88
-12.1814 15.5633 -1.85686 79 82 89
-12.1259 15.5895 -1.85581 78 80 89
-12.0852 15.6366 -1.85757 89 89 96
-12.0038 15.6777 -1.85632 83 78 82
-8.44962 16.1141 -1.57426 69 81 94
-8.38679 16.1114 -1.57147 75 85 97
-8.32243 16.1049 -1.56827 73 81 94
-6.90738 16.1305 -1.44334 77 87 99
-6.84783 16.126 -1.44105 77 87 99
-6.78969 16.125 -1.43915 71 81 93
-6.73422 16.1314 -1.43802 94 104 114
-21.2973 2.88596 -1.96304 89 102 118
-21.2932 2.94935 -1.96372 83 96 115
-21.3156 3.04877 -1.96786 82 93 111
-21.3482 3.11804 -1.97263 83 92 107
-20.2234 5.10338 -1.99623 86 98 114
-20.1989 5.16049 -1.99537 84 96 112
-20.2042 5.25776 -1.99902 85 95 112
-20.2021 5.32125 -2.00086 83 95 111
-20.1635 5.37438 -1.99843 83 95 111
-20.1686 5.44005 -2.00116 85 97 113
-20.1325 5.52579 -2.0001 83 95 111
-20.1542 5.59667 -2.00486 83 95 111
-13.1592 13.9456 -1.86873 90 90 100
-13.1043 13.9707 -1.86695 88 88 98
-13.043 13.9881 -1.86405 89 89 97
-12.961 14.0251 -1.86139 87 85 98
-11.9424 15.6951 -1.85419 76 74 79
-11.9101 15.7549 -1.85767 76 73 80
-11.8338 15.8033 -1.85751 87 90 99
-11.7667 15.8117 -1.85429 87 90 95
-11.7052 15.8282 -1.85216 94 95 100
-8.23684 16.1183 -1.5661 71 80 95
-8.1727 16.1112 -1.56291 73 83 95
-8.11336 16.1148 -1.56092 75 85 96
-8.02253 16.1143 -1.55734 78 88 100
-6.64697 16.1274 -1.43498 73 81 94
-6.58902 16.1258 -1.43307 74 82 95
-6.53178 16.1258 -1.43136 73 83 95
-21.2116 2.36614 -1.94553 148 132 116
-21.2348 2.43221 -1.94901 100 95 97
-21.2508 2.5928 -1.95319 144 143 154
-21.2614 2.65778 -1.95538 113 122 131
-20.2468 4.53926 -1.98195 89 98 115
-20.249 4.6028 -1.98401 90 99 116
-20.2568 4.66784 -1.98674 89 98 115
-20.2585 4.73152 -1.9888 87 99 115
-20.2583 4.8264 -1.99156 85 97 113
-20.2442 4.88623 -1.99182 86 98 114
-20.2222 4.94399 -1.99119 85 97 113
-20.2325 5.04205 -1.99529 84 95 113
-12.9174 14.0633 -1.86165 86 90 101
-12.8572 14.0814 -1.85897 104 111 119
-12.7862 14.1312 -1.85834 106 107 108
-12.7235 14.1457 -1.85521 106 105 105
-12.6745 14.177 -1.85457 106 102 103
-12.6155 14.2414 -1.85619 88 84 90
-12.5637 14.2692 -1.85509 86 85 91
-11.6601 15.8693 -1.85327 84 84 92
-11.5963 15.9365 -1.85569 96 96 106
-11.5475 15.9723 -1.85615 95 98 106
-11.4921 15.9979 -1.85532 97 100 106
-7.96026 16.1101 -1.55454 75 85 97
-7.89808 16.1056 -1.55175 76 85 98
-7.81143 16.1131 -1.54918 71 80 95
-6.52173 16.3529 -1.45195 71 81 93
-6.42554 16.2356 -1.43833 71 81 93
-21.2128 2.08228 -1.94171 93 101 111
-21.1876 2.14261 -1.93981 84 88 100
-21.2154 2.2087 -1.94372 84 87 97
-21.2907 2.31204 -1.95323 144 131 121
-20.2556 4.10311 -1.97112 90 99 114
-20.2593 4.16629 -1.97318 90 99 116
-20.2511 4.22692 -1.97389 91 98 114
-20.2496 4.32029 -1.9762 91 98 116
-20.2487 4.38274 -1.97781 90 98 117
-20.2514 4.44614 -1.97987 91 99 118
-12.5156 14.3015 -1.85467 85 85 94
-12.4625 14.3274 -1.85335 88 89 92
-12.399 14.3862 -1.8543 87 86 93
-12.3457 14.4117 -1.85297 86 85 93
-12.296 14.4417 -1.85232 87 84 92
-11.3891 16.0042 -1.84996 94 99 105
-11.3433 16.0444 -1.85107 95 98 105
-11.2603 16.0256 -1.84461 100 103 108
-11.1775 16.0626 -1.84336 90 89 95
-11.1001 16.0515 -1.83799 91 91 96
-11.0322 16.0553 -1.83456 92 93 97
-7.75244 16.1155 -1.54719 73 82 97
-7.68679 16.1011 -1.54339 74 83 98
-7.62941 16.1066 -1.5418 74 83 97
-6.33443 16.1311 -1.42605 71 81 93
-6.24724 16.1231 -1.42281 72 80 93
-6.19212 16.1277 -1.42168 71 81 93
-21.1794 1.70221 -1.93353 92 102 114
-21.2257 1.80036 -1.9396 139 125 127
-21.2527 1.86574 -1.94329 150 127 110
-21.1867 1.92242 -1.93688 156 142 131
-20.2954 3.67694 -1.96501 80 91 109
-20.2829 3.73637 -1.96505 81 88 110
-20.2838 3.8294 -1.96735 89 96 115
-20.3 3.89483 -1.97076 95 104 122
-20.3781 3.97349 -1.98136 90 99 116
-20.2658 4.01201 -1.96994 92 101 116
-15.9902 10.1559 -1.94996 103 107 118
-15.8711 10.1419 -1.93725 103 106 116
-15.7879 10.1523 -1.92983 102 106 117
-15.6776 10.1767 -1.92075 97 99 111
-15.656 10.2298 -1.92246 99 101 113
-15.6117 10.2667 -1.92081 101 102 114
-15.5398 10.3176 -1.9175 102 101 113
-15.4825 10.3447 -1.91393 102 101 113
-15.4203 10.368 -1.90963 101 101 113
-15.3768 10.439 -1.91064 103 103 115
-15.3288 10.4724 -1.90851 99 101 113
-15.2903 10.5128 -1.90782 98 100 112
-15.2453 10.5483 -1.90617 97 98 110
-15.1883 10.609 -1.90526 101 101 111
-15.1619 10.6585 -1.9065 99 99 110
-15.1291 10.7032 -1.90677 99 100 108
-14.5821 10.6894 -1.85429 102 102 113
-14.6016 10.7747 -1.86274 100 100 110
-12.2306 14.4983 -1.85305 86 84 95
-12.1818 14.5295 -1.85262 87 85 96
-12.1354 14.5637 -1.85265 84 82 92
-10.9592 16.0504 -1.83005 90 94 97
-10.8539 16.0485 -1.82404 91 92 97
-10.7914 16.0599 -1.82169 90 91 96
-10.7198 16.0557 -1.8174 92 93 100
-10.618 16.0574 -1.81204 87 89 97
-7.54383 16.1147 -1.53942 75 85 97
-7.48363 16.1124 -1.53703 74 84 97
-7.42136 16.1043 -1.53404 74 83 98
-21.2568 1.48887 -1.93962 97 103 127
-21.2428 1.58194 -1.93904 152 152 165
-21.2073 1.64184 -1.93585 140 142 154
-20.2532 3.23866 -1.95059 86 95 112
-20.2676 3.30242 -1.95355 83 92 107
-20.2549 3.39211 -1.95406 82 91 108
-20.2863 3.45932 -1.95904 80 89 107
-20.2901 3.52164 -1.96087 83 92 107
-20.2901 3.61411 -1.96295 78 89 107
-17.0621 10.1414 -2.05584 94 96 109
-16.966 10.1497 -2.04674 84 86 99
-16.8093 10.1527 -2.03118 88 93 104
-16.7185 10.163 -2.0228 91 98 108
-16.5749 10.1378 -2.00673 86 93 103
-16.4537 10.1609 -1.9962 86 90 101
-16.3452 10.1573 -1.98518 80 82 94
-16.2205 10.142 -1.97175 78 80 93
-16.1063 10.1671 -1.96219 99 101 113
-15.0793 10.7693 -1.90706 99 99 107
-15.0445 10.8125 -1.90709 101 101 110
-15.0268 10.8691 -1.90977 99 99 109
-14.9452 10.9101 -1.90525 101 101 113
-14.7566 11.149 -1.90639 98 100 112
-14.7344 11.2026 -1.90859 101 101 111
-14.6807 11.2657 -1.90864 100 100 112
-14.6292 11.2949 -1.90626 99 98 111
-14.5566 11.3058 -1.90052 99 98 112
-14.4993 11.3655 -1.90009 95 102 116
-14.4552 11.4004 -1.89892 101 109 121
-14.4185 11.4417 -1.89895 117 119 128
-11.0976 11.0656 -1.5839 96 93 101
-11.0449 11.077 -1.58079 94 91 102
-11.0026 11.1002 -1.57961 97 95 106
-10.9611 11.1594 -1.58182 91 91 101
-11.9055 14.6886 -1.84895 84 84 96
-11.825 14.7241 -1.84696 85 85 97
-11.7709 14.7475 -1.84564 85 84 90
-11.7318 14.7918 -1.84724 83 83 86
-11.6566 14.8345 -1.84639 87 87 92
-10.5467 16.0526 -1.80774 93 94 102
-10.4764 16.0491 -1.80366 90 93 101
-10.3811 16.0598 -1.7996 87 91 97
-10.3111 16.0557 -1.79552 74 78 85
-10.2442 16.0565 -1.79209 71 74 84
-7.33532 16.1094 -1.53146 76 85 100
-7.27538 16.1064 -1.52907 78 87 102
-7.21622 16.105 -1.52688 75 85 97
-21.2831 1.20828 -1.93988 94 106 128
-21.2665 1.3013 -1.93887 89 104 127
-21.2733 1.36449 -1.94019 92 107 128
-21.2483 1.42551 -1.93808 94 106 130
-20.277 2.90684 -1.94657 88 99 117
-20.2827 2.96868 -1.9484 80 93 110
-20.2979 3.03217 -1.95136 82 94 110
-20.3002 3.12423 -1.95344 82 91 108
-20.2915 3.184 -1.9537 85 92 111
-18.3674 7.53444 -2.03936 81 87 103
-18.3526 7.62417 -2.04229 81 89 104
-18.3423 7.68402 -2.04425 81 89 102
-18.3298 7.74306 -2.04597 79 87 99
-18.3082 7.79796 -2.04649 81 89 103
-18.2741 7.87937 -2.04703 79 84 103
-18.27 7.94255 -2.04995 79 85 101
-18.2334 7.99053 -2.04854 78 85 101
-18.2287 8.08619 -2.05316 76 88 100
-18.1881 8.13225 -2.05128 77 87 99
-18.1831 8.19547 -2.0542 76 83 99
-18.1488 8.27727 -2.05497 77 84 100
-18.145 8.34141 -2.05813 77 86 101
-18.1179 8.3941 -2.05817 77 84 101
-18.1083 8.45562 -2.06061 77 84 100
-18.071 8.53626 -2.06115 77 84 102
-18.0574 8.59596 -2.06311 77 84 100
-18.0419 8.65477 -2.06483 78 85 101
-18.0177 8.74249 -2.06729 77 85 98
-18.0069 8.80404 -2.06972 77 83 99
-17.9906 8.86283 -2.07144 78 85 100
-17.9635 8.94957 -2.07366 76 87 99
-17.9398 9.00454 -2.07442 78 85 98
-17.9349 9.06991 -2.07782 81 85 103
-17.9195 9.1296 -2.07978 81 85 103
-17.8859 9.21335 -2.08128 74 77 95
-17.8785 9.27785 -2.08444 64 69 85
-17.8519 9.33168 -2.08496 65 71 84
-17.8242 9.41917 -2.08742 124 128 139
-17.8023 9.47582 -2.08866 132 134 146
-17.806 9.54734 -2.0935 94 94 107
-17.8251 9.66286 -2.10269 65 65 79
-17.6861 9.65113 -2.08759 68 71 89
-17.6481 9.69837 -2.08666 64 68 84
-17.6559 9.77295 -2.09223 70 74 91
-17.6309 9.86304 -2.09541 74 77 94
-17.6245 9.92963 -2.09905 82 87 103
-17.5924 9.98073 -2.09909 85 91 104
-17.573 10.075 -2.10323 84 89 101
-17.5034 10.1028 -2.09798 85 89 100
-17.4507 10.1409 -2.09513 89 93 105
-17.3081 10.1572 -2.08173 89 94 108
-17.2084 10.1646 -2.07215 90 94 106
-14.3847 11.4854 -1.89946 96 95 105
-14.3103 11.5298 -1.89639 98 100 109
-14.2687 11.5667 -1.8957 99 99 109
-14.2241 11.6007 -1.89452 101 100 111
-14.1714 11.6642 -1.89505 100 99 108
-14.125 11.6965 -1.89364 102 101 109
-14.0859 11.7354 -1.89343 100 98 109
-14.0239 11.7901 -1.89252 100 99 108
-13.9845 11.8287 -1.89231 100 101 106
-13.9348 11.8577 -1.89041 99 102 107
-13.888 11.8891 -1.889 100 100 108
-13.8253 11.9429 -1.88809 99 98 106
-11.6092 14.8671 -1.84641 84 84 92
-11.5616 14.8996 -1.84644 82 82 85
-11.4872 14.943 -1.84581 79 76 83
-11.4394 14.9751 -1.84584 75 73 80
-11.3915 15.007 -1.84586 76 73 80
-10.1725 16.0484 -1.78757 77 80 89
-10.0805 16.0626 -1.78416 66 70 81
-10.01 16.0555 -1.77986 69 73 85
-9.94439 16.0569 -1.77664 68 73 85
-7.13182 16.1128 -1.5247 76 86 98
-7.07143 16.1072 -1.5221 76 86 98
-7.01182 16.1032 -1.51971 76 85 100
-6.95698 16.1122 -1.51873 76 86 98
-21.3213 0.928034 -1.94186 94 106 128
-21.3036 0.989919 -1.9404 92 104 126
-21.294 1.08346 -1.94002 94 106 129
-21.2995 1.14649 -1.94114 93 105 127
-20.2283 2.53594 -1.93444 145 143 154
-20.2153 2.62472 -1.9345 134 139 150
-20.2239 2.68642 -1.93656 75 83 101
-18.6408 6.572 -2.0236 81 90 105
-18.61 6.62264 -2.02243 81 90 105
-18.6105 6.68532 -2.02535 82 91 106
-18.5872 6.77006 -2.02661 81 90 107
-18.5595 6.8219 -2.02592 81 90 105
-18.5611 6.8854 -2.02908 80 89 104
-18.5479 6.97449 -2.03178 81 90 105
-18.5324 7.0314 -2.03278 80 89 104
-18.5149 7.08753 -2.03353 81 90 105
-18.5027 7.14591 -2.03501 82 89 105
-18.4736 7.22885 -2.03579 81 88 105
-18.4572 7.28564 -2.03679 81 88 104
-18.4243 7.33536 -2.03562 81 88 104
-18.4161 7.42749 -2.03928 80 89 104
-18.39 7.4802 -2.03908 81 88 104
-15.3194 10.1814 -1.934 102 101 114
-15.221 10.1773 -1.92395 100 99 112
-15.1211 10.2049 -1.91612 99 99 111
-15.0421 10.2138 -1.90902 100 100 112
-15.0124 10.2593 -1.90954 100 100 112
-14.9809 10.3034 -1.90982 103 105 117
-14.9283 10.3653 -1.90938 103 103 113
-14.8728 10.3911 -1.90597 100 100 110
-14.8346 10.43 -1.90526 96 96 108
-13.7826 11.978 -1.8874 99 98 107
-13.7398 12.0131 -1.8867 98 97 108
-13.6751 12.0647 -1.88555 97 97 105
-13.6348 12.1021 -1.88534 97 97 104
-13.5945 12.1395 -1.88513 100 99 106
-13.5335 12.1945 -1.88469 99 101 107
-13.4803 12.2189 -1.88232 101 103 109
-13.4606 12.2768 -1.88572 96 96 105
-13.4184 12.3121 -1.88527 95 94 101
-11.3177 15.0514 -1.84546 87 88 92
-11.2652 15.0763 -1.84458 83 83 90
-11.2082 15.0944 -1.8428 84 84 92
-11.1545 15.1173 -1.8417 84 85 92
-9.84513 16.0559 -1.7715 74 77 89
-9.77878 16.055 -1.76806 72 77 87
-9.71813 16.0642 -1.76593 70 76 86
-9.63685 16.0953 -1.76489 71 78 90
-6.8735 16.1205 -1.51675 78 88 100
-6.81212 16.1102 -1.51375 71 80 95
-6.75217 16.1035 -1.51116 67 76 91
-21.3527 0.709693 -1.94388 92 107 130
-21.3436 0.772122 -1.94327 93 107 133
-21.323 0.865382 -1.94161 85 100 123
-20.1729 2.19801 -1.92279 82 80 93
-20.2281 2.26469 -1.93001 123 111 112
-20.1768 2.31847 -1.92511 150 131 111
-20.1786 2.4088 -1.92674 127 119 115
-18.783 5.91313 -2.01141 112 119 135
-18.7729 5.97095 -2.01264 117 123 137
-18.7627 6.02878 -2.01388 108 112 129
-18.6864 6.09417 -2.00794 81 85 100
-18.6888 6.15643 -2.01085 81 88 105
-18.698 6.31381 -2.01863 86 93 109
-18.6958 6.375 -2.02107 81 90 107
-18.6731 6.42867 -2.02086 82 91 108
-18.6687 6.48921 -2.02306 83 92 109
-16.3419 10.1811 -2.03673 92 92 107
-16.208 10.1934 -2.02399 90 92 105
-16.0984 10.1871 -2.01246 84 88 100
-15.9907 10.1814 -2.00118 88 92 103
-15.8798 10.1728 -1.9894 85 90 101
-15.7597 10.1909 -1.97863 90 94 106
-15.6461 10.1787 -1.96636 95 98 110
-15.5472 10.1763 -1.95631 98 100 113
-15.4276 10.192 -1.94553 105 105 119
-14.7783 10.4887 -1.90433 100 102 107
-14.7383 10.526 -1.90337 102 104 110
-14.7137 10.5755 -1.90488 101 100 110
-14.6506 10.6286 -1.90296 105 105 115
-14.6256 10.6779 -1.90447 96 96 107
-14.5882 10.7172 -1.90401 105 106 116
-14.5767 10.7776 -1.90773 106 106 116
