-17.1571 2.82821 -1.88113 75 83 103
-17.1629 2.88076 -1.88322 74 81 102
-17.1569 2.93123 -1.88377 73 81 102
-17.1343 3.00436 -1.88278 73 79 100
-17.1182 3.05292 -1.88203 75 82 100
-16.3973 4.1089 -1.88847 85 91 107
-16.3636 4.17628 -1.88665 84 91 107
-16.3764 4.23113 -1.89042 84 91 107
-16.3603 4.27794 -1.8902 85 91 107
-16.3221 4.34391 -1.88785 83 90 106
-16.3304 4.39781 -1.89109 85 90 109
-16.3253 4.44785 -1.89246 84 89 109
-13.104 6.83731 -1.7313 81 83 100
-12.9671 6.85768 -1.71617 87 84 103
-10.2128 6.82739 -1.45016 122 37 79
-10.0841 6.84062 -1.43652 118 36 76
-10.0805 6.88295 -1.44009 118 38 74
-9.80136 6.81924 -1.40219 88 36 69
-9.73919 6.8359 -1.3967 50 46 63
-9.71998 6.86505 -1.39733 58 50 72
-9.23835 7.01897 -1.35899 127 43 72
-9.22365 7.07366 -1.36287 126 38 63
-9.20946 7.10663 -1.36468 124 36 60
-9.20691 7.15016 -1.36883 127 39 61
-9.20562 7.19506 -1.37328 129 40 62
-9.18255 7.24322 -1.3757 122 32 69
-12.2922 11.6426 -1.95898 120 31 59
-12.244 11.6659 -1.95692 118 22 46
-12.18 11.7091 -1.95542 129 63 91
-12.1465 11.7479 -1.95631 104 78 100
-11.4147 12.9198 -1.94852 89 93 110
-11.3745 12.9534 -1.94887 88 94 110
-11.3244 12.9744 -1.94713 91 94 111
-11.2454 13.0002 -1.94361 88 89 107
-11.2158 13.0474 -1.9463 88 85 104
-9.64378 15.0882 -1.91267 103 99 111
-9.5869 15.0991 -1.91057 103 100 111
-9.53292 15.115 -1.90921 106 103 114
-9.48271 15.1377 -1.90882 105 99 111
-9.19671 15.6941 -1.90584 104 100 114
-9.14385 15.7139 -1.90523 104 102 115
-9.09184 15.7354 -1.90485 103 100 114
-6.83629 15.8801 -1.68632 100 98 111
-6.77824 15.8774 -1.68395 101 100 108
-6.69729 15.8888 -1.68231 105 103 116
-17.1829 2.6015 -1.87893 72 83 103
-17.2032 2.65617 -1.88284 72 80 99
-17.1842 2.7044 -1.88158 74 82 101
-17.1885 2.75658 -1.88342 74 83 101
-16.4673 3.79582 -1.8861 91 95 113
-16.4238 3.83561 -1.88187 89 92 110
-16.4378 3.89005 -1.88564 91 92 110
-16.4343 3.9401 -1.88701 90 92 108
-16.4205 4.01291 -1.88786 87 90 106
-16.4128 4.06195 -1.8887 86 89 105
-10.7976 6.8058 -1.51669 102 30 69
-10.7209 6.79647 -1.50679 107 31 71
-10.6715 6.80646 -1.50187 111 34 76
-10.5733 6.80289 -1.48994 115 37 81
-10.5097 6.80165 -1.48238 117 36 82
-10.4574 6.80832 -1.47687 117 36 79
-10.3818 6.81963 -1.46904 117 36 79
-10.4322 6.90303 -1.48255 119 37 77
-10.3861 6.91392 -1.47821 119 35 77
-10.2502 6.92389 -1.46341 120 35 77
-10.2008 7.04572 -1.46914 112 37 77
-9.17646 7.28422 -1.37927 135 46 95
-9.17308 7.32793 -1.38342 136 47 102
-9.16805 7.39361 -1.38965 138 49 103
-9.16419 7.43746 -1.3938 138 49 103
-12.1074 11.7807 -1.95612 89 77 93
-12.047 11.8276 -1.95544 94 83 95
-12.0051 11.8573 -1.95471 99 89 99
-11.9683 11.8926 -1.95506 116 106 114
-11.9235 11.919 -1.95381 126 116 125
-11.8626 11.965 -1.95312 137 126 135
-11.1655 13.0678 -1.94457 86 81 98
-11.0983 13.1084 -1.94365 91 88 102
-11.0574 13.141 -1.944 109 101 119
-11.0153 13.172 -1.94409 119 112 126
-10.9695 13.198 -1.94339 125 118 125
-9.40297 15.1627 -1.90701 106 100 112
-9.34985 15.1798 -1.90589 106 100 112
-9.29482 15.1931 -1.90428 105 102 113
-9.01321 15.7655 -1.90405 113 109 123
-8.96283 15.79 -1.90415 106 103 114
-8.92025 15.8305 -1.9064 102 99 111
-8.85309 15.8209 -1.90197 105 101 114
-6.63744 15.88 -1.67927 105 104 115
-6.58027 15.8784 -1.67713 104 102 113
-17.2308 2.35292 -1.87959 74 86 108
-17.1953 2.42429 -1.87652 73 85 107
-17.2162 2.47867 -1.88042 73 85 107
-17.2036 2.52797 -1.87993 72 85 104
-16.517 3.45343 -1.88107 83 83 103
-16.4879 3.49718 -1.87871 78 81 99
-16.5088 3.55258 -1.88327 74 76 95
-16.4661 3.61818 -1.87985 73 78 98
-16.4751 3.67096 -1.88282 76 81 100
-16.4512 3.71576 -1.88126 78 83 102
-11.2031 6.81394 -1.56585 146 90 131
-11.1003 6.81226 -1.55334 131 69 112
-11.0295 6.80917 -1.54461 121 57 100
-10.9508 6.80003 -1.53442 105 38 82
-10.8754 6.79275 -1.52482 98 30 75
-9.16442 7.48544 -1.39884 141 52 106
-9.15261 7.54596 -1.4039 144 55 106
-9.15803 7.59957 -1.41011 155 59 106
-9.16176 7.65192 -1.41602 165 63 107
-11.8333 12.0088 -1.95508 123 117 125
-11.7922 12.0392 -1.95463 120 118 125
-11.7294 12.083 -1.95367 127 125 135
-11.688 12.1131 -1.95322 128 124 137
-11.6543 12.152 -1.95437 124 120 136
-11.5872 12.1906 -1.95262 102 100 113
-10.9158 13.2567 -1.9456 126 117 125
-10.8909 13.3112 -1.9496 126 119 126
-10.8436 13.3352 -1.94864 129 124 131
-10.7741 13.3726 -1.94747 134 130 138
-9.22239 15.2312 -1.90442 105 102 116
-9.17006 15.2494 -1.90355 107 104 115
-9.11678 15.2656 -1.90243 103 101 111
-8.78108 15.8641 -1.90307 99 98 112
-8.71923 15.8647 -1.90007 100 98 112
-8.65916 15.8687 -1.89754 100 99 113
-6.49821 15.8851 -1.67503 78 80 86
-6.4418 15.885 -1.67311 80 82 92
-6.38418 15.8809 -1.67075 88 92 98
-17.2338 2.07268 -1.87428 74 88 109
-17.2244 2.12238 -1.87405 73 87 110
-17.2365 2.17496 -1.87666 72 87 110
-17.2194 2.24909 -1.87591 72 86 109
-17.2291 2.30153 -1.87827 75 87 111
-16.5367 3.15635 -1.87449 86 88 103
-16.5492 3.20911 -1.87773 85 86 104
-16.5157 3.27712 -1.87537 84 87 104
-16.5374 3.33214 -1.87993 84 86 101
-16.5126 3.37695 -1.8781 76 77 95
-14.7282 6.62426 -1.91862 85 85 103
-14.7243 6.67522 -1.92149 83 84 102
-14.6937 6.73937 -1.92185 84 87 104
-14.6735 6.78235 -1.92219 83 85 103
-14.6549 6.82617 -1.92281 84 85 102
-14.6253 6.89092 -1.92345 83 84 102
-14.6134 6.93826 -1.92519 84 86 103
-14.5855 6.97736 -1.9244 84 86 102
-14.5762 7.05291 -1.92843 85 88 103
-14.548 7.09186 -1.92764 83 85 101
-14.5249 7.13351 -1.9277 84 86 101
-14.5121 7.18072 -1.92945 83 85 100
-14.4809 7.2449 -1.93009 84 85 103
-14.4677 7.29207 -1.93184 85 86 106
-14.4509 7.3373 -1.93302 83 84 102
-14.4257 7.4051 -1.9348 84 85 103
-14.4034 7.44735 -1.93514 83 84 102
-14.3912 7.4954 -1.93717 84 85 103
-11.6871 6.81142 -1.62431 93 29 72
-11.5932 6.82008 -1.61356 87 25 67
-11.5135 6.81413 -1.60337 83 21 62
-11.4306 6.80554 -1.5926 80 26 66
-11.3388 6.81345 -1.58214 101 48 89
-11.2644 6.80941 -1.57282 110 57 98
-9.15315 7.71684 -1.42196 167 66 115
-9.16336 7.77632 -1.42934 168 70 116
-9.17044 7.83317 -1.43614 170 70 118
-11.5596 12.2368 -1.95511 78 76 96
-11.5038 12.2496 -1.95171 79 77 94
-11.444 12.2965 -1.95156 90 88 103
-11.4007 12.3241 -1.95084 91 89 105
-11.3612 12.3561 -1.95093 92 90 104
-11.3191 12.385 -1.95047 94 90 106
-10.7324 13.4043 -1.94782 115 111 125
-10.6848 13.4277 -1.94686 95 91 106
-10.6172 13.4675 -1.94621 88 85 102
-10.5763 13.5003 -1.94682 93 90 103
-9.04309 15.3011 -1.90233 103 101 114
-8.99243 15.3222 -1.90194 105 101 115
-8.9399 15.3396 -1.90106 103 101 115
-8.55481 15.8427 -1.88958 87 89 101
-8.49412 15.8443 -1.88681 82 84 97
-8.43184 15.842 -1.88357 85 86 98
-6.30294 15.8885 -1.66887 76 81 90
-6.24366 15.8782 -1.66584 83 88 95
-17.2351 1.84424 -1.8703 74 86 108
-17.252 1.89697 -1.87343 76 88 110
-17.2393 1.94627 -1.87268 76 88 112
-17.2351 2.02196 -1.87348 75 87 109
-16.6257 2.94904 -1.88022 74 79 98
-16.6136 2.99675 -1.87999 75 80 99
-16.6063 3.07042 -1.88109 87 90 109
-16.5492 3.10888 -1.87473 83 86 103
-15.0294 5.80151 -1.90643 79 76 94
-14.9885 5.86074 -1.90452 79 81 101
-14.9656 5.90217 -1.90401 86 88 108
-14.9644 5.95295 -1.90688 85 87 106
-14.9394 5.9935 -1.90608 85 88 107
-14.9175 6.06094 -1.90728 87 88 108
-14.9247 6.11581 -1.91156 86 87 105
-14.892 6.15292 -1.90963 86 87 105
-14.8729 6.22187 -1.91139 85 86 104
-14.8508 6.26368 -1.91116 86 88 106
-14.8285 6.30543 -1.91093 84 88 104
-14.8265 6.3826 -1.91552 86 88 105
-14.8056 6.4251 -1.91557 84 85 103
-14.7668 6.45902 -1.9128 85 86 104
-14.7795 6.51762 -1.91821 84 85 103
-14.7479 6.58113 -1.91828 85 84 102
-12.1111 6.82229 -1.67727 90 105 128
-12.0322 6.82027 -1.66738 39 45 66
-11.9417 6.81038 -1.65544 54 50 70
-11.854 6.82521 -1.64585 102 39 81
-11.7755 6.82177 -1.63596 105 37 81
-9.17865 7.89154 -1.44323 159 59 107
-9.18248 7.97094 -1.45211 156 52 102
-9.2011 8.04086 -1.46154 153 46 99
-11.2499 12.4203 -1.94845 93 88 106
-11.2026 12.4425 -1.94692 91 85 104
-11.1627 12.4739 -1.94701 88 82 101
-11.1006 12.5177 -1.94659 82 76 91
-11.0556 12.5426 -1.94561 82 76 93
-10.532 13.5282 -1.94665 94 92 106
-10.4651 13.5688 -1.94626 97 95 109
-10.4194 13.5947 -1.94582 98 96 110
-10.368 13.6122 -1.94409 100 96 111
-10.3144 13.6262 -1.94183 98 94 109
-8.89269 15.3675 -1.90165 102 100 114
-8.81592 15.3966 -1.90082 102 100 114
-8.76498 15.417 -1.90043 98 96 109
-8.34228 15.8455 -1.87966 96 97 107
-8.28183 15.8462 -1.8769 93 93 105
-8.22792 15.8613 -1.87605 98 100 115
-6.1881 15.8791 -1.66414 77 80 91
-6.13201 15.8779 -1.66222 78 80 93
-17.2607 1.66966 -1.87075 78 86 104
-17.2369 1.7178 -1.86845 74 81 102
-17.2287 1.76754 -1.86821 79 90 110
-16.6141 2.64787 -1.87074 76 83 99
-16.6319 2.72555 -1.87503 78 83 102
-16.5952 2.76868 -1.87133 75 79 98
-16.6032 2.81994 -1.87376 75 79 99
-16.6162 2.89719 -1.87753 79 81 102
-15.2068 5.23975 -1.89854 84 89 105
-15.2006 5.28761 -1.90027 84 89 105
-15.1868 5.33266 -1.90088 84 87 104
-15.1664 5.40018 -1.90179 85 90 109
-15.1504 5.44444 -1.90212 86 88 108
-15.1288 5.48647 -1.9016 85 87 108
-15.1075 5.55378 -1.90251 78 81 99
-15.0984 5.60084 -1.90397 71 72 92
-15.0873 5.64716 -1.90514 92 93 112
-15.058 5.71132 -1.90492 126 124 138
-15.0465 5.75757 -1.9061 124 122 135
-12.432 6.80442 -1.71565 107 109 128
-12.3913 6.82805 -1.71248 71 77 97
-12.369 6.86296 -1.71254 75 86 104
-12.1986 6.82912 -1.68862 59 71 95
-9.21799 8.10955 -1.47069 136 22 73
-9.22997 8.19951 -1.48162 140 20 70
-9.25701 8.28 -1.49311 147 23 72
-11.0178 12.5766 -1.94623 126 116 128
-10.9468 12.6088 -1.94393 133 121 133
-10.9076 12.6409 -1.94429 125 116 126
-10.8658 12.6698 -1.9441 123 113 121
-10.2449 13.6625 -1.94092 93 85 100
-10.2066 13.6992 -1.94231 92 83 100
-10.166 13.7325 -1.94318 96 89 100
-8.70965 15.4283 -1.89882 100 99 113
-8.63612 15.4637 -1.89896 100 102 115
-8.58502 15.4835 -1.89857 100 102 115
-8.12817 15.84 -1.86903 100 103 112
-8.07755 15.8619 -1.86913 115 117 124
-8.02448 15.8781 -1.86851 114 114 123
-6.04865 15.8767 -1.65945 76 79 89
-5.99443 15.8807 -1.6582 82 88 101
-5.94024 15.8845 -1.65696 101 108 118
-17.2878 1.44449 -1.87092 71 82 100
-17.2824 1.4946 -1.87094 73 82 99
-17.2769 1.54469 -1.87096 76 83 102
-17.2889 1.59652 -1.87331 74 79 101
-16.6395 2.42909 -1.86875 76 86 111
-16.6505 2.50515 -1.87198 71 83 104
-16.6359 2.55233 -1.87121 72 83 103
-16.6231 2.59978 -1.87071 74 82 101
-15.3593 4.82119 -1.89758 81 87 106
-15.3338 4.88671 -1.89735 84 91 109
-15.3083 4.92749 -1.89599 83 88 107
-15.3087 4.97739 -1.89857 83 88 107
-15.2955 5.04733 -1.90032 83 88 107
-15.2584 5.08385 -1.89726 83 88 107
-15.2435 5.12834 -1.89759 83 88 107
-15.2351 5.20017 -1.90018 85 88 105
-12.8825 6.78067 -1.77032 85 84 102
-12.8842 6.83118 -1.77447 88 85 104
-12.785 6.84633 -1.76314 84 70 90
-12.617 6.79492 -1.73804 69 45 72
-9.29459 8.37213 -1.50695 163 30 77
-10.8053 12.7153 -1.94423 129 121 131
-10.7538 12.7313 -1.9419 135 129 136
-10.7225 12.774 -1.94413 133 129 135
-10.6827 12.8055 -1.94448 119 115 127
-10.6239 12.8533 -1.94514 104 100 117
-10.0885 13.7565 -1.94045 104 92 100
-10.0423 13.7811 -1.94002 96 85 95
-9.99279 13.8006 -1.9388 91 81 93
-9.93111 13.8487 -1.93997 93 86 101
-8.51515 15.4637 -1.89281 97 99 112
-8.4162 15.4444 -1.88563 94 97 112
-8.38109 15.4976 -1.88988 95 98 113
-7.9588 15.865 -1.86408 101 103 114
-7.88157 15.8932 -1.86375 115 113 122
-5.86732 15.9166 -1.65822 93 101 111
-17.3209 1.27022 -1.87292 71 87 112
-17.2983 1.31899 -1.87062 68 83 107
-17.2933 1.36913 -1.87064 71 83 105
-16.6734 2.2119 -1.86838 75 87 111
-16.6539 2.25839 -1.8668 73 85 109
-16.6423 2.33064 -1.86683 71 84 110
-16.6439 2.38031 -1.86819 72 84 110
-15.4738 4.46415 -1.89614 81 87 108
-15.4537 4.53144 -1.89647 83 89 108
-15.4424 4.57706 -1.89708 84 88 107
-15.4084 4.61532 -1.8943 82 88 106
-15.4083 4.68916 -1.89773 82 88 106
-15.3927 4.73343 -1.89778 82 87 106
-15.3676 4.77449 -1.89641 84 89 109
-10.5838 12.8845 -1.9455 83 79 96
-10.5367 12.906 -1.94424 87 84 100
-10.4797 12.9564 -1.94544 92 89 108
-10.4359 12.9823 -1.94499 95 91 108
-9.90261 13.9013 -1.94397 98 91 106
-9.83703 13.8951 -1.93885 100 96 110
-9.7717 13.9375 -1.93924 99 97 110
-9.72395 13.9594 -1.93855 98 96 109
-8.32081 15.4968 -1.8868 91 91 107
-8.25436 15.5466 -1.88915 97 101 113
-8.19818 15.5543 -1.88729 101 105 117
-7.81919 15.8869 -1.86026 103 100 111
-7.76536 15.9004 -1.85941 102 102 110
-7.67437 15.8947 -1.85478 106 103 108
-17.3541 1.09558 -1.87519 70 86 111
-17.3182 1.14368 -1.87108 69 85 110
-17.3058 1.19329 -1.87006 72 88 113
-16.6866 1.99201 -1.86561 73 85 107
-16.6972 2.04265 -1.86803 71 83 106
-16.684 2.09015 -1.86726 73 85 107
-16.6536 2.15973 -1.86462 72 87 109
-15.5526 4.09702 -1.89077 82 89 105
-15.54 4.16628 -1.89194 81 88 104
-15.5261 4.21095 -1.89198 85 91 107
-15.5234 4.25897 -1.89371 82 88 104
-15.5205 4.30701 -1.89544 84 88 108
-15.4974 4.37333 -1.89521 83 88 108
-15.4753 4.41553 -1.89412 84 89 109
-10.3851 12.9984 -1.94293 100 96 112
-10.323 13.0417 -1.94305 101 98 112
-10.2801 13.0688 -1.94287 97 93 107
-10.2315 13.0875 -1.94134 96 92 109
-10.1873 13.1127 -1.94089 88 81 97
-9.67717 13.9828 -1.93812 99 97 110
-9.63034 14.0061 -1.93769 100 96 110
-9.55628 14.034 -1.93599 101 97 111
-8.13634 15.5492 -1.88373 94 96 109
-8.0722 15.5385 -1.87943 98 100 115
-7.99815 15.5709 -1.87957 97 99 112
-7.61679 15.8986 -1.85273 106 105 109
-7.54138 15.8582 -1.84495 100 100 102
-7.46572 15.8882 -1.84509 103 102 107
-17.3754 0.919859 -1.87617 72 87 110
-17.3697 0.970114 -1.87593 69 83 109
-17.3539 1.01973 -1.8744 71 85 111
-16.6712 1.76926 -1.85938 73 85 105
-16.6746 1.81866 -1.86074 75 87 109
-16.6562 1.86542 -1.85916 74 86 110
-16.6956 1.94397 -1.86585 70 82 104
-15.6271 3.85092 -1.89085 82 85 104
-15.6008 3.89224 -1.88892 85 87 104
-15.5953 3.93918 -1.89008 88 90 107
-15.5815 4.00802 -1.89098 81 85 103
-15.5643 4.05174 -1.89045 80 87 103
-14.3264 5.94828 -1.8991 91 87 106
-14.3015 5.98672 -1.89827 94 90 105
-14.2873 6.03007 -1.8992 90 89 103
-14.2652 6.09463 -1.90043 92 89 106
-14.247 6.13621 -1.90078 91 87 106
-14.2287 6.17775 -1.90112 92 89 106
-14.2156 6.22181 -1.90234 92 89 106
-14.1747 6.27746 -1.90066 94 92 106
-14.1666 6.32403 -1.90275 90 87 104
-14.1618 6.37238 -1.90543 91 88 105
-14.1327 6.43388 -1.9058 90 88 103
-14.0923 6.46439 -1.90264 92 91 106
-14.0905 6.51448 -1.9059 89 88 103
-14.073 6.58202 -1.90831 90 88 103
-14.0322 6.61213 -1.90515 91 88 105
-14.0404 6.66776 -1.91017 91 88 105
-14.0308 6.71427 -1.91227 92 90 104
-13.9722 6.76031 -1.90796 90 88 102
-13.9745 6.81326 -1.91211 92 89 106
-13.9592 6.85688 -1.91333 90 89 105
-13.9139 6.90991 -1.91136 90 88 102
-13.9156 6.96295 -1.91551 93 90 106
-13.9154 7.01513 -1.91937 90 86 103
-13.8711 7.06878 -1.91769 90 88 102
-13.8464 7.10734 -1.91745 90 87 104
-13.8404 7.1566 -1.92043 89 85 102
-13.8075 7.21672 -1.9208 92 90 104
-13.7909 7.26003 -1.92203 90 88 102
-11.7509 11.0611 -1.96768 166 40 70
-11.7126 11.0913 -1.96719 159 40 68
-11.677 11.1242 -1.96727 171 48 79
-11.6264 11.1762 -1.96795 158 80 114
-11.5931 11.2117 -1.96859 106 88 107
-11.5464 11.2327 -1.96641 90 83 99
-10.1269 13.1583 -1.94156 106 99 110
-10.0858 13.188 -1.94191 120 111 121
-10.037 13.2061 -1.94039 136 127 137
-9.50727 14.0535 -1.93504 100 97 112
-9.46026 14.0762 -1.93461 100 98 111
-9.39401 14.1169 -1.935 100 98 112
-9.34282 14.1324 -1.93353 100 97 114
-7.94841 15.5923 -1.87967 96 98 111
-7.89 15.5935 -1.87708 94 96 111
-7.44274 15.9781 -1.85427 83 75 88
-7.33871 15.8629 -1.83693 85 75 89
-17.4094 0.79513 -1.8795 72 87 110
-17.3784 0.844185 -1.8759 75 89 115
-16.6881 1.59995 -1.85878 77 79 99
-16.6803 1.648 -1.85854 80 83 102
-16.6762 1.69646 -1.85883 79 82 101
-15.667 3.47623 -1.88214 82 85 102
-15.661 3.52268 -1.88302 81 84 103
-15.6606 3.57057 -1.88474 81 82 102
-15.6371 3.61271 -1.88309 82 84 102
-15.6402 3.68552 -1.88623 80 86 104
-15.6144 3.72702 -1.8843 83 90 107
-15.6305 3.77944 -1.88856 85 90 108
-14.5166 5.34179 -1.88765 92 90 106
-14.5118 5.38854 -1.88975 90 89 105
-14.4873 5.45151 -1.8901 97 94 110
-14.453 5.48606 -1.88752 93 92 106
-14.4568 5.53659 -1.89107 85 85 97
-14.4513 5.58334 -1.89316 85 83 97
-14.4168 5.64215 -1.89205 121 116 126
-14.4128 5.68966 -1.89444 130 124 135
-14.3688 5.71972 -1.8904 135 129 140
-14.3734 5.79574 -1.89572 98 90 103
-14.3544 5.83681 -1.89577 84 76 93
-14.3478 5.88352 -1.89786 91 83 101
-11.4996 11.2534 -1.96422 85 80 94
-11.4483 11.3047 -1.9649 91 85 102
-11.416 11.3411 -1.96583 93 85 103
-11.3835 11.3775 -1.96675 96 87 105
-11.3211 11.4165 -1.96517 94 91 111
-11.287 11.4511 -1.96581 95 92 110
-9.97391 13.2477 -1.94051 125 115 125
-9.92711 13.2687 -1.93953 120 110 121
-9.88678 13.2995 -1.94015 118 109 117
-9.82327 13.3404 -1.94027 120 115 120
-9.29857 14.1597 -1.93388 98 97 111
-9.22502 14.1876 -1.93244 99 98 112
-9.17372 14.2026 -1.93097 98 97 111
-7.80792 15.6068 -1.87478 95 99 110
-7.74883 15.6057 -1.87195 94 96 108
-7.68065 15.5825 -1.86618 100 100 111
-7.25802 15.879 -1.8354 86 85 92
-7.20015 15.8796 -1.83311 99 100 105
-7.14095 15.8763 -1.83034 95 95 103
-17.4374 0.61906 -1.88178 73 85 107
-17.4177 0.694236 -1.87972 72 85 109
-17.4186 0.744908 -1.88026 72 87 110
-16.7269 1.43278 -1.86138 75 82 107
-16.6939 1.47846 -1.85767 74 80 102
-16.6983 1.52773 -1.85903 75 80 99
-15.6979 3.24486 -1.87833 83 86 103
-15.7067 3.3183 -1.88203 86 87 105
-15.6897 3.36212 -1.88122 78 83 99
-15.6898 3.40996 -1.88294 75 82 98
-14.6824 4.85131 -1.88308 90 89 105
-14.7053 4.90766 -1.88926 88 87 106
-14.6498 4.959 -1.88435 90 87 105
-14.6556 5.00928 -1.8879 91 88 107
-14.615 5.04207 -1.88414 91 90 108
-14.6371 5.09876 -1.89032 87 89 104
-14.5735 5.14648 -1.88425 92 89 106
-14.5897 5.20118 -1.88955 92 89 106
-14.5449 5.23197 -1.88521 91 88 105
-14.5469 5.3054 -1.88965 92 90 104
-11.245 11.4768 -1.96476 88 82 97
-11.1926 11.5269 -1.96544 84 75 92
-11.1543 11.5567 -1.96524 85 74 91
-11.112 11.5819 -1.96418 89 78 93
-11.054 11.6254 -1.96373 105 96 108
-9.77732 13.3626 -1.93956 124 122 126
-9.73347 13.3879 -1.93938 110 109 123
-9.66637 13.4231 -1.9387 88 89 101
-9.62127 13.4464 -1.93825 84 86 99
-9.12922 14.2294 -1.93132 97 96 112
-9.05932 14.2633 -1.93093 96 95 113
-9.00789 14.2777 -1.92946 99 98 114
-7.5973 15.5911 -1.86339 94 90 105
-7.54076 15.5947 -1.86129 96 95 101
-7.48799 15.6074 -1.86041 86 85 89
-7.08042 15.8691 -1.8271 99 99 109
-6.99229 15.8634 -1.82294 97 98 110
-6.9279 15.8444 -1.81826 95 97 109
-17.4377 0.441852 -1.8807 73 85 107
-17.4262 0.568025 -1.87995 73 85 107
-16.7724 1.21681 -1.8645 72 86 109
-16.748 1.26367 -1.86185 73 85 110
-16.7471 1.31246 -1.86241 72 84 107
-16.7402 1.36072 -1.86216 77 89 111
-15.7421 2.99325 -1.8762 80 87 106
-15.7454 3.04135 -1.8782 77 82 102
-15.7621 3.09239 -1.88217 82 85 104
-15.7176 3.15407 -1.87799 79 84 100
-15.7319 3.20481 -1.88168 82 87 104
-14.7979 4.51101 -1.8816 88 90 104
-14.7923 4.55655 -1.8831 86 88 102
-14.7883 4.60275 -1.88489 88 89 104
-14.7546 4.66233 -1.88319 90 90 107
-14.7633 4.71309 -1.88703 87 86 104
-14.7216 4.74608 -1.88298 90 88 106
-14.7188 4.81663 -1.88625 88 87 102
-9.94196 6.79214 -1.52514 95 28 71
-9.86839 6.77915 -1.51535 102 38 81
-9.80741 6.77557 -1.50794 67 32 65
-9.75891 6.78152 -1.50292 59 45 70
-9.68434 6.78815 -1.49494 51 49 70
-9.63752 6.79475 -1.49022 72 76 97
-9.58612 6.79739 -1.4846 57 63 86
-9.52867 6.81656 -1.4799 98 105 124
-9.48961 6.8287 -1.47667 73 79 95
-9.43988 6.83183 -1.47135 41 42 60
-9.38703 6.85385 -1.46754 58 60 81
-9.35706 6.87303 -1.4661 59 55 77
-9.31498 6.88185 -1.46227 90 58 89
-9.28458 6.92239 -1.46294 130 60 109
-9.27841 6.96184 -1.46627 129 61 104
-11.0192 11.6593 -1.96438 141 131 140
-10.9716 11.678 -1.96219 139 132 140
-10.9366 11.7116 -1.96284 134 126 134
-10.8768 11.7528 -1.9621 124 117 123
-10.8428 11.7877 -1.96303 121 115 120
-10.8012 11.8133 -1.96227 124 117 124
-9.57821 13.4729 -1.93833 94 93 109
-9.53195 13.4942 -1.93762 97 94 111
-9.46751 13.5335 -1.93774 102 99 116
-8.96409 14.3058 -1.93007 98 98 114
-8.90977 14.3146 -1.92781 97 99 114
-8.83293 14.3353 -1.9256 97 99 114
-7.40846 15.6242 -1.85885 106 107 109
-7.34908 15.6198 -1.85577 105 106 112
-6.87725 15.8626 -1.81836 95 99 110
-6.79421 15.8689 -1.81587 100 106 120
-17.4457 0.340809 -1.88119 72 87 110
-17.4418 0.391341 -1.88095 71 86 109
-16.811 1.04856 -1.86764 73 85 107
-16.793 1.09619 -1.86579 73 85 107
-16.7072 1.11161 -1.85956 74 86 108
-16.7689 1.14327 -1.86315 72 84 107
-16.6951 1.19009 -1.85884 71 83 107
-16.6747 1.24147 -1.85689 70 84 110
-15.7919 2.79029 -1.87691 76 81 100
-15.7629 2.83193 -1.87413 79 84 104
-15.7628 2.87918 -1.87557 78 83 102
-15.7542 2.94834 -1.87645 74 80 99
-14.8878 4.16297 -1.87751 92 91 108
-14.8889 4.21031 -1.87988 94 93 110
-14.8655 4.24998 -1.87846 93 91 109
-14.8577 4.31803 -1.88055 93 91 109
-14.8546 4.36423 -1.88234 93 92 108
-14.8232 4.40122 -1.87976 97 96 112
-14.8259 4.47298 -1.8836 94 94 109
-10.618 6.78293 -1.60417 107 38 76
-10.5542 6.78206 -1.59647 107 37 75
-10.4794 6.77269 -1.58668 109 38 78
-10.4381 6.78756 -1.58316 107 36 76
-10.4638 6.87442 -1.59426 107 36 76
-10.2657 6.77174 -1.56122 106 33 75
-10.2294 6.7893 -1.55859 107 33 77
-10.2168 6.84709 -1.56253 101 31 75
-10.127 6.8235 -1.54976 92 26 68
-10.0452 6.80545 -1.53848 89 23 64
-9.27057 7.00003 -1.4693 134 65 111
-9.26256 7.03824 -1.47233 138 66 113
-9.24326 7.08906 -1.47539 141 62 113
-9.23783 7.12993 -1.47902 138 57 109
-9.23959 7.17744 -1.48414 141 56 106
-10.7471 11.8614 -1.96295 131 125 136
-10.7115 11.8944 -1.96359 121 113 124
-10.6659 11.915 -1.96198 109 103 115
-10.6089 11.9594 -1.96209 84 79 94
-9.41902 13.5511 -1.93649 95 93 110
-9.37564 13.577 -1.93657 96 93 111
-9.30674 13.6088 -1.93563 97 96 112
-9.2561 13.6224 -1.93383 95 94 110
-8.78798 14.3611 -1.92595 95 94 110
-8.74014 14.3815 -1.92552 95 97 112
-8.67144 14.4171 -1.92565 96 98 113
-7.30067 15.6429 -1.85635 93 94 106
-7.24927 15.6584 -1.85596 98 97 107
-6.73619 15.866 -1.81334 94 100 113
-6.6756 15.8554 -1.80985 96 100 111
-17.4539 0.265025 -1.88196 73 88 111
-16.8124 0.926448 -1.86654 65 80 102
-16.7327 0.928048 -1.86098 71 86 109
-16.8126 0.975335 -1.86709 72 86 112
-16.7254 1.00695 -1.86075 71 86 109
-16.6995 1.05821 -1.85807 73 85 107
-15.8205 2.51286 -1.8731 71 83 106
-15.8079 2.55767 -1.87257 69 80 100
-15.8163 2.62971 -1.8757 74 81 100
-15.7974 2.67341 -1.87432 76 80 99
-15.8076 2.72247 -1.87716 82 85 102
-14.9649 3.81243 -1.87285 95 93 107
-14.9654 3.85908 -1.87493 93 92 107
-14.9714 3.90742 -1.87788 94 94 108
-14.9431 3.94588 -1.87558 93 93 107
-14.9407 4.01512 -1.87826 95 94 109
-14.9386 4.06132 -1.88005 93 91 107
-14.9288 4.10526 -1.88067 95 94 110
-11.3066 6.78198 -1.68769 125 53 91
-11.2287 6.77577 -1.67761 124 53 93
-11.1527 6.77026 -1.66783 115 43 83
-11.0759 6.78648 -1.65986 99 33 71
-11.0033 6.78232 -1.65067 99 28 68
-10.9309 6.77778 -1.64148 101 29 69
-10.8479 6.78792 -1.63231 108 36 76
-10.7774 6.78365 -1.62342 108 36 76
-10.7053 6.77786 -1.61423 107 35 74
-9.22096 7.22965 -1.4875 131 46 90
-9.21199 7.26799 -1.49053 123 33 79
-9.21308 7.3157 -1.49566 127 31 74
-9.2038 7.37736 -1.5011 128 30 76
-9.20002 7.4212 -1.50533 129 31 72
-11.3632 10.6228 -1.96066 166 46 78
-11.325 10.6503 -1.95986 160 47 72
-10.5729 11.9921 -1.96274 89 83 100
-10.5308 12.0168 -1.96197 95 89 106
-10.4684 12.0543 -1.96095 98 94 110
-10.4297 12.0834 -1.96104 97 92 109
-10.3921 12.1139 -1.9614 95 91 106
-9.2125 13.6477 -1.93392 86 86 100
-9.14334 13.6787 -1.93298 104 102 115
-9.10352 13.7106 -1.93414 95 92 106
-8.62529 14.4407 -1.92574 97 99 114
-8.57542 14.4571 -1.92479 96 100 112
-8.50186 14.4831 -1.92361 95 97 112
-7.17537 15.6889 -1.85635 102 103 115
-7.11542 15.6818 -1.85302 97 100 109
-7.06186 15.6912 -1.8519 96 99 109
-6.58826 15.8476 -1.80569 87 89 102
-6.53376 15.8534 -1.80436 92 92 102
-6.47542 15.8478 -1.80159 94 94 104
-16.8517 0.757559 -1.87022 73 88 111
-16.7688 0.771146 -1.86412 73 88 111
-16.8406 0.805883 -1.86917 71 86 109
-16.7219 0.821736 -1.85872 72 87 110
-16.8319 0.878729 -1.86865 74 89 110
-15.8342 2.30411 -1.86961 74 86 110
-15.8301 2.35028 -1.8702 75 85 108
-15.8181 2.41856 -1.87023 75 86 109
-15.8349 2.46832 -1.87392 72 84 107
-15.0267 3.55147 -1.8709 93 92 108
-15.0147 3.59451 -1.87094 93 90 107
-15.0102 3.66262 -1.87302 94 90 108
-14.994 3.70458 -1.87248 93 89 107
-14.9968 3.75174 -1.87485 91 88 105
-11.5598 6.7874 -1.7194 107 40 77
-11.4749 6.77822 -1.70813 106 34 73
-11.3853 6.7653 -1.69596 105 33 71
-9.20181 7.47049 -1.51076 132 31 75
-9.19585 7.53647 -1.5171 132 29 75
-9.1971 7.58596 -1.52252 132 31 75
-9.20096 7.63827 -1.52855 133 32 74
-11.2988 10.6906 -1.96169 162 45 73
-11.2382 10.7279 -1.95975 177 49 84
-11.2104 10.7665 -1.96129 148 68 103
-11.1784 10.8008 -1.96195 107 85 105
-11.1383 10.8262 -1.96086 97 89 104
-10.3437 12.1301 -1.95922 96 92 107
-10.294 12.1842 -1.96132 94 91 106
-10.2466 12.2016 -1.95942 91 87 103
-10.2192 12.2458 -1.96233 86 81 96
-9.05766 13.7321 -1.93369 102 98 113
-8.98525 13.7571 -1.93194 87 84 99
-8.94122 13.7817 -1.93202 86 84 100
-8.45729 14.5097 -1.92423 103 102 116
-8.40371 14.5184 -1.92223 103 102 117
-8.31939 14.5223 -1.91793 99 100 113
-6.98019 15.7003 -1.8496 98 98 110
-6.93144 15.7223 -1.85018 95 99 111
-6.38788 15.837 -1.79719 84 84 94
-6.3329 15.8402 -1.79561 85 85 93
-16.8714 0.587256 -1.87151 71 83 107
-16.7601 0.638484 -1.86211 72 84 109
-16.8815 0.661081 -1.87338 73 85 109
-16.7612 0.691423 -1.86262 70 85 108
-16.8746 0.70974 -1.87287 69 84 107
-15.8724 2.09947 -1.87007 73 85 109
-15.8513 2.14313 -1.86813 70 83 107
-15.8398 2.18813 -1.86759 69 81 105
-15.852 2.26006 -1.87099 72 84 108
-15.0879 3.3136 -1.87044 89 87 104
-15.067 3.35448 -1.86901 93 92 109
-15.0883 3.40578 -1.874 95 93 110
-15.0499 3.44224 -1.86995 94 92 109
-15.0385 3.50838 -1.87087 92 91 107
-9.21172 7.69754 -1.53606 131 33 74
-9.20286 7.76262 -1.54211 134 28 74
-9.21578 7.82493 -1.55022 137 32 73
-9.23404 7.89296 -1.55953 137 30 72
-11.0852 10.8713 -1.96067 121 112 123
-11.0542 10.9067 -1.96163 130 121 130
-11.0151 10.9331 -1.96082 135 125 131
-10.9601 10.9762 -1.96034 139 129 131
-10.9209 11.0023 -1.95954 136 126 131
-10.883 11.0298 -1.95903 136 124 131
-10.1559 12.2819 -1.96132 110 102 114
-10.1293 12.3275 -1.96452 127 117 127
-10.0747 12.3347 -1.96091 135 125 135
-10.0157 12.3764 -1.96103 132 122 131
-8.89809 13.8078 -1.93238 90 88 102
-8.85196 13.8286 -1.93193 98 97 115
-8.77831 13.8509 -1.92991 100 99 117
-8.25188 14.5022 -1.91175 97 100 112
-8.20632 14.5262 -1.91211 97 99 111
-8.1624 14.5537 -1.91298 98 97 115
-6.87988 15.7366 -1.84979 92 94 107
-6.79686 15.7411 -1.847 93 96 111
-6.27733 15.8414 -1.79379 82 82 90
-6.21997 15.8367 -1.79126 82 83 92
-16.8586 0.489023 -1.86908 70 85 108
-16.7919 0.507351 -1.86527 70 85 107
-16.872 0.538371 -1.87123 72 85 108
-16.7826 0.586434 -1.86455 71 83 107
-15.8558 1.86445 -1.86265 74 86 110
-15.8754 1.9367 -1.8669 72 84 109
-15.8724 1.98288 -1.86749 73 85 109
-15.8673 2.0288 -1.86779 73 85 109
-15.144 3.0518 -1.8691 85 86 104
-15.1182 3.09172 -1.86679 84 83 101
-15.1335 3.16381 -1.8715 97 93 108
-15.0919 3.19996 -1.86686 94 92 105
-15.0907 3.24549 -1.86835 93 89 103
-12.9242 6.78995 -1.89187 90 84 98
-12.7175 6.74258 -1.86157 93 87 102
-12.6154 6.73114 -1.84763 91 82 99
-12.5493 6.7404 -1.83993 88 82 95
-12.4979 6.78222 -1.83673 94 91 109
-12.4943 6.82872 -1.84006 34 40 62
-12.5175 6.89176 -1.84815 64 72 97
-9.22254 7.95708 -1.56528 139 30 71
-9.30442 8.08972 -1.58832 144 31 71
-9.313 8.1501 -1.59584 148 30 71
-10.825 11.0692 -1.95797 128 117 121
-10.7933 11.1038 -1.95892 128 119 124
-10.7473 11.1219 -1.95665 135 126 130
-10.7205 11.1623 -1.95878 142 133 137
-10.6658 11.2055 -1.9586 143 136 143
-10.6247 11.2291 -1.9575 124 118 123
-9.97483 12.4025 -1.96083 117 110 117
-9.93619 12.4316 -1.9612 121 116 122
-9.87332 12.4679 -1.96047 127 122 129
-9.84348 12.5097 -1.9631 132 126 135
-8.7283 13.8643 -1.92839 97 97 112
-8.68015 13.8811 -1.9274 99 98 112
-8.61015 13.9095 -1.92645 100 102 115
-8.09547 14.5919 -1.91389 96 97 114
-8.04621 14.6083 -1.9132 92 93 108
-7.99268 14.6157 -1.91121 97 98 112
-6.73999 15.7401 -1.84465 89 93 108
-6.67986 15.7296 -1.84108 90 92 106
-6.59648 15.7312 -1.83805 97 96 112
-6.13238 15.8227 -1.78662 78 80 92
-6.08301 15.8422 -1.78719 75 79 90
-16.7949 0.3222 -1.86472 76 89 113
-16.9012 0.368044 -1.87412 74 89 113
-16.7865 0.401353 -1.864 72 86 112
-16.8892 0.416662 -1.8728 75 87 111
-16.7942 0.454483 -1.86525 71 84 107
-15.8731 1.72734 -1.8623 78 82 102
-15.8668 1.77298 -1.86232 75 84 106
-15.878 1.82079 -1.86488 73 84 106
-15.1521 2.80303 -1.86194 81 79 96
-15.1695 2.85209 -1.86605 87 86 101
-15.1462 2.8927 -1.86404 83 84 100
-15.1556 2.94026 -1.86699 83 81 100
-15.1408 3.0054 -1.86702 86 85 103
-13.5194 5.82285 -1.89922 98 92 104
-13.4946 5.88208 -1.89988 97 89 102
-13.4948 5.92984 -1.9032 98 90 103
-13.4752 5.96812 -1.90325 99 91 104
-13.4479 6.02632 -1.90361 97 89 104
-13.4263 6.06358 -1.90337 95 89 103
-13.4046 6.10077 -1.90312 96 90 104
-13.3934 6.14324 -1.90465 93 87 101
-13.3564 6.19658 -1.90353 94 88 102
-13.3501 6.2417 -1.90596 93 87 101
-13.3226 6.2759 -1.90482 91 87 101
-13.2991 6.3362 -1.90608 93 87 101
-13.2818 6.37575 -1.90673 95 89 103
-13.2678 6.41711 -1.90797 91 85 99
-13.2436 6.47724 -1.90923 93 88 98
-13.2241 6.51571 -1.90958 95 90 100
-13.201 6.55223 -1.90933 90 87 98
-13.202 6.60205 -1.91326 91 88 99
-13.1561 6.65042 -1.91095 91 88 102
-13.1481 6.69544 -1.91338 92 88 102
-13.1227 6.73073 -1.91284 91 87 102
-13.0849 6.78349 -1.91202 89 85 100
-13.0747 6.82746 -1.91416 94 90 105
-12.9056 7.17989 -1.92089 86 97 116
-12.8725 7.23567 -1.92126 49 57 75
-12.8573 7.27732 -1.92281 50 55 72
-12.8302 7.31156 -1.92227 48 48 63
-12.7947 7.36595 -1.92235 49 37 58
-12.7907 7.41493 -1.92598 58 38 55
-12.7632 7.44894 -1.92544 64 30 49
-12.7271 7.50302 -1.92552 94 42 72
-9.30694 8.22193 -1.60309 152 30 76
-10.5873 11.2571 -1.95729 85 79 92
-10.5322 11.2996 -1.9571 89 83 97
-10.4971 11.3304 -1.95748 85 79 93
-10.4595 11.358 -1.95726 92 85 100
-9.79998 12.5319 -1.96233 115 113 125
-9.75865 12.5573 -1.96213 98 96 108
-9.69748 12.5959 -1.96197 85 83 97
-9.65045 12.6127 -1.96035 85 82 98
-8.55727 13.9171 -1.92412 100 99 114
-8.51274 13.9403 -1.92421 99 97 114
-8.4471 13.9766 -1.92461 104 103 119
-7.91702 14.6352 -1.90951 90 90 108
-7.86186 14.6385 -1.90699 93 94 111
-6.54112 15.7332 -1.83619 93 92 108
-6.48452 15.7314 -1.83384 95 97 109
-6.02528 15.8349 -1.78442 74 79 90
-5.94394 15.8389 -1.78217 77 80 95
-16.8775 0.245302 -1.87037 78 90 112
-16.7966 0.269324 -1.8647 72 84 106
-15.874 1.49609 -1.85828 79 84 103
-15.8818 1.56621 -1.86055 76 81 101
-15.874 1.61166 -1.86029 74 77 94
-15.874 1.65796 -1.86115 78 81 98
-15.2014 2.58625 -1.8624 76 78 99
-15.1941 2.65272 -1.8633 85 86 104
-15.1965 2.69856 -1.86508 88 87 104
-15.1659 2.73785 -1.8619 90 87 104
-13.7416 5.28955 -1.89475 95 90 105
-13.715 5.32469 -1.89331 95 91 105
-13.7028 5.36598 -1.89425 98 90 105
-13.6784 5.42512 -1.89461 97 91 105
-13.6586 5.46315 -1.89435 98 92 106
-13.6442 5.50353 -1.89499 99 93 106
-13.6278 5.54307 -1.89534 99 91 107
-13.6133 5.60679 -1.89748 80 76 90
-13.5895 5.64296 -1.89664 96 94 105
-13.587 5.68898 -1.89936 121 120 125
-13.5449 5.74011 -1.89704 124 121 128
-13.5385 5.78444 -1.89917 123 119 129
-10.4026 11.3983 -1.95678 100 95 110
-10.3685 11.4303 -1.95745 96 93 107
-10.3219 11.4466 -1.95518 97 93 110
-10.2732 11.4972 -1.95676 101 94 110
-10.2266 11.5132 -1.95449 100 93 109
-9.60668 12.6343 -1.95959 97 94 111
-9.54955 12.6788 -1.96056 96 93 111
-9.50127 12.6935 -1.95866 96 93 111
-8.39966 13.9942 -1.92389 100 100 113
-8.35397 14.0152 -1.92371 101 103 116
-8.28349 14.042 -1.92276 101 103 115
-7.80262 14.6325 -1.90316 94 96 111
-7.7262 14.6493 -1.90121 93 96 109
-7.68011 14.6718 -1.90156 99 98 114
-6.42925 15.7331 -1.83198 82 86 98
-6.34559 15.7315 -1.82869 84 86 99
-5.88813 15.8368 -1.78012 75 82 93
-5.83409 15.8403 -1.77878 71 79 90
-15.9241 1.40852 -1.86386 67 74 93
-15.9129 1.45373 -1.86304 78 85 103
-15.2299 2.38818 -1.86083 74 83 104
-15.2177 2.43115 -1.86027 74 84 104
-15.2189 2.49903 -1.86234 79 87 109
-15.2277 2.5459 -1.86499 78 83 105
-13.9051 4.82655 -1.88982 95 91 106
-13.8706 4.85896 -1.88689 96 92 107
-13.8637 4.90195 -1.88842 95 93 107
-13.8506 4.96536 -1.89026 95 93 107
-13.836 5.00544 -1.8906 94 92 106
-13.8285 5.04843 -1.89213 97 93 107
-13.821 5.09143 -1.89366 96 92 106
-13.785 5.1458 -1.89193 97 93 107
-13.7734 5.18722 -1.89287 96 92 106
-13.769 5.23168 -1.89499 96 89 105
-10.1908 11.543 -1.95486 87 79 95
-10.1537 11.5712 -1.95494 83 77 92
-10.0936 11.607 -1.95388 94 84 99
-10.0611 11.6412 -1.95513 105 95 108
-10.0154 11.6579 -1.95316 119 109 117
-9.46705 12.7295 -1.96044 94 93 108
-9.40295 12.7634 -1.95971 97 94 110
-9.36096 12.7875 -1.95951 97 94 109
-9.31782 12.8098 -1.95903 92 96 108
-8.21896 14.0255 -1.91693 98 100 112
-8.16434 14.0281 -1.91406 96 97 110
-8.12914 14.0696 -1.91711 97 103 119
-7.6275 14.6796 -1.89982 96 95 111
-7.54385 14.6792 -1.89551 92 95 112
-6.3003 15.7628 -1.83075 81 83 95
-6.24386 15.7601 -1.8284 84 84 94
-15.9496 1.20261 -1.86435 70 83 102
-15.945 1.24847 -1.86437 70 81 103
-15.9343 1.29381 -1.86354 71 80 101
-15.9235 1.33909 -1.86272 75 83 103
-15.2498 2.18897 -1.85838 75 84 107
-15.2538 2.23458 -1.86016 73 83 105
-15.2517 2.27927 -1.86106 74 85 103
-15.2245 2.34218 -1.85876 76 84 103
-14.0203 4.43848 -1.8847 95 93 107
-14.0073 4.47899 -1.88504 95 93 106
-13.9908 4.54069 -1.88598 95 93 106
-13.9831 4.58314 -1.88721 95 92 105
-13.9622 4.62085 -1.88636 95 93 107
-13.9506 4.68446 -1.8882 94 91 108
-13.9295 4.72204 -1.88735 94 92 106
-13.9137 4.76163 -1.88739 94 91 108
-9.95603 11.6946 -1.95239 129 119 127
-9.92201 11.7268 -1.95335 120 110 119
-9.88318 11.7525 -1.95313 117 109 120
-9.27991 12.8403 -1.95996 78 75 92
-9.21958 12.88 -1.96037 89 88 103
-9.17199 12.8952 -1.95875 108 106 120
-8.06549 14.1095 -1.91832 94 96 109
-8.01429 14.1188 -1.91652 96 95 109
-7.96911 14.1403 -1.91661 96 95 111
-7.49527 14.6957 -1.89508 88 91 106
-7.43722 14.6901 -1.89152 91 90 104
-7.38084 14.688 -1.88847 111 111 123
-6.15796 15.75 -1.82413 77 79 92
-6.09814 15.7355 -1.82032 74 78 90
-6.03671 15.7151 -1.81576 76 81 92
-15.9624 1.04185 -1.86401 72 84 106
-15.9642 1.08819 -1.86488 72 84 104
-15.9638 1.13439 -1.86546 71 82 103
-15.2766 1.99116 -1.85741 73 85 106
-15.2636 2.03408 -1.85656 75 86 105
-15.274 2.08049 -1.85921 76 84 105
-15.2515 2.14433 -1.85749 73 84 106
-14.1147 4.11208 -1.88144 98 95 107
-14.0953 4.15039 -1.88058 98 95 109
-14.0879 4.21481 -1.88271 94 92 106
-14.0682 4.25299 -1.88186 95 93 107
-14.0558 4.29362 -1.88219 98 96 110
-14.0458 4.35737 -1.88403 95 93 107
-14.0294 4.39665 -1.88377 96 94 108
-9.84095 11.8125 -1.95677 120 115 121
-9.79954 11.8348 -1.95597 131 126 133
-9.76039 11.8601 -1.95576 128 125 133
-9.70481 11.902 -1.95616 119 115 127
-9.66202 11.9222 -1.95507 107 104 116
-9.13272 12.9236 -1.9594 128 126 139
-9.06681 12.9542 -1.95839 118 116 129
-9.02013 12.9705 -1.95706 115 115 125
-8.97751 12.9934 -1.95686 110 112 124
-7.89653 14.1616 -1.91513 99 97 112
-7.84106 14.1613 -1.91199 100 98 112
-7.30605 14.7064 -1.88704 95 94 107
-7.24518 14.6929 -1.88243 107 105 119
-7.19587 14.7065 -1.88173 107 106 118
-5.963 15.7418 -1.81639 73 77 91
-16.0112 0.929498 -1.86961 72 86 111
-15.9857 0.974141 -1.86653 70 85 108
-15.2921 1.83671 -1.85617 73 85 107
-15.2875 1.88081 -1.85649 70 85 108
-15.2788 1.92435 -1.85622 71 86 108
-14.1918 3.82556 -1.87882 100 96 110
-14.1747 3.88665 -1.87917 99 97 110
-14.1579 3.92581 -1.87861 100 96 110
-14.1541 3.96898 -1.88013 99 95 110
-14.1445 4.0104 -1.88076 101 97 111
-14.119 4.06893 -1.87991 99 96 107
-9.81153 6.81144 -1.60553 52 51 72
-9.75701 6.81234 -1.59895 71 73 94
-9.68727 6.82251 -1.59145 87 93 115
-9.63904 6.82777 -1.58614 55 62 85
-9.60001 6.84031 -1.58272 42 54 78
-9.55336 6.8464 -1.57772 78 90 114
-9.49904 6.86776 -1.57337 79 91 115
-9.45549 6.87588 -1.569 87 97 124
-9.4195 6.89018 -1.56621 72 78 100
-9.36666 6.91197 -1.56218 66 55 77
-9.33514 6.92974 -1.56033 92 41 72
-9.3185 6.9603 -1.56165 114 32 74
-10.9053 9.90507 -1.95366 165 30 71
-10.8885 9.95104 -1.95701 166 30 70
-10.8495 9.97427 -1.95559 163 33 72
-9.63286 11.9616 -1.9575 79 76 92
-9.58655 11.9768 -1.95552 84 81 100
-9.52475 12.0097 -1.95446 93 91 105
-8.91744 13.0334 -1.95755 120 118 129
-8.87767 13.061 -1.9582 126 126 136
-8.82376 13.0647 -1.95488 126 126 139
-7.79491 14.1805 -1.91181 97 96 111
-7.71643 14.1884 -1.90844 98 98 112
-7.66691 14.2 -1.90718 97 98 114
-7.11437 14.7075 -1.87794 112 108 115
-7.06057 14.7097 -1.87568 120 116 121
-5.90872 15.7436 -1.81477 69 72 87
-5.85731 15.7547 -1.81438 72 75 90
-16.0406 0.769155 -1.8721 72 88 113
-16.0354 0.81519 -1.87183 73 86 111
-15.9931 0.882168 -1.8665 75 89 112
-15.312 1.63831 -1.85492 86 84 98
-15.2766 1.6786 -1.85056 87 83 98
-15.3136 1.72779 -1.857 90 86 103
-15.2936 1.76992 -1.85498 93 93 111
-14.2378 3.53111 -1.87236 89 87 100
-14.2392 3.59711 -1.87537 92 88 102
-14.2289 3.63814 -1.8757 98 92 106
-14.2242 3.68077 -1.87693 97 92 106
-14.2059 3.74143 -1.87697 99 95 110
-14.2065 3.78571 -1.87909 100 96 110
-10.5131 6.8338 -1.69519 108 33 74
-10.4276 6.81563 -1.68262 112 36 72
-10.4668 6.89064 -1.69497 121 44 82
-10.2527 6.79683 -1.65877 120 47 87
-10.1772 6.78435 -1.64809 121 48 88
-10.2098 6.85444 -1.65919 114 40 79
-10.1174 6.8506 -1.64727 116 34 76
-10.0267 6.82497 -1.63344 116 34 76
-9.96095 6.81836 -1.62466 116 41 81
-9.96039 6.8851 -1.63135 59 39 67
-9.30118 7.01257 -1.56519 118 32 74
-9.29165 7.04958 -1.56808 119 32 75
-9.2864 7.09054 -1.57192 119 32 74
-9.27952 7.13022 -1.57544 118 32 73
-9.28025 7.1997 -1.58309 120 32 72
-10.8042 10.0224 -1.95629 158 39 75
-10.7732 10.0539 -1.95666 151 39 72
-10.7299 10.0724 -1.95434 153 39 73
-10.6801 10.1157 -1.95414 169 44 80
-10.6501 10.1483 -1.95481 158 55 92
-10.6254 10.1866 -1.95667 133 76 105
-9.4963 12.0505 -1.95719 95 94 108
-9.45207 12.0683 -1.9558 92 91 109
-9.39877 12.1137 -1.95709 94 93 111
-9.35108 12.1263 -1.95482 92 91 108
-8.77227 13.1194 -1.95812 86 88 102
-8.72426 13.133 -1.9565 79 81 97
-8.67527 13.1447 -1.9546 91 89 107
-7.61244 14.2007 -1.90431 93 95 110
-7.53332 14.2058 -1.90067 91 95 108
-7.48141 14.2113 -1.89861 91 96 108
-7.00683 14.7117 -1.87342 126 119 126
-6.92705 14.7154 -1.87016 115 110 118
-16.0507 0.677039 -1.87263 74 89 112
-16.0339 0.722543 -1.87067 71 87 112
-15.3257 1.48394 -1.85398 78 79 99
-15.3241 1.52831 -1.85458 83 82 99
-15.3164 1.572 -1.85431 91 90 104
-14.3162 3.3117 -1.87456 94 91 105
-14.3222 3.35685 -1.87727 88 85 100
-14.2959 3.41545 -1.87582 90 83 99
-14.2919 3.45814 -1.87705 88 84 98
-14.2725 3.49674 -1.87589 95 91 105
-10.6926 6.92053 -1.72636 110 35 78
-9.29923 7.26332 -1.5923 122 34 71
-9.3252 7.33377 -1.60308 125 33 70
-9.32029 7.39985 -1.60979 127 33 70
-10.5724 10.2265 -1.95587 102 91 105
-10.546 10.2632 -1.95744 98 92 106
-10.5076 10.2866 -1.95631 99 90 107
-10.4608 10.3333 -1.95701 98 89 106
-10.434 10.3697 -1.95858 97 88 106
-9.30779 12.1453 -1.95373 95 92 110
-9.24861 12.1818 -1.95355 92 89 108
-9.21169 12.2103 -1.95422 87 84 103
-9.17468 12.2388 -1.95489 86 83 102
-8.62824 13.1596 -1.95327 100 98 119
-8.56436 13.1929 -1.95311 97 96 117
-8.51723 13.2074 -1.95177 96 97 115
-7.42954 14.2168 -1.89654 91 94 111
-7.3793 14.2256 -1.89502 95 97 112
-6.87486 14.7206 -1.86842 107 103 116
-6.81767 14.7128 -1.86485 107 105 118
-6.73814 14.7155 -1.86158 104 104 117
-16.0597 0.515408 -1.87259 71 85 111
-16.0651 0.561883 -1.87373 68 84 109
-16.0506 0.607619 -1.87205 72 84 108
-15.3376 1.32952 -1.85304 84 83 101
-15.3542 1.37564 -1.85627 79 79 97
-15.3313 1.41783 -1.85367 84 82 101
-14.3631 3.12759 -1.87413 94 92 106
-14.3851 3.17635 -1.87922 98 94 109
-14.3473 3.21069 -1.87509 97 94 105
-14.3581 3.27862 -1.87929 101 99 110
-9.33098 7.45737 -1.61742 127 31 71
-10.3992 10.3971 -1.95835 97 88 107
-10.3604 10.42 -1.95723 98 86 106
-10.313 10.4661 -1.95793 98 92 106
-10.2779 10.4931 -1.9577 98 91 105
-10.2544 10.5336 -1.96016 99 92 106
-9.11829 12.2796 -1.95559 116 114 127
-9.07464 12.2978 -1.9545 127 125 138
-9.03626 12.3242 -1.95487 125 123 136
-8.47107 13.2235 -1.95072 96 98 112
-8.40881 13.2595 -1.95113 95 96 111
-8.36441 13.2788 -1.95065 96 98 111
-7.3004 14.2295 -1.89138 94 94 106
-7.2463 14.2288 -1.8885 110 108 119
-7.18916 14.2206 -1.88456 106 104 114
-6.69172 14.7349 -1.86193 103 103 117
-6.63826 14.7356 -1.85967 109 109 122
-16.0906 0.354237 -1.87593 66 82 107
-16.0807 0.40032 -1.87482 69 85 110
-16.0726 0.446397 -1.87398 72 86 112
-15.3773 1.1776 -1.85649 75 82 101
-15.3373 1.21851 -1.85126 74 79 101
-15.3523 1.26429 -1.85419 80 79 100
-14.4086 2.83532 -1.87008 83 81 95
-14.4181 2.88053 -1.87308 78 75 93
-14.3927 2.91812 -1.87073 79 76 93
-14.4107 2.98697 -1.87582 87 85 99
-14.4005 3.02797 -1.87585 87 85 99
-14.3978 3.07074 -1.87707 91 89 103
-12.6087 5.83369 -1.88881 78 84 105
-12.5856 5.88972 -1.88982 73 83 105
-12.5871 5.93624 -1.89365 73 84 102
-12.552 5.96337 -1.89086 70 83 100
-12.5247 6.01733 -1.89124 68 80 102
-12.5085 6.05449 -1.89192 70 82 104
-12.4938 6.09256 -1.89291 66 78 100
-12.4832 6.15581 -1.89645 67 80 99
-12.463 6.19096 -1.89649 68 81 100
-12.4427 6.22605 -1.89654 66 79 98
-12.4211 6.28344 -1.89819 66 78 100
-12.4022 6.31939 -1.89855 65 77 99
-12.3867 6.35725 -1.89955 63 75 99
-12.371 6.39507 -1.90054 61 76 99
-12.3332 6.44328 -1.89935 60 72 96
-12.3223 6.484 -1.90129 58 70 94
-12.3045 6.52068 -1.90197 58 70 94
-12.2779 6.57562 -1.90299 55 66 93
-12.2598 6.61219 -1.90367 55 64 91
-12.2382 6.64667 -1.90372 51 59 83
-12.206 6.69825 -1.90379 42 49 67
-12.1942 6.7388 -1.90574 44 50 74
-12.1755 6.77517 -1.90642 44 49 75
-12.1501 6.80728 -1.90584 52 54 72
-12.1171 6.85847 -1.90591 45 50 66
-12.0964 6.89357 -1.90628 48 47 62
-12.0822 6.93289 -1.90791 45 47 60
-12.0503 6.98484 -1.9083 52 51 59
-12.0275 7.01868 -1.90835 50 47 57
-11.998 7.0481 -1.90715 55 47 61
-11.9689 7.10186 -1.90817 57 51 58
-11.9555 7.14204 -1.91011 54 51 62
-11.9339 7.1767 -1.91048 49 42 54
-11.8992 7.22689 -1.91056 49 37 52
-11.8822 7.26473 -1.91188 48 35 51
-11.8601 7.29918 -1.91225 48 31 47
-11.8412 7.33581 -1.91325 50 31 47
-11.7993 7.38104 -1.91206 58 34 50
-9.33882 7.68261 -1.64355 127 33 69
-10.2063 10.5791 -1.96086 97 90 106
-10.1696 10.6044 -1.96034 99 93 105
-10.138 10.6355 -1.96101 97 91 103
-10.0818 10.6715 -1.95992 99 90 107
-10.0524 10.7054 -1.96119 100 91 108
-8.99461 12.3455 -1.95436 116 114 126
-8.92929 12.3721 -1.95272 117 115 126
-8.89691 12.4081 -1.95486 121 120 128
-8.31621 13.2909 -1.94903 87 89 104
-8.25268 13.3244 -1.94915 90 89 104
-7.11286 14.229 -1.88172 122 114 123
-7.06278 14.2367 -1.8802 119 107 116
-7.00819 14.2334 -1.87705 127 116 124
-6.58622 14.7399 -1.85793 110 109 123
-6.51308 14.7581 -1.85701 107 106 120
-16.0791 0.284566 -1.87395 71 85 111
-15.378 1.0222 -1.8544 76 87 109
-15.3897 1.06751 -1.85675 77 83 107
-15.368 1.13237 -1.85443 77 82 106
-14.4642 2.65326 -1.87204 82 82 98
-14.4085 2.68493 -1.86494 90 87 103
-14.4147 2.72912 -1.86734 83 79 96
-14.4182 2.79431 -1.87005 86 84 100
-12.9084 5.21778 -1.88681 78 87 106
-12.8894 5.25341 -1.88654 76 89 105
-12.8655 5.3088 -1.88691 80 88 107
-12.8427 5.34262 -1.88601 81 88 107
-12.8215 5.37719 -1.88543 83 90 109
-12.8037 5.41338 -1.88547 76 83 102
-12.7844 5.47095 -1.88679 77 85 106
-12.7611 5.50445 -1.88589 76 86 107
-12.7447 5.54131 -1.88625 75 86 104
-12.7213 5.59696 -1.88694 74 85 105
-12.7064 5.63459 -1.88762 75 86 106
-12.6931 5.67307 -1.88861 75 86 104
-12.6655 5.72674 -1.88867 77 85 104
-12.6484 5.76334 -1.88903 73 81 100
-12.6242 5.7963 -1.88814 73 83 101
-11.7866 7.42209 -1.91433 76 50 62
-11.7624 7.45512 -1.91438 80 49 62
-11.7376 7.51259 -1.91667 80 36 58
-11.7068 7.54084 -1.91546 93 38 72
-11.6727 7.56665 -1.91363 104 41 76
-10.0275 8.15351 -1.77503 126 33 70
-10.0129 10.7271 -1.96006 97 93 108
-9.96137 10.7685 -1.96017 124 122 135
-9.92788 10.7975 -1.96054 130 125 135
-9.90299 10.8372 -1.963 129 121 129
-8.86437 12.4441 -1.957 127 126 135
-8.79459 12.4633 -1.95417 127 125 139
-8.75975 12.4956 -1.95573 119 117 132
-8.71152 12.5058 -1.95346 107 106 120
-8.20905 13.3449 -1.94896 124 120 135
-8.14876 13.3337 -1.94365 127 123 138
-8.09051 13.377 -1.94547 116 113 122
-6.93056 14.2371 -1.87368 110 103 114
-6.8776 14.2369 -1.87108 109 102 111
-6.44954 14.7303 -1.85083 107 110 123
-6.40574 14.7563 -1.85223 104 107 120
-15.4128 0.913685 -1.85816 74 86 108
-15.3958 0.979106 -1.85642 75 87 109
-14.4337 2.4335 -1.86063 75 83 102
-14.43 2.53943 -1.86336 77 84 102
-14.4696 2.58996 -1.87082 73 78 97
-13.0672 4.73941 -1.87844 73 83 101
-13.0533 4.77708 -1.8788 75 81 103
-13.0283 4.81019 -1.87726 79 84 106
-13.036 4.85686 -1.8814 79 86 105
-13.0086 4.91056 -1.88082 74 85 103
-12.9851 4.94422 -1.8796 77 85 104
-12.9687 4.98089 -1.87964 77 85 104
-12.9642 5.04447 -1.88316 76 82 105
-12.9548 5.08426 -1.88447 74 85 106
-12.9398 5.12165 -1.88482 77 86 107
-12.9165 5.17725 -1.8852 74 85 105
-9.981 8.18811 -1.77353 123 32 64
-9.96735 8.22775 -1.77643 124 32 69
-9.94786 8.3412 -1.78699 129 33 73
-9.86264 8.31233 -1.7741 129 32 73
-9.8258 8.32978 -1.77195 130 34 71
-9.82418 8.38158 -1.7777 136 39 73
-9.86558 10.8615 -1.96248 131 123 133
-9.81342 10.9022 -1.96258 131 122 133
-9.77951 10.9308 -1.96296 135 126 137
-9.74672 10.9608 -1.96363 133 125 138
-8.6487 12.5361 -1.95269 84 82 96
-8.60952 12.5612 -1.95307 93 90 105
-8.56524 12.5777 -1.95197 98 97 114
-8.04129 13.3865 -1.94357 120 117 126
-7.99659 13.4045 -1.94309 121 118 129
-7.96171 13.4418 -1.94573 120 119 124
-6.82104 14.2274 -1.86713 112 106 120
-6.74226 14.2265 -1.86321 117 114 125
-6.33193 14.7718 -1.85105 102 104 119
-6.27279 14.7545 -1.84643 103 106 123
-6.22229 14.7613 -1.84521 99 102 119
-15.4297 0.825891 -1.85958 77 89 113
-15.4243 0.87 -1.85931 78 90 112
-14.435 2.24254 -1.85518 78 85 103
-14.4799 2.31396 -1.86382 76 84 103
-14.427 2.34718 -1.85702 75 83 102
-14.4226 2.3889 -1.85763 75 83 102
-13.1929 4.38015 -1.87526 80 84 102
-13.1636 4.41192 -1.87278 81 87 106
-13.1566 4.47333 -1.87535 78 84 100
-13.1565 4.51618 -1.8779 79 87 103
-13.1378 4.55195 -1.87731 75 82 100
-13.1227 4.61052 -1.87862 79 88 105
-13.1019 4.64544 -1.87772 77 85 103
-13.0773 4.6788 -1.87618 77 84 103
-9.8217 8.45943 -1.78631 164 74 107
-9.68803 10.9932 -1.96224 95 88 105
-9.6526 11.0199 -1.96231 85 80 99
-9.61469 11.0433 -1.96179 84 79 100
-9.56644 11.0892 -1.96309 87 79 100
-9.53308 11.1186 -1.96377 91 84 106
-8.52192 12.5957 -1.95117 98 97 115
-8.46467 12.6353 -1.95217 96 95 112
-8.42023 12.6513 -1.95108 95 93 109
-7.89391 13.4666 -1.94472 129 129 139
-7.83043 13.447 -1.93827 122 122 134
-7.76626 13.4254 -1.93154 101 99 113
-6.69314 14.2349 -1.86196 117 114 124
-6.64189 14.2375 -1.85989 108 105 116
-6.59209 14.2437 -1.85836 109 107 120
-6.15113 14.7833 -1.84508 99 105 119
-6.0987 14.7841 -1.84308 100 108 121
-15.4629 0.627671 -1.86244 72 84 106
-15.4483 0.671409 -1.86071 76 87 109
-15.4433 0.715593 -1.86043 77 87 110
-15.456 0.760744 -1.86278 76 86 111
-14.4823 2.05972 -1.85716 79 84 104
-14.4652 2.09935 -1.8557 76 81 100
-14.4543 2.16103 -1.85572 74 82 101
-14.4603 2.2044 -1.85783 75 83 102
-13.273 4.06931 -1.86962 87 90 107
-13.278 4.11331 -1.87281 85 88 105
-13.2447 4.16505 -1.87065 85 87 105
-13.2494 4.20911 -1.87384 88 92 109
-13.2279 4.24392 -1.87261 88 91 108
-13.2255 4.30676 -1.87581 79 85 103
-13.2093 4.34349 -1.87553 82 88 107
-9.49845 11.1464 -1.96414 96 92 111
-9.44495 11.1854 -1.96425 94 91 110
-9.40188 11.2017 -1.96253 94 89 108
-9.37397 11.2387 -1.96469 93 91 108
-8.37771 12.6706 -1.95057 97 93 110
-8.31522 12.7009 -1.95011 95 93 113
-7.70993 13.4724 -1.93422 93 91 106
-7.6512 13.4609 -1.92919 94 93 110
-7.59518 13.4546 -1.92502 93 95 110
-6.51782 14.2527 -1.85606 103 106 119
-6.46946 14.2622 -1.85507 101 103 116
-6.04757 14.7884 -1.8416 92 102 114
-15.4907 0.51766 -1.86563 73 85 109
-15.4586 0.560836 -1.86127 76 87 109
-14.4879 1.87059 -1.8532 77 79 100
-14.5203 1.91741 -1.85917 77 81 101
-14.5134 1.9587 -1.85919 75 82 101
-14.509 2.02149 -1.86011 74 81 100
-13.3568 3.80301 -1.86813 92 92 107
-13.3511 3.86394 -1.87038 85 88 100
-13.3418 3.90294 -1.87104 92 94 109
-13.325 3.93945 -1.87045 89 90 106
-13.3267 3.98215 -1.873 84 83 101
-13.3052 4.03806 -1.87274 84 87 105
-10.4338 9.1221 -1.93071 76 19 52
-10.4071 9.15376 -1.9314 80 22 55
-10.3686 9.20253 -1.93276 85 32 59
-10.3444 9.23683 -1.93409 88 40 62
-9.33195 11.2564 -1.96327 94 92 112
