-3.90962 10.2249 -2.06672 90 88 89
-9.53784 0.651842 -1.91308 86 96 112
-9.56659 0.692896 -1.92158 81 92 109
-9.56736 0.71879 -1.92264 81 93 109
-9.2026 1.16029 -1.91448 85 92 109
-9.19423 1.18409 -1.91353 86 93 112
-9.19152 1.20872 -1.91411 83 89 105
-8.73405 1.59628 -1.88158 80 87 103
-8.72065 1.61752 -1.87954 79 85 101
-8.72406 1.64256 -1.88224 81 87 103
-8.35576 2.22728 -1.89012 85 91 106
-8.39368 2.27575 -1.90488 83 93 105
-8.38929 2.29874 -1.90603 80 89 104
-8.37387 2.31811 -1.90392 80 88 104
-8.38023 2.35682 -1.90945 84 90 106
-8.36101 2.37487 -1.90626 81 88 101
-6.87424 5.11454 -1.97685 97 103 119
-6.8587 5.13315 -1.97744 87 93 109
-6.83076 5.1564 -1.97644 84 90 104
-6.81925 5.17884 -1.97867 83 89 105
-6.7979 5.19202 -1.97709 81 87 103
-6.36502 5.92184 -1.98513 85 93 104
-6.33873 5.94857 -1.98627 84 90 104
-6.32045 5.96584 -1.98685 85 88 103
-6.0555 6.57608 -2.00976 80 86 100
-6.03396 6.59106 -2.00981 82 85 100
-6.0135 6.60754 -2.01037 81 84 99
-5.69574 7.18876 -2.02071 122 123 129
-5.65897 7.20638 -2.01979 83 82 91
-5.2693 7.93136 -2.03929 110 111 116
-4.82587 8.70485 -2.05146 73 77 88
-4.79473 8.70881 -2.04967 64 68 80
-4.50683 9.20316 -2.05485 78 78 88
-4.24248 9.74578 -2.07328 82 85 94
-4.20699 9.74219 -2.07034 87 85 98
-3.87603 10.2315 -2.06634 81 81 81
-9.56278 0.602407 -1.91787 85 93 112
-9.5735 0.629011 -1.9214 87 95 114
-9.22465 1.1009 -1.91737 86 93 111
-9.21647 1.1248 -1.91642 88 95 111
-8.75558 1.54049 -1.88352 81 88 104
-8.73668 1.56063 -1.8799 74 81 97
-8.38631 2.12837 -1.88874 81 90 105
-8.37534 2.161 -1.88884 84 90 106
-8.3695 2.1833 -1.88945 81 84 101
-8.37273 2.20847 -1.89277 84 85 103
-7.67969 3.48646 -1.93117 78 86 99
-7.66237 3.516 -1.93126 78 84 100
-7.65879 3.5404 -1.93412 77 84 100
-7.6275 3.58847 -1.93371 81 87 101
-7.62199 3.61189 -1.93601 79 84 99
-7.59823 3.62461 -1.93215 83 89 103
-7.59181 3.66065 -1.93616 82 88 104
-7.56957 3.67418 -1.93286 82 86 101
-7.55882 3.69454 -1.93348 80 84 98
-7.54798 3.71488 -1.9341 80 86 100
-7.53777 3.74885 -1.93698 77 83 99
-7.51862 3.7641 -1.93481 77 82 98
-7.50756 3.78433 -1.93542 79 87 101
-7.49858 3.81923 -1.93887 77 80 99
-7.47601 3.83224 -1.93557 81 85 103
-7.46311 3.85134 -1.93563 73 79 95
-7.45053 3.88406 -1.93796 77 79 95
-7.43426 3.901 -1.9369 80 81 99
-7.42275 3.92102 -1.93751 79 81 96
-7.41437 3.94312 -1.93925 86 89 104
-7.38855 3.96722 -1.9371 78 79 95
-6.78223 5.2269 -1.98099 83 89 105
-6.75797 5.23728 -1.97831 82 90 103
-6.7351 5.24889 -1.97618 84 92 105
-6.7163 5.28091 -1.97899 81 89 102
-6.29715 5.97715 -1.9853 85 91 105
-6.26812 6.00063 -1.98538 84 88 102
-6.25088 6.01918 -1.98649 82 89 102
-5.99075 6.62082 -2.0099 81 84 99
-5.9609 6.64612 -2.011 79 85 99
-5.63847 7.22519 -2.02132 85 83 93
-5.61093 7.23236 -2.01937 69 67 81
-5.58535 7.24274 -2.01842 79 75 90
-5.24509 7.94751 -2.04028 108 108 114
-5.21995 7.96184 -2.0408 109 109 117
-4.7694 8.72712 -2.05153 68 72 83
-4.46116 9.21476 -2.05403 74 73 80
-4.43191 9.22666 -2.0545 69 69 80
-4.15679 9.74498 -2.06785 84 83 92
-3.82041 10.2194 -2.06107 89 90 92
-3.79029 10.239 -2.06356 88 89 91
-9.56447 0.56397 -1.91727 89 97 116
-9.20988 1.03654 -1.91055 84 91 109
-9.20788 1.07363 -1.91168 89 96 114
-8.77271 1.45951 -1.88276 78 86 99
-8.7668 1.49445 -1.88339 82 88 104
-8.76122 1.51748 -1.88345 78 84 100
-8.45431 2.0644 -1.901 86 94 109
-8.43627 2.09516 -1.89892 88 95 111
-8.44168 2.12093 -1.90279 83 90 106
-7.85796 3.19202 -1.93361 81 87 103
-7.7941 3.19817 -1.91806 82 88 104
-7.79515 3.22429 -1.92203 79 85 101
-7.78756 3.24608 -1.92321 80 88 101
-7.77652 3.27874 -1.92498 80 86 100
-7.76705 3.29962 -1.9256 81 87 101
-7.7626 3.32315 -1.92789 80 86 100
-7.73422 3.34675 -1.92407 84 90 106
-7.73805 3.37477 -1.92916 80 86 102
-7.72995 3.39647 -1.93034 81 87 103
-7.71001 3.41173 -1.92761 79 85 101
-7.70648 3.44881 -1.93217 80 86 100
-7.69311 3.46766 -1.93167 78 84 98
-7.6568 3.56576 -1.93753 78 86 99
-7.39755 4.00099 -1.94499 74 77 94
-7.39047 4.02414 -1.94728 75 76 93
-7.35162 4.03945 -1.94066 83 86 101
-7.3444 4.06251 -1.94295 91 97 113
-7.33393 4.08339 -1.94413 87 95 108
-7.30124 4.10262 -1.93974 94 97 112
-7.29063 4.12339 -1.94092 90 93 108
-7.28778 4.14968 -1.94489 89 94 109
-7.26268 4.17413 -1.9433 91 94 111
-7.24714 4.19147 -1.9428 91 92 110
-7.27353 4.23909 -1.9574 89 94 110
-7.2268 4.23389 -1.94571 90 93 110
-7.22297 4.2739 -1.95195 92 95 110
-7.21177 4.29452 -1.95312 86 92 106
-7.18975 4.30711 -1.95038 88 94 108
-6.7084 5.30717 -1.98286 81 88 104
-6.6881 5.32128 -1.98182 84 91 107
-6.67048 5.33803 -1.98187 83 89 105
-6.64981 5.36849 -1.98413 80 86 102
-6.62934 5.38239 -1.98309 81 87 101
-6.22746 6.03024 -1.98494 82 90 103
-6.2006 6.05639 -1.98608 83 89 103
-6.18315 6.07477 -1.98719 81 87 101
-5.93914 6.66081 -2.01105 79 85 97
-5.91624 6.67386 -2.01058 81 87 99
-5.88499 6.69725 -2.01116 79 87 100
-5.55428 7.26982 -2.02048 81 83 96
-5.18043 7.97886 -2.04039 111 111 121
-5.14743 7.97731 -2.03662 110 109 120
-4.72384 8.73454 -2.04932 67 71 83
-4.69908 8.75446 -2.05163 76 80 90
-4.40134 9.2348 -2.0541 70 70 81
-4.13195 9.77666 -2.07298 83 83 91
-3.75332 10.232 -2.06031 88 89 94
-9.60627 0.515316 -1.92649 87 96 113
-9.57285 0.538838 -1.91867 95 103 122
-9.23712 0.990114 -1.91552 80 91 107
-9.22736 1.01385 -1.91406 86 95 112
-8.79097 1.41486 -1.88473 86 94 107
-8.7781 1.43645 -1.88269 83 91 105
-8.44134 1.9291 -1.88544 81 87 99
-8.44365 1.95356 -1.88822 89 95 107
-8.47547 1.98633 -1.89968 78 84 98
-8.45777 2.01726 -1.89761 85 93 106
-8.45055 2.03923 -1.89767 83 91 104
-7.96067 2.89941 -1.92104 92 98 112
-7.95771 2.9231 -1.92334 86 92 108
-7.94416 2.94203 -1.92228 84 87 106
-7.92592 2.97114 -1.92126 82 88 106
-7.91921 2.99318 -1.92244 83 90 108
-7.90894 3.01359 -1.9225 82 89 105
-7.89557 3.04497 -1.92315 86 93 109
-7.90939 3.07687 -1.93103 88 91 108
-7.88848 3.09226 -1.92774 85 91 105
-7.88509 3.12861 -1.93175 79 88 101
-7.87612 3.14977 -1.93237 81 89 102
-7.87052 3.1726 -1.93411 81 88 104
-7.17165 4.33676 -1.95159 86 92 108
-7.17552 4.36884 -1.95836 87 93 109
-7.14569 4.37542 -1.95282 85 92 107
-7.13028 4.40725 -1.95514 86 95 107
-7.11557 4.42532 -1.9552 88 95 111
-7.09931 4.44216 -1.95469 86 93 109
-7.09053 4.46487 -1.95699 85 95 107
-7.06862 4.49177 -1.95707 87 93 107
-7.05066 4.50726 -1.95601 87 90 107
-6.61288 5.40033 -1.98369 80 90 102
-6.58784 5.42647 -1.98432 80 88 101
-6.57124 5.4443 -1.98491 84 87 102
-6.5439 5.451 -1.98114 82 88 102
-6.16081 6.08708 -1.98618 81 87 101
-6.14443 6.10687 -1.98781 84 87 102
-6.11243 6.12662 -1.98683 83 86 102
-5.86416 6.7133 -2.01172 79 85 99
-5.8422 6.7277 -2.01177 76 88 97
-5.52373 7.27168 -2.01703 80 82 95
-5.50489 7.29347 -2.01956 85 87 102
-5.1256 7.99835 -2.03904 112 111 119
-4.66791 8.75799 -2.04985 76 79 91
-4.35744 9.25143 -2.0546 71 71 80
-4.09431 9.76519 -2.06834 85 83 94
-3.70599 10.2515 -2.062 86 86 96
-9.59247 0.450039 -1.92138 89 101 117
-9.55539 0.473519 -1.91257 89 101 117
-9.25203 0.90463 -1.91578 87 96 113
-9.21569 0.925375 -1.90717 83 92 109
-9.24254 0.9534 -1.91541 88 100 116
-8.80672 1.33356 -1.88397 82 91 103
-8.80354 1.35706 -1.88456 80 86 100
-8.79273 1.3791 -1.88305 88 96 109
-8.46391 1.82834 -1.88297 85 85 99
-8.46657 1.85274 -1.88575 74 77 89
-8.46172 1.87521 -1.88636 82 88 102
-8.45194 1.90816 -1.88646 83 90 104
-8.00187 2.63399 -1.8991 93 100 116
-7.99627 2.65608 -1.90028 91 99 110
-7.98707 2.6767 -1.90035 89 97 110
-7.98772 2.71349 -1.90491 87 95 108
-8.01545 2.74971 -1.91669 89 95 110
-7.99712 2.76665 -1.91396 95 98 116
-7.98847 2.79986 -1.91573 89 92 108
-7.99992 2.82962 -1.9225 87 95 111
-7.96733 2.84028 -1.9153 82 89 105
-7.9628 2.86315 -1.91704 83 92 107
-7.04013 4.52869 -1.95774 87 90 107
-7.01195 4.55054 -1.95559 86 92 106
-6.99681 4.56825 -1.95564 84 92 105
-6.98605 4.58957 -1.95738 84 91 107
-6.97389 4.62456 -1.96138 84 90 106
-6.95117 4.63602 -1.95864 85 91 107
-6.93868 4.65602 -1.95981 83 90 106
-6.5239 5.4824 -1.98395 80 90 100
-6.50446 5.49726 -1.98345 81 91 103
-6.48496 5.51205 -1.98296 79 89 101
-6.09588 6.14629 -1.98847 82 85 100
-6.071 6.15525 -1.98639 83 86 101
-5.80742 6.74598 -2.01081 78 86 99
-5.78319 6.757 -2.00982 75 81 95
-5.76002 6.76955 -2.00935 84 87 103
-5.4677 7.31017 -2.01863 87 86 102
-5.44581 7.3268 -2.01967 86 85 101
-5.09944 8.01059 -2.03908 112 111 117
-5.06054 8.02879 -2.03914 110 111 116
-4.63272 8.79217 -2.05447 85 87 98
-4.32619 9.25749 -2.05375 73 72 82
-4.29307 9.2579 -2.05159 80 78 91
-4.04737 9.77869 -2.0684 90 89 95
-3.66818 10.2404 -2.05794 90 90 98
-9.58722 0.398313 -1.91876 86 98 114
-9.58892 0.424108 -1.91982 85 97 111
-9.22798 0.839933 -1.90692 91 100 116
-9.24993 0.879492 -1.91418 88 97 114
-8.81779 1.25148 -1.88215 83 90 106
-8.81676 1.27532 -1.88327 84 91 107
-8.80809 1.29781 -1.88228 85 92 108
-8.49841 1.77797 -1.88823 78 84 96
-8.47704 1.79629 -1.88396 80 84 96
-8.0578 2.48677 -1.89699 82 89 105
-8.0509 2.50826 -1.89761 81 89 106
-8.04396 2.52973 -1.89823 87 96 110
-8.02578 2.55876 -1.89665 83 89 105
-8.02044 2.58088 -1.89783 85 89 107
-8.01325 2.60228 -1.89845 87 88 106
-6.9188 4.68471 -1.96101 85 93 106
-6.90032 4.69966 -1.95995 85 93 106
-6.89052 4.72203 -1.96224 84 94 106
-6.87047 4.73562 -1.96061 84 92 105
-6.85308 4.76657 -1.96294 84 91 107
-6.83725 4.7838 -1.96299 85 93 106
-6.45804 5.53624 -1.98304 81 86 101
-6.44368 5.55652 -1.98472 83 86 101
-6.42661 5.57394 -1.98532 83 87 102
-6.4069 5.58848 -1.98482 80 88 101
-6.05052 6.18992 -1.99071 84 86 102
-6.02205 6.19413 -1.98704 82 86 102
-6.00406 6.21203 -1.98815 83 87 103
-5.72827 6.79226 -2.00993 90 95 107
-5.42479 7.34504 -2.02121 85 84 100
-5.37034 7.33102 -2.01131 84 86 99
-5.03091 8.03381 -2.03728 111 110 116
-4.6001 8.79183 -2.05177 80 83 91
-4.57366 8.80778 -2.05317 104 108 114
-4.24602 9.26478 -2.04989 84 84 94
-4.01736 9.7932 -2.0697 90 88 97
-3.98466 9.79823 -2.06889 88 87 93
-3.63459 10.2462 -2.05756 85 88 93
-9.58793 0.359837 -1.91816 105 113 131
-9.23867 0.791437 -1.9078 89 96 114
-9.26409 0.8188 -1.91553 92 100 117
-8.83203 1.22991 -1.88471 84 93 110
-8.51695 1.67621 -1.88523 76 83 101
-8.50704 1.69745 -1.88421 82 89 104
-8.51203 1.72225 -1.88753 81 87 99
-8.50483 1.75587 -1.88817 85 92 105
-8.10043 2.35888 -1.89438 89 97 110
-8.08482 2.38894 -1.89336 89 92 107
-8.08004 2.41114 -1.89454 90 92 107
-8.07159 2.432 -1.8946 90 93 108
-8.06283 2.4646 -1.89581 92 98 110
-6.8228 4.80226 -1.9636 84 90 104
-6.79645 4.82541 -1.96256 88 91 106
-6.78614 4.84759 -1.96486 85 93 106
-6.76863 4.86334 -1.96435 84 92 105
-6.75195 4.89525 -1.96723 83 90 106
-6.72299 4.90052 -1.96224 84 91 109
-6.3835 5.61658 -1.98654 82 92 104
-6.36109 5.62813 -1.98495 83 90 106
-6.3425 5.64389 -1.985 86 89 106
-5.97279 6.23264 -1.98769 80 86 102
-5.9581 6.25504 -1.99039 82 84 104
-5.92958 6.25885 -1.98672 83 86 103
-5.7103 6.81268 -2.01204 93 97 108
-5.6838 6.82016 -2.01002 109 112 121
-5.65728 6.82754 -2.008 108 109 121
-5.37003 7.3862 -2.0238 86 85 99
-5.32814 7.36703 -2.01438 86 85 101
-5.00963 8.05631 -2.04016 109 108 116
-4.96804 8.06882 -2.0388 106 105 115
-4.53197 8.82518 -2.05369 113 116 123
-4.21717 9.2779 -2.0508 83 82 95
-3.93392 9.79805 -2.06597 91 90 91
-9.55503 0.307163 -1.90864 91 102 120
-9.5957 0.334502 -1.91957 90 100 117
-9.2483 0.730444 -1.90813 90 97 115
-9.27584 0.757788 -1.91637 94 101 117
-8.84885 1.17276 -1.88612 83 92 107
-8.84428 1.19602 -1.88619 70 79 96
-8.54099 1.62294 -1.88777 76 82 98
-8.53241 1.65623 -1.88787 70 75 94
-8.1353 2.24032 -1.89124 79 87 102
-8.12194 2.25948 -1.88963 84 92 105
-8.1194 2.28234 -1.89137 81 88 102
-8.10595 2.31316 -1.8909 84 91 104
-8.09961 2.33473 -1.89153 82 89 104
-6.72647 4.93556 -1.97013 83 90 106
-6.69956 4.95821 -1.9691 83 89 105
-6.68873 4.98023 -1.97139 81 88 104
-6.67083 4.99566 -1.97088 82 89 105
-6.32007 5.67318 -1.98726 86 90 107
-6.29118 5.67728 -1.98294 81 87 103
-6.27751 5.69862 -1.98517 86 92 107
-6.24972 5.72186 -1.98525 83 91 104
-5.90037 6.28221 -1.98732 81 87 101
-5.88545 6.30445 -1.99002 81 86 101
-5.62733 6.85303 -2.00962 103 105 117
-5.60493 6.86671 -2.00966 101 101 113
-5.30835 7.4151 -2.02291 84 88 99
-5.26941 7.40071 -2.01498 83 85 98
-4.949 8.09646 -2.04311 106 109 112
-4.9144 8.09049 -2.0384 111 112 117
-4.50471 8.8391 -2.05464 113 115 124
-4.18886 9.29278 -2.05215 83 82 96
-3.90535 9.81789 -2.06855 90 90 93
-9.59569 0.244659 -1.91783 97 105 124
-9.59207 0.270193 -1.91741 87 96 115
-9.25744 0.669375 -1.90847 79 86 104
-9.27833 0.708296 -1.91521 88 94 116
-9.21509 0.769393 -1.9123 94 102 115
-9.19235 0.796696 -1.90794 89 96 115
-8.86766 1.09183 -1.88694 85 94 109
-8.87475 1.1169 -1.89017 92 101 116
-8.88759 1.1549 -1.89554 80 89 104
-8.54784 1.54231 -1.88374 81 84 99
-8.54903 1.57767 -1.88656 85 91 105
-8.54692 1.60072 -1.88771 78 86 99
-8.17146 2.14604 -1.89151 84 90 106
-8.14928 2.16241 -1.88711 81 88 104
-8.14707 2.18527 -1.88885 81 88 104
-8.1395 2.21806 -1.89006 80 87 103
-6.6529 5.01102 -1.97037 85 91 107
-6.63534 5.04259 -1.97325 86 92 108
-6.62417 5.06449 -1.97554 85 91 107
-6.61154 5.08505 -1.97728 83 89 105
-6.23209 5.73874 -1.98584 82 92 102
-6.21815 5.75995 -1.98807 83 93 103
-6.18759 5.77999 -1.98705 83 91 104
-5.86366 6.31731 -1.98953 82 85 101
-5.83528 6.34194 -1.99066 81 87 101
-5.58146 6.87869 -2.00918 105 104 117
-5.55737 6.91368 -2.01389 104 103 113
-5.2646 7.4491 -2.02548 85 84 99
-5.2193 7.42256 -2.01406 86 85 101
-4.87191 8.10077 -2.03656 112 115 118
-4.47741 8.85295 -2.05558 114 114 123
-4.14347 9.30474 -2.05177 86 87 97
-3.87057 9.81502 -2.06603 102 101 100
-9.57616 0.192754 -1.91368 87 95 114
-9.59342 0.218942 -1.91677 89 97 116
-9.59221 0.223327 -1.91748 91 99 118
-9.25551 0.619767 -1.90628 86 94 112
-9.29307 0.647444 -1.91707 80 87 105
-9.19616 0.724211 -1.90706 83 90 108
-8.87579 1.03323 -1.88624 80 89 104
-8.87381 1.06879 -1.8874 82 91 106
-8.56885 1.46482 -1.88405 76 83 99
-8.56478 1.49901 -1.88524 79 85 101
-8.55729 1.52087 -1.88476 80 83 98
-8.18737 2.01053 -1.88276 80 88 101
-8.19118 2.03505 -1.88617 77 84 100
-8.18617 2.06852 -1.88794 81 88 102
-8.18247 2.09083 -1.88912 84 92 106
-8.17136 2.11083 -1.88807 82 86 103
-6.57438 5.09772 -1.97231 83 89 105
-6.56297 5.1195 -1.97461 80 86 102
-6.54605 5.13586 -1.97466 81 88 104
-6.52369 5.16302 -1.97586 82 92 104
-6.16233 5.78788 -1.98437 84 90 104
-6.14694 5.80746 -1.98606 87 90 105
-6.13271 5.82848 -1.98829 87 90 105
-5.81339 6.35464 -1.99018 82 85 101
-5.79147 6.36727 -1.98969 81 86 100
-5.77063 6.3814 -1.98973 81 87 101
-5.52763 6.91568 -2.01032 104 103 111
-5.50197 6.92414 -2.00882 101 99 109
-5.20067 7.47376 -2.02359 85 84 100
-5.16101 7.45712 -2.01516 84 83 97
-4.8478 8.11756 -2.03802 116 116 116
-4.82364 8.13428 -2.03948 125 124 128
-4.43286 8.86259 -2.05428 119 122 128
-4.4074 8.88173 -2.05659 116 118 122
-4.11446 9.31755 -2.05268 83 82 96
-4.08481 9.32842 -2.05316 85 84 101
-3.84085 9.8309 -2.06776 105 99 102
-9.57001 0.147441 -1.91199 90 98 117
-9.58693 0.154742 -1.91412 91 99 118
-9.26572 0.558771 -1.90713 94 103 120
-9.28231 0.584655 -1.9123 93 101 119
-9.20226 0.66645 -1.90706 91 98 116
-9.20702 0.695901 -1.9088 85 92 110
-8.88766 0.987051 -1.88716 88 95 111
-8.88366 1.01042 -1.88723 89 97 112
-8.59277 1.38784 -1.88545 88 94 108
-8.57587 1.4195 -1.88284 82 89 105
-8.57616 1.44291 -1.88453 85 92 108
-8.20891 1.97031 -1.88487 85 93 106
-8.2 1.99099 -1.88437 81 89 102
-6.50931 5.18199 -1.97703 83 89 103
-6.48815 5.19409 -1.9754 84 90 106
-6.47098 5.21023 -1.97545 84 91 107
-6.44556 5.23434 -1.97552 82 88 104
-6.10307 5.84959 -1.98781 84 90 104
-6.08257 5.86308 -1.98731 84 90 104
-6.06689 5.88248 -1.989 85 91 103
-5.7375 6.39932 -1.98874 80 86 100
-5.72091 6.41963 -1.99091 80 86 100
-5.47146 6.94899 -2.01043 102 102 113
-5.44875 6.9622 -2.01047 104 102 115
-5.15551 7.50546 -2.02566 85 84 98
-4.78415 8.15123 -2.03954 127 126 134
-4.37734 8.88795 -2.05571 120 121 124
-4.05283 9.33175 -2.05187 87 85 99
-3.78916 9.82624 -2.06399 89 87 92
-9.58496 0.117552 -1.91494 90 101 119
-9.60567 0.129499 -1.91849 95 103 122
-9.26888 0.509594 -1.90647 89 97 116
-9.28563 0.535365 -1.91165 88 97 114
-9.2031 0.593853 -1.90574 85 92 110
-9.20421 0.622986 -1.90662 94 101 119
-8.90261 0.929323 -1.88857 87 94 110
-8.88543 0.950981 -1.88495 89 95 111
-8.76135 1.2213 -1.9008 81 90 105
-8.59867 1.31903 -1.88254 80 90 106
-8.60686 1.34382 -1.8864 85 90 106
-8.5923 1.36443 -1.88376 81 84 101
-8.24423 1.86439 -1.8851 78 80 95
-8.25299 1.9016 -1.89077 86 88 103
-8.22769 1.91768 -1.88526 89 95 109
-8.23738 1.94377 -1.89034 86 93 109
-6.43894 5.26139 -1.98006 81 87 103
-6.42288 5.27876 -1.98067 81 87 101
-6.39318 5.29848 -1.97906 82 88 104
-6.37305 5.31154 -1.97799 81 87 103
-6.04184 5.90925 -1.99071 85 92 104
-6.01756 5.91805 -1.98857 85 92 105
-5.99567 5.92977 -1.98753 84 91 104
-5.70099 6.43514 -1.99148 80 88 101
-5.66764 6.45272 -1.99049 79 85 101
-5.64758 6.46807 -1.99106 78 84 100
-5.42899 6.98028 -2.01206 104 100 114
-5.39321 6.99656 -2.0111 107 104 116
-5.1042 7.4947 -2.01725 84 84 100
-5.09213 7.53095 -2.02427 83 82 100
-4.75671 8.16064 -2.0391 125 125 130
-4.34538 8.88856 -2.05347 116 119 123
-4.00955 9.35054 -2.05325 85 85 95
-3.76083 9.84756 -2.06699 83 81 84
-9.30482 0.474656 -1.91504 93 101 122
-9.21162 0.565305 -1.90705 93 100 116
-8.91383 0.88294 -1.88948 85 94 111
-8.91208 0.906618 -1.89008 86 94 109
-8.80073 1.19854 -1.90893 88 97 112
-8.61245 1.26342 -1.88292 88 96 109
-8.61514 1.28715 -1.88515 83 91 104
-8.25565 1.82117 -1.88442 81 83 98
-8.26939 1.84812 -1.89061 82 84 99
-6.35945 5.33153 -1.97972 81 88 104
-6.32824 5.34951 -1.97756 82 89 105
-6.31449 5.36939 -1.97929 83 90 106
-6.29547 5.38359 -1.97878 81 88 104
-5.96797 5.95324 -1.98814 85 91 105
-5.95192 5.97236 -1.98983 85 91 105
-5.62214 6.47537 -1.98898 81 84 103
-5.59182 6.49738 -1.98958 81 84 101
-5.37331 7.0145 -2.01268 106 104 117
-5.34255 7.01411 -2.0086 104 102 116
-5.05095 7.51032 -2.01484 84 83 101
-4.72772 8.1664 -2.03771 124 123 129
-4.70486 8.18637 -2.04012 121 121 128
-4.30262 8.90308 -2.05353 114 115 119
-4.27066 8.90344 -2.05129 107 108 112
-3.98033 9.36296 -2.05416 89 88 101
-3.729 9.85556 -2.06702 84 82 87
-9.2824 0.424006 -1.90776 94 104 121
-9.27823 0.448467 -1.90732 85 96 114
-9.19754 0.52099 -1.90312 90 97 116
-8.92565 0.800828 -1.88924 84 92 111
-8.91651 0.823651 -1.88773 92 101 118
-8.92067 0.847986 -1.88991 89 98 115
-8.8135 1.12951 -1.90938 83 90 106
-8.81871 1.15853 -1.91164 82 88 104
-8.64662 1.21115 -1.88925 83 93 105
-8.6286 1.24295 -1.8861 83 91 104
-8.29235 1.71551 -1.88577 78 86 99
-8.30934 1.75445 -1.89367 76 81 95
-8.27326 1.76817 -1.88481 84 87 102
-8.29465 1.79698 -1.89324 85 84 100
-6.27181 5.40974 -1.97997 80 88 102
-6.25269 5.42381 -1.97946 80 90 100
-6.23992 5.44494 -1.98175 79 90 102
-6.21302 5.45031 -1.97787 82 88 102
-5.93108 5.98537 -1.98933 86 90 105
-5.89841 6.00247 -1.98776 82 85 102
-5.88214 6.02141 -1.98944 80 81 99
-5.57267 6.51412 -1.99068 83 86 101
-5.55558 6.53403 -1.99285 84 86 99
-5.3245 7.03525 -2.01122 102 100 112
-5.28948 7.05269 -2.01077 101 100 108
-5.03031 7.5594 -2.02387 82 85 97
-4.98931 7.53845 -2.01444 84 82 98
-4.66361 8.1992 -2.03923 114 114 122
-4.2437 8.91845 -2.05269 105 107 112
-3.94885 9.36781 -2.05331 88 87 101
-3.67927 9.85791 -2.06495 91 90 95
-3.64555 9.85807 -2.06328 87 87 90
-9.2795 0.362258 -1.90554 94 103 120
-9.29289 0.387509 -1.90969 81 93 109
-9.21404 0.46381 -1.90573 82 93 111
-9.20972 0.492619 -1.9053 86 92 114
-8.93535 0.742312 -1.8896 90 98 114
-8.9302 0.765607 -1.88914 91 99 118
-8.81028 1.05848 -1.90622 86 95 110
-8.83139 1.1035 -1.91254 83 92 109
-8.65202 1.16552 -1.88804 87 94 110
-8.64557 1.18772 -1.88756 86 95 110
-8.3033 1.64918 -1.88334 84 88 105
-8.30096 1.6716 -1.88452 82 88 102
-8.31901 1.69916 -1.89183 79 85 99
-6.1903 5.47756 -1.97963 81 87 103
-6.16844 5.48848 -1.978 79 86 104
-6.1516 5.50509 -1.9786 80 89 104
-5.87047 6.04643 -1.99331 79 81 95
-5.84361 6.05152 -1.99008 88 90 103
-5.52078 6.54929 -1.99133 83 86 100
-5.50247 6.56745 -1.99296 82 85 100
-5.27028 7.07203 -2.01287 102 101 111
-5.24527 7.08127 -2.01187 106 106 112
-4.97848 7.578 -2.02245 82 86 98
-4.92832 7.56784 -2.01454 83 85 98
-4.63455 8.20465 -2.03784 117 116 124
-4.60697 8.2136 -2.0374 85 85 94
-4.20079 8.9325 -2.05275 102 105 110
-3.90209 9.37491 -2.05204 86 84 98
-3.61138 9.85624 -2.06118 87 87 89
-9.28193 0.300805 -1.90485 90 98 117
-9.26412 0.33702 -1.90088 87 95 114
-9.20531 0.419943 -1.90311 84 93 110
-8.92891 0.717856 -1.8869 92 100 113
-8.81075 1.00212 -1.90441 89 98 113
-8.80282 1.02937 -1.90351 85 94 109
-8.667 1.08667 -1.8878 78 87 104
-8.6608 1.10892 -1.88733 84 90 107
-8.6678 1.13321 -1.89065 94 100 116
-8.32238 1.53933 -1.88023 78 84 100
-8.32729 1.57469 -1.88423 78 85 101
-8.31399 1.59449 -1.88207 80 86 102
-8.3454 1.62494 -1.89328 81 84 103
-7.46169 3.14851 -1.92691 78 84 100
-7.45443 3.18163 -1.92989 79 84 101
-7.44864 3.20341 -1.93168 77 84 100
-7.44276 3.2252 -1.93348 82 89 105
-7.43511 3.2461 -1.93469 77 84 100
-7.42059 3.27562 -1.93535 85 88 103
-7.4195 3.3001 -1.93889 78 81 96
-7.38974 3.30911 -1.93257 85 91 105
-7.38664 3.34489 -1.93729 79 82 99
-7.37356 3.36291 -1.93676 77 84 98
-7.37046 3.38647 -1.93972 78 86 100
-7.33858 3.40636 -1.93458 80 83 100
-7.34029 3.43271 -1.93927 80 85 99
-7.33027 3.45247 -1.93991 83 86 101
-7.31025 3.46648 -1.93706 79 84 101
-7.29629 3.49647 -1.93831 78 85 101
-7.28442 3.51515 -1.93836 77 83 98
-7.28403 3.54059 -1.94247 78 84 100
-7.26477 3.56757 -1.94198 77 85 100
-7.2625 3.59207 -1.94551 78 85 100
-7.24051 3.60471 -1.94208 80 86 102
-7.23076 3.63746 -1.94507 78 84 100
-7.19726 3.64291 -1.93758 77 83 99
-7.20281 3.67238 -1.94401 78 81 98
-7.17485 3.69388 -1.94061 80 82 100
-7.17044 3.7173 -1.94357 85 88 103
-7.15465 3.73356 -1.94246 81 83 98
-7.13557 3.7477 -1.94019 78 82 98
-7.12502 3.78018 -1.94317 86 89 104
-7.11065 3.79731 -1.94265 82 85 100
-7.10103 3.81754 -1.94386 81 84 99
-7.07415 3.8394 -1.94104 80 83 99
-7.06916 3.86273 -1.94399 74 80 96
-7.06248 3.885 -1.94637 76 82 96
-7.04008 3.90982 -1.94529 78 81 96
-7.02217 3.9245 -1.9436 80 83 98
-7.02156 3.95104 -1.94829 76 79 94
-6.12733 5.53065 -1.9798 80 88 101
-6.10785 5.54425 -1.97929 82 88 102
-6.08833 5.55778 -1.97877 80 87 103
-5.81068 6.06818 -1.98851 113 114 126
-5.79531 6.08844 -1.99074 118 117 126
-5.7707 6.09631 -1.9886 114 114 123
-5.47686 6.57422 -1.99088 83 86 101
-5.45432 6.58577 -1.99039 83 86 101
-5.21195 7.1017 -2.01245 108 108 114
-4.91464 7.60209 -2.02105 82 84 101
-4.87396 7.58056 -2.01162 84 85 101
-4.56711 8.22956 -2.03745 75 75 86
-4.17128 8.93991 -2.05232 108 109 114
-3.87007 9.37765 -2.05075 88 86 100
-3.83965 9.38591 -2.05078 84 83 97
-9.27598 0.276005 -1.90274 89 97 115
-9.22508 0.362744 -1.9066 98 107 123
-9.21329 0.39129 -1.90442 92 101 116
-8.94277 0.635974 -1.88771 84 95 110
-8.93796 0.659311 -1.88725 86 97 112
-8.93307 0.682631 -1.88679 90 100 114
-8.80848 0.959676 -1.9026 91 98 114
-8.68275 1.03105 -1.88926 90 99 114
-8.67124 1.06411 -1.88774 81 90 107
-8.34111 1.49784 -1.88233 77 82 98
-8.35985 1.52491 -1.88964 74 79 95
-7.57436 2.83933 -1.91274 82 89 105
-7.55657 2.86695 -1.91166 86 93 109
-7.56056 2.8928 -1.91635 91 97 112
-7.54191 2.9082 -1.91351 90 97 113
-7.55266 2.93735 -1.92052 83 90 106
-7.52924 2.96237 -1.91771 90 96 110
-7.51905 2.98172 -1.91777 87 90 105
-7.53807 3.01518 -1.92767 82 88 102
-7.50918 3.03753 -1.92312 85 91 105
-7.5039 3.05937 -1.92492 82 88 104
-7.50538 3.0846 -1.92903 82 90 103
-7.48307 3.11009 -1.9268 81 87 102
-7.48266 3.1345 -1.93033 81 87 103
-7.00201 3.97783 -1.94837 77 79 94
-6.9902 3.99673 -1.949 76 82 96
-6.97049 4.0101 -1.94673 73 79 95
-6.97104 4.03777 -1.95201 69 72 89
-6.95421 4.06656 -1.95325 87 90 105
-6.92657 4.07417 -1.94808 97 100 115
-6.91442 4.09288 -1.94871 100 103 118
-6.89885 4.12257 -1.95053 94 97 112
-6.87422 4.13213 -1.94651 93 97 111
-6.86343 4.15184 -1.94773 90 93 108
-6.84602 4.18021 -1.94897 91 95 107
-6.80603 4.17798 -1.93915 87 93 107
-6.80267 4.2033 -1.94326 89 95 109
-6.7865 4.23259 -1.94508 89 92 107
-6.06872 5.58893 -1.98221 83 91 104
-6.0466 5.5994 -1.98058 81 89 102
-6.02938 5.61567 -1.98118 82 88 104
-5.74328 6.12036 -1.98976 113 112 120
-5.72429 6.13581 -1.99035 117 116 122
-5.42754 6.61357 -1.99311 83 86 101
-5.40592 6.62659 -1.99315 81 84 101
-5.18499 7.10738 -2.01043 108 106 116
-5.16646 7.12815 -2.01305 114 113 121
-4.87011 7.63565 -2.02411 84 86 99
-4.54168 8.2437 -2.03844 76 74 87
-4.14234 8.94908 -2.05236 107 106 113
-3.56809 9.88461 -2.06506 85 85 85
-3.53481 9.88632 -2.06381 82 82 83
-9.27351 0.226791 -1.90107 84 96 111
-9.30083 0.25213 -1.90879 86 94 112
-9.20562 0.333088 -1.90179 96 105 122
-8.95517 0.613268 -1.89027 89 98 113
-8.85868 0.908741 -1.91253 87 96 112
-8.81038 0.931756 -1.90215 83 90 107
-8.69081 0.985843 -1.88913 83 91 106
-8.68681 1.00845 -1.88919 82 88 104
-8.36159 1.42252 -1.88266 85 92 108
-8.35435 1.44378 -1.88217 82 88 104
-8.34143 1.4638 -1.88001 88 90 105
-7.65022 2.65905 -1.90933 87 94 110
-7.64625 2.68099 -1.91112 82 89 105
-7.63518 2.69993 -1.9106 87 94 110
-7.62503 2.73092 -1.91185 84 87 104
-7.6138 2.74979 -1.91132 84 91 107
-7.60253 2.76862 -1.9108 83 90 106
-7.59554 2.80106 -1.9132 87 93 109
-7.59807 2.82608 -1.91731 86 92 108
-6.77231 4.24976 -1.94513 88 94 108
-6.76108 4.26923 -1.94634 88 94 108
-6.7483 4.28749 -1.94697 87 93 107
-6.73767 4.32135 -1.95111 92 95 110
-6.71272 4.33005 -1.9471 87 90 107
-6.69823 4.34699 -1.94715 87 90 107
-6.6798 4.37474 -1.94838 86 91 110
-5.99474 5.62891 -1.97789 82 88 104
-5.98107 5.64948 -1.98018 80 88 101
-5.9564 5.65666 -1.97742 83 91 104
-5.70297 6.14809 -1.98985 117 116 122
-5.66969 6.16404 -1.98828 115 116 124
-5.65276 6.18241 -1.98996 91 92 103
-5.3802 6.63301 -1.99106 82 85 102
-5.34506 6.64738 -1.98954 82 85 102
-5.12733 7.13808 -2.01053 119 120 125
-5.10771 7.15702 -2.01263 126 127 129
-4.83242 7.65105 -2.02367 83 85 98
-4.79113 7.62735 -2.01374 84 85 98
-4.51692 8.25957 -2.0399 79 77 90
-4.09694 8.95525 -2.05059 105 105 112
-4.06386 8.9512 -2.04744 106 107 113
-3.7939 9.39624 -2.0504 85 84 97
-3.76394 9.40615 -2.05087 82 83 97
-3.5011 9.88602 -2.06214 80 80 81
-9.2985 0.190483 -1.90708 93 102 117
-9.22332 0.261245 -1.90484 91 101 119
-9.21964 0.290112 -1.90441 87 98 114
-8.93908 0.528957 -1.88319 89 97 115
-8.95379 0.553777 -1.888 81 89 108
-8.9454 0.576856 -1.88649 88 97 112
-8.8579 0.866363 -1.91118 82 90 108
-8.70387 0.929749 -1.89004 85 92 110
-8.70197 0.952641 -1.89065 85 90 109
-8.37234 1.36793 -1.88194 85 91 107
-8.38564 1.40472 -1.88817 83 90 106
-7.70328 2.49357 -1.90308 83 89 105
-7.69633 2.51412 -1.90372 86 89 106
-7.69997 2.53889 -1.90783 91 94 109
-7.68176 2.56651 -1.90618 90 91 106
-7.67103 2.58558 -1.90565 86 88 103
-7.66024 2.60461 -1.90513 89 95 108
-7.66354 2.62945 -1.90924 87 94 109
-6.6711 4.39641 -1.95075 85 91 107
-6.6564 4.41323 -1.9508 87 90 107
-6.63173 4.43595 -1.94972 88 91 108
-6.61985 4.45509 -1.95093 88 89 107
-6.60498 4.47177 -1.95098 88 89 107
-6.58298 4.49669 -1.95105 87 90 107
-6.57087 4.51572 -1.95226 85 91 105
-5.94624 5.68162 -1.98139 82 90 103
-5.9174 5.70185 -1.9809 83 89 103
-5.90103 5.71926 -1.98207 83 89 103
-5.63021 6.19289 -1.98891 92 91 102
-5.60875 6.20487 -1.98841 75 74 87
-5.32933 6.67003 -1.99276 83 86 101
-5.30255 6.67452 -1.99015 84 88 102
-5.08709 7.1742 -2.01421 125 124 130
-5.0451 7.17862 -2.01016 105 102 113
-4.77933 7.66662 -2.02175 83 85 98
-4.47756 8.27693 -2.04043 72 70 84
-4.45551 8.29987 -2.04379 71 72 85
-4.0372 8.96747 -2.04929 108 109 113
-3.73293 9.4122 -2.05046 84 84 95
-9.30516 0.141345 -1.90796 96 105 122
-9.20743 0.231928 -1.90091 92 104 120
-8.94812 0.494105 -1.88467 93 104 122
-8.8746 0.811555 -1.91343 92 97 116
-8.86532 0.838882 -1.91208 86 93 112
-8.71842 0.873761 -1.8915 85 94 109
-8.70954 0.907326 -1.89052 87 95 112
-8.38438 1.32488 -1.88237 80 88 101
-8.40945 1.35256 -1.89135 88 96 109
-7.75525 2.37462 -1.90331 86 93 106
-7.75765 2.39861 -1.90684 84 91 107
-7.74005 2.4266 -1.9052 85 94 107
-7.71901 2.4418 -1.9012 83 92 104
-7.71581 2.46375 -1.90299 84 92 105
-6.56016 4.53597 -1.95405 86 92 106
-6.53342 4.54249 -1.94945 86 92 106
-6.52119 4.57587 -1.95359 87 90 107
-6.50738 4.5935 -1.95422 86 89 106
-6.49061 4.60857 -1.95369 85 91 107
-6.4694 4.63425 -1.95434 84 90 106
-5.87864 5.72911 -1.98043 83 89 103
-5.85907 5.76109 -1.98443 83 89 103
-5.57638 6.22192 -1.98738 71 73 89
-5.55918 6.24006 -1.98906 79 85 99
-5.53432 6.24705 -1.98692 81 88 103
-5.2722 6.69677 -1.99127 82 85 101
-5.25326 6.71429 -1.99291 74 77 92
-5.02709 7.20075 -2.01328 106 104 112
-4.74715 7.69391 -2.0248 84 88 100
-4.70612 7.66976 -2.01487 77 83 95
-4.42768 8.30826 -2.04334 69 69 87
-3.99123 8.97127 -2.04707 109 111 112
-3.68658 9.42016 -2.04963 87 86 94
-9.21901 0.18879 -1.90309 93 105 120
-8.94895 0.446811 -1.88348 93 98 117
-8.99275 0.473363 -1.89618 85 97 114
-8.88436 0.741949 -1.91388 84 93 110
-8.88571 0.784358 -1.91524 86 94 109
-8.72932 0.82878 -1.89245 82 90 109
-8.72199 0.851066 -1.89143 80 89 106
-8.3992 1.2484 -1.88159 81 86 105
-8.39628 1.27051 -1.88221 81 89 107
-8.41401 1.29656 -1.88896 81 88 106
-7.78519 2.25916 -1.89837 86 91 107
-7.7736 2.27797 -1.89727 87 90 107
-7.76915 2.2993 -1.89848 86 93 107
-7.75378 2.32805 -1.89741 83 92 106
-7.76714 2.3559 -1.90441 85 91 105
-6.44826 4.64537 -1.95207 85 91 107
-6.43703 4.66536 -1.95386 84 90 104
-6.41837 4.69339 -1.95567 83 93 105
-6.40698 4.71332 -1.95746 82 92 104
-6.38705 4.72547 -1.95577 84 91 107
-5.83776 5.7723 -1.98335 83 89 103
-5.81175 5.77738 -1.98003 89 92 107
-5.786 5.80154 -1.98122 122 123 132
-5.50718 6.27169 -1.98863 82 85 102
-5.4769 6.27052 -1.98375 82 88 101
-5.22546 6.71684 -1.98976 73 75 88
-5.19777 6.74375 -1.99248 88 90 102
-4.99908 7.20407 -2.01074 100 100 109
-4.97467 7.21413 -2.01027 77 75 86
-4.69546 7.71245 -2.02387 78 81 93
-4.38666 8.32159 -2.04293 70 76 87
-4.35323 8.31522 -2.03868 79 84 97
-3.96386 8.98548 -2.04847 109 111 114
-3.65504 9.42409 -2.04877 85 84 93
-9.19059 0.13062 -1.8961 89 100 118
-9.19901 0.15957 -1.89828 97 108 124
-8.96164 0.38842 -1.88541 84 95 113
-8.95376 0.411637 -1.8839 83 87 107
-8.88945 0.714181 -1.91433 90 98 113
-8.74116 0.772344 -1.89337 87 96 110
-8.72321 0.80503 -1.88968 90 97 115
-8.42451 1.17376 -1.88414 81 88 105
-8.41617 1.19493 -1.88309 83 90 106
-8.41152 1.21674 -1.88316 75 82 98
-7.81608 2.15601 -1.89576 85 91 103
-7.81224 2.18869 -1.89816 84 90 104
-7.80267 2.20824 -1.89764 85 91 105
-7.79483 2.22837 -1.8977 83 91 104
-6.37554 4.74535 -1.95756 88 91 108
-6.35785 4.77446 -1.95995 84 90 106
-6.34056 4.78904 -1.95942 82 92 104
-6.33018 4.81013 -1.96179 81 91 103
-5.76924 5.8186 -1.98239 113 117 126
-5.74664 5.82798 -1.98075 118 120 127
-5.71602 5.84573 -1.9797 114 112 118
-5.46376 6.29479 -1.98762 81 88 102
-5.17478 6.75441 -1.99199 91 93 106
-5.15174 6.765 -1.99149 109 111 123
-4.9442 7.24021 -2.0129 74 71 82
-4.92056 7.25181 -2.01294 75 77 95
-4.66216 7.73763 -2.02642 73 75 90
-4.33501 8.34876 -2.04489 80 84 96
-3.93423 8.99215 -2.04804 108 108 110
-3.90511 9.00059 -2.04807 111 111 112
-3.62398 9.4298 -2.04836 83 83 94
-8.99062 0.36625 -1.89271 102 116 135
-8.88872 0.643728 -1.91252 85 94 111
-8.88668 0.685774 -1.91297 85 93 111
-8.74379 0.726452 -1.89215 82 91 108
-8.73869 0.749014 -1.89167 83 92 108
-8.42955 1.11819 -1.88231 87 94 111
-8.41768 1.14999 -1.88074 75 82 99
-7.85668 2.04469 -1.89544 82 88 102
-7.84755 2.0644 -1.89492 90 96 110
-7.83651 2.0835 -1.89382 85 94 107
-7.82213 2.11266 -1.89275 87 91 107
-7.83642 2.13998 -1.89975 90 93 109
-6.30245 4.82986 -1.96012 86 89 104
-6.28363 4.84293 -1.959 87 88 106
-6.27027 4.86125 -1.96021 85 91 107
-6.25466 4.89269 -1.96377 84 92 105
-6.22748 4.89754 -1.95916 82 90 103
-5.69565 5.858 -1.97918 114 113 122
-5.68439 5.88252 -1.98315 114 113 121
-5.66165 5.89159 -1.98151 112 111 119
-5.43845 6.32236 -1.99041 80 86 102
-5.41556 6.33212 -1.98936 80 86 100
-5.39265 6.3418 -1.98831 82 88 102
-5.13154 6.78054 -1.99259 104 105 117
-5.09495 6.792 -1.99053 105 106 116
-4.89691 7.26334 -2.01298 76 74 89
-4.62137 7.71306 -2.01649 76 77 95
-4.6079 7.75033 -2.024 66 70 83
-4.29315 8.35984 -2.04399 84 85 98
-3.59437 9.44109 -2.04927 81 81 91
-8.95267 0.305279 -1.88096 89 101 117
-8.98683 0.342326 -1.89106 81 92 110
-8.89157 0.615793 -1.91251 86 95 112
-8.7529 0.669705 -1.89252 89 97 116
-8.73843 0.691433 -1.88934 85 94 110
-8.44193 1.07506 -1.88329 86 93 109
-8.43956 1.09724 -1.88391 88 95 111
-7.83705 1.93795 -1.87898 81 83 98
-7.86671 1.96914 -1.89061 79 82 99
-7.8633 1.99056 -1.89182 84 90 104
-7.85846 2.0227 -1.89364 82 88 102
-6.22207 4.9238 -1.96386 82 88 102
-6.19525 4.9443 -1.96277 82 91 106
-6.17613 4.95699 -1.96165 82 90 103
-5.64318 5.92598 -1.98663 114 112 124
-5.61922 5.93334 -1.98443 115 113 123
-5.35765 6.35457 -1.98619 81 87 99
-5.34092 6.37377 -1.98842 85 87 100
-5.07088 6.80066 -1.98951 107 107 119
-5.05147 6.81765 -1.99114 105 105 115
-4.86176 7.2805 -2.01304 81 82 96
-4.83541 7.28667 -2.01153 86 88 102
-4.55364 7.72721 -2.01309 64 68 79
-4.26449 8.3659 -2.04307 83 84 97
-3.86183 9.01309 -2.04813 109 108 112
-3.8332 9.02319 -2.04861 110 110 114
-3.54981 9.45596 -2.0502 85 85 95
-8.95811 0.258303 -1.88135 85 96 113
-8.96986 0.28238 -1.8851 91 103 119
-8.90014 0.588256 -1.91387 86 98 114
-8.79604 0.650342 -1.90383 89 98 115
-8.46348 0.9995 -1.88529 85 92 108
-8.45754 1.02116 -1.8848 89 96 113
-8.44968 1.04251 -1.88375 84 91 109
-7.86753 1.81372 -1.87573 93 99 111
-7.88121 1.83968 -1.88215 88 94 106
-7.86424 1.86809 -1.87993 96 102 114
-7.85931 1.88892 -1.88057 94 97 112
-7.86351 1.9124 -1.88409 91 94 109
-7.16671 3.13252 -1.91695 84 90 106
-7.15775 3.16354 -1.91943 81 87 103
-7.15194 3.18453 -1.92129 78 84 100
-7.12942 3.19623 -1.91714 81 88 104
-7.09255 3.23586 -1.91367 86 94 107
-7.07986 3.25294 -1.91312 80 88 101
-7.10325 3.30278 -1.92761 82 88 102
-7.08377 3.31605 -1.92466 80 86 102
-7.08564 3.34176 -1.92952 80 83 100
-7.06903 3.36876 -1.9296 80 86 102
-7.04613 3.37988 -1.92545 78 84 98
-7.03954 3.40071 -1.9273 81 87 101
-7.03126 3.42055 -1.92855 80 86 102
-7.01426 3.44731 -1.92863 83 86 101
-6.99932 3.46311 -1.92748 81 84 99
-6.97787 3.47483 -1.92393 80 86 102
-6.97998 3.51349 -1.93122 74 82 95
-6.96002 3.5261 -1.92827 76 84 100
-6.95453 3.54783 -1.93072 77 84 100
-6.93853 3.57527 -1.9314 79 86 102
-6.92003 3.5887 -1.92905 78 84 100
-6.9095 3.60726 -1.9297 75 81 97
-6.90686 3.63101 -1.93336 75 82 98
-6.86703 3.6683 -1.92988 80 87 103
-6.83883 3.67503 -1.92392 88 91 108
-6.15966 4.97233 -1.96169 82 90 103
-6.13532 4.99525 -1.96176 83 89 105
-6.12407 5.01595 -1.96413 83 91 104
-6.10876 5.03251 -1.96476 82 90 103
-5.59301 5.93752 -1.9811 114 113 121
-5.56639 5.96076 -1.98229 114 113 121
-5.321 6.38807 -1.989 84 88 100
-5.28996 6.40697 -1.98907 82 88 102
-5.01849 6.83545 -1.9912 108 108 116
-4.81078 7.29622 -2.01105 84 86 101
-4.54296 7.77147 -2.02259 65 69 80
-4.50636 7.75522 -2.01515 84 87 101
-4.23649 8.37369 -2.04263 83 84 98
-4.21178 8.39054 -2.04456 83 85 99
-3.80134 9.02196 -2.04637 111 112 115
-3.51821 9.45946 -2.04935 85 85 97
-8.95008 0.199122 -1.87802 97 108 126
-8.9524 0.22275 -1.87914 74 85 103
-8.88679 0.517144 -1.90934 92 100 118
-8.89202 0.545555 -1.91115 89 96 114
-8.80266 0.593036 -1.90366 88 99 116
-8.79989 0.615966 -1.90373 86 95 112
-8.46897 0.966571 -1.88519 89 96 112
-7.89163 1.77605 -1.87909 88 94 108
-7.88699 1.79693 -1.87972 87 93 105
-7.3037 2.80142 -1.90403 89 93 111
-7.29748 2.82171 -1.90528 89 92 109
-7.2786 2.87072 -1.90722 84 93 106
-7.26872 2.88929 -1.90727 90 96 110
-7.2639 2.91037 -1.90913 93 98 111
-7.24418 2.93558 -1.90741 89 93 106
-7.2409 2.95749 -1.90986 87 91 104
-7.23583 2.97855 -1.91172 83 84 102
-7.22429 3.00795 -1.913 84 87 104
-7.20386 3.02108 -1.90945 91 95 112
-7.20699 3.04651 -1.91431 89 94 110
-7.1867 3.07136 -1.91259 82 88 104
-7.18291 3.09325 -1.91504 85 92 107
-7.1891 3.12058 -1.9211 86 89 106
-7.14005 3.23838 -1.92683 83 87 100
-6.89204 3.65932 -1.93464 77 84 100
-6.84427 3.71697 -1.93301 81 82 100
-6.82545 3.72996 -1.93066 81 82 100
-6.82072 3.7526 -1.93372 80 83 98
-6.79277 3.77189 -1.93019 81 82 100
-6.78787 3.79449 -1.93324 77 78 96
-6.77353 3.81052 -1.93269 78 80 95
-6.76246 3.84164 -1.93577 76 78 98
-6.7294 3.84427 -1.92801 76 77 97
-6.71491 3.8601 -1.92746 76 79 97
-6.70655 3.88037 -1.92931 76 81 96
-6.68432 3.90342 -1.92819 76 79 96
-6.6804 3.92702 -1.93184 75 78 93
-6.66261 3.94041 -1.93009 75 78 93
-6.64014 3.96323 -1.92896 79 82 97
-6.63443 3.98565 -1.93201 74 78 90
-6.09604 5.05178 -1.96655 81 91 103
-6.0634 5.06611 -1.96313 82 90 103
-6.05053 5.08528 -1.96492 84 90 104
-6.03105 5.09746 -1.9638 83 89 103
-5.54683 5.97411 -1.98234 114 114 122
-5.5239 5.98269 -1.9807 115 114 120
-5.27095 6.42275 -1.9902 82 88 101
-5.24885 6.43358 -1.98969 82 88 100
-5.0026 6.85906 -1.99496 102 103 111
-4.97653 6.86403 -1.99287 102 102 112
-4.77126 7.30432 -2.00853 84 88 100
-4.75417 7.32927 -2.01269 84 88 100
-4.49387 7.79586 -2.02366 86 90 103
-4.16717 8.39371 -2.04176 85 88 100
-3.76108 9.04523 -2.04915 108 108 115
-3.48939 9.47421 -2.05114 86 85 99
-8.95154 0.175618 -1.87795 89 98 115
-8.8877 0.461089 -1.90843 85 96 116
-8.89117 0.489336 -1.90979 88 99 117
-8.80116 0.535161 -1.90133 85 92 111
-8.7977 0.569537 -1.90143 81 93 109
-8.48041 0.92314 -1.88618 85 91 106
-8.48042 0.945653 -1.88735 83 91 104
-7.91474 1.67208 -1.87648 91 92 110
-7.9189 1.70606 -1.88062 90 93 108
-7.91079 1.72602 -1.8801 92 95 110
-7.90633 1.74694 -1.88073 89 94 108
-7.37765 2.59418 -1.89565 83 90 104
-7.37213 2.61456 -1.89691 87 93 107
-7.36065 2.64358 -1.89759 85 88 103
-7.34974 2.6616 -1.89704 94 100 114
-7.35442 2.68666 -1.9019 86 92 106
-7.34779 2.718 -1.90438 86 91 107
-7.32973 2.73277 -1.90144 87 93 110
-7.31338 2.74827 -1.89909 87 93 109
-7.32021 2.78601 -1.90637 82 85 102
-7.30661 2.84945 -1.91194 76 81 97
-6.6256 4.00577 -1.93387 74 77 92
-6.61039 4.0342 -1.93575 73 79 95
-6.58479 4.04148 -1.93098 80 83 98
-6.57424 4.06033 -1.93224 86 88 103
-6.55874 4.08857 -1.93411 89 93 105
-6.54503 4.10501 -1.93416 97 101 113
-6.53426 4.12378 -1.93541 89 95 107
-6.52045 4.14014 -1.93546 90 94 106
-6.50007 4.16462 -1.93553 89 93 105
-6.01523 5.12959 -1.96793 81 88 104
-5.99562 5.14165 -1.96682 81 89 102
-5.98507 5.16349 -1.96976 82 90 103
-5.49812 6.00722 -1.98245 114 113 119
-5.47843 6.02036 -1.98249 110 110 116
-5.45974 6.03503 -1.98309 111 109 120
-5.22773 6.44598 -1.98973 83 86 101
-5.1964 6.46446 -1.9898 82 88 102
-4.94424 6.88318 -1.99346 104 105 110
-4.91995 6.89134 -1.99243 103 102 111
-4.7311 7.34203 -2.01324 83 86 100
-4.45995 7.82022 -2.0262 106 110 118
-4.41835 7.79107 -2.01527 123 128 135
-4.14169 8.40853 -2.04322 82 86 98
-3.73027 9.04751 -2.04781 109 110 116
-3.4392 9.46587 -2.04679 86 86 96
-8.98972 0.141154 -1.88785 90 99 117
-8.89258 0.419313 -1.90888 92 101 116
-8.51788 0.894351 -1.89554 93 99 115
-7.94277 1.60223 -1.87859 92 93 111
-7.93058 1.63208 -1.87752 89 90 108
-7.9264 1.65302 -1.87816 92 95 112
-7.43633 2.49443 -1.89895 75 83 96
-7.41356 2.50756 -1.8942 92 96 111
-7.41534 2.53096 -1.89786 87 88 106
-7.39552 2.5564 -1.89554 88 91 108
-7.40236 2.5821 -1.901 84 90 106
-6.49795 4.19049 -1.94039 89 93 105
-6.47361 4.19831 -1.93623 90 94 105
-6.44855 4.21893 -1.9345 91 95 107
-6.43736 4.23748 -1.93575 89 92 107
-6.42322 4.25355 -1.9358 89 92 107
-6.40957 4.28373 -1.93888 88 91 108
-5.95852 5.18421 -1.96925 81 88 102
-5.94391 5.20173 -1.97046 80 90 100
-5.92668 5.21638 -1.9705 81 91 101
-5.42613 6.0482 -1.98091 111 110 117
-5.41272 6.07065 -1.98432 109 108 115
-5.17218 6.47177 -1.98819 82 88 102
-5.14995 6.48229 -1.98769 81 87 101
-4.89475 6.89772 -1.99087 102 102 110
-4.69227 7.35147 -2.01123 88 92 103
-4.66993 7.36579 -2.0123 86 89 97
-4.40249 7.82442 -2.02178 120 124 129
-4.11614 8.42329 -2.04468 84 87 102
-3.70047 9.05346 -2.04739 112 113 117
-3.40761 9.46902 -2.04593 87 87 96
-8.99293 0.117563 -1.88831 93 101 120
-8.89082 0.391202 -1.90798 92 101 116
-7.95513 1.52861 -1.87607 88 94 108
-7.95073 1.56029 -1.87731 90 96 110
-7.94492 1.58082 -1.87737 91 94 109
-7.4817 2.32217 -1.89008 86 88 104
-7.48054 2.35504 -1.89376 87 88 106
-7.47404 2.37489 -1.89442 87 90 105
-7.4657 2.39402 -1.89447 84 90 104
-7.44646 2.41982 -1.89216 86 93 107
-7.45387 2.44533 -1.89761 88 94 110
-7.44178 2.46296 -1.89647 81 88 102
-6.39525 4.29973 -1.93892 89 92 107
-6.3809 4.31568 -1.93897 85 91 103
-6.36545 4.34451 -1.94145 87 93 105
-6.34807 4.35787 -1.94029 86 89 104
-6.34213 4.3812 -1.94395 86 89 104
-5.89736 5.23397 -1.96882 81 87 105
-5.8927 5.26278 -1.97468 83 85 106
-5.87023 5.27154 -1.9724 83 86 106
-5.39386 6.08513 -1.98492 108 107 115
-5.36751 6.08838 -1.98159 110 109 117
-5.12336 6.50867 -1.99048 85 88 103
-4.85695 6.90627 -1.98828 100 100 108
-4.83704 6.92269 -1.98991 103 102 112
-4.641 7.36608 -2.00924 84 87 100
-4.62184 7.38725 -2.01237 85 89 104
-4.36761 7.8466 -2.02383 125 129 132
-4.07086 8.42414 -2.0414 83 83 99
-3.65495 9.05749 -2.04562 111 112 117
-3.37955 9.48725 -2.0486 88 88 96
-8.89677 0.363452 -1.90888 93 100 118
-7.96811 1.46607 -1.87474 91 97 111
-7.96448 1.48706 -1.87537 89 95 109
-7.96264 1.50847 -1.87659 91 96 111
-7.51796 2.21382 -1.88737 86 92 106
-7.5137 2.2344 -1.88863 89 96 109
-7.4987 2.26192 -1.88751 82 90 103
-7.48895 2.28044 -1.88697 85 91 104
-7.49693 2.30571 -1.89242 86 89 104
-6.33752 4.40581 -1.9482 84 90 104
-6.30307 4.41807 -1.94286 88 94 108
-6.28692 4.43248 -1.94231 87 88 106
-6.28063 4.45575 -1.94596 89 92 107
-6.25876 4.47915 -1.94603 89 92 107
-6.24384 4.49469 -1.94608 85 93 106
-5.85026 5.28308 -1.97128 83 88 104
-5.81694 5.29594 -1.96786 82 88 100
-5.80691 5.3189 -1.97139 79 88 103
-5.34324 6.11548 -1.98447 110 108 116
-5.32318 6.12815 -1.98451 115 113 120
-5.10199 6.52069 -1.99052 83 86 101
-5.08351 6.53761 -1.9922 84 87 102
-4.81355 6.93222 -1.98941 102 102 112
-4.78918 6.93995 -1.98838 101 101 111
-4.58692 7.40491 -2.01294 83 85 99
-4.33137 7.82957 -2.01638 122 126 133
-4.04334 8.43317 -2.04143 83 83 96
-4.01579 8.44211 -2.04146 83 87 98
-3.62762 9.07261 -2.04747 109 110 112
-8.89134 0.293256 -1.90661 97 106 123
-8.89536 0.321393 -1.90797 92 100 119
-7.98644 1.39394 -1.87453 92 98 112
-7.99053 1.41654 -1.87748 93 96 113
-7.98143 1.43638 -1.87638 93 96 112
-7.5538 2.12755 -1.88772 81 88 103
-7.54445 2.14627 -1.88718 84 92 105
-7.52606 2.16176 -1.88364 82 90 103
-7.52393 2.1939 -1.88672 81 89 103
-6.22605 4.50761 -1.94492 86 92 106
-6.22069 4.54632 -1.95221 87 90 105
-6.2014 4.55785 -1.95045 87 90 105
-6.18345 4.57061 -1.94929 87 90 107
-5.78557 5.32877 -1.96968 79 89 101
-5.76077 5.35147 -1.97033 81 89 102
-5.74308 5.36556 -1.97037 82 87 103
-5.29993 6.13595 -1.98286 117 114 125
-5.27017 6.15473 -1.98293 122 120 133
-5.04692 6.54713 -1.98953 84 87 102
-5.02926 6.56557 -1.99175 84 88 100
-4.75733 6.95999 -1.9895 102 104 111
-4.56357 7.41718 -2.01349 83 85 97
-4.537 7.42235 -2.01197 83 85 98
-4.31726 7.86816 -2.02439 122 127 133
-4.26808 7.85394 -2.01647 116 119 124
-3.97609 8.45907 -2.04246 84 86 98
-3.59825 9.08011 -2.0475 110 110 114
-8.89504 0.265406 -1.90706 89 98 115
-8.01204 1.34493 -1.87843 98 98 113
-7.99941 1.36411 -1.87618 93 95 110
-7.56062 1.97736 -1.87294 83 89 105
-7.54812 1.99494 -1.8712 80 86 102
-7.54324 2.02573 -1.87308 83 89 103
-7.57031 2.05659 -1.88453 84 90 104
-7.57561 2.08029 -1.88878 81 87 101
-7.56279 2.09785 -1.88704 81 84 101
-7.08212 2.86736 -1.90084 87 93 108
-7.0739 2.88605 -1.9015 86 92 108
-7.06393 2.90385 -1.90156 84 89 105
-7.06407 2.92682 -1.9053 86 89 106
-7.05608 2.95697 -1.90785 90 92 110
-7.03746 2.97034 -1.90482 85 88 103
-7.04407 2.99687 -1.91103 88 94 110
-7.02733 3.02256 -1.9105 83 89 105
-7.0186 3.04113 -1.91116 88 90 108
-6.9998 3.05427 -1.90814 81 84 102
-6.9978 3.08793 -1.91314 80 86 100
-6.98886 3.10643 -1.91381 82 87 101
-6.9915 3.13135 -1.91879 82 85 100
-6.96915 3.14246 -1.91453 83 86 103
-6.95836 3.1715 -1.91646 81 85 102
-6.95576 3.19367 -1.91959 79 84 101
-6.94317 3.2102 -1.91902 79 84 102
-6.91723 3.23063 -1.91541 74 80 95
-6.91112 3.25085 -1.9173 80 86 100
-6.90983 3.27396 -1.92105 82 85 100
-6.89999 3.30383 -1.9236 82 88 102
-6.87406 3.31237 -1.9181 82 85 100
-6.87251 3.33547 -1.92185 80 83 98
-6.85098 3.35834 -1.92008 78 84 98
-6.8525 3.38344 -1.92506 76 82 96
-6.84096 3.4006 -1.92511 77 80 97
-6.82937 3.41774 -1.92516 77 80 97
-6.79418 3.45637 -1.92282 81 84 101
-6.76672 3.49982 -1.92357 80 81 101
-6.76757 3.525 -1.92855 81 83 100
-6.74445 3.53465 -1.92428 78 81 96
-6.72369 3.55782 -1.92313 80 83 98
-6.72427 3.58301 -1.92811 79 83 98
-6.7042 3.59453 -1.92507 80 85 100
-6.16104 4.59357 -1.94937 87 90 105
-6.14025 4.60356 -1.947 85 91 105
-6.13179 4.62535 -1.95006 84 90 104
-6.10818 4.63256 -1.94649 85 91 105
-6.09231 4.66184 -1.94957 84 92 105
-5.71919 5.37227 -1.96751 84 87 104
-5.70271 5.40498 -1.97222 82 88 104
-5.68242 5.41595 -1.9711 82 89 105
-5.25204 6.17041 -1.98409 122 121 133
-5.23077 6.18119 -1.98357 95 97 107
-5.00773 6.57731 -1.99179 83 86 101
-4.97104 6.58643 -1.98912 84 87 102
-4.73375 6.96926 -1.98901 103 104 111
-4.71101 6.98018 -1.98904 101 101 109
-4.50267 7.44139 -2.01306 84 88 99
-4.25576 7.89783 -2.02597 117 119 123
-3.94967 8.47151 -2.04344 82 84 96
-3.5546 9.0912 -2.04755 112 113 117
-8.89317 0.223414 -1.90615 95 104 122
-8.01474 1.29132 -1.87539 92 95 110
-8.01146 1.32311 -1.87664 87 91 108
-7.58951 1.88942 -1.87209 79 83 98
-7.59725 1.9134 -1.87694 87 93 105
-7.58674 1.93173 -1.8758 86 92 107
-7.5985 1.96787 -1.88307 82 88 104
-7.17929 2.64418 -1.89466 89 97 108
-7.17627 2.67608 -1.89843 88 94 110
-7.17731 2.69897 -1.90218 85 88 105
-7.14038 2.70424 -1.89238 86 89 104
-7.13701 2.73609 -1.89616 92 95 110
-7.1378 2.75897 -1.8999 91 94 111
-7.13337 2.77943 -1.9018 86 89 106
-7.11422 2.8039 -1.90004 94 100 115
-7.11303 2.826 -1.90317 81 87 102
-7.09473 2.83972 -1.90014 83 89 106
-6.80966 3.4907 -1.93335 80 81 100
-6.69265 3.62386 -1.92762 80 86 102
-6.68821 3.64589 -1.93075 76 79 96
-6.67271 3.66043 -1.92956 76 79 96
-6.65562 3.67384 -1.92776 81 84 101
-6.64516 3.70413 -1.93092 78 86 99
-6.63106 3.7196 -1.93035 80 86 100
-6.61227 3.73174 -1.92794 80 83 98
-6.59374 3.75642 -1.92801 79 83 95
-6.58103 3.77282 -1.92806 78 84 98
-6.56982 3.7903 -1.92873 77 83 99
-6.55255 3.8159 -1.92942 81 86 101
-6.54424 3.83555 -1.93132 82 84 99
-6.08224 4.68223 -1.95202 84 92 105
-6.0599 4.69054 -1.94906 84 92 105
-6.04098 4.71698 -1.95093 82 89 105
-5.66088 5.42537 -1.9694 80 89 102
-5.63198 5.44307 -1.9683 82 89 104
-5.6152 5.45826 -1.96892 82 87 102
-5.2008 6.19967 -1.98363 83 86 96
-5.18249 6.21516 -1.98479 75 76 88
-4.95037 6.59966 -1.9897 82 88 102
-4.67724 6.99642 -1.9891 102 101 115
-4.6519 7.00198 -1.98754 104 103 116
-4.47608 7.44635 -2.01155 83 87 98
-4.21559 7.86948 -2.01553 121 122 128
-3.91717 8.46537 -2.03966 82 84 96
-3.52282 9.08905 -2.0453 112 112 117
-8.89222 0.1675 -1.90524 92 100 118
-8.90637 0.195791 -1.90886 91 100 117
-8.02922 1.22913 -1.87521 90 97 113
-8.03197 1.25126 -1.87758 88 94 108
-8.03279 1.27308 -1.87938 92 96 108
-7.61062 1.82067 -1.87129 90 92 107
-7.61679 1.84401 -1.87554 88 91 108
-7.61013 1.86353 -1.8756 88 91 108
-7.24652 2.49688 -1.893 89 95 111
-7.22509 2.52058 -1.89 84 87 102
-7.21802 2.53958 -1.89067 88 93 107
-7.21784 2.56159 -1.8938 91 99 112
-7.20657 2.58969 -1.8945 88 96 109
-7.19754 2.60787 -1.89455 87 94 110
-7.19018 2.62682 -1.89522 85 92 107
-6.5955 3.89919 -1.95726 78 81 96
-6.53049 3.8771 -1.93634 76 79 96
-6.50671 3.89799 -1.93457 74 76 91
-6.4951 3.91529 -1.93523 79 81 96
-6.48491 3.9337 -1.93651 93 97 111
-6.46543 3.95781 -1.93659 79 83 96
-6.4536 3.975 -1.93725 71 74 89
-6.4417 3.99216 -1.93792 75 78 95
-6.41895 4.01373 -1.93676 77 75 96
-6.03605 4.74268 -1.95579 83 89 105
-6.01359 4.75078 -1.95282 83 89 105
-5.98902 4.77162 -1.95229 86 89 106
-5.97582 4.78908 -1.95354 85 91 105
-5.58759 5.45997 -1.96431 84 87 102
-5.57668 5.48252 -1.96784 83 87 101
-5.1611 6.22571 -1.98427 76 76 87
-5.13971 6.2362 -1.98375 83 83 97
-4.93621 6.62458 -1.99411 85 88 103
-4.90703 6.62258 -1.98977 83 86 103
-4.63322 7.02132 -1.99023 102 102 112
-4.45023 7.453 -2.01055 84 86 99
-4.18988 7.9162 -2.02456 117 117 119
-3.87792 8.48374 -2.04114 82 86 97
-3.49434 9.10001 -2.04624 111 111 113
-8.89357 0.139592 -1.90524 99 105 125
-8.05359 1.1795 -1.87911 93 96 111
-8.04711 1.19999 -1.87859 94 97 112
-7.62995 1.73009 -1.86804 88 94 108
