-20.043 15.2121 -0.0662502 85 93 111
-19.9061 15.1985 -0.0646973 83 91 110
-19.768 15.1829 -0.0631232 77 85 104
-19.6308 15.2157 -0.0617771 78 90 107
-19.507 15.2101 -0.0604008 78 89 107
-19.3788 15.2 -0.0589603 74 85 103
-19.2118 15.2043 -0.0571916 79 91 107
-19.0978 15.2044 -0.0559482 75 87 103
-18.987 15.2065 -0.054747 77 90 107
-18.8492 15.1845 -0.0531666 78 89 107
-18.7075 15.2061 -0.0517465 82 89 107
-18.5973 15.2063 -0.0505497 82 89 107
-18.4663 15.1874 -0.0490584 80 87 105
-18.3386 15.2185 -0.0478324 77 86 101
-18.2231 15.2116 -0.0465554 80 86 102
-9.8672 10.8105 -0.0397016 73 82 97
-9.83726 10.8436 -0.0396061 76 85 102
-9.77168 10.8663 -0.0389142 78 85 103
-9.74764 10.907 -0.0389864 71 78 94
-8.36455 11.4649 -0.0260943 71 75 86
-8.31399 11.4649 -0.0254303 70 77 87
-8.28539 11.5005 -0.0254528 69 75 87
-63.9971 9.15639 -0.301419 74 79 91
-58.891 9.70681 -0.261605 116 96 106
-53.774 9.77796 -0.2215 114 92 98
-53.7834 9.95022 -0.221602 118 99 106
-60.0175 13.151 -0.271501 72 78 90
-59.2488 13.1699 -0.265459 72 78 90
-58.4735 13.2768 -0.259509 73 79 91
-57.7253 13.2897 -0.253625 74 80 92
-56.9774 13.2981 -0.247745 76 78 92
-54.8732 13.4187 -0.231343 79 77 90
-54.1896 13.5122 -0.226104 75 79 91
-53.5198 13.5157 -0.220836 76 79 94
-52.8795 13.5227 -0.215801 74 80 94
-52.2763 13.5355 -0.211063 78 84 98
-51.6542 13.6242 -0.206299 75 81 95
-51.0577 13.6304 -0.201608 78 84 98
-50.5117 13.6469 -0.197321 75 82 98
-24.4093 10.5115 -0.101688 78 86 102
-23.1091 15.0725 -0.0996519 79 90 108
-22.9272 15.0978 -0.0977326 84 93 108
-22.7808 15.0963 -0.0960781 71 80 95
-22.6281 15.0893 -0.0943372 78 87 102
-22.4746 15.131 -0.0927963 81 90 107
-22.3159 15.1176 -0.090971 83 92 109
-22.1785 15.1186 -0.0894329 79 88 105
-22.0364 15.1154 -0.0878325 77 89 105
-21.8708 15.1437 -0.0861193 81 90 107
-21.7357 15.1435 -0.0846077 78 87 104
-21.5879 15.1331 -0.0829249 81 90 107
-21.4342 15.1667 -0.0813685 80 89 104
-21.2996 15.1642 -0.0798615 78 87 104
-21.1733 15.1672 -0.0784667 79 88 105
-21.0185 15.1967 -0.0768919 78 87 104
-20.883 15.1908 -0.0753697 79 87 106
-20.7462 15.183 -0.0738276 77 84 103
-20.5591 15.1835 -0.0718032 70 76 94
-20.4541 15.1989 -0.0706949 73 81 98
-68.9999 9.12873 -0.340597 74 78 89
-64.6034 11.2841 -0.306735 115 95 100
-66.9458 12.768 -0.325653 103 87 93
-66.1309 12.8207 -0.319256 99 77 80
-65.2125 12.8476 -0.312037 100 78 90
-64.2822 12.9693 -0.304876 73 73 85
-60.7885 13.1278 -0.277562 74 77 92
-26.331 14.9105 -0.135606 79 91 106
-26.1684 14.9196 -0.133763 82 91 106
-25.9992 14.9237 -0.131834 86 95 112
-25.825 14.9238 -0.129837 83 92 109
-25.626 14.9599 -0.127716 87 96 111
-25.4608 14.9631 -0.125836 85 94 110
-25.2739 14.9515 -0.123665 83 92 109
-25.0789 14.9858 -0.121591 84 93 110
-24.9196 14.9892 -0.119784 86 94 113
-24.7503 14.9853 -0.117842 83 91 110
-24.5712 15.0256 -0.115974 90 99 116
-24.3907 15.012 -0.113881 86 95 112
-24.2239 15.0062 -0.111968 83 93 111
-24.0724 15.0094 -0.110256 83 91 112
-23.8709 15.0294 -0.108084 77 85 106
-23.7199 15.0308 -0.106376 82 90 109
-23.5724 15.0335 -0.104713 79 88 104
-23.3932 15.0645 -0.102834 82 91 108
-23.251 15.0689 -0.101241 78 87 104
-29.9449 14.7151 -0.176573 79 87 102
-29.6723 14.7438 -0.173533 80 89 104
-29.4781 14.7553 -0.171299 80 87 105
-29.2239 14.7338 -0.168288 82 89 107
-29.0123 14.7891 -0.166032 79 86 102
-28.8012 14.7873 -0.163575 84 92 111
-28.5763 14.7768 -0.16094 87 94 112
-28.3658 14.7726 -0.158489 87 94 112
-28.1481 14.818 -0.156145 89 100 115
-27.9626 14.8249 -0.154015 83 90 106
-27.7686 14.8259 -0.151775 82 91 108
-27.5168 14.8472 -0.14898 83 92 109
-27.346 14.8585 -0.147037 76 87 105
-27.158 14.859 -0.14487 83 93 111
-26.9348 14.8915 -0.142443 89 98 115
-26.7336 14.8814 -0.140098 84 94 111
-26.5654 14.8896 -0.138186 81 93 109
-34.0588 14.497 -0.223972 88 98 109
-33.7485 14.5422 -0.220485 83 92 107
-33.4851 14.5453 -0.217391 84 93 108
-32.9199 14.5889 -0.210907 80 88 106
-32.6628 14.5895 -0.207889 81 82 82
-32.397 14.5844 -0.204755 162 143 99
-32.1285 14.6355 -0.20179 91 94 95
-31.876 14.6331 -0.198825 79 87 97
-31.6275 14.631 -0.195906 80 88 103
-31.3526 14.6728 -0.192851 81 91 103
-31.1172 14.6737 -0.1901 79 88 103
-30.8643 14.6644 -0.187118 77 86 101
-30.6259 14.6608 -0.184323 81 90 105
-30.397 14.7176 -0.181853 78 87 102
-30.1521 14.7074 -0.178971 76 85 100
-7.06925 15.2594 -0.0555328 65 68 75
-7.01327 15.2589 -0.0549224 68 68 74
-6.96018 15.2657 -0.0544356 68 69 74
-6.87891 15.27 -0.0536357 63 64 71
-6.82517 15.2745 -0.0531184 57 56 64
-6.76395 15.2581 -0.0522675 60 58 68
-6.68499 15.267 -0.0515611 75 78 83
-6.6314 15.2709 -0.0510455 70 74 77
-6.57388 15.2632 -0.0503491 71 72 76
-6.49246 15.2636 -0.0495232 72 72 76
-6.44033 15.2706 -0.0490703 71 70 75
-6.38694 15.2736 -0.0485573 70 71 75
-6.30763 15.2787 -0.0478237 67 71 75
-6.24929 15.2661 -0.0470701 68 72 75
-6.19356 15.2609 -0.0464385 70 69 75
-6.13852 15.2574 -0.0458369 70 70 75
-6.0632 15.2727 -0.045286 72 72 75
-6.00888 15.2706 -0.0447162 69 69 71
-5.95046 15.255 -0.043937 74 75 79
-39.2229 14.2884 -0.284433 83 89 105
-38.85 14.2821 -0.279983 79 87 101
-38.5054 14.2843 -0.27589 83 91 105
-38.15 14.3467 -0.271867 81 91 101
-37.8025 14.3429 -0.267731 81 91 103
-37.4665 14.3416 -0.263738 82 90 103
-37.1364 14.3406 -0.259822 80 89 105
-36.7916 14.3962 -0.255921 79 88 103
-36.4678 14.3931 -0.25208 82 91 106
-36.1574 14.3935 -0.248405 86 95 109
-35.8302 14.4485 -0.244719 82 90 105
-35.5296 14.4487 -0.241163 80 88 103
-35.2294 14.4472 -0.237613 83 90 106
-34.9087 14.4974 -0.234002 78 85 101
-34.6146 14.4943 -0.230523 89 96 112
-34.3357 14.496 -0.227236 79 88 101
-9.83343 10.8471 -0.0876829 75 83 102
-9.74098 10.835 -0.0860144 74 81 99
-9.7464 10.9137 -0.0871288 72 80 93
-8.38877 11.5098 -0.0739832 73 77 88
-8.33406 11.5031 -0.0730691 71 75 86
-8.28982 11.5132 -0.072551 73 75 88
-8.25221 11.5752 -0.0728857 69 75 87
-9.23279 15.2535 -0.0803127 68 72 81
-9.16552 15.243 -0.0793648 67 71 80
-9.08083 15.2568 -0.0785115 64 68 79
-9.01926 15.2564 -0.0777555 67 69 81
-8.95418 15.2485 -0.076874 68 70 82
-8.86704 15.2559 -0.0759275 72 74 86
-8.80397 15.251 -0.0751105 70 73 82
-8.74455 15.2531 -0.0744218 73 73 83
-8.68255 15.2496 -0.0736379 70 72 85
-8.59754 15.2591 -0.0727578 66 69 78
-8.53574 15.255 -0.0719764 68 71 80
-8.47831 15.2597 -0.0713524 70 70 80
-8.38846 15.2573 -0.0702865 70 73 82
-8.32949 15.2579 -0.0696018 64 67 76
-8.26974 15.2564 -0.0688856 73 73 83
-8.18112 15.2547 -0.0678531 70 70 80
-8.12404 15.2581 -0.0672332 68 68 80
-8.06455 15.2559 -0.0665191 69 71 82
-7.97873 15.2585 -0.0655832 68 71 80
-7.91944 15.2557 -0.0648715 65 68 77
-7.8626 15.2582 -0.0642531 67 70 77
-7.80265 15.2532 -0.0635109 69 72 79
-7.72197 15.2655 -0.0627653 65 68 77
-7.66298 15.2618 -0.0620556 68 68 78
-7.60252 15.2541 -0.0612847 70 70 80
-7.52357 15.2691 -0.0606028 66 69 78
-7.46482 15.2647 -0.0598952 66 68 80
-7.40693 15.2619 -0.0592201 69 69 79
-7.32143 15.2591 -0.0582625 70 70 75
-7.26813 15.267 -0.0577726 69 69 75
-7.20973 15.2616 -0.0570681 66 67 72
-7.13106 15.2746 -0.056389 66 69 74
-46.4239 9.54271 -0.362891 74 73 85
-43.5584 10.3971 -0.329536 72 78 91
-45.5071 13.9473 -0.358484 79 82 97
-45.0469 13.9525 -0.352976 78 81 96
-44.5747 14.0259 -0.347529 79 83 95
-44.1248 14.0281 -0.342148 79 81 94
-43.683 14.0302 -0.336862 75 79 91
-43.2327 14.0998 -0.331681 80 84 96
-42.8182 14.105 -0.326735 81 85 97
-42.3908 14.1032 -0.321622 81 85 97
-41.9676 14.1002 -0.316564 77 81 93
-41.5567 14.1696 -0.311867 81 85 97
-41.1438 14.1643 -0.306928 80 86 100
-40.7332 14.1573 -0.302017 79 85 99
-40.3364 14.222 -0.29749 79 82 98
-39.968 14.2249 -0.293103 81 86 101
-39.5999 14.2255 -0.288719 80 84 101
-11.2581 15.2573 -0.106293 70 74 86
-11.1788 15.2416 -0.105055 70 77 87
-11.1148 15.249 -0.104278 71 76 87
-11.0161 15.2547 -0.103046 71 73 86
-10.9448 15.2497 -0.102042 69 74 86
-10.8747 15.2461 -0.10107 69 75 87
-10.7828 15.2605 -0.100038 66 71 84
-10.4748 15.2477 -0.0958776 66 72 84
-10.4095 15.2491 -0.0950422 66 72 84
-10.3402 15.2433 -0.0940775 68 72 84
-10.2461 15.2496 -0.0929547 70 77 87
-10.1831 15.2535 -0.0921867 74 81 91
-10.1102 15.2399 -0.0910952 71 78 88
-10.0205 15.2518 -0.0901048 73 77 88
-9.9538 15.2479 -0.0892098 69 73 84
-9.8902 15.249 -0.0884124 70 70 82
-9.8076 15.2719 -0.0876498 73 73 81
-9.73246 15.2515 -0.0864674 71 70 76
-9.6672 15.2482 -0.0856081 71 69 72
-9.59918 15.2394 -0.0846542 72 67 71
-9.5102 15.2485 -0.0836686 71 66 72
-9.45002 15.2532 -0.0829732 77 77 83
-9.38613 15.2505 -0.0821502 74 80 90
-9.30115 15.2656 -0.0812947 70 75 87
-53.8091 9.91516 -0.452514 120 102 112
-53.176 13.5565 -0.449715 76 82 95
-52.5292 13.5585 -0.441921 78 84 98
-51.9466 13.5738 -0.434925 78 84 98
-51.3063 13.6539 -0.42743 78 84 98
-50.7342 13.6638 -0.420554 79 82 97
-50.174 13.6735 -0.413829 76 79 96
-49.6082 13.7598 -0.407248 77 81 98
-49.0585 13.7647 -0.400648 79 85 101
-48.5247 13.7708 -0.394241 77 83 97
-47.9695 13.8467 -0.387783 76 84 97
-47.4749 13.8571 -0.381856 77 87 99
-46.9615 13.8587 -0.375697 79 87 100
-46.4753 13.8654 -0.369871 76 84 97
-46.002 13.95 -0.364421 78 84 98
-13.0226 15.2286 -0.130342 73 80 96
-12.9183 15.2423 -0.12902 72 78 94
-12.8369 15.2357 -0.127791 72 79 95
-12.7533 15.2255 -0.126495 78 86 99
-12.677 15.2245 -0.125403 76 82 94
-12.5805 15.2458 -0.124286 72 78 92
-12.4985 15.236 -0.123028 71 78 95
-12.4261 15.2388 -0.122039 71 79 94
-12.3193 15.2441 -0.120624 120 124 136
-12.2437 15.2413 -0.119536 116 116 124
-12.1612 15.2284 -0.11825 118 116 119
-12.0711 15.2548 -0.117305 95 92 98
-11.9867 15.2379 -0.115953 70 69 82
-11.9047 15.2238 -0.114671 71 77 91
-11.8149 15.2489 -0.113728 74 80 96
-11.7412 15.2456 -0.112681 68 74 89
-11.6654 15.2387 -0.111569 69 75 89
-11.592 15.2347 -0.110522 70 76 90
-11.4925 15.2432 -0.109284 66 69 86
-11.4237 15.2452 -0.108373 70 73 90
-11.3451 15.2319 -0.107165 68 74 88
-64.0041 9.32297 -0.575342 72 78 90
-60.3493 13.184 -0.535514 73 76 91
-59.5557 13.198 -0.525935 75 78 93
-58.79 13.2135 -0.516701 76 79 94
-58.0039 13.3131 -0.507445 71 78 91
-57.2859 13.3293 -0.498789 73 78 90
-56.6033 13.3495 -0.490569 74 78 90
-55.1154 13.4361 -0.472836 82 81 90
-54.4924 13.4573 -0.465346 78 79 89
-53.8621 13.4727 -0.457766 77 81 92
-15.3893 15.2367 -0.165266 86 93 107
-15.2878 15.2233 -0.163592 70 77 93
-15.192 15.2154 -0.162058 80 90 102
-15.071 15.2272 -0.160367 68 80 94
-14.9956 15.2405 -0.159353 77 86 103
-14.8882 15.2177 -0.157513 72 82 98
-14.8077 15.2243 -0.156363 80 88 104
-14.6848 15.2306 -0.154608 75 82 98
-14.5953 15.2258 -0.15322 74 82 99
-14.506 15.2206 -0.151832 75 82 99
-14.3903 15.2325 -0.150255 75 82 98
-14.3065 15.2324 -0.149008 78 87 103
-14.2177 15.2258 -0.147624 78 90 106
-14.1089 15.2435 -0.146219 70 79 96
-14.0204 15.2361 -0.144839 65 77 94
-13.9347 15.2313 -0.143527 78 90 106
-13.8477 15.2245 -0.142182 71 80 97
-13.7409 15.2416 -0.140817 71 78 94
-13.648 15.2262 -0.139305 74 83 98
-13.5654 15.2228 -0.138066 76 85 100
-13.4628 15.2428 -0.136806 72 81 98
-69.0593 9.10347 -0.636468 76 80 91
-67.4052 12.7114 -0.620029 101 88 99
-66.3763 12.8304 -0.607819 93 70 82
-65.6053 12.8874 -0.598542 101 74 91
-64.7013 12.9125 -0.587619 79 71 86
-63.7833 13.031 -0.576762 74 74 87
-17.5958 15.1898 -0.199076 75 84 101
-17.4651 15.2113 -0.197219 83 91 109
-17.3627 15.211 -0.195587 77 86 101
-17.2475 15.1978 -0.193639 78 85 101
-17.113 15.2129 -0.19168 73 82 100
-17.0098 15.2095 -0.190017 79 88 107
-16.8996 15.1986 -0.18818 73 82 100
-16.7701 15.2156 -0.186331 71 79 97
-16.6617 15.2049 -0.184532 81 90 107
-16.5565 15.1965 -0.182805 74 83 100
-16.436 15.2197 -0.181169 81 88 106
-16.3311 15.2102 -0.179445 68 75 93
-16.2404 15.2144 -0.178071 77 84 102
-16.1443 15.2124 -0.176561 77 84 100
-16.0161 15.2245 -0.174719 84 91 109
-15.912 15.2128 -0.173002 78 87 104
-15.8233 15.2166 -0.171669 76 85 102
-15.6944 15.2251 -0.169796 78 86 105
-15.6032 15.2249 -0.168395 73 82 99
-15.5054 15.2171 -0.166823 78 87 104
-19.9999 15.1998 -0.238096 80 89 106
-19.8709 15.1924 -0.2359 84 95 112
-19.7391 15.1818 -0.233636 79 91 107
-19.5867 15.2017 -0.231327 81 89 108
-19.4584 15.1921 -0.229138 85 94 109
-19.3563 15.2037 -0.227558 81 90 105
-19.1864 15.2054 -0.224825 79 86 105
-19.0648 15.1989 -0.222782 78 85 103
-18.9557 15.2022 -0.221027 77 86 101
-18.818 15.1802 -0.218596 70 82 98
-18.6793 15.2043 -0.216582 78 87 104
-18.5573 15.1938 -0.214512 65 72 91
-18.4399 15.1868 -0.212549 70 78 97
-18.3033 15.2097 -0.210575 64 71 87
-18.1893 15.204 -0.208687 65 68 85
-18.0741 15.1964 -0.206764 67 73 91
-17.9278 15.2075 -0.204546 71 81 98
-17.8174 15.2026 -0.202733 79 88 103
-17.7043 15.1944 -0.20085 77 86 103
-7.67039 15.2982 -0.120306 69 69 77
-7.60847 15.2869 -0.119352 66 69 77
-7.52876 15.3001 -0.118573 68 66 77
-7.46934 15.2938 -0.117736 68 70 77
-7.40927 15.2855 -0.116862 68 72 75
-7.33123 15.3013 -0.11616 71 69 77
-7.2721 15.2943 -0.115325 70 69 74
-7.2174 15.2983 -0.114717 70 71 75
-7.15628 15.2853 -0.11377 66 67 71
-7.0756 15.2924 -0.112921 67 69 74
-7.0253 15.3069 -0.112539 67 67 75
-6.9638 15.2913 -0.111557 68 68 76
-6.88195 15.2937 -0.110635 70 72 76
-6.82963 15.302 -0.110142 74 74 75
-6.76651 15.28 -0.109052 70 69 74
-6.68966 15.2946 -0.108393 71 73 78
-6.63149 15.2852 -0.107566 69 71 76
-6.58394 15.3059 -0.107336 69 70 74
-6.50062 15.3006 -0.106306 69 70 72
-6.44786 15.3057 -0.105778 69 70 72
-6.38939 15.2936 -0.104917 71 72 75
-6.33548 15.2946 -0.104317 66 68 72
-6.25325 15.29 -0.103327 69 70 74
-6.20499 15.3076 -0.10306 68 70 74
-6.14632 15.2927 -0.102166 66 70 73
-6.07163 15.3099 -0.101621 68 69 71
-6.01437 15.2984 -0.100802 67 68 70
-5.96137 15.3 -0.100242 63 67 68
-24.4574 10.4703 -0.283676 81 89 103
-24.4417 10.5509 -0.283814 82 88 106
-22.7296 15.0829 -0.282927 82 91 108
-22.5868 15.0827 -0.280484 85 93 111
-22.454 15.0889 -0.278261 80 90 108
-22.2896 15.1213 -0.275746 83 94 110
-22.1475 15.1188 -0.273308 83 93 108
-22.0088 15.1179 -0.270943 83 92 108
-21.8289 15.1354 -0.26807 83 93 106
-21.681 15.1256 -0.265492 78 88 103
-21.5462 15.1246 -0.263207 79 90 108
-21.3943 15.1593 -0.260953 87 98 116
-21.2742 15.1676 -0.258994 82 89 108
-21.1368 15.162 -0.25664 92 98 117
-20.9854 15.1938 -0.25439 83 94 113
-20.8516 15.1891 -0.25211 85 96 112
-20.7196 15.1849 -0.249868 79 88 105
-20.5832 15.1763 -0.247522 76 86 104
-20.4184 15.1932 -0.244952 78 90 108
-20.2981 15.1955 -0.242966 73 84 102
-20.1577 15.1809 -0.240517 78 88 105
-10.4076 15.2711 -0.157304 70 76 86
-10.3434 15.2739 -0.156396 66 73 84
-10.2594 15.2974 -0.155517 68 74 86
-10.1884 15.2875 -0.154334 69 76 86
-10.1255 15.2912 -0.153467 68 75 85
-10.0268 15.2876 -0.152 68 72 83
-9.95724 15.2785 -0.15086 69 68 82
-9.89366 15.2796 -0.149956 69 71 84
-9.83116 15.2821 -0.149093 69 73 84
-9.73797 15.2855 -0.147828 70 69 73
-9.67083 15.2788 -0.14677 70 70 72
-9.60954 15.2822 -0.145947 73 69 70
-9.5215 15.2932 -0.14488 70 68 73
-9.45281 15.282 -0.143746 75 78 86
-9.38989 15.2811 -0.142848 68 75 83
-9.30031 15.2874 -0.141705 67 72 83
-9.23851 15.2877 -0.140847 69 73 82
-9.17771 15.2896 -0.140029 71 74 83
-9.09207 15.3017 -0.139044 68 71 80
-9.02508 15.2906 -0.137955 69 73 82
-8.96273 15.2881 -0.137062 68 72 83
-8.8996 15.2836 -0.136131 68 72 83
-8.81257 15.2907 -0.135071 69 71 83
-8.75228 15.291 -0.134258 69 70 82
-8.69033 15.2874 -0.133368 68 70 83
-8.59929 15.2844 -0.132118 69 72 81
-8.5444 15.2947 -0.131537 71 74 83
-8.48444 15.294 -0.130727 68 71 80
-8.39379 15.2899 -0.129479 70 73 82
-8.33652 15.2941 -0.128785 68 71 80
-8.27848 15.2962 -0.128054 72 72 81
-8.18743 15.2891 -0.126771 70 73 81
-8.12301 15.2761 -0.125735 71 71 81
-8.07417 15.2976 -0.125426 68 72 81
-8.00753 15.2787 -0.124276 67 71 80
-7.9243 15.2866 -0.123342 67 70 79
-7.86673 15.2873 -0.122614 67 69 78
-7.81314 15.2969 -0.122077 66 69 78
-7.72933 15.3019 -0.121107 68 69 78
-25.5727 14.9495 -0.331059 81 90 108
-25.3925 14.9431 -0.327854 79 90 108
-25.2329 14.9484 -0.325094 78 89 107
-25.0297 14.9773 -0.321786 80 91 107
-24.8638 14.9763 -0.318881 81 88 107
-24.7032 14.9777 -0.316089 84 91 110
-24.5126 15.0102 -0.313043 83 90 108
-24.3424 15.0031 -0.310032 84 92 110
-24.1925 15.0082 -0.307466 79 91 107
-24.0178 14.9959 -0.304349 87 95 114
-23.8382 15.0302 -0.30153 73 81 102
-23.689 15.0326 -0.298968 70 81 101
-23.54 15.0343 -0.296406 76 84 105
-23.3478 15.0561 -0.293297 78 89 108
-23.2042 15.0592 -0.29085 76 88 105
-23.0509 15.0548 -0.288183 78 89 106
-22.8889 15.0937 -0.285735 76 85 102
-12.9591 15.2745 -0.197014 79 86 102
-12.8501 15.2814 -0.195345 77 84 100
-12.7712 15.2775 -0.194007 75 82 98
-12.6889 15.2686 -0.192548 69 76 92
-12.5947 15.2931 -0.19137 77 83 97
-12.5198 15.293 -0.190156 67 74 93
-12.4332 15.2764 -0.188538 89 97 112
-12.3369 15.2962 -0.187282 123 126 138
-12.2461 15.2723 -0.185505 118 119 124
-12.1706 15.2692 -0.184257 110 107 108
-12.0771 15.2908 -0.183084 87 86 92
-11.9915 15.2721 -0.181474 77 79 93
-11.921 15.2744 -0.180388 67 77 89
-11.8483 15.2732 -0.179224 69 77 93
-11.7517 15.288 -0.177933 69 75 91
-11.6737 15.2778 -0.176569 70 76 90
-11.6069 15.2838 -0.175609 69 77 90
-11.5052 15.289 -0.174119 68 74 90
-11.4364 15.291 -0.173079 71 78 94
-11.3556 15.2743 -0.171601 72 80 93
-11.2544 15.278 -0.170115 67 76 89
-11.1795 15.269 -0.168839 66 74 87
-11.1069 15.2629 -0.167644 65 73 86
-11.0169 15.282 -0.166561 70 79 90
-10.9509 15.2855 -0.165607 69 75 87
-10.8787 15.2785 -0.164415 69 75 87
-10.8087 15.2746 -0.163303 68 74 86
-28.7575 14.7858 -0.386288 81 90 105
-28.5276 14.7724 -0.382087 79 89 107
-28.3086 14.7634 -0.378111 77 88 106
-28.1209 14.8252 -0.375192 81 89 108
-27.9025 14.8136 -0.37122 84 93 110
-27.7262 14.8243 -0.368141 84 93 108
-27.4973 14.8583 -0.364335 84 93 111
-27.2972 14.8529 -0.36074 85 97 111
-27.0922 14.8433 -0.357036 93 100 118
-26.8745 14.8787 -0.353457 86 91 110
-26.7028 14.8858 -0.350461 82 90 109
-26.5108 14.8797 -0.347024 89 98 115
-26.331 14.8798 -0.343849 86 95 110
-26.1178 14.9116 -0.340347 84 93 108
-25.9522 14.9177 -0.337469 83 92 109
-25.7663 14.9104 -0.334151 81 89 108
-15.2982 15.2652 -0.236509 71 78 94
-15.1996 15.2543 -0.234644 73 81 97
-15.1119 15.2547 -0.233114 78 85 103
-14.9898 15.2644 -0.231127 84 92 108
-14.9051 15.2668 -0.229682 79 85 103
-14.8205 15.269 -0.228238 76 83 99
-14.695 15.2722 -0.226131 72 79 95
-14.6133 15.2764 -0.224771 69 78 95
-14.5122 15.2575 -0.222793 72 81 96
-14.4016 15.2754 -0.221145 74 83 98
-14.31 15.2662 -0.219458 69 78 93
-14.2199 15.258 -0.217815 70 77 95
-14.1163 15.2818 -0.216376 72 79 98
-14.0329 15.2804 -0.21494 73 81 100
-13.942 15.2694 -0.213259 72 80 97
-13.8576 15.2657 -0.211784 75 84 98
-13.7494 15.2812 -0.210185 74 82 96
-13.6603 15.2704 -0.20855 77 86 101
-13.5764 15.2654 -0.207079 77 86 103
-13.4675 15.2776 -0.205443 69 78 93
-13.4 15.2922 -0.204507 73 80 94
-32.3357 14.5766 -0.44955 168 144 96
-32.0694 14.6285 -0.445039 91 90 92
-31.8155 14.6253 -0.440395 79 85 101
-31.5871 14.6328 -0.436281 82 88 104
-31.3302 14.625 -0.431566 79 85 99
-31.0435 14.6587 -0.426612 77 84 100
-30.8195 14.6636 -0.422578 77 84 100
-30.5708 14.6547 -0.418021 77 84 100
-30.3333 14.7069 -0.414081 77 84 100
-30.1101 14.7076 -0.410054 80 86 100
-29.8659 14.6961 -0.405578 79 85 101
-29.6186 14.7376 -0.401421 79 87 103
-29.4087 14.7407 -0.397661 78 87 102
-29.2044 14.7454 -0.394012 76 85 102
-28.9718 14.7894 -0.390155 83 92 108
-17.6147 15.2403 -0.277834 70 81 98
-17.4693 15.2481 -0.275268 69 76 94
-17.3655 15.2462 -0.273334 71 75 96
-17.2503 15.2328 -0.271062 73 76 98
-17.1186 15.2506 -0.268881 78 84 105
-17.0153 15.247 -0.266951 76 84 103
-16.9023 15.2332 -0.264726 74 83 100
-16.7712 15.2487 -0.262549 74 83 98
-16.6671 15.2421 -0.260581 75 84 99
-16.5717 15.2434 -0.258866 74 83 99
-16.4877 15.2557 -0.257488 79 86 104
-16.3392 15.2499 -0.254773 76 84 101
-16.2401 15.2455 -0.252935 85 92 109
-16.1551 15.2549 -0.251518 84 91 107
-16.0227 15.2626 -0.249268 64 73 90
-15.9158 15.2479 -0.247183 79 87 106
-15.8284 15.253 -0.245686 75 83 104
-15.7035 15.2658 -0.243649 74 82 101
-15.6137 15.267 -0.24207 70 79 97
-15.5254 15.2693 -0.240533 83 95 111
-15.3997 15.2787 -0.238459 71 76 95
-36.3781 14.3758 -0.522564 75 82 98
-36.0884 14.3846 -0.517248 78 85 101
-35.7452 14.4326 -0.511212 79 86 102
-35.4543 14.4367 -0.505862 77 86 101
-35.1527 14.4345 -0.500288 80 89 104
-34.8472 14.4909 -0.495012 80 88 103
-34.5408 14.4824 -0.489329 80 88 102
-34.2659 14.4857 -0.48429 80 89 103
-33.984 14.4842 -0.479105 81 90 103
-33.6961 14.5392 -0.474171 80 87 103
-32.6029 14.5825 -0.454458 77 75 79
-20.1541 15.2136 -0.325376 75 84 99
-20.0101 15.2437 -0.322953 83 92 109
-19.878 15.2335 -0.320304 79 87 106
-19.7476 15.224 -0.317699 75 82 101
-19.5843 15.2347 -0.314724 72 80 100
-19.4667 15.2339 -0.312465 70 76 98
-19.3478 15.2313 -0.310166 76 83 102
-19.2153 15.2163 -0.307485 78 87 103
-19.0729 15.2403 -0.30507 72 80 100
-18.9516 15.233 -0.302689 71 79 98
-18.8274 15.2225 -0.300227 71 80 97
-18.6706 15.2306 -0.29739 71 78 97
-18.556 15.2266 -0.295186 71 77 97
-18.4386 15.2193 -0.292899 65 72 90
-18.3079 15.2475 -0.29079 75 82 98
-18.191 15.2389 -0.288506 79 84 103
-18.0786 15.2338 -0.286351 88 93 112
-17.9382 15.2502 -0.283949 84 93 109
-17.8233 15.2411 -0.281711 65 72 89
-17.7145 15.2368 -0.279646 65 73 90
-41.0404 14.1447 -0.608006 83 87 99
-40.6042 14.1283 -0.599775 78 80 93
-40.2457 14.2065 -0.593491 85 89 101
-39.846 14.1977 -0.58599 81 87 103
-39.4898 14.2026 -0.579363 80 89 101
-39.1285 14.2709 -0.573006 83 91 104
-38.7711 14.2704 -0.566348 79 85 99
-38.4104 14.2663 -0.559614 75 78 93
-38.0928 14.2768 -0.553758 83 86 103
-37.7086 14.3249 -0.546917 81 88 104
-37.3713 14.3228 -0.540646 83 93 105
-37.0344 14.3189 -0.534377 82 89 105
-36.7143 14.3841 -0.528829 79 86 102
-24.4723 10.5092 -0.37291 80 87 103
-24.5001 10.61 -0.374186 81 88 104
-22.7423 15.1307 -0.375188 93 100 119
-22.5961 15.128 -0.37225 87 93 114
-22.4502 15.1246 -0.369311 86 94 113
-22.2791 15.1521 -0.36622 75 86 106
-22.1353 15.1481 -0.36333 82 93 115
-21.9917 15.1433 -0.36044 81 92 110
-21.831 15.1747 -0.357611 85 94 111
-21.6943 15.173 -0.354899 86 98 114
-21.561 15.1731 -0.352273 84 95 115
-21.3961 15.1978 -0.349318 85 96 114
-21.2648 15.1975 -0.346741 91 103 119
-21.1385 15.2001 -0.344292 89 98 115
-21.0044 15.196 -0.34163 88 97 114
-20.853 15.2268 -0.339026 90 99 116
-20.7209 15.2223 -0.33641 87 96 113
-20.5938 15.2209 -0.333925 74 86 100
-20.4227 15.2326 -0.330766 77 85 104
-20.31 15.241 -0.328671 74 83 100
-46.346 9.53877 -0.691964 72 73 86
-43.5931 10.2098 -0.641389 73 77 89
-43.5127 10.4007 -0.640513 77 77 89
-46.3187 13.8313 -0.705672 76 84 98
-45.8311 13.9109 -0.696857 80 83 98
-45.3599 13.9154 -0.687985 76 82 96
-44.8835 13.9152 -0.679005 78 84 97
-44.4198 13.9908 -0.670651 81 85 96
-43.9935 14.0005 -0.662668 85 87 99
-43.5392 13.9983 -0.654115 82 86 98
-43.0936 14.0689 -0.646109 81 87 98
-42.6193 14.0535 -0.637139 81 87 99
-42.2759 14.0801 -0.630804 80 86 98
-41.8421 14.0732 -0.62264 83 87 99
-41.4149 14.1365 -0.614982 87 91 103
-25.5697 14.9907 -0.430938 81 92 110
-25.3995 14.9902 -0.427445 82 92 109
-25.2228 14.9846 -0.423778 80 92 108
-25.0313 15.0205 -0.420227 76 84 103
-24.8602 15.0159 -0.416695 88 95 113
-24.6961 15.0148 -0.413343 80 89 106
-24.534 15.0139 -0.410036 84 92 110
-24.3434 15.0448 -0.406488 78 89 106
-24.1867 15.0452 -0.403314 85 95 112
-24.0286 15.0437 -0.400099 78 88 106
-23.8338 15.0676 -0.396425 82 93 110
-23.6911 15.0742 -0.393605 86 97 113
-23.5337 15.0699 -0.390396 89 100 118
-23.3528 15.0993 -0.387075 89 99 117
-23.2058 15.0999 -0.384128 87 96 113
-23.0557 15.0975 -0.381099 76 84 102
-22.8919 15.1349 -0.378217 94 102 119
-53.0089 13.5221 -0.831162 77 81 96
-52.3825 13.5295 -0.819269 76 79 94
-51.772 13.5372 -0.80769 76 81 93
-51.1484 13.6214 -0.796225 81 89 100
-50.587 13.6342 -0.785606 77 85 98
-50.0202 13.6419 -0.774874 72 80 93
-49.4266 13.7199 -0.763987 74 82 95
-48.9048 13.7326 -0.754141 79 88 101
-48.3489 13.7321 -0.743609 74 81 95
-47.8356 13.7407 -0.733926 72 78 94
-47.2973 13.8171 -0.724113 73 82 97
-46.8192 13.8291 -0.715119 77 84 100
-28.7262 14.8171 -0.494797 81 90 105
-28.5295 14.8213 -0.490704 81 90 107
-28.3138 14.8137 -0.486125 80 89 104
-28.0909 14.8556 -0.481845 82 91 108
-27.8915 14.8542 -0.477669 85 92 110
-27.6959 14.8537 -0.473582 83 90 109
-27.4737 14.891 -0.469308 79 88 105
-27.2804 14.889 -0.465271 79 88 105
-27.089 14.8869 -0.461278 76 84 102
-26.8815 14.9278 -0.457359 80 88 107
-26.6958 14.9264 -0.453503 78 87 104
-26.5002 14.9179 -0.449384 81 90 105
-26.3151 14.9144 -0.44553 81 90 105
-26.1137 14.9529 -0.441751 81 92 106
-25.936 14.9514 -0.438077 76 86 104
-25.7585 14.9488 -0.434405 80 92 108
-58.87 9.57551 -0.932169 73 75 89
-53.7538 9.91179 -0.834767 68 64 76
-60.1785 13.1497 -0.96652 76 80 92
-59.3884 13.1646 -0.951454 74 78 90
-58.6182 13.1791 -0.936771 78 82 94
-57.8706 13.2876 -0.922912 77 80 94
-57.0956 13.2902 -0.908123 75 79 91
-54.9389 13.4 -0.867425 78 78 87
-54.3402 13.4272 -0.856101 76 80 91
-53.6491 13.4269 -0.842936 75 81 94
-32.0846 14.6905 -0.564777 85 86 98
-31.8411 14.6918 -0.559588 81 88 103
-31.5818 14.6839 -0.554001 90 96 111
-31.3408 14.6834 -0.548863 94 100 116
-31.0645 14.7218 -0.54332 91 98 114
-30.8241 14.7181 -0.538186 81 88 104
-30.6002 14.7212 -0.533455 79 86 102
-30.3497 14.7666 -0.528539 81 87 101
-30.1192 14.7631 -0.523632 82 88 102
-29.912 14.7703 -0.519306 78 84 100
-29.6429 14.8003 -0.513906 78 83 102
-29.4345 14.8039 -0.509538 78 85 101
-29.2335 14.81 -0.505351 77 87 99
-28.9675 14.78 -0.499524 82 92 104
-9.84124 10.831 -0.220102 75 84 99
-9.76921 10.8107 -0.218072 79 86 102
-9.78354 10.9002 -0.220251 77 85 98
-8.4108 11.4852 -0.204056 67 73 87
-8.33992 11.4933 -0.202844 67 77 89
-8.30288 11.5154 -0.20261 68 74 87
-8.2793 11.5597 -0.203143 67 70 82
-63.9307 9.31032 -1.02901 75 78 91
-67.1762 12.6653 -1.09901 78 76 84
-66.2413 12.8027 -1.08153 71 63 71
-65.4443 12.8547 -1.06637 75 65 76
-64.5068 12.8731 -1.04844 78 71 86
-63.6375 13.0017 -1.03223 74 76 90
-60.9838 13.0352 -0.981496 58 64 77
-36.0651 14.4379 -0.648522 78 85 101
-35.7434 14.4942 -0.641968 83 91 104
-35.4319 14.4889 -0.635188 78 87 100
-35.1502 14.4945 -0.629125 81 90 105
-34.8597 14.4944 -0.622843 81 90 105
-34.554 14.5479 -0.616656 82 89 105
-34.275 14.5489 -0.610644 82 89 105
-33.9782 14.5402 -0.604187 81 88 104
-33.6916 14.5952 -0.598452 83 92 107
-32.5863 14.6304 -0.575028 132 119 85
-32.3206 14.6246 -0.5693 165 145 89
-68.9552 8.9752 -1.12508 74 82 90
-40.2204 14.2698 -0.73803 77 83 97
-39.8389 14.2668 -0.729645 80 87 101
-39.4879 14.2727 -0.721983 82 90 103
-39.0923 14.3271 -0.713706 80 86 100
-38.7382 14.3269 -0.705956 87 94 108
-38.4143 14.3362 -0.69893 90 95 109
-38.0665 14.334 -0.69132 86 91 107
-37.704 14.3898 -0.683814 79 85 100
-37.3515 14.3809 -0.676077 76 84 97
-37.0438 14.3878 -0.669418 82 91 104
-36.6935 14.4401 -0.662186 79 87 100
-36.3865 14.443 -0.655534 78 85 101
-43.6386 10.2995 -0.794544 73 81 91
-45.2564 13.9675 -0.847261 80 83 98
-44.8345 13.9834 -0.837986 81 85 97
-44.3492 14.0505 -0.82766 79 81 93
-43.9167 14.0568 -0.818118 80 84 96
-43.475 14.0574 -0.808353 82 86 98
-43.066 14.0662 -0.799363 83 87 99
-42.5899 14.1217 -0.789221 79 81 94
-42.2081 14.1341 -0.780864 83 87 99
-41.8153 14.1403 -0.772241 81 87 99
-41.3762 14.1982 -0.762963 77 83 95
-40.9804 14.1977 -0.754252 81 85 97
-40.5926 14.1976 -0.745727 78 82 94
-46.4268 9.64196 -0.854766 63 60 71
-50.485 13.7043 -0.962162 78 84 96
-49.9193 13.7105 -0.949554 79 85 99
-49.3613 13.7967 -0.937582 77 84 98
-48.7869 13.7925 -0.924757 76 86 98
-48.2744 13.8029 -0.913382 77 87 99
-47.7662 13.8114 -0.9021 75 82 97
-47.2079 13.88 -0.890092 74 83 98
-46.7349 13.8921 -0.87963 73 82 97
-46.27 13.9037 -0.869356 76 83 99
-45.7682 13.9774 -0.858664 80 83 98
-53.8526 9.86681 -1.02314 74 76 89
-52.8661 13.5895 -1.01483 79 82 97
-52.2698 13.6027 -1.00154 81 84 99
-51.6912 13.6171 -0.98865 79 85 97
-51.0723 13.7006 -0.975267 78 86 99
-9.84775 10.8303 -0.271114 78 87 104
-9.80051 10.8414 -0.270212 78 85 101
-9.77413 10.8792 -0.270457 71 77 91
-9.72316 10.9206 -0.27021 74 81 97
-58.96 9.71213 -1.13824 75 75 89
-8.33509 11.4713 -0.251842 67 75 88
-8.29401 11.4866 -0.251342 67 75 86
-8.25807 11.5104 -0.251174 67 73 87
-12.7284 15.2539 -0.376383 75 83 96
-12.6508 15.2513 -0.374633 70 76 92
-12.553 15.271 -0.372943 66 73 91
-12.4757 15.2677 -0.371194 70 79 95
-12.395 15.2593 -0.369268 108 117 126
-12.2928 15.271 -0.367341 118 121 128
-12.2101 15.2585 -0.365297 116 115 120
-12.138 15.2603 -0.363792 99 94 98
-12.0603 15.2536 -0.361991 90 87 96
-11.9518 15.2536 -0.359709 68 75 91
-11.8767 15.2493 -0.358029 71 79 92
-11.8051 15.2497 -0.356528 70 80 92
-11.7108 15.2679 -0.354966 69 75 88
-11.6326 15.2577 -0.353109 70 77 88
-11.5502 15.2405 -0.351018 67 75 86
-11.4451 15.2407 -0.348863 67 75 88
-11.383 15.2526 -0.347842 68 76 89
-11.3166 15.2576 -0.346584 66 74 87
-11.2207 15.2697 -0.344907 65 74 89
-11.15 15.2674 -0.343413 66 73 88
-11.0881 15.2782 -0.342395 65 76 88
-11.008 15.2602 -0.34037 67 75 86
-10.9115 15.2689 -0.338637 64 72 85
-10.8413 15.2653 -0.337148 65 73 84
-10.4545 15.2892 -0.330055 69 76 86
-10.3809 15.2769 -0.328336 67 73 85
-10.3064 15.2626 -0.326558 69 73 85
-10.2173 15.2775 -0.325187 68 72 84
-10.1472 15.2694 -0.323648 67 72 84
-10.0863 15.2765 -0.322637 67 70 84
-10.0154 15.2661 -0.32104 67 70 85
-9.92464 15.276 -0.319555 65 73 85
-9.85604 15.2684 -0.318077 67 74 84
-9.7856 15.257 -0.316483 68 70 82
-9.69623 15.2674 -0.31506 72 72 76
-9.63864 15.2781 -0.314229 73 68 72
-9.57914 15.2851 -0.313281 73 68 72
-9.48236 15.2803 -0.311392 69 68 76
-9.42207 15.2849 -0.310388 66 70 81
-9.3562 15.2788 -0.309034 64 71 82
-9.26643 15.2851 -0.307557 66 73 83
-9.20358 15.2836 -0.306379 67 72 83
-9.13897 15.2784 -0.305086 67 69 81
-9.07358 15.2712 -0.303736 64 66 78
-8.98882 15.2848 -0.302552 65 69 77
-8.92274 15.2752 -0.301145 68 71 80
-8.8595 15.2707 -0.299914 70 73 84
-8.77677 15.2867 -0.298849 71 75 87
-8.70841 15.2709 -0.297271 70 73 85
-8.64462 15.2638 -0.295984 73 76 88
-8.56993 15.2949 -0.295442 66 68 80
-8.50113 15.2764 -0.293809 68 70 82
-8.44193 15.2775 -0.292814 69 73 82
-8.36046 15.2932 -0.291811 71 74 82
-8.29801 15.2866 -0.290586 74 77 84
-8.2365 15.2815 -0.28942 73 75 83
-8.17675 15.2798 -0.28837 72 72 82
-8.08895 15.2796 -0.286907 71 71 81
-8.02858 15.2755 -0.285801 70 74 83
-7.97397 15.284 -0.285098 71 73 86
-7.88971 15.2901 -0.283868 67 71 80
-7.83118 15.2889 -0.282879 66 70 79
-7.76877 15.2784 -0.281603 67 71 80
-7.68794 15.2907 -0.280605 68 71 80
-7.6281 15.2852 -0.279503 67 72 78
-7.56989 15.2831 -0.278517 66 71 77
-7.49 15.2962 -0.277577 68 71 80
-7.43345 15.2974 -0.276707 71 72 82
-7.37247 15.2872 -0.275495 72 72 78
-7.31902 15.2953 -0.274854 69 69 76
-7.23417 15.2942 -0.273517 67 67 75
-7.18225 15.3056 -0.272991 64 67 76
-7.12236 15.2963 -0.271838 66 69 76
-7.0407 15.3016 -0.270732 68 69 74
-6.98174 15.2937 -0.269637 68 69 75
-6.92852 15.3005 -0.268999 70 71 76
-6.84501 15.2992 -0.267724 66 71 76
-15.9992 15.257 -0.452187 71 82 99
-15.9047 15.2555 -0.449854 76 85 102
-15.8118 15.255 -0.447582 73 81 101
-15.6929 15.2265 -0.444153 75 83 101
-15.5792 15.2505 -0.441887 73 84 100
-15.4786 15.2397 -0.439253 71 84 97
-15.3864 15.2373 -0.436987 79 86 101
-15.2704 15.2563 -0.434602 77 84 100
-15.165 15.2381 -0.431729 76 83 101
-15.0679 15.2283 -0.429225 74 84 96
-14.9498 15.2425 -0.426722 73 78 97
-14.8584 15.2376 -0.424461 76 83 99
-14.7765 15.2427 -0.422628 86 95 112
-14.6695 15.267 -0.420614 79 88 102
-14.5799 15.2623 -0.418417 79 86 104
-14.4865 15.2526 -0.416041 77 83 101
-14.379 15.2259 -0.413001 75 83 98
-14.2765 15.2524 -0.411173 77 87 100
-14.1966 15.2565 -0.409406 74 84 99
-14.1027 15.2435 -0.406974 74 81 97
-14.0043 15.273 -0.405329 82 91 106
-13.9121 15.2606 -0.402962 79 88 103
-13.82 15.2477 -0.400594 68 77 91
-13.7156 15.2679 -0.39865 70 77 93
-13.6252 15.2556 -0.396347 74 83 98
-13.5413 15.2508 -0.394345 75 84 99
-13.446 15.2802 -0.392825 73 82 97
-12.9992 15.2585 -0.382421 74 80 94
-12.9163 15.2508 -0.380427 68 77 94
-12.8133 15.2656 -0.378494 75 85 97
-6.78979 15.2999 -0.266917 68 71 78
-6.73462 15.3005 -0.266109 70 71 76
-6.65209 15.3 -0.264894 68 68 76
-6.59638 15.2983 -0.264031 70 71 77
-6.54273 15.3019 -0.263339 68 69 76
-6.48781 15.3016 -0.262534 69 71 75
-6.40694 15.3037 -0.261435 71 72 76
-6.35021 15.2972 -0.260461 67 68 73
-6.29612 15.2982 -0.259715 68 69 74
-6.21424 15.2955 -0.258504 69 70 74
-6.16275 15.3035 -0.257984 68 69 74
-6.10635 15.2962 -0.257014 67 70 77
-6.03022 15.3097 -0.256313 68 68 76
-5.97517 15.3057 -0.255456 68 70 75
-5.90301 15.2463 -0.252969 69 70 74
-18.694 15.2132 -0.519197 84 92 109
-18.5509 15.2328 -0.515854 78 87 102
-18.429 15.2218 -0.512507 71 79 94
-18.3103 15.2129 -0.509283 69 75 94
-18.1694 15.2312 -0.506006 77 84 102
-18.0556 15.225 -0.502972 69 76 92
-17.9434 15.2195 -0.499999 67 73 89
-17.8076 15.2394 -0.496912 75 81 95
-17.7076 15.2436 -0.494436 70 77 93
-17.5814 15.2227 -0.490854 68 77 92
-17.4462 15.2402 -0.487771 72 81 98
-17.3279 15.2248 -0.4845 71 80 99
-17.2315 15.2295 -0.482151 68 76 95
-17.1165 15.2157 -0.479005 64 72 90
-16.9879 15.2358 -0.476174 69 77 96
-16.8962 15.2431 -0.474012 86 94 113
-16.789 15.2346 -0.471178 73 81 100
-16.6467 15.2384 -0.467738 94 101 120
-16.5442 15.2329 -0.46509 80 85 105
-16.4602 15.2452 -0.463239 78 86 104
-16.3215 15.2496 -0.459926 74 86 101
-16.2195 15.2425 -0.457282 78 87 104
-16.1136 15.2306 -0.454456 77 88 105
-21.4118 15.1633 -0.590575 85 94 109
-21.2567 15.1948 -0.586897 81 90 105
-21.1288 15.1965 -0.583453 80 92 106
-20.9948 15.1927 -0.579762 79 88 103
-20.8403 15.2213 -0.576087 78 87 102
-20.7114 15.2197 -0.572586 81 90 105
-20.5765 15.2124 -0.568838 78 89 108
-20.4195 15.2357 -0.565042 75 86 102
-20.2834 15.2255 -0.561235 75 84 101
-20.1585 15.2235 -0.557864 73 82 99
-20.0168 15.207 -0.553814 84 93 110
-19.8623 15.2277 -0.550085 78 90 106
-19.7304 15.2172 -0.546409 76 88 104
-19.5957 15.2034 -0.542613 75 83 102
-19.4619 15.238 -0.539696 81 93 109
-19.3322 15.2266 -0.536088 77 86 103
-19.2058 15.2171 -0.532606 78 87 104
-19.0498 15.2296 -0.528763 80 89 104
-18.9435 15.2356 -0.526088 80 89 106
-18.8119 15.2188 -0.522364 80 88 107
-24.4441 10.5789 -0.615835 82 89 105
-24.0375 15.0463 -0.661401 77 87 102
-23.868 15.0366 -0.656491 78 89 104
-23.6802 15.0644 -0.651662 79 87 105
-23.5196 15.0583 -0.647069 84 93 110
-23.3675 15.0569 -0.64279 80 91 106
-23.1887 15.0868 -0.63828 85 93 111
-23.0436 15.0881 -0.634257 86 97 113
-22.8938 15.0852 -0.630045 86 94 112
-22.7287 15.1209 -0.62604 78 85 103
-22.5875 15.1221 -0.622146 83 91 110
-22.4319 15.112 -0.617689 82 90 109
-22.2707 15.1469 -0.613813 85 94 110
-22.1302 15.1456 -0.609924 88 97 112
-21.9818 15.1376 -0.605723 82 91 108
-21.8449 15.1372 -0.60196 88 100 116
-21.6765 15.1621 -0.597779 88 97 112
-21.5384 15.1588 -0.593959 96 105 120
-26.9275 14.891 -0.741701 80 89 104
-26.7065 14.9232 -0.735777 80 89 106
-26.523 14.9224 -0.730461 77 86 103
-26.3432 14.9226 -0.725271 75 83 102
-26.1231 14.9504 -0.719352 77 86 103
-25.9438 14.9483 -0.714165 78 89 105
-25.763 14.9442 -0.708918 75 86 104
-25.6013 14.9507 -0.704368 78 90 106
-25.3975 14.9824 -0.699021 88 100 114
-25.1854 14.955 -0.692582 78 87 104
-25.07 14.9872 -0.689737 80 90 108
-24.8721 15.0182 -0.684584 79 91 107
-24.703 15.0143 -0.679725 81 89 108
-24.5392 15.0128 -0.675059 83 90 109
-24.3454 15.0422 -0.670036 80 89 104
-24.1772 15.0353 -0.665182 83 90 108
-29.6882 14.7511 -0.820658 82 91 108
-29.4321 14.7868 -0.81357 79 86 104
-29.2048 14.7794 -0.806771 79 86 104
-29.0043 14.7849 -0.800925 85 91 110
-28.7755 14.8296 -0.794793 83 92 109
-28.5491 14.8182 -0.788001 82 92 108
-28.3458 14.8181 -0.782033 81 92 109
-28.1533 14.8226 -0.776447 80 88 107
-27.9099 14.8522 -0.769754 83 91 110
-27.7231 14.8572 -0.764362 78 89 107
-27.5296 14.8572 -0.758718 75 86 104
-27.2906 14.884 -0.752157 82 91 108
-27.1167 14.8925 -0.747213 80 89 106
-15.1445 15.2333 -0.507256 78 84 100
-15.0516 15.2278 -0.504688 74 82 98
-14.935 15.2432 -0.502 76 82 100
-14.8424 15.2367 -0.499434 74 81 99
-14.7461 15.2252 -0.496666 75 83 99
-14.6565 15.2208 -0.494237 75 84 97
-14.5459 15.2398 -0.491826 73 78 98
-14.4553 15.2329 -0.489334 71 78 96
-14.365 15.2256 -0.486841 76 83 100
-14.2561 15.2444 -0.484501 73 80 98
-14.1699 15.2408 -0.482216 75 82 98
-14.0878 15.2413 -0.480134 71 78 94
-13.9703 15.2476 -0.477322 65 72 88
-13.8796 15.2365 -0.47477 69 78 93
-13.7979 15.2358 -0.472692 73 83 95
-13.6861 15.2465 -0.470155 71 78 94
-13.5972 15.2356 -0.467674 73 81 99
-13.5059 15.2212 -0.465059 69 78 95
-13.4323 15.2282 -0.463392 68 75 91
-12.9762 15.2419 -0.452529 68 75 93
-12.8959 15.2372 -0.450462 71 80 95
-12.7907 15.2487 -0.448208 75 85 97
-12.706 15.2368 -0.445874 73 81 94
-12.6298 15.2357 -0.444012 67 73 87
-12.5274 15.2488 -0.441896 67 74 92
-12.455 15.2518 -0.440238 69 78 93
-12.3722 15.24 -0.437976 109 118 128
-12.3012 15.244 -0.436388 122 126 136
-12.1935 15.247 -0.433939 114 111 116
-12.1112 15.234 -0.431683 98 93 99
-12.036 15.2304 -0.42983 80 79 88
-11.9392 15.2466 -0.427987 67 75 90
-11.8654 15.2439 -0.426202 67 75 88
-11.7871 15.2343 -0.424151 68 75 90
-11.6941 15.254 -0.422512 68 76 87
-11.6184 15.247 -0.420596 65 73 85
-11.5395 15.2347 -0.418482 64 71 87
-11.4202 15.2131 -0.415243 68 74 89
-11.3682 15.2399 -0.414733 70 74 89
-11.303 15.2465 -0.413422 66 69 85
-11.228 15.2378 -0.411512 68 74 88
-11.1303 15.246 -0.409545 66 73 86
-11.074 15.2651 -0.40877 66 74 87
-10.9961 15.2504 -0.406663 68 72 86
-10.8977 15.2555 -0.404634 67 72 86
-10.8256 15.2485 -0.402863 69 75 86
-10.7578 15.2479 -0.401358 68 74 86
-10.3633 15.2543 -0.393001 69 71 84
-10.2981 15.2553 -0.391633 66 68 80
-10.2311 15.2526 -0.390134 68 70 82
-10.1352 15.255 -0.388182 68 72 83
-10.0754 15.2638 -0.387147 66 73 83
-10.0017 15.2481 -0.385188 66 73 83
-9.90827 15.2527 -0.383371 67 74 84
-9.83888 15.2433 -0.381679 66 73 83
-9.77843 15.2492 -0.380582 71 74 83
-9.68343 15.249 -0.378636 75 73 78
-9.62214 15.2527 -0.377474 77 72 78
-9.55805 15.2508 -0.376114 73 68 72
-9.46916 15.2599 -0.374566 71 70 76
-9.40151 15.2504 -0.372946 70 73 82
-9.33867 15.2495 -0.371655 68 72 81
-9.27315 15.2431 -0.370168 65 72 82
-9.18747 15.2559 -0.36882 69 73 82
-9.12308 15.2506 -0.3674 69 72 84
-9.06608 15.2593 -0.366506 70 72 84
-8.9716 15.2532 -0.364504 69 71 84
-8.91382 15.2596 -0.363545 66 68 80
-8.84718 15.2479 -0.361934 72 74 86
-8.76204 15.2585 -0.360589 69 71 83
-8.70095 15.2569 -0.359371 69 71 82
-8.63646 15.2479 -0.357893 69 72 81
-8.55504 15.2646 -0.356812 68 70 83
-8.49077 15.255 -0.355335 68 71 83
-8.43259 15.2579 -0.354316 69 73 84
-8.37362 15.2587 -0.353232 72 75 84
-8.28654 15.2614 -0.351696 71 74 81
-8.22359 15.2526 -0.350289 70 73 80
-8.16487 15.2526 -0.349207 71 72 80
-8.08307 15.2651 -0.348064 68 71 80
-8.02288 15.261 -0.346854 67 71 82
-7.96275 15.2567 -0.345644 66 69 78
-7.87956 15.2645 -0.344374 68 73 79
-7.82044 15.2614 -0.343231 69 72 79
-7.76296 15.2619 -0.342218 67 70 79
-7.67692 15.2612 -0.340692 66 70 79
-7.6227 15.2685 -0.339939 65 72 78
-7.56235 15.2609 -0.338669 66 70 79
-7.50061 15.2493 -0.33727 65 69 78
-7.42258 15.2658 -0.336394 69 72 79
-7.36999 15.276 -0.335772 70 70 78
-7.31076 15.2692 -0.334569 68 68 76
-7.22475 15.2643 -0.332984 67 67 77
-7.16864 15.2645 -0.332041 69 69 79
-7.10974 15.257 -0.330841 67 70 77
-7.02841 15.2622 -0.329645 67 71 74
-6.97323 15.2636 -0.328769 65 69 72
-32.625 14.6254 -0.906728 84 82 78
-32.3524 14.6171 -0.898435 163 143 90
-32.109 14.6209 -0.891166 83 78 67
-31.8141 14.6574 -0.882789 84 89 108
-31.6019 14.6728 -0.876604 79 87 100
-31.3199 14.6529 -0.867941 79 88 105
-31.1243 14.6736 -0.862333 79 86 102
-30.8432 14.7086 -0.854409 81 88 104
-30.6195 14.7123 -0.847789 91 98 114
-30.3657 14.6995 -0.840087 78 83 103
-30.1301 14.7513 -0.833757 81 88 105
-29.8806 14.7372 -0.82619 86 95 110
-18.1422 15.23 -0.589262 76 85 100
-18.0167 15.2127 -0.585348 84 93 108
-17.9033 15.2056 -0.581987 70 79 93
-17.7735 15.2306 -0.578855 73 82 97
-17.6678 15.2291 -0.575843 76 85 102
-17.5375 15.2037 -0.571658 72 80 99
-17.4394 15.208 -0.568992 85 94 111
-17.3017 15.2217 -0.565454 67 78 96
-17.204 15.2248 -0.56279 69 80 98
-17.0934 15.2149 -0.559508 74 86 102
-16.9564 15.2263 -0.555974 87 96 113
-16.8592 15.2278 -0.553314 76 84 101
-16.7535 15.2204 -0.550243 77 87 104
-16.6242 15.2366 -0.547056 82 89 107
-16.5176 15.2266 -0.543919 75 82 101
-16.4366 15.2416 -0.542021 69 76 98
-16.2952 15.2428 -0.53822 82 89 107
-16.1892 15.2312 -0.535088 76 83 101
-16.0973 15.2334 -0.532643 85 92 110
-15.9945 15.2236 -0.529652 74 81 99
-15.8708 15.2392 -0.526679 75 84 101
-15.767 15.2269 -0.523621 67 75 94
-15.6662 15.217 -0.520703 75 82 101
-15.5486 15.2363 -0.518008 74 79 98
-15.4549 15.2326 -0.515433 76 83 99
-15.3602 15.227 -0.512792 79 82 99
-15.2403 15.2414 -0.509964 77 83 102
-6.91601 15.2592 -0.3277 64 67 76
-6.83766 15.2709 -0.326763 69 70 74
-6.78401 15.2753 -0.326016 69 69 77
-6.72701 15.2702 -0.32495 69 70 75
-6.6701 15.2649 -0.323884 70 70 78
-6.59061 15.2716 -0.32282 68 69 74
-6.53517 15.2696 -0.321883 69 70 75
-6.48045 15.2693 -0.321012 69 72 76
-6.39859 15.2675 -0.319694 69 72 78
-6.344 15.2667 -0.318823 67 70 79
-6.28886 15.2638 -0.31789 69 69 77
-6.20794 15.2629 -0.316638 72 73 75
-6.15294 15.2596 -0.315705 70 71 74
-6.10046 15.2636 -0.315029 67 72 72
-6.02281 15.2713 -0.314098 69 70 71
-5.97332 15.2845 -0.31374 69 69 71
-5.90563 15.2383 -0.31141 70 70 71
-5.8522 15.2378 -0.310608 68 70 69
-36.0975 14.4201 -1.00968 79 88 103
-35.834 14.4381 -1.00181 76 83 97
-35.4708 14.4756 -0.99118 75 85 95
-35.1894 14.4821 -0.982673 71 78 89
-34.8882 14.4782 -0.973465 82 90 103
-34.5976 14.5392 -0.965329 81 88 104
-34.2916 14.5291 -0.955934 77 84 100
-34.0115 14.5286 -0.947435 84 90 105
-33.7209 14.5216 -0.938559 86 92 108
-33.4442 14.5797 -0.930877 81 88 104
-20.7964 15.2156 -0.666274 84 96 112
-20.674 15.2185 -0.662672 80 92 108
-20.5298 15.2034 -0.658097 75 87 103
-20.3968 15.1963 -0.654012 76 88 104
-20.234 15.2132 -0.649536 76 88 104
-20.1061 15.2083 -0.645664 81 89 108
-19.9755 15.2002 -0.641654 74 83 100
-19.8196 15.2192 -0.63746 83 92 107
-19.7017 15.2198 -0.634008 83 90 108
-19.5671 15.2057 -0.629795 76 85 102
-19.4104 15.2206 -0.625537 79 87 106
-19.2947 15.2204 -0.622158 75 84 101
-19.1624 15.2054 -0.61802 80 89 105
-19.0201 15.2292 -0.614391 75 84 99
-18.8944 15.218 -0.610532 78 87 104
-18.787 15.2218 -0.607508 76 85 103
-18.6632 15.2106 -0.603721 74 83 97
-18.5188 15.2285 -0.599959 74 81 98
-18.3985 15.2186 -0.596316 71 79 97
-18.2829 15.212 -0.592881 84 92 109
-39.905 14.2507 -1.12499 81 87 103
-39.5357 14.251 -1.11358 81 89 100
-39.1631 14.2476 -1.10203 81 87 101
-38.7759 14.3036 -1.09067 84 92 105
-38.4395 14.3089 -1.08035 79 89 101
-38.1128 14.3159 -1.07036 81 89 102
-37.7621 14.3115 -1.05953 80 87 103
-37.4154 14.3719 -1.04952 85 92 105
-37.0859 14.3711 -1.0394 85 94 107
-36.718 14.3526 -1.02794 79 86 102
-36.4259 14.4271 -1.0198 75 84 99
-24.3976 10.5844 -0.708305 87 92 110
-23.4752 15.0616 -0.745005 83 95 111
-23.3265 15.062 -0.740398 79 91 107
-23.1362 15.0834 -0.734912 79 88 103
-22.9946 15.0866 -0.730589 80 89 105
-22.8498 15.0867 -0.726127 83 92 107
-22.6783 15.1173 -0.721416 82 89 107
-22.5389 15.1191 -0.717168 82 91 108
-22.3818 15.1075 -0.71215 77 85 103
-22.2444 15.109 -0.707976 83 90 108
-22.0932 15.1495 -0.704112 76 85 102
-21.9465 15.1424 -0.699519 77 85 104
-21.8082 15.1404 -0.695277 79 87 106
-21.6334 15.16 -0.690369 77 84 103
-21.5099 15.1672 -0.686758 87 95 114
-21.3737 15.164 -0.682591 91 100 117
-21.2172 15.1939 -0.678455 73 84 101
-21.0799 15.1879 -0.674221 82 91 108
-20.9508 15.1874 -0.670337 86 95 112
-43.5864 14.0451 -1.23745 79 85 97
-43.1004 14.0295 -1.22216 82 86 98
-42.7007 14.1124 -1.21046 83 87 99
-42.2931 14.1172 -1.1978 77 81 94
-41.8689 14.1137 -1.18457 79 82 96
-41.4696 14.1163 -1.17218 79 82 95
-41.0692 14.1862 -1.16043 83 86 100
-40.6594 14.1794 -1.14765 82 85 100
-40.2988 14.1879 -1.13655 81 87 101
-26.2768 14.9221 -0.830934 79 88 105
-26.0956 14.9196 -0.825104 84 92 109
-25.8947 14.9569 -0.819312 82 89 107
-25.7106 14.9501 -0.813343 82 89 107
-25.5354 14.9476 -0.80773 81 88 104
-25.3352 14.9808 -0.801943 80 87 103
-25.1638 14.9783 -0.796472 82 90 107
-25.0112 14.9866 -0.79178 82 92 109
-24.8151 15.018 -0.786138 81 91 109
-24.6428 15.0114 -0.780605 79 87 108
-24.4842 15.0126 -0.775636 78 85 104
-24.3072 15.0523 -0.770772 80 87 103
-24.129 15.0384 -0.764961 91 100 115
-23.9694 15.0356 -0.759927 78 87 103
-23.8217 15.0398 -0.755384 80 89 106
-23.6373 15.0693 -0.750174 82 93 111
-9.80621 10.7988 -0.380963 72 81 96
-9.74549 10.7925 -0.378973 74 80 96
-9.73274 10.8473 -0.380256 71 76 93
-43.621 10.2428 -1.21067 73 81 92
-43.6053 10.3797 -1.21101 72 80 91
-47.9394 13.8027 -1.37182 80 83 98
-47.4151 13.805 -1.35534 78 84 96
-46.883 13.8798 -1.33926 77 86 97
-46.3959 13.8863 -1.32401 79 84 97
-45.9682 13.9082 -1.31075 81 85 97
-45.4486 13.9747 -1.29506 80 82 97
-44.9437 13.9657 -1.27917 81 86 100
-44.5077 13.9758 -1.26561 83 88 100
-44.0122 14.0378 -1.2507 81 87 98
-28.9385 14.7945 -0.915013 83 92 107
-28.7189 14.7878 -0.907741 79 88 105
-28.466 14.8166 -0.899952 80 92 108
-28.2768 14.8235 -0.893888 79 88 103
-28.0634 14.8157 -0.886834 77 84 101
-27.848 14.86 -0.880536 82 91 107
-27.663 14.8654 -0.874619 82 90 108
-27.4384 14.8469 -0.867079 79 88 105
-27.2462 14.8997 -0.861704 80 89 106
-27.0309 14.8836 -0.85452 80 89 106
-26.8677 14.8965 -0.849458 85 94 111
-26.6245 14.9148 -0.841968 82 91 108
-26.4634 14.9266 -0.836979 86 95 112
-8.37592 11.4397 -0.361286 69 75 89
-8.30427 11.4458 -0.359632 71 77 90
-8.26527 11.4644 -0.359231 74 78 91
-8.2397 11.505 -0.359904 66 70 84
-46.4392 9.51058 -1.2961 74 78 90
-53.1174 13.4956 -1.53305 81 84 99
-52.4797 13.587 -1.51354 81 85 97
-51.8597 13.5924 -1.49394 80 86 98
-51.2614 13.5998 -1.47505 78 84 98
-50.6941 13.6954 -1.45787 76 84 97
-50.0967 13.6948 -1.43899 76 84 97
-49.5343 13.7004 -1.42127 77 85 98
-48.9834 13.7867 -1.4046 77 83 97
-48.4736 13.7999 -1.38863 80 83 98
-31.728 14.667 -1.0052 81 88 107
-31.4745 14.6615 -0.996692 81 88 104
-31.2447 14.666 -0.989116 80 87 105
-31.0151 14.6692 -0.981539 80 87 105
-30.7449 14.7083 -0.973165 81 88 106
-30.5266 14.7139 -0.966021 74 81 99
-30.2836 14.7056 -0.957882 76 83 101
-30.0339 14.7492 -0.950291 80 87 103
-29.7934 14.7387 -0.94223 80 88 103
-29.6045 14.7538 -0.936227 80 87 103
-29.3379 14.7828 -0.927931 80 89 104
-29.1178 14.7784 -0.920657 82 91 106
-53.7661 9.94215 -1.53296 74 78 88
-58.7391 13.2395 -1.71005 75 81 93
-57.9813 13.2523 -1.68596 75 81 95
-57.2206 13.3524 -1.66244 74 82 93
-55.0703 13.4649 -1.59484 75 75 88
-54.4311 13.4822 -1.57465 77 79 92
-53.7789 13.4921 -1.55401 75 79 91
-35.0517 14.4818 -1.11425 85 93 106
-34.767 14.4839 -1.10465 84 94 106
-34.4827 14.4844 -1.09505 81 90 105
-34.176 14.5348 -1.08537 78 85 103
-33.9051 14.5373 -1.07628 85 92 108
-33.6164 14.53 -1.06648 81 88 106
-33.3251 14.5803 -1.05737 83 90 106
-32.5279 14.6328 -1.03138 153 136 109
-32.2535 14.6226 -1.02209 134 121 76
-31.9976 14.6195 -1.01351 89 88 92
-58.8645 9.60359 -1.69506 80 81 86
-56.2333 9.51937 -1.61004 82 82 92
-56.0201 9.74798 -1.60432 81 82 95
-65.6316 12.9262 -1.92843 73 75 88
-64.7021 12.9466 -1.89876 73 75 88
-63.7986 12.9666 -1.86995 75 77 89
-61.1293 13.1 -1.78543 62 68 83
-60.3546 13.1248 -1.76082 76 80 92
-59.544 13.2327 -1.73568 74 80 92
-38.2995 14.3215 -1.22282 78 85 101
-37.9504 14.3184 -1.21084 77 82 100
-37.6314 14.325 -1.2 75 80 99
-37.2662 14.3765 -1.18817 78 86 99
-36.9404 14.3758 -1.17705 76 85 100
-36.6243 14.377 -1.16629 83 92 108
-36.2897 14.4328 -1.15561 75 87 102
-35.989 14.436 -1.14543 74 82 98
-35.674 14.4313 -1.13468 78 85 102
-35.355 14.4859 -1.12456 74 82 97
-63.8841 9.23321 -1.85508 93 96 105
-67.5962 12.7805 -1.99056 79 77 87
-66.6188 12.8049 -1.95933 77 76 85
-41.7366 14.1428 -1.33906 82 86 98
-41.3561 14.1505 -1.32599 81 84 98
-40.9461 14.2155 -1.31256 82 88 100
-40.5476 14.2113 -1.29877 82 88 100
-40.1888 14.2191 -1.28648 84 90 102
-39.7855 14.2769 -1.27328 83 89 103
-39.4237 14.2785 -1.26086 83 87 102
-39.0529 14.2745 -1.24808 82 85 102
-38.6173 14.3103 -1.23359 82 89 105
-68.876 8.99602 -2.01527 93 96 101
-43.5496 10.4427 -1.3704 81 85 97
-45.7438 13.9238 -1.476 81 87 101
