-6.34964 8.20087 -1.96545 90 89 103
-6.00445 8.87708 -1.98138 93 93 105
-5.98486 8.90928 -1.98555 93 92 105
-5.59996 9.5828 -1.99249 87 89 102
-5.56813 9.59474 -1.99214 80 82 95
-5.17039 10.2635 -1.99739 91 91 101
-4.26729 10.3301 -1.85553 119 117 115
-10.7204 0.319448 -1.81946 91 102 120
-10.7244 0.348748 -1.82059 91 104 123
-10.3666 0.844665 -1.81643 83 94 112
-10.3766 0.87387 -1.81934 88 99 117
-10 1.5078 -1.83145 90 97 116
-10.0002 1.53569 -1.8327 89 96 113
-9.23915 2.82249 -1.85185 80 90 100
-9.23847 2.85036 -1.85411 80 88 99
-9.25867 2.89993 -1.86284 81 90 107
-9.26866 2.932 -1.86789 79 86 104
-9.25304 2.95462 -1.86644 80 87 105
-9.2428 2.97924 -1.86638 79 86 102
-7.72036 5.85745 -1.93424 89 92 107
-7.69596 5.89156 -1.93562 88 91 106
-7.66648 5.90236 -1.93237 93 96 111
-7.65692 5.93161 -1.93561 99 102 117
-7.62504 5.95882 -1.93466 98 97 112
-7.6011 5.97465 -1.93327 115 115 127
-6.76625 7.47413 -1.95797 92 92 104
-6.72674 7.4951 -1.95667 91 91 103
-6.70123 7.51056 -1.95625 92 91 105
-6.31107 8.22633 -1.96592 90 90 102
-6.28839 8.24876 -1.96766 91 91 103
-6.26158 8.26446 -1.9677 92 92 103
-5.9542 8.92069 -1.98476 91 90 104
-5.90585 8.93242 -1.98234 92 90 104
-5.5387 9.61193 -1.99299 83 86 98
-5.1169 10.2711 -1.99518 91 91 102
-5.07748 10.2669 -1.9918 88 90 103
-4.21641 10.3409 -1.85489 122 120 120
-10.7106 0.246367 -1.81684 94 102 122
-10.73 0.290659 -1.82123 89 98 117
-10.3732 0.802974 -1.81702 87 94 114
-10.0244 1.41476 -1.83311 88 95 113
-10.0072 1.45344 -1.83074 94 101 119
-10.0152 1.48266 -1.83376 90 97 115
-9.28269 2.64242 -1.8467 143 139 140
-9.29002 2.67269 -1.85082 141 139 142
-9.27824 2.71037 -1.85119 127 129 135
-9.27062 2.73567 -1.8516 65 68 82
-7.58697 5.99978 -1.93512 115 119 126
-7.56853 6.02085 -1.93558 129 128 135
-7.53768 6.04898 -1.9351 117 114 124
-7.51908 6.06991 -1.93557 91 89 101
-7.49762 6.08807 -1.9351 85 84 96
-7.45955 6.10902 -1.93231 88 89 104
-6.68584 7.54022 -1.95981 90 92 105
-6.64833 7.56397 -1.95939 91 90 104
-6.22068 8.28618 -1.96731 89 91 103
-6.19475 8.30335 -1.96777 90 91 103
-5.88589 8.96442 -1.98651 91 90 104
-5.85687 8.97899 -1.98656 95 95 105
-5.49644 9.64112 -1.99505 84 86 101
-5.46446 9.65273 -1.9947 82 86 98
-5.0395 10.2662 -1.9892 88 91 104
-5.00225 10.2672 -1.98697 88 92 104
-4.18405 10.3542 -1.85569 124 123 125
-4.15052 10.3637 -1.85576 127 127 132
-10.0265 1.31808 -1.82987 89 98 115
-10.0232 1.35905 -1.83062 89 96 114
-10.0142 1.3853 -1.82964 100 107 126
-9.32243 2.50331 -1.84473 87 83 88
-9.32324 2.55882 -1.84925 73 73 86
-9.28063 2.58633 -1.84172 152 150 156
-9.30292 2.62137 -1.84955 142 137 141
-7.44212 6.1311 -1.93324 90 88 107
-7.42873 6.15728 -1.93555 91 93 108
-7.39317 6.18059 -1.93369 92 91 109
-7.37548 6.20251 -1.93462 92 92 110
-7.35635 6.22299 -1.93508 89 91 107
-6.61812 7.57279 -1.9572 92 91 105
-6.59572 7.5927 -1.95811 91 89 103
-6.56571 7.62726 -1.96079 91 90 104
-6.16179 8.30869 -1.96524 91 90 104
-6.12959 8.3451 -1.9687 91 90 104
-5.80571 8.98498 -1.9829 91 92 102
-5.78541 9.01677 -1.98707 92 93 104
-5.43323 9.66603 -1.99476 82 85 97
-5.38125 9.67323 -1.99205 81 86 100
-4.94685 10.2685 -1.98362 87 91 103
-4.90701 10.2618 -1.97987 87 89 102
-4.10114 10.3796 -1.85622 138 137 136
-10.0402 1.26483 -1.83095 88 99 117
-10.0315 1.29117 -1.82997 89 97 116
-9.33734 2.34364 -1.8363 144 123 111
-9.3429 2.41354 -1.84264 154 122 99
-9.33809 2.43952 -1.8435 151 120 99
-9.32207 2.46205 -1.84158 154 127 99
-7.33175 6.23783 -1.9337 88 92 106
-7.30802 6.27325 -1.93601 91 93 106
-7.29538 6.30058 -1.93879 93 91 105
-7.27326 6.31801 -1.93833 90 92 106
-6.5376 7.63899 -1.95948 90 91 104
-6.51825 7.66351 -1.96172 91 91 103
-6.49114 7.67668 -1.96086 90 89 103
-6.10148 8.35863 -1.96831 92 91 105
-6.07042 8.367 -1.96664 92 91 105
-5.74925 9.01703 -1.98381 97 97 107
-5.34996 9.68628 -1.99211 94 98 110
-5.32015 9.70283 -1.99296 75 75 87
-4.8699 10.2623 -1.97764 87 89 101
-4.06647 10.385 -1.85557 125 123 124
-10.0527 1.22525 -1.83243 90 102 118
-9.36207 2.22854 -1.83382 86 92 108
-9.3616 2.25554 -1.83561 88 90 106
-9.35359 2.28043 -1.83554 95 92 106
-9.34556 2.3188 -1.83637 78 77 87
-9.39795 2.38899 -1.85342 156 123 95
-7.24506 6.349 -1.93925 89 92 107
-7.22411 6.36769 -1.93926 89 93 105
-7.20179 6.3849 -1.9388 88 93 105
-7.16929 6.41129 -1.93833 87 93 105
-6.45194 7.69789 -1.96 91 90 104
-6.42692 7.71409 -1.96003 93 91 105
-6.05099 8.39557 -1.9701 92 91 105
-6.00567 8.40952 -1.968 90 92 104
-5.71278 9.05225 -1.98717 93 95 106
-5.6809 9.06102 -1.98598 94 92 105
-5.64389 9.05913 -1.98231 95 92 106
-5.29105 9.7211 -1.99421 80 83 95
-4.81535 10.2648 -1.97467 85 89 98
-4.77766 10.2632 -1.97207 86 90 101
-4.0302 10.3846 -1.85383 128 128 129
-3.99867 10.4012 -1.85535 142 141 140
-9.3851 2.11331 -1.83134 86 84 105
-9.39068 2.14177 -1.83452 80 83 98
-9.38863 2.16826 -1.83585 84 90 104
-9.38117 2.20673 -1.83667 86 92 108
-7.14946 6.43119 -1.9388 88 92 104
-7.13088 6.45249 -1.93973 87 92 104
-7.10198 6.48288 -1.94066 88 91 106
-7.07802 6.49825 -1.93974 89 91 106
-6.39969 7.72696 -1.95917 93 91 105
-6.36348 7.75263 -1.95964 89 88 102
-6.34253 7.7751 -1.96144 89 88 102
-5.9774 8.42266 -1.96761 91 93 105
-5.95574 8.44762 -1.97022 92 92 104
-5.60792 9.0957 -1.98609 95 92 111
-5.24127 9.73299 -1.99269 78 85 95
-5.20977 9.74561 -1.99275 79 83 94
-4.74259 10.2689 -1.97099 82 88 100
-3.94962 10.4183 -1.85618 144 138 143
-9.41998 2.02822 -1.83391 84 82 88
-9.40702 2.05182 -1.83245 85 89 98
-9.40152 2.07732 -1.83284 85 84 101
-8.34642 4.0903 -1.8878 96 98 111
-8.32248 4.15128 -1.89062 95 94 110
-8.31357 4.17625 -1.89205 95 94 110
-8.29794 4.19718 -1.89153 94 93 109
-8.28558 4.22009 -1.89199 92 94 107
-8.23349 4.23353 -1.88269 93 95 110
-8.24732 4.27261 -1.89093 93 96 113
-8.23635 4.29641 -1.89187 93 96 111
-8.19231 4.31446 -1.88501 94 96 109
-8.19752 4.34852 -1.89082 92 94 107
-8.18792 4.37325 -1.89225 94 96 109
-8.1697 4.40769 -1.89317 90 95 107
-8.14366 4.42179 -1.88974 93 95 110
-8.14027 4.45066 -1.89311 90 91 109
-8.13458 4.49349 -1.89793 88 93 109
-8.09707 4.49983 -1.89109 89 92 107
-8.09497 4.52977 -1.89496 90 93 108
-8.05598 4.58181 -1.8944 92 94 109
-7.05273 6.51208 -1.93836 90 92 107
-7.03256 6.53165 -1.93883 90 90 106
-6.9994 6.55725 -1.93837 90 89 105
-6.9893 6.58842 -1.94255 90 89 105
-6.31726 7.79097 -1.96147 88 88 100
-6.28074 7.81627 -1.96194 90 89 103
-5.91403 8.46791 -1.96984 89 91 104
-5.88465 8.47905 -1.96902 91 93 105
-5.57511 9.10236 -1.98449 92 91 109
-5.54483 9.1142 -1.98412 88 90 103
-5.17824 9.75813 -1.99281 79 79 91
-4.69069 10.2781 -1.96955 85 89 98
-4.6481 10.2612 -1.96389 80 84 95
-3.9169 10.4308 -1.85698 142 145 144
-9.43127 1.93722 -1.83091 167 128 102
-9.41669 1.96045 -1.82898 166 130 101
-9.42846 1.99015 -1.83356 165 142 118
-8.56156 3.59152 -1.87355 85 89 101
-8.5092 3.60799 -1.86374 76 77 95
-8.50393 3.63403 -1.86565 70 71 89
-8.49683 3.65919 -1.86707 71 72 90
-8.48731 3.69738 -1.86943 76 77 95
-8.48 3.72253 -1.87086 74 77 94
-8.46746 3.74496 -1.87082 76 79 96
-8.47627 3.79317 -1.87854 83 82 100
-8.47374 3.82111 -1.88142 81 82 97
-8.46259 3.84446 -1.88187 81 83 98
-8.447 3.87989 -1.88278 75 78 93
-8.42889 3.89941 -1.88128 80 83 98
-8.42932 3.92924 -1.88514 89 91 104
-8.42289 3.95532 -1.88705 84 83 99
-8.40339 3.98871 -1.88699 95 94 110
-8.39674 4.01477 -1.8889 99 98 112
-8.38999 4.04083 -1.89081 100 99 113
-8.36172 4.06919 -1.88832 99 98 112
-8.3394 4.11628 -1.88971 97 97 111
-8.08791 4.55648 -1.89737 90 92 107
-8.05512 4.61286 -1.89875 91 94 109
-8.04456 4.63734 -1.90019 91 93 108
-8.00279 4.65569 -1.89431 92 94 109
-8.00318 4.68786 -1.89915 92 95 110
-7.9797 4.70327 -1.89669 89 94 108
-7.974 4.74707 -1.902 90 94 109
-7.94726 4.76006 -1.89858 90 93 108
-7.95027 4.79456 -1.90439 91 94 109
-7.90338 4.80864 -1.89705 90 93 108
-7.91239 4.84775 -1.90482 90 95 110
-7.88231 4.85809 -1.90042 92 97 112
-7.8926 4.89847 -1.90867 91 94 109
-7.84238 4.90962 -1.90036 94 93 111
-7.84771 4.94656 -1.90716 92 90 110
-7.81594 4.95533 -1.90227 93 95 110
-7.77217 5.00398 -1.90125 92 93 109
-6.96252 6.60045 -1.94071 91 90 104
-6.94045 6.63903 -1.94442 91 90 106
-6.91733 6.65532 -1.94396 91 91 104
-6.88411 6.65965 -1.93981 90 92 105
-6.2564 7.83359 -1.96241 88 90 103
-6.23716 7.8591 -1.9651 91 90 104
-5.85991 8.49865 -1.97035 89 91 103
-5.81705 8.51678 -1.96954 91 91 105
-5.52859 9.15606 -1.99078 92 91 104
-5.4706 9.14606 -1.98382 75 74 86
-5.13572 9.78762 -1.99527 80 79 93
-5.1004 9.79083 -1.99334 77 76 90
-4.61372 10.2683 -1.96319 84 86 98
-3.88164 10.4337 -1.85596 137 138 131
-9.47561 1.85409 -1.83628 124 111 108
-9.43252 1.91079 -1.82959 162 123 90
-8.66881 3.28834 -1.86391 85 84 100
-8.66469 3.31455 -1.86581 88 90 105
-8.64643 3.34819 -1.86524 76 76 94
-8.62804 3.36784 -1.86325 78 77 95
-8.63239 3.39813 -1.86759 81 82 102
-8.60151 3.42578 -1.86362 81 80 96
-8.60561 3.45611 -1.86795 89 88 102
-8.60612 3.48483 -1.87132 86 85 101
-8.58882 3.51902 -1.87124 87 88 104
-8.57517 3.54092 -1.87072 87 89 104
-8.57362 3.56881 -1.87359 74 80 92
-7.81014 5.0002 -1.90807 95 97 112
-7.77545 5.03981 -1.90756 93 92 108
-7.73717 5.05947 -1.90314 89 92 107
-7.7265 5.08451 -1.90507 88 94 108
-7.71573 5.10952 -1.907 89 92 107
-7.68678 5.11995 -1.9031 90 93 108
-7.68735 5.1708 -1.91134 92 95 110
-7.65526 5.17859 -1.90646 90 93 108
-7.62026 5.23459 -1.90885 91 93 108
-6.85662 6.69201 -1.94166 88 90 105
-6.83461 6.70954 -1.94168 88 90 103
-6.81748 6.733 -1.94354 89 91 104
-6.19824 7.88073 -1.96469 90 89 103
-6.17367 7.89782 -1.96517 91 90 104
-6.14598 7.90984 -1.96431 90 89 103
-5.79124 8.53448 -1.97044 94 94 106
-5.7626 8.54694 -1.97005 94 94 104
-5.44998 9.17891 -1.98841 79 79 91
-5.41622 9.18325 -1.9864 76 78 90
-5.06728 9.79938 -1.9926 71 75 86
-4.56068 10.2732 -1.96099 79 86 96
-4.51962 10.2595 -1.95609 84 88 98
-3.82991 10.4408 -1.85497 147 143 148
-9.46402 1.75831 -1.82818 143 145 153
-9.53509 1.89468 -1.85248 168 139 121
-8.7296 3.06499 -1.85462 79 86 102
-8.72268 3.08967 -1.85554 76 84 97
-8.71034 3.11205 -1.85501 82 84 99
-8.7197 3.15747 -1.86174 75 77 92
-8.69471 3.17441 -1.8578 81 83 98
-8.70871 3.2084 -1.86457 76 78 91
-8.69425 3.22994 -1.86355 85 87 102
-8.67284 3.26214 -1.862 90 92 107
-7.66808 5.22319 -1.91617 90 92 105
-7.61042 5.26066 -1.91127 90 92 107
-7.5901 5.278 -1.91028 89 91 106
-7.58946 5.32896 -1.91853 91 93 108
-7.54832 5.32857 -1.91073 89 90 108
-7.53957 5.3558 -1.91364 88 89 107
-7.50154 5.40984 -1.91555 88 90 105
-6.79082 6.76661 -1.94587 90 92 105
-6.75874 6.77186 -1.94217 88 90 103
-6.74992 6.80574 -1.94729 87 89 102
-6.12129 7.92677 -1.96479 90 89 103
-6.08007 7.94453 -1.96349 91 90 104
-5.7259 8.57669 -1.97224 91 91 103
-5.68633 8.56817 -1.96672 93 93 105
-5.37366 9.20647 -1.98729 79 87 96
-5.02158 9.82112 -1.99348 78 79 94
-4.99264 9.84036 -1.99513 78 81 95
-4.48589 10.2681 -1.95578 81 84 92
-3.79416 10.4415 -1.85359 144 145 141
-3.76325 10.4612 -1.85585 142 137 137
-9.47601 1.66817 -1.82612 147 144 149
-9.47366 1.69415 -1.82697 146 141 148
-9.47038 1.73314 -1.82825 145 141 143
-8.76458 2.82047 -1.83906 79 84 103
-8.77929 2.86662 -1.84677 83 89 105
-8.77845 2.89348 -1.84915 82 89 103
-8.7775 2.92037 -1.85153 84 88 104
-8.77646 2.94728 -1.85392 82 85 102
-8.77426 2.98733 -1.85724 81 88 104
-8.76939 3.01284 -1.85865 79 85 101
-8.74296 3.02945 -1.85422 76 83 99
-7.54272 5.41063 -1.92334 88 91 108
-7.50117 5.4447 -1.92138 90 92 107
-7.46582 5.44878 -1.91553 92 94 109
-7.43206 5.47139 -1.91308 90 91 109
-7.43709 5.51142 -1.92085 91 92 110
-7.4017 5.51512 -1.91501 93 95 110
-6.72509 6.81991 -1.94637 89 91 106
-6.69186 6.84558 -1.94638 92 94 107
-6.66814 6.86108 -1.94594 90 89 103
-6.05227 7.95624 -1.96264 90 89 103
-6.03837 7.99133 -1.96799 91 90 104
-5.66298 8.5907 -1.9689 92 92 103
-5.6422 8.61838 -1.97237 92 92 102
-5.3407 9.21233 -1.98569 74 78 89
-5.31247 9.2288 -1.98657 97 100 110
-4.95869 9.84674 -1.994 81 83 94
-4.44856 10.2654 -1.95318 81 87 95
-9.53067 1.61304 -1.83608 89 87 102
-9.56778 1.66032 -1.84712 149 144 151
-8.81424 2.71816 -1.84126 63 66 78
-8.8121 2.74426 -1.84316 83 90 105
-8.79466 2.77799 -1.84209 81 87 102
-7.39916 5.56612 -1.92326 90 92 107
-7.36517 5.57088 -1.9179 89 91 106
-7.3582 5.6005 -1.92179 92 94 109
-7.31539 5.61453 -1.91642 90 93 108
-7.32092 5.65603 -1.92468 90 93 108
-7.27839 5.65234 -1.91641 91 94 109
-6.64437 6.87651 -1.94549 92 91 105
-6.61685 6.9095 -1.94782 92 90 106
-6.59296 6.92476 -1.94737 90 89 105
-5.99394 8.00363 -1.96537 89 91 106
-5.97188 8.02517 -1.96718 91 90 104
-5.59888 8.63546 -1.97157 93 93 105
-5.57347 8.65428 -1.9729 91 95 105
-5.27045 9.25336 -1.98787 109 111 122
-5.23277 9.24809 -1.9838 132 134 141
-4.91343 9.86982 -1.99527 81 85 95
-4.88289 9.8851 -1.99612 81 85 97
-4.39745 10.275 -1.95212 89 95 105
-4.35847 10.2664 -1.94837 98 102 113
-9.51953 1.53151 -1.82933 89 97 114
-9.53478 1.56083 -1.83437 90 99 116
-9.53468 1.58731 -1.83569 90 100 116
-8.82064 2.56063 -1.82895 155 151 159
-8.84239 2.60799 -1.83811 141 136 142
-8.83151 2.65756 -1.83995 145 140 142
-8.81991 2.6934 -1.84034 155 151 158
-7.27191 5.70063 -1.92369 92 91 107
-7.23781 5.70466 -1.91834 90 89 105
-7.2455 5.74896 -1.92757 88 87 104
-7.20439 5.74606 -1.91979 89 90 108
-7.19443 5.7916 -1.9261 108 107 121
-7.16024 5.79518 -1.92075 113 108 122
-6.57138 6.94304 -1.94785 90 89 105
-6.52932 6.95716 -1.94462 91 91 106
-6.51232 6.98146 -1.94696 89 92 104
-5.94777 8.04327 -1.9681 92 92 104
-5.90709 8.06185 -1.96725 89 91 103
-5.53231 8.64161 -1.96652 92 94 106
-5.21131 9.28043 -1.98839 129 131 136
-4.85024 9.89478 -1.99579 74 82 93
-4.81825 9.9062 -1.99585 80 87 97
-4.32185 10.2651 -1.94615 95 97 108
-9.56341 1.44721 -1.83566 85 94 112
-9.55029 1.47127 -1.83372 88 97 114
-9.53329 1.49457 -1.83085 83 92 109
-8.87705 2.43442 -1.83171 159 129 104
-8.86672 2.45739 -1.83117 156 128 109
-8.85975 2.49457 -1.83253 91 85 87
-8.86755 2.52372 -1.83686 86 85 99
-8.9337 2.66727 -1.86486 144 138 142
-7.15905 5.83142 -1.92707 89 90 108
-7.11159 5.83987 -1.92025 84 86 105
-7.11148 5.87747 -1.92706 82 84 102
-7.07859 5.88197 -1.92219 82 85 100
-6.49755 7.00885 -1.95022 89 91 103
-6.45763 7.02568 -1.94792 90 89 103
-6.43339 7.04043 -1.94748 91 91 105
-5.88284 8.07978 -1.96817 91 90 104
-5.85184 8.08575 -1.96599 91 90 104
-5.50359 8.68791 -1.973 92 93 105
-5.47795 8.70648 -1.97433 93 95 107
-5.17202 9.31176 -1.99135 131 133 139
-5.13511 9.30791 -1.98769 132 135 135
-4.77194 9.92683 -1.99673 81 82 91
-4.2663 10.2591 -1.94204 100 107 116
-4.23148 10.2632 -1.94097 116 119 128
-9.56424 1.35522 -1.83176 84 91 109
-9.57247 1.38291 -1.83494 93 100 118
-9.56338 1.40771 -1.83393 85 93 112
-8.91398 2.32802 -1.83199 105 89 83
-8.90026 2.34995 -1.83047 168 139 117
-8.90679 2.37832 -1.83431 161 129 102
-8.95548 2.43358 -1.8503 160 126 98
-8.09446 3.87942 -1.87234 77 79 96
-8.04433 4.02271 -1.88069 80 82 95
-8.02918 4.04274 -1.88015 91 93 108
-8.00551 4.10117 -1.88309 95 97 112
-7.99342 4.1231 -1.88356 92 95 110
-7.98127 4.145 -1.88404 91 95 107
-7.96577 4.17932 -1.8855 91 94 109
-7.95016 4.19908 -1.88496 94 97 112
-7.93939 4.2219 -1.88594 94 96 109
-7.91713 4.23741 -1.8834 97 98 112
-7.07031 5.9301 -1.92948 105 107 120
-7.02928 5.92602 -1.9217 116 118 127
-7.03536 5.97062 -1.93094 122 122 126
-6.98232 5.97249 -1.92218 119 116 122
-6.98137 6.01011 -1.92899 125 121 130
-6.94572 6.0111 -1.92316 118 115 125
-6.41716 7.0661 -1.95028 91 93 107
-6.39168 7.07915 -1.94937 91 94 106
-5.81194 8.10557 -1.96559 90 89 103
-5.78941 8.12664 -1.9674 89 91 104
-5.76585 8.14594 -1.96877 89 91 103
-5.44713 8.71443 -1.97309 91 95 106
-5.39414 8.71122 -1.96758 91 93 106
-5.1005 9.30934 -1.98527 132 135 140
-4.74116 9.9417 -1.99759 86 89 96
-4.19444 10.2596 -1.93836 114 117 127
-9.57256 1.29098 -1.83104 90 99 115
-9.57335 1.31736 -1.83235 96 105 120
-8.94013 2.21838 -1.82984 81 84 103
-8.9323 2.24214 -1.82978 77 79 98
-8.91883 2.26418 -1.82826 84 86 101
-8.94234 2.29757 -1.83648 91 92 107
-8.28676 3.46376 -1.86299 77 80 95
-8.27474 3.49897 -1.86443 86 87 102
-8.28014 3.52941 -1.86943 80 82 97
-8.26992 3.55201 -1.86989 83 86 101
-8.26649 3.57813 -1.87237 84 87 102
-8.24705 3.60976 -1.8718 85 87 100
-8.22974 3.6287 -1.87025 84 87 104
-8.22261 3.65299 -1.87173 78 81 98
-8.21475 3.69077 -1.87469 87 88 101
-8.18869 3.70498 -1.87062 82 82 98
-8.18469 3.73104 -1.8731 77 76 93
-8.17472 3.76784 -1.87556 74 75 93
-8.16202 3.78926 -1.87552 76 79 96
-8.15095 3.81158 -1.87599 79 83 100
-8.13887 3.84737 -1.87794 86 89 106
-8.11584 3.86297 -1.87489 78 79 97
-8.10823 3.91601 -1.88036 75 81 95
-8.08556 3.94588 -1.8793 74 77 92
-8.07898 3.97094 -1.88128 66 72 86
-8.064 3.99109 -1.88074 71 73 88
-8.03052 4.07273 -1.88465 97 100 113
-7.92226 4.28515 -1.89141 95 96 113
-7.89824 4.2995 -1.88836 95 96 114
-7.8855 4.32115 -1.88884 98 98 115
-7.86748 4.3541 -1.88979 96 95 111
-7.86422 4.3821 -1.89329 99 99 114
-7.84641 4.40044 -1.89226 94 96 110
-7.8312 4.43543 -1.89423 92 95 111
-7.81962 4.458 -1.89521 93 95 111
-7.79998 4.47508 -1.89368 92 95 111
-7.79143 4.49977 -1.89567 89 92 108
-7.7662 4.52796 -1.89462 92 95 110
-7.76061 4.55483 -1.89762 94 98 110
-7.73598 4.56831 -1.89458 93 99 110
-7.72617 4.60745 -1.89856 93 96 109
-7.71085 4.62753 -1.89854 94 96 111
-7.70798 4.65663 -1.90255 93 95 110
-7.67114 4.67639 -1.89798 92 94 109
-7.65717 4.69745 -1.89847 90 96 110
-6.94188 6.0459 -1.929 118 115 127
-6.88884 6.047 -1.92024 92 91 105
-6.89262 6.0903 -1.929 88 89 104
-6.85043 6.08365 -1.92073 89 92 105
-6.35835 7.10489 -1.94986 94 93 107
-6.33841 7.12566 -1.95127 92 91 105
-6.31051 7.13528 -1.94943 89 91 104
-5.73943 8.16004 -1.96881 88 92 101
-5.37927 8.75239 -1.97448 90 94 106
-5.35086 8.76531 -1.97453 90 94 106
-5.0808 9.34682 -1.9911 136 137 142
-5.03294 9.35769 -1.98952 129 132 134
-4.70705 9.94725 -1.99646 86 88 89
-4.65855 9.96184 -1.99615 81 84 89
-4.14132 10.2605 -1.93578 113 120 128
-9.58995 1.2412 -1.83306 88 96 117
-9.59282 1.26789 -1.83484 85 93 112
-8.92322 2.08407 -1.81604 89 87 100
-8.9628 2.13398 -1.8291 82 82 102
-8.95151 2.15673 -1.82806 89 92 109
-8.93643 2.17834 -1.82605 83 86 105
-8.3946 3.17489 -1.85448 76 82 98
-8.40315 3.20571 -1.85998 73 78 97
-8.38542 3.23802 -1.8594 77 80 97
-8.38315 3.26411 -1.86188 74 80 94
-8.37556 3.28777 -1.86284 85 88 103
-8.35388 3.30485 -1.85977 90 92 107
-8.34615 3.3419 -1.86222 90 92 107
-8.347 3.36966 -1.8657 91 93 108
-8.33208 3.38991 -1.86465 86 89 104
-8.32564 3.42781 -1.86761 88 91 106
-8.31056 3.44796 -1.86656 80 83 98
-7.65398 4.72653 -1.90247 93 96 111
-7.63394 4.75862 -1.90344 91 94 109
-7.60581 4.76912 -1.8994 92 95 110
-7.59921 4.79585 -1.9024 89 92 107
-7.60021 4.82844 -1.90792 90 96 110
-7.56434 4.84854 -1.90386 92 96 107
-7.55131 4.87051 -1.90485 91 94 109
-7.54431 4.8972 -1.90786 89 96 112
-7.51732 4.92409 -1.90682 88 95 111
-7.50403 4.94595 -1.90781 91 94 109
-6.84693 6.13864 -1.93046 89 91 106
-6.80476 6.13167 -1.92219 88 92 105
-6.78726 6.15195 -1.92317 87 92 104
-6.27914 7.16384 -1.95085 91 90 104
-6.24892 7.17005 -1.94809 91 90 106
-6.23096 7.19373 -1.95043 92 91 105
-5.70012 8.18105 -1.96885 89 91 103
-5.67357 8.19495 -1.96889 90 92 104
-5.64882 8.21222 -1.96982 89 91 103
-5.31108 8.78984 -1.97587 92 95 107
-5.00632 9.37871 -1.99164 136 137 141
-4.97236 9.38151 -1.98964 115 114 120
-4.62826 9.97822 -1.99741 79 82 91
-4.10655 10.2641 -1.93471 116 119 128
-4.07496 10.279 -1.93593 120 120 128
-9.5865 1.14918 -1.8287 85 93 111
-9.60313 1.17768 -1.83374 83 90 109
-9.60043 1.20349 -1.83412 91 97 116
-8.9762 2.0085 -1.82359 79 70 69
-8.96211 2.04326 -1.82251 85 84 96
-8.46896 2.99356 -1.85235 80 86 100
-8.47472 3.0226 -1.85684 78 82 97
-8.45904 3.04263 -1.85528 79 85 101
-8.44737 3.07753 -1.85621 78 83 99
-8.43507 3.09897 -1.85566 79 82 100
-8.42449 3.12115 -1.85561 77 84 99
-8.43185 3.16457 -1.86209 77 83 98
-7.49823 4.9738 -1.91132 91 93 108
-7.46489 4.9956 -1.90827 90 92 107
-7.45285 5.01855 -1.90977 91 93 108
-7.44073 5.04148 -1.91126 89 92 109
-7.41313 5.06783 -1.91023 88 91 106
-7.40528 5.09438 -1.91324 89 92 107
-7.38695 5.11226 -1.91272 88 91 106
-7.36857 5.13008 -1.91221 91 93 108
-6.76769 6.18953 -1.92706 90 93 106
-6.74228 6.20099 -1.92513 90 92 105
-6.72453 6.2211 -1.92611 93 92 106
-6.7016 6.23532 -1.92514 94 93 108
-6.20589 7.2316 -1.95462 90 92 105
-6.17557 7.23751 -1.95187 90 92 107
-5.61199 8.23798 -1.97119 89 89 103
-5.28664 8.81141 -1.97806 93 92 106
-5.25316 8.81341 -1.97554 94 93 107
-4.928 9.40094 -1.99012 105 102 108
-4.59792 9.99452 -1.99866 82 85 94
-4.01876 10.268 -1.93106 119 123 132
-9.61822 1.08821 -1.83404 87 96 113
-9.59078 1.11068 -1.82837 91 100 117
-8.99089 1.92242 -1.82139 161 123 95
-8.99594 1.96219 -1.82519 167 133 102
-8.98516 1.98512 -1.82415 171 141 117
-8.50445 2.79745 -1.84067 83 87 102
-8.51639 2.8283 -1.84667 81 87 103
-8.50844 2.85143 -1.84712 84 87 104
-8.50667 2.89005 -1.85057 77 83 99
-8.47167 2.90227 -1.84346 82 88 104
-8.49209 2.937 -1.85198 79 85 101
-8.46952 2.95418 -1.8484 82 88 102
-7.34647 5.16107 -1.91319 88 91 106
-7.32355 5.17499 -1.91116 89 92 109
-7.31523 5.20141 -1.91417 90 93 110
-7.28985 5.22966 -1.91415 89 92 109
-7.27841 5.25352 -1.91615 90 93 108
-7.25524 5.26715 -1.91413 90 92 107
-7.23967 5.3041 -1.91763 90 91 109
-6.67011 6.25944 -1.92466 89 91 104
-6.65718 6.28525 -1.92758 90 92 105
-6.64162 6.30809 -1.92954 92 92 105
-6.15402 7.2562 -1.95282 90 94 106
-6.11654 7.27605 -1.95192 90 94 106
-6.0905 7.2881 -1.95102 90 94 106
-5.57986 8.24125 -1.96858 89 91 104
-5.55403 8.25652 -1.96906 89 91 104
-5.2278 8.83306 -1.9773 93 92 106
-5.18201 8.8446 -1.97565 93 95 107
-4.89475 9.40529 -1.98853 106 103 110
-4.86293 9.41317 -1.98776 87 84 92
-4.54985 10.0105 -1.99875 80 83 94
-4.51873 10.0247 -1.99961 80 84 93
-3.98352 10.2693 -1.9296 122 125 132
-9.6167 1.02281 -1.83146 83 94 112
-9.61092 1.06115 -1.83133 85 93 112
-8.98671 1.84457 -1.81526 109 97 99
-9.012 1.87645 -1.82348 165 133 107
-9.08973 1.92184 -1.84537 166 125 95
-8.56361 2.66395 -1.84201 143 138 141
-8.55438 2.6865 -1.84195 150 148 154
-8.54626 2.72232 -1.84338 70 74 85
-8.53324 2.74345 -1.84232 72 77 94
-8.52917 2.76799 -1.84378 80 85 104
-7.2265 5.32658 -1.91914 88 89 107
-7.20316 5.33999 -1.91712 90 92 107
-7.18123 5.35461 -1.9156 90 92 107
-7.15943 5.38616 -1.91709 89 90 104
-7.1445 5.40715 -1.91809 92 94 107
-7.13092 5.42942 -1.9196 91 93 108
-6.61353 6.33638 -1.93052 88 91 106
-6.57788 6.33535 -1.92469 88 90 105
-6.5782 6.37737 -1.93297 89 91 104
-6.54729 6.4024 -1.93297 88 92 104
-6.06876 7.30656 -1.95197 90 92 105
-6.048 7.32658 -1.95339 96 95 109
-5.51161 8.27147 -1.96778 89 91 104
-5.49007 8.29522 -1.97048 90 92 105
-5.15569 8.86226 -1.97699 92 94 106
-5.12458 8.86915 -1.97576 95 95 107
-4.82326 9.44491 -1.99114 85 83 91
-4.48571 10.0332 -1.99928 82 86 97
-3.94777 10.2687 -1.92777 119 123 127
-3.91205 10.2679 -1.92593 113 115 122
-9.60928 0.969845 -1.82791 81 92 110
-9.62268 0.997467 -1.83201 85 98 115
-9.0388 1.72968 -1.82099 147 142 148
-9.02786 1.76529 -1.82039 117 120 129
-9.01957 1.78884 -1.81983 91 94 109
-8.59442 2.5331 -1.83727 79 77 92
-8.5601 2.54675 -1.83016 88 86 100
-8.56762 2.57511 -1.83464 155 150 159
-8.57821 2.61746 -1.84111 138 132 136
-8.6127 2.65592 -1.85316 145 139 141
-7.10165 5.45419 -1.91857 89 92 107
-7.07804 5.4671 -1.91655 93 95 110
-7.07126 5.49585 -1.92058 91 93 108
-7.04171 5.52032 -1.91956 90 89 105
-7.02769 5.54236 -1.92106 88 90 105
-7.00248 5.55362 -1.91854 88 94 108
-6.50549 6.39352 -1.92472 88 92 104
-6.50656 6.43706 -1.93348 87 90 105
-6.46201 6.44516 -1.92814 87 90 105
-6.01449 7.35244 -1.95434 96 94 108
-5.98827 7.36415 -1.95344 94 92 106
-5.4702 8.3224 -1.97406 89 91 104
-5.43885 8.32689 -1.97189 91 93 106
-5.08494 8.89449 -1.97753 95 95 107
-4.79548 9.46354 -1.99285 78 80 89
-4.43746 10.0486 -1.99937 85 87 96
-3.85875 10.2656 -1.92297 115 116 123
-9.62208 0.880405 -1.82822 92 101 118
-9.63384 0.907657 -1.83185 80 89 105
-9.62429 0.932612 -1.83037 95 104 119
-9.05306 1.68198 -1.82162 145 144 147
-9.04503 1.70563 -1.82106 144 142 144
-8.61458 2.41226 -1.83152 157 126 104
-8.6133 2.44998 -1.83445 159 127 99
-8.61207 2.47515 -1.83641 149 123 103
-8.61074 2.50035 -1.83837 88 81 84
-6.98376 5.58854 -1.92155 88 91 106
-6.95845 5.59962 -1.91903 89 92 107
-6.94688 5.62418 -1.92155 91 91 109
-6.92975 5.64327 -1.92205 90 91 109
-6.46515 6.49176 -1.93788 88 90 105
-6.43909 6.50205 -1.93595 91 93 106
-6.4022 6.49857 -1.92964 90 92 105
-5.96517 7.38069 -1.95393 93 92 106
-5.93346 7.40948 -1.95582 91 90 104
-5.89981 7.4094 -1.95167 93 92 106
-5.40136 8.35176 -1.97327 93 95 108
-5.37258 8.36125 -1.97243 91 90 104
-5.05376 8.90114 -1.9763 95 93 106
-5.0272 8.91845 -1.97764 92 92 104
-4.76079 9.46377 -1.99043 83 83 91
-4.40437 10.0569 -1.99904 81 83 96
-4.37246 10.0688 -1.99951 86 88 100
-3.82556 10.274 -1.92304 116 119 126
-9.64015 0.817404 -1.83077 81 90 108
-9.63726 0.856026 -1.8311 89 97 116
-9.06989 1.57146 -1.81951 90 97 113
-9.06978 1.59679 -1.8209 82 87 102
-9.05444 1.61886 -1.81839 140 138 149
-9.06551 1.64667 -1.82271 150 141 149
-8.64636 2.283 -1.82832 87 91 106
-8.63465 2.30462 -1.82725 79 78 91
-8.64311 2.33265 -1.83173 110 93 91
-8.63306 2.3674 -1.83214 160 130 103
-8.66883 2.40457 -1.84419 158 126 101
-7.92886 3.48802 -1.84582 82 86 99
-7.9459 3.52421 -1.85462 90 92 107
-7.90351 3.52832 -1.84523 87 86 102
-7.90294 3.56841 -1.85036 89 87 102
-7.91619 3.60298 -1.85813 90 87 104
-7.87878 3.60948 -1.85029 88 86 103
-7.87773 3.64965 -1.85543 79 80 98
-7.87716 3.6768 -1.85904 83 87 100
-7.84971 3.68865 -1.85432 84 86 101
-7.87154 3.7424 -1.86674 81 82 100
-7.82397 3.74248 -1.85579 84 85 103
-7.81803 3.7667 -1.85784 76 81 100
-7.81367 3.7919 -1.86041 77 80 97
-7.78172 3.81441 -1.85619 83 82 98
-7.77387 3.83758 -1.85772 86 87 103
-7.76429 3.85974 -1.85873 78 82 94
-7.76827 3.90404 -1.86595 76 73 90
-7.73548 3.91204 -1.85969 75 73 91
-7.76823 3.96058 -1.87421 76 73 95
-7.70136 3.96107 -1.85909 83 81 102
-7.71579 3.99854 -1.86789 68 71 88
-7.69753 4.01543 -1.86631 67 70 85
-7.69722 4.05784 -1.87249 94 94 108
-7.67555 4.07254 -1.86987 94 93 107
-7.6684 4.09663 -1.87192 92 94 107
-7.64986 4.11331 -1.87033 93 95 108
-7.62642 4.14086 -1.86925 94 96 109
-7.6174 4.1638 -1.87078 98 97 111
-7.61629 4.19211 -1.87491 99 98 112
-7.58932 4.21732 -1.87279 96 98 111
-7.58003 4.2402 -1.87432 99 100 113
-7.5627 4.2576 -1.87326 99 98 112
-7.54338 4.288 -1.87374 97 99 114
-7.52909 4.30747 -1.87371 98 100 115
-7.5163 4.32802 -1.87421 95 97 112
-7.49821 4.35934 -1.87521 94 95 113
-6.89819 5.66567 -1.92053 91 93 108
-6.88226 5.686 -1.92154 90 92 107
-6.86356 5.70353 -1.92154 88 92 104
-6.84256 5.73665 -1.92405 88 91 106
-6.82234 5.75268 -1.92354 87 91 104
-6.3791 6.53347 -1.93306 88 90 105
-6.34346 6.53121 -1.92723 89 91 106
-6.34107 6.57173 -1.93503 87 89 104
-5.8838 7.43723 -1.95541 92 92 104
-5.84558 7.45578 -1.95451 92 91 105
-5.34291 8.36889 -1.97115 91 90 104
-4.98345 8.9344 -1.97727 95 95 107
-4.71532 9.48042 -1.99051 78 78 87
-4.68801 9.50059 -1.99263 83 83 93
-4.32582 10.0893 -2.00079 84 88 99
-3.78848 10.2671 -1.92006 111 114 121
-9.63523 0.765087 -1.82815 87 99 115
-9.64547 0.791966 -1.83132 86 97 115
-9.07985 1.51033 -1.81872 85 94 109
-9.07614 1.53486 -1.81914 96 103 118
-8.68861 2.18241 -1.83061 85 88 101
-8.69569 2.20975 -1.83459 80 84 98
-8.67126 2.22763 -1.82999 86 85 104
-8.65986 2.26191 -1.82989 82 88 100
-8.04289 3.24077 -1.84161 74 77 92
-8.03189 3.26173 -1.84157 76 79 94
-8.0139 3.27922 -1.83945 84 87 102
-8.01308 3.31833 -1.84406 80 81 99
-8.01387 3.34531 -1.84766 87 88 106
-8.00595 3.36794 -1.84866 83 83 101
-7.97039 3.38947 -1.84288 90 89 105
-7.97259 3.41735 -1.847 79 80 95
-7.96785 3.44169 -1.84904 80 82 97
-7.9576 3.47641 -1.85106 84 86 101
-7.4931 4.38542 -1.8783 92 95 112
-7.47693 4.40363 -1.87776 93 97 113
-7.45134 4.41498 -1.87411 91 97 111
-7.44992 4.45859 -1.88082 90 95 110
-7.43354 4.47664 -1.88028 93 96 111
-7.41555 4.4935 -1.87922 93 95 110
-7.39355 4.52213 -1.87919 95 97 111
-7.39082 4.55045 -1.88333 93 96 110
-7.37724 4.57064 -1.88383 93 97 109
-7.35794 4.60145 -1.88483 93 97 109
-7.34265 4.62037 -1.88481 93 95 108
-7.32731 4.63925 -1.8848 93 96 111
-6.80477 5.77143 -1.92405 87 91 105
-6.77805 5.79876 -1.92454 86 88 105
-6.76031 5.81738 -1.92505 88 90 108
-6.29279 6.57413 -1.92823 90 92 107
-6.29473 6.62081 -1.93798 89 91 106
-6.24858 6.60418 -1.92778 88 91 106
-5.8232 7.47356 -1.95547 92 91 105
-5.7977 7.4863 -1.95504 92 92 105
-5.30431 8.39159 -1.97209 91 93 106
-5.28131 8.41308 -1.97435 91 93 105
-4.95295 8.94251 -1.97647 94 96 108
-4.92694 8.96134 -1.97824 92 94 106
-4.6553 9.50597 -1.99146 81 80 91
-4.62854 9.52781 -1.994 84 87 101
-4.29262 10.0973 -2.00046 84 90 101
-3.73818 10.2756 -1.9194 114 119 123
-9.64855 0.701555 -1.82978 95 104 121
-9.64543 0.727186 -1.82969 92 101 116
-9.10038 1.42605 -1.81948 87 96 113
-9.10645 1.45246 -1.82233 87 96 113
-9.09299 1.48767 -1.82075 86 95 112
-8.68862 2.09467 -1.82377 84 83 97
-8.68303 2.1181 -1.82422 82 81 95
-8.69778 2.14747 -1.83021 80 82 97
-8.14606 2.92549 -1.82977 87 88 106
-8.14486 2.95063 -1.83233 80 80 98
-8.16179 2.99665 -1.84161 81 84 99
-8.15329 3.01876 -1.84209 79 82 99
-8.1342 3.03606 -1.83944 78 81 98
-8.11027 3.06388 -1.83677 86 87 106
-8.10332 3.08666 -1.83776 88 89 107
-8.0858 3.10454 -1.83564 82 83 101
-8.09298 3.14686 -1.84233 81 84 101
-8.11183 3.18207 -1.85113 79 82 97
-8.09753 3.20158 -1.85005 88 91 106
-8.08143 3.22018 -1.84844 79 82 97
-7.32255 4.6664 -1.88842 93 95 110
-7.29216 4.68864 -1.88579 92 95 110
-7.28565 4.71457 -1.88889 93 96 111
-7.26701 4.73087 -1.88784 93 95 110
-7.25288 4.7661 -1.89092 91 94 109
-7.22661 4.77619 -1.88727 89 95 109
-7.21974 4.80205 -1.89037 89 95 111
-7.20668 4.83839 -1.89398 90 93 108
-7.18029 4.84823 -1.89033 92 95 110
-6.74782 5.84158 -1.92757 89 91 108
-6.71547 5.86302 -1.92606 91 94 112
-6.69225 5.8758 -1.92455 86 87 105
-6.67296 5.89276 -1.92455 83 84 100
-6.6575 5.91394 -1.92607 100 101 115
-6.23866 6.65718 -1.93704 87 91 103
-6.20073 6.65108 -1.93024 88 92 104
-6.19625 6.69001 -1.93756 88 90 105
-5.76131 7.50776 -1.95507 92 91 105
-5.73872 7.52531 -1.95603 91 93 106
-5.25487 8.42746 -1.97484 91 92 104
-5.21183 8.44095 -1.97356 93 92 106
-4.883 8.97682 -1.97788 94 92 106
-4.58535 9.55123 -1.99573 82 85 97
-4.26114 10.1107 -2.00133 86 92 102
-3.70028 10.2646 -1.91565 112 116 121
-3.66709 10.2725 -1.91573 109 113 117
-9.65747 0.637597 -1.83048 89 100 118
-9.64576 0.675449 -1.82847 87 98 116
-9.10919 1.36479 -1.8187 79 90 108
-9.09042 1.399 -1.81565 85 94 111
-8.7152 1.98986 -1.82255 165 141 118
-8.73232 2.01944 -1.82905 73 63 66
-8.70649 2.03733 -1.82394 83 82 95
-8.17929 2.82497 -1.82687 83 86 103
-8.18909 2.8546 -1.83255 89 93 109
-8.16416 2.88212 -1.82935 77 84 97
-8.15426 2.90343 -1.8293 80 86 100
-7.17607 4.87653 -1.89448 91 93 108
-7.14489 4.89785 -1.89185 91 93 108
-7.13163 4.91864 -1.89288 91 94 109
-7.12268 4.94315 -1.89547 90 93 108
-7.09902 4.95507 -1.89286 90 93 108
-7.08648 4.99239 -1.89699 90 91 109
-7.06707 5.00796 -1.89594 90 91 109
-6.63006 5.94063 -1.92657 107 108 118
-6.61056 5.95741 -1.92658 121 123 129
-6.60002 5.98419 -1.93011 123 123 132
-6.14789 6.6914 -1.93076 89 91 106
-6.14082 6.72717 -1.93711 88 91 105
-6.10071 6.7174 -1.92934 88 92 104
-5.71606 7.5428 -1.95699 90 92 105
-5.68638 7.5485 -1.9547 89 93 105
-5.18366 8.45159 -1.97317 92 93 106
-4.85167 8.9828 -1.97665 95 92 107
-4.82255 8.99411 -1.9767 91 95 107
-4.55254 9.55627 -1.99455 81 88 100
-4.22788 10.1185 -2.001 85 89 98
-9.64754 0.585195 -1.82693 91 100 119
-9.65256 0.611375 -1.8287 92 101 120
-9.11477 1.27794 -1.81605 87 92 112
-9.11165 1.31496 -1.8169 87 94 113
-9.10092 1.33817 -1.81536 84 93 111
-8.74098 1.90978 -1.82329 162 125 96
-8.73224 1.93234 -1.82272 159 124 96
-8.7309 1.95684 -1.82417 159 127 99
-8.24353 2.58667 -1.81805 142 138 140
-8.25193 2.65241 -1.82676 135 131 135
-8.25889 2.68035 -1.83139 148 147 153
-8.25322 2.70337 -1.83238 90 91 104
-8.23426 2.73357 -1.83074 75 81 95
-8.23554 2.75945 -1.83381 81 89 102
-8.21533 2.77658 -1.83064 77 85 98
-7.05341 5.02856 -1.89697 90 92 107
-7.03896 5.06453 -1.90059 87 93 107
-7.00787 5.06964 -1.89538 89 92 107
-7.00258 5.09783 -1.89953 89 91 106
-6.98343 5.12978 -1.90159 88 91 106
-6.95654 5.13847 -1.89794 88 90 105
-6.56325 6.00053 -1.92709 119 119 127
-6.54228 6.01565 -1.92659 103 103 113
-6.5238 6.03361 -1.9271 98 97 111
-6.49577 6.05972 -1.92761 99 101 116
-6.09458 6.75469 -1.93617 90 92 105
-6.04732 6.75697 -1.92986 90 91 105
-5.65463 7.57785 -1.95706 89 91 104
-5.62686 7.58669 -1.9557 90 92 104
-5.1587 8.46923 -1.97454 91 93 106
-5.11553 8.48225 -1.97327 94 97 106
-4.79771 9.01621 -1.97933 95 94 108
-4.52102 9.56491 -1.9942 85 88 100
-4.18259 10.144 -2.00348 87 91 101
-4.14148 10.1252 -1.99758 88 92 103
-9.64975 0.520895 -1.82624 88 96 115
-9.65408 0.559831 -1.82795 95 103 122
-9.12813 1.23004 -1.81718 89 96 112
-9.12721 1.25496 -1.81808 91 98 114
-8.76021 1.79109 -1.8201 82 87 102
-8.75177 1.85068 -1.82195 106 92 91
-8.84434 1.89883 -1.84864 157 127 103
-8.30074 2.49604 -1.8235 88 87 99
-8.28662 2.51575 -1.82188 79 83 99
-8.28489 2.57738 -1.82747 150 144 148
-8.32988 2.64496 -1.84558 140 138 143
-6.94098 5.15749 -1.89846 91 93 108
-6.92008 5.18791 -1.9 88 91 106
-6.91142 5.21342 -1.90311 90 92 107
-6.89281 5.22968 -1.90258 89 92 107
-6.87977 5.25118 -1.90414 89 92 107
-6.4822 6.0834 -1.93013 98 100 116
-6.45722 6.09386 -1.92813 89 92 108
-6.42888 6.11968 -1.92863 88 91 105
-6.04311 6.79739 -1.93767 89 91 106
-6.00426 6.78866 -1.93039 88 91 106
-5.60395 7.60387 -1.95666 87 91 103
-5.56605 7.62276 -1.95623 89 90 104
-5.09045 8.49969 -1.97465 93 95 107
-5.06132 8.50817 -1.97381 92 95 106
-4.75353 9.03109 -1.97897 96 95 109
-4.72213 9.03664 -1.97774 93 92 106
-4.47947 9.59341 -1.99717 86 91 102
-4.44535 9.5944 -1.99517 88 93 105
-4.11424 10.1532 -2.00163 90 93 103
-9.64682 0.469218 -1.82456 85 97 117
-9.65413 0.495385 -1.82679 86 97 117
-9.14495 1.17019 -1.81885 91 99 118
-9.13662 1.20637 -1.81823 92 99 117
-8.78992 1.7488 -1.82478 147 146 153
-8.77979 1.7711 -1.8237 97 104 114
-8.32141 2.3552 -1.81551 158 126 98
-8.32836 2.41921 -1.82317 156 127 98
-8.32717 2.44359 -1.8252 150 123 98
-8.30934 2.4743 -1.82355 100 88 82
-6.8556 5.27872 -1.90464 90 92 105
-6.84236 5.30014 -1.9062 90 93 108
-6.81795 5.31081 -1.90359 89 92 107
-6.79762 5.34213 -1.90566 88 94 108
-6.77726 5.35666 -1.90462 90 93 108
-6.40882 6.13585 -1.92864 87 89 102
-6.38744 6.15047 -1.92815 85 87 100
-6.36727 6.16651 -1.92816 90 92 105
-5.99239 6.84132 -1.93966 89 92 107
-5.95359 6.83231 -1.93238 89 92 107
-5.94332 6.86469 -1.93775 90 92 105
-5.54108 7.63638 -1.95627 92 92 104
-5.51607 7.64993 -1.9563 91 91 103
-5.03611 8.52547 -1.97519 93 95 107
-4.69492 9.05302 -1.97909 94 93 107
-4.41311 9.60084 -1.99441 90 92 106
-4.06596 10.1688 -2.00212 88 92 101
-9.65175 0.430903 -1.82517 88 101 120
-9.15025 1.08358 -1.81669 84 93 110
-9.14041 1.1195 -1.81559 85 94 111
-9.15516 1.14673 -1.82039 90 99 116
-8.79233 1.66331 -1.81998 143 141 144
-8.80884 1.69161 -1.82597 143 142 142
-8.79888 1.71399 -1.82489 142 140 141
-8.34126 2.22731 -1.80906 83 83 103
-8.34624 2.25334 -1.81265 87 90 102
-8.34389 2.28914 -1.81516 79 80 91
-8.32308 2.30666 -1.81146 80 73 75
-8.33141 2.33403 -1.81609 159 135 118
-8.3622 2.4063 -1.83052 157 127 104
-7.66537 3.59775 -1.85598 82 83 101
-7.6369 3.64791 -1.85643 88 91 106
-7.6279 3.66947 -1.85747 87 88 102
-7.62876 3.69687 -1.86171 86 85 99
-7.59224 3.71544 -1.85578 89 87 103
-7.59786 3.74579 -1.86163 84 83 99
-7.57698 3.76034 -1.85893 74 77 90
-7.55672 3.78849 -1.85834 76 78 91
-7.54724 3.80988 -1.85938 79 81 96
-7.52785 3.82519 -1.85721 79 85 99
-7.52475 3.85058 -1.86039 82 87 102
-7.51549 3.88565 -1.86355 85 84 100
-7.50078 3.90388 -1.86299 80 79 95
-7.48439 3.92103 -1.86189 85 84 99
-7.47796 3.95811 -1.86612 89 88 102
-7.46788 3.97935 -1.86717 90 92 105
-6.76371 5.3779 -1.90617 88 92 106
-6.74301 5.40903 -1.90824 88 91 106
-6.72111 5.42201 -1.90668 87 90 105
-6.70325 5.43901 -1.90668 90 93 108
-6.68399 5.45459 -1.90616 93 95 110
-6.33858 6.19194 -1.92867 92 95 108
-6.3146 6.20334 -1.92717 91 93 106
-6.29913 6.22515 -1.9292 94 96 109
-6.26651 6.24578 -1.9282 89 91 103
-5.89709 6.86757 -1.93194 90 92 105
-5.87576 6.88381 -1.93245 89 91 104
-5.47702 7.6667 -1.95542 89 88 102
-5.4538 7.68346 -1.95638 91 90 104
-4.99588 8.54503 -1.97569 93 92 106
-4.96974 8.56036 -1.97663 93 92 108
-4.65407 9.07653 -1.98087 92 94 107
-4.37002 9.62518 -1.99656 92 96 108
-4.03257 10.1759 -2.0018 91 96 102
-9.65989 0.379837 -1.82629 89 101 118
-9.65973 0.405563 -1.82666 88 100 118
-9.16626 1.03593 -1.81881 87 94 110
-9.17555 1.0622 -1.82215 82 89 107
-8.7957 1.55403 -1.81424 85 94 111
-8.8013 1.57962 -1.8172 85 92 110
-8.79926 1.60364 -1.81814 84 87 103
-8.88889 1.65997 -1.84429 151 146 154
-8.38615 2.15652 -1.81448 86 87 105
-8.37302 2.17673 -1.81286 82 85 101
-8.36189 2.2096 -1.81276 83 89 105
-7.84664 3.18629 -1.84389 75 78 93
-7.80445 3.28058 -1.84585 81 83 99
-7.80013 3.3042 -1.84795 84 85 103
-7.79561 3.34053 -1.85163 88 89 105
-7.79958 3.36864 -1.85641 87 89 105
-7.75579 3.37171 -1.84621 81 84 100
-7.74748 3.40617 -1.84882 74 77 94
-7.75796 3.43794 -1.85574 82 83 99
-7.72599 3.44694 -1.84928 78 80 98
-7.71728 3.48136 -1.8519 74 80 97
-7.70715 3.50215 -1.8524 82 88 100
-7.7037 3.52664 -1.85504 90 93 107
-7.68838 3.54458 -1.85393 78 80 95
-7.69087 3.58558 -1.86029 86 87 105
-7.6632 3.6232 -1.85916 89 90 106
-7.46739 4.00689 -1.87142 82 86 98
-7.46046 4.04404 -1.87565 94 98 110
-7.43886 4.05782 -1.87295 93 97 109
-7.42204 4.07472 -1.87186 92 96 108
-7.42753 4.1066 -1.87825 91 95 107
-7.39454 4.12644 -1.87393 94 97 112
-7.39341 4.15404 -1.87818 95 94 112
-7.37317 4.16858 -1.87602 93 92 109
-7.3384 4.18693 -1.87117 95 94 110
-7.3417 4.21782 -1.87703 96 95 111
-7.3323 4.2399 -1.87861 98 97 111
-7.31141 4.26797 -1.87857 99 98 112
-7.30182 4.28999 -1.88015 95 97 110
-7.27968 4.30299 -1.87746 95 98 111
-7.25849 4.33082 -1.87742 86 92 105
-7.25642 4.35843 -1.88168 93 97 111
-7.23877 4.37464 -1.88059 93 96 111
-6.66284 5.48543 -1.90823 88 91 106
-6.64343 5.50088 -1.90771 88 92 108
-6.62668 5.51904 -1.90823 89 91 106
-6.6025 5.54689 -1.90926 91 92 110
-6.25208 6.26898 -1.93073 90 92 105
-6.22792 6.28008 -1.92923 90 92 105
-5.87159 6.92576 -1.94074 89 91 106
-5.82101 6.9217 -1.93298 87 92 106
-5.79948 6.93772 -1.93349 87 91 105
-5.42863 7.69674 -1.95641 91 90 104
-5.39405 7.72166 -1.95785 92 91 105
-4.94356 8.57561 -1.97756 90 92 107
-4.62326 9.08359 -1.98007 94 96 108
-4.59175 9.08872 -1.97885 91 93 104
-4.33952 9.63696 -1.99704 85 89 103
-4.30719 9.64307 -1.99628 83 86 101
-3.99862 10.1811 -2.00108 90 93 99
-9.64885 0.340839 -1.82317 85 97 113
-9.16238 0.973183 -1.8156 75 86 104
-9.17188 0.999336 -1.81894 87 95 114
-8.80177 1.49447 -1.81241 92 97 116
-8.83974 1.52651 -1.82395 86 92 111
-8.39341 2.07395 -1.80949 81 80 94
-8.38605 2.09592 -1.80943 85 84 100
-8.39739 2.13569 -1.81558 82 83 102
-7.93996 2.96485 -1.83953 80 83 100
-7.91492 3.04135 -1.84258 74 80 94
-7.92743 3.11049 -1.85424 86 88 103
-7.92893 3.13676 -1.85795 79 82 97
-7.913 3.15475 -1.8563 86 88 104
-7.86092 3.16771 -1.845 82 84 99
-7.87886 3.22785 -1.85722 80 83 98
-7.87307 3.26351 -1.86037 76 78 94
-7.8671 3.28643 -1.86193 77 78 95
-7.23186 4.39883 -1.88325 93 99 113
-7.20869 4.42529 -1.88268 91 96 109
-7.2016 4.44945 -1.88533 93 95 110
-7.1898 4.47011 -1.88639 93 95 110
-7.15716 4.48933 -1.88261 93 95 110
-7.15437 4.51695 -1.88687 93 92 108
-7.14082 4.53633 -1.88739 94 93 109
-7.11702 4.56235 -1.88682 91 93 109
-7.10032 4.57923 -1.88627 91 94 109
-6.57763 5.55653 -1.90666 88 91 107
-6.562 5.57591 -1.9077 86 93 106
-6.54672 5.61337 -1.91237 88 94 107
-6.51909 5.61995 -1.90874 92 95 110
-6.19986 6.30642 -1.93025 89 92 107
-6.18516 6.32949 -1.93278 90 93 107
-6.16204 6.34187 -1.93179 90 92 106
-5.79591 6.98126 -1.94227 87 92 105
-5.75102 6.96143 -1.93208 88 92 104
-5.36508 7.7279 -1.95603 89 91 104
-5.34162 7.74434 -1.95699 88 90 103
-4.89851 8.58399 -1.97541 91 95 107
-4.87372 8.60263 -1.97723 91 96 108
-4.54931 9.10813 -1.97978 90 93 108
-4.26087 9.65763 -1.99636 84 88 100
-3.95071 10.198 -2.00197 87 92 98
-3.91519 10.1973 -2.00005 88 93 99
-9.64651 0.2638 -1.82159 85 98 117
-9.63702 0.289122 -1.81963 92 103 122
-9.16425 0.92371 -1.8143 88 96 114
-9.17008 0.949294 -1.81666 84 96 112
-8.84302 1.41741 -1.81873 86 93 111
-8.81304 1.43602 -1.81209 83 90 108
-8.83568 1.47683 -1.82006 86 93 110
-8.4364 1.978 -1.81289 161 139 119
-8.42748 1.99956 -1.81231 68 61 61
-8.4333 2.02543 -1.81589 83 84 97
-7.98381 2.80997 -1.83237 80 86 100
-7.97673 2.84394 -1.83443 78 84 99
-7.95458 2.85919 -1.83064 77 82 99
-7.96586 2.88899 -1.83702 79 82 101
-7.95134 2.91985 -1.83694 78 84 100
-7.94833 2.94352 -1.83904 78 83 102
-7.9718 3.00445 -1.85233 78 84 100
-7.96024 3.03696 -1.85333 75 82 98
-7.95852 3.08704 -1.85913 78 81 96
-7.09107 4.60206 -1.8884 91 95 109
-7.06697 4.62784 -1.88783 93 99 113
-7.05008 4.64456 -1.88729 88 93 108
-7.04654 4.67216 -1.89155 93 96 113
-7.02206 4.68271 -1.88833 90 91 109
-7.00947 4.71798 -1.89204 92 95 110
-6.99525 4.73697 -1.89257 90 93 108
-6.98096 4.75593 -1.89309 92 94 109
-6.49931 5.63492 -1.90822 92 96 108
-6.47582 5.66368 -1.90978 89 94 107
-6.4572 5.67994 -1.90978 86 89 104
-6.43983 5.69758 -1.91031 87 90 105
-6.14601 6.36333 -1.93382 90 92 105
-6.10693 6.37553 -1.93031 86 92 104
-6.09307 6.39994 -1.93334 87 90 105
-5.73931 7.01693 -1.94233 90 92 105
-5.69668 7.00003 -1.93311 91 90 104
-5.67488 7.01569 -1.93362 91 90 104
-5.31811 7.76073 -1.95796 91 90 104
-4.84735 8.6176 -1.97817 93 97 109
-4.52046 9.12035 -1.98027 91 94 108
-4.23375 9.68028 -1.99932 78 85 94
-3.88223 10.2058 -2.00013 90 95 101
-9.64616 0.199755 -1.82091 83 94 116
-9.64463 0.225326 -1.82081 86 97 119
-9.17452 0.838139 -1.81411 89 97 116
-9.17294 0.862752 -1.81451 87 96 113
-9.15973 0.886003 -1.81199 93 101 122
-8.84354 1.33262 -1.81445 83 92 110
-8.85725 1.3714 -1.81989 87 94 112
-8.83877 1.39231 -1.81628 90 97 113
-8.42412 1.86673 -1.8012 158 122 94
-8.44033 1.91906 -1.80941 162 128 97
-8.43969 1.95484 -1.81191 160 130 100
-8.06178 2.64535 -1.83383 138 136 140
-8.05555 2.67949 -1.83589 146 146 150
-8.05162 2.70249 -1.83745 139 138 149
-8.04761 2.7255 -1.83901 54 56 70
-8.03995 2.74706 -1.8395 75 78 95
-6.95618 4.78118 -1.89253 92 94 109
-6.94175 4.80002 -1.89305 92 94 109
-6.92727 4.81883 -1.89358 91 93 108
-6.91094 4.85138 -1.89623 91 93 108
-6.88756 4.86253 -1.89354 89 92 107
-6.88154 4.8888 -1.89728 90 93 110
-6.42625 5.71948 -1.91239 81 84 102
-6.39335 5.73785 -1.91031 86 87 104
-6.37451 5.75387 -1.91032 90 93 108
-6.35433 5.76837 -1.9098 90 93 108
-6.07096 6.41355 -1.93285 88 91 103
-6.03522 6.42996 -1.93086 88 90 105
-6.0257 6.46042 -1.93591 88 90 105
-5.64405 7.04151 -1.93511 90 92 105
-5.2777 7.77483 -1.95661 89 91 103
-5.25585 7.79448 -1.9585 92 94 106
-4.80516 8.63272 -1.97779 94 96 108
-4.77205 8.63125 -1.97474 94 96 108
-4.49221 9.13432 -1.98118 94 94 108
-4.44819 9.14961 -1.98126 85 87 101
-4.19729 9.67297 -1.99567 82 89 100
-4.16832 9.68985 -1.99739 79 85 99
-3.83416 10.2222 -2.00102 89 94 100
-9.63984 0.174029 -1.81914 82 93 113
-9.19655 0.803396 -1.81864 83 91 110
-8.85914 1.2869 -1.81611 86 95 110
-8.85993 1.31126 -1.81755 82 91 108
-8.45972 1.79279 -1.80508 85 94 109
-8.44853 1.83758 -1.80547 116 102 99
-8.51777 1.91629 -1.82926 154 119 90
-8.10534 2.49194 -1.82884 89 80 85
-8.07827 2.518 -1.82448 77 80 95
-8.06065 2.55977 -1.82438 127 121 133
-8.07278 2.60077 -1.83179 146 140 143
-8.07626 2.62657 -1.83549 144 139 141
-6.86098 4.90235 -1.89567 90 93 108
-6.84559 4.93599 -1.89885 89 92 107
-6.8206 4.94555 -1.89564 90 93 108
-6.81564 4.97305 -1.89991 90 93 108
-6.79414 5.0014 -1.90095 89 90 108
-6.76761 5.00941 -1.89721 91 93 108
-6.32884 5.79511 -1.91084 92 94 109
-6.30731 5.808 -1.90981 92 94 109
-6.28948 5.82522 -1.91034 91 93 108
-5.99078 6.45672 -1.92988 89 91 104
-5.96747 6.48986 -1.93342 91 95 107
-5.94622 6.50462 -1.93344 84 88 103
-5.6395 7.08499 -1.94389 91 93 106
-5.59402 7.06256 -1.93321 92 91 105
-5.22857 7.8037 -1.95761 89 91 103
-5.19156 7.82431 -1.95812 90 90 103
-4.75139 8.66038 -1.97923 94 96 109
-4.41788 9.15785 -1.98089 86 87 103
-3.79965 10.2249 -1.9999 91 94 101
-9.64141 0.135702 -1.81929 86 98 116
-9.17422 0.751528 -1.81148 94 102 121
-9.18255 0.77712 -1.81433 87 95 114
-8.86496 1.22749 -1.81479 87 94 113
-8.87358 1.25308 -1.81825 86 95 112
-8.49268 1.71787 -1.80844 146 141 142
-8.4939 1.742 -1.81045 154 155 158
-8.47262 1.76046 -1.80622 91 99 108
-8.12715 2.34362 -1.81955 158 131 108
-8.1378 2.39529 -1.82748 157 126 105
-8.13122 2.41701 -1.82796 156 126 100
-8.12434 2.45056 -1.82948 158 129 104
-8.1248 2.4749 -1.83211 151 129 110
-6.76091 5.03558 -1.90094 89 92 107
-6.74049 5.06501 -1.90253 90 93 108
-6.7195 5.07802 -1.90092 87 93 107
-6.70828 5.10019 -1.90305 88 91 106
-6.26246 5.85021 -1.91086 84 88 103
-6.23581 5.85698 -1.90775 80 84 98
-6.22772 5.88582 -1.91244 91 96 108
-5.92947 6.52559 -1.93547 86 92 104
-5.8911 6.5381 -1.93247 88 91 106
-5.5821 7.11947 -1.94395 92 91 105
-5.53783 7.09835 -1.93376 92 91 105
-5.53266 7.14176 -1.94255 88 90 103
-5.1633 7.83158 -1.95677 90 92 104
-5.14032 7.8492 -1.9582 90 94 105
-4.7083 8.67323 -1.97841 94 96 109
-4.68021 8.6841 -1.97846 93 95 108
-4.38754 9.16599 -1.98052 90 87 104
-4.35909 9.17957 -1.98144 79 81 97
-4.12008 9.69815 -1.99624 77 83 95
-4.08876 9.70731 -1.9963 77 83 95
-3.76564 10.2293 -1.99918 93 96 103
-9.1912 0.691431 -1.81414 88 97 114
-9.20163 0.717165 -1.81748 92 101 118
-8.8824 1.14584 -1.81557 96 104 123
-8.86076 1.16662 -1.81094 93 100 119
-8.89632 1.20834 -1.82194 86 93 111
-8.49136 1.61097 -1.80093 156 153 164
-8.4817 1.63232 -1.79982 141 138 145
-8.4982 1.65992 -1.806 139 138 144
-8.49511 1.69468 -1.80746 142 138 142
-8.15602 2.21095 -1.81454 85 90 106
-8.15733 2.23508 -1.81716 81 87 102
-8.14772 2.26736 -1.81761 92 94 109
-8.13243 2.28599 -1.81541 85 85 97
-8.12439 2.30704 -1.81536 78 71 76
-8.226 2.40218 -1.85109 157 125 104
-6.68334 5.12546 -1.90304 88 91 108
-6.67332 5.14889 -1.90571 89 92 107
-6.64796 5.15763 -1.9025 90 93 110
-6.64055 5.18368 -1.90624 89 92 109
-6.61934 5.21268 -1.90783 90 92 107
-6.19546 5.90461 -1.91088 102 106 118
-6.17855 5.923 -1.91193 102 104 119
-6.16278 5.94283 -1.9135 98 102 114
-6.13963 5.95366 -1.91195 98 102 114
-5.87418 6.55894 -1.93451 87 90 105
-5.8505 6.57026 -1.93352 89 92 107
-5.83122 6.58783 -1.93455 88 91 106
-5.48626 7.14204 -1.93674 89 91 106
-5.4768 7.17876 -1.94358 85 87 100
-5.10394 7.87116 -1.95918 87 91 102
-4.65493 8.70214 -1.98029 95 95 107
-4.31487 9.19425 -1.98152 76 78 90
-4.05684 9.71449 -1.99596 84 87 102
-3.73017 10.2279 -1.99727 91 94 98
-9.18742 0.641702 -1.81187 93 101 120
-9.21152 0.668553 -1.81863 92 100 119
-8.89305 1.09921 -1.81623 83 91 110
-8.87343 1.12041 -1.81211 78 88 106
-8.53351 1.58526 -1.81041 86 86 106
-8.17877 2.13572 -1.81367 84 87 102
-8.17119 2.1569 -1.81362 82 87 102
-8.16927 2.19159 -1.8162 78 84 98
-7.5896 3.2489 -1.84626 83 85 100
-7.58021 3.28172 -1.8484 89 88 106
-7.57751 3.30572 -1.85111 92 91 107
-7.55956 3.32149 -1.84888 90 94 106
-7.56661 3.3635 -1.85651 79 81 96
-7.5384 3.37361 -1.85098 92 94 107
-7.54039 3.40041 -1.85534 86 88 100
-7.5118 3.4228 -1.85144 81 85 97
-7.50688 3.44583 -1.8536 77 81 93
-7.5119 3.47459 -1.85906 77 81 93
-7.48303 3.49673 -1.85516 82 80 96
-7.47286 3.51685 -1.85568 84 84 100
-7.46099 3.53598 -1.85565 78 81 96
-7.46392 3.56387 -1.86056 84 83 99
-7.42813 3.58168 -1.85446 85 83 96
-7.4358 3.61255 -1.86103 80 82 95
-7.42033 3.62959 -1.8599 79 82 94
-7.39581 3.65403 -1.85765 87 86 100
-7.40314 3.68502 -1.86421 80 82 95
-7.38583 3.70091 -1.86253 80 82 96
-7.35289 3.72002 -1.85754 80 82 97
-7.36961 3.75725 -1.8674 81 84 101
-7.35859 3.77711 -1.86792 82 85 102
-7.33941 3.79176 -1.8657 77 80 95
-7.32716 3.82403 -1.86785 78 81 96
-7.31108 3.84063 -1.86672 79 78 98
-7.28693 3.85191 -1.86285 81 81 99
-7.28076 3.88825 -1.8672 77 78 93
-7.27729 3.91321 -1.87047 83 84 99
-7.24821 3.92105 -1.86495 76 77 91
-7.26228 3.97138 -1.87644 86 85 101
-7.21565 3.96714 -1.86488 84 83 99
-7.22609 4.00183 -1.8731 80 82 95
-7.18117 4.01188 -1.86427 90 93 106
-7.19291 4.04775 -1.87304 97 101 113
-7.16994 4.05942 -1.86972 95 101 113
-7.16733 4.08542 -1.87354 98 100 115
-6.59798 5.22522 -1.90622 90 91 109
