-5.8006 11.4181 -1.95647 101 99 110
-5.7609 11.4254 -1.95511 100 98 109
-5.04616 11.8852 -1.88965 128 124 128
-5.00188 11.8787 -1.88642 125 121 125
-11.8519 1.32027 -1.86933 62 57 70
-11.8506 1.3704 -1.87046 92 84 94
-11.8434 1.40307 -1.87009 103 97 104
-11.1032 2.42726 -1.86838 137 131 135
-11.1042 2.46039 -1.87033 61 61 69
-11.0717 2.53415 -1.86799 78 77 94
-10.2324 3.90859 -1.88525 101 99 112
-10.2282 3.94056 -1.88728 99 96 109
-10.2097 3.96621 -1.88605 96 92 106
-10.1928 3.99258 -1.88523 96 92 106
-10.182 4.03847 -1.88726 98 96 109
-10.1685 4.06635 -1.88726 96 94 108
-10.1513 4.09256 -1.88643 97 97 111
-10.1311 4.13423 -1.88643 96 95 111
-10.1208 4.16363 -1.88724 97 96 113
-10.1104 4.193 -1.88805 98 98 115
-8.91673 6.1995 -1.90898 66 80 102
-8.89185 6.21988 -1.90774 65 78 101
-8.86467 6.25831 -1.90854 64 77 101
-8.84266 6.28098 -1.90812 66 77 100
-8.82209 6.30482 -1.90811 65 77 100
-8.79898 6.34674 -1.91013 65 76 98
-8.7842 6.37548 -1.91175 64 76 96
-8.75436 6.39156 -1.90929 62 75 94
-8.72929 6.43198 -1.9109 60 74 98
-8.70676 6.4542 -1.91048 57 71 95
-7.14509 9.22669 -1.94819 117 38 71
-7.11944 9.25205 -1.94966 118 38 70
-6.31204 10.5397 -1.95358 105 98 107
-6.27982 10.5593 -1.95426 111 104 111
-5.71055 11.458 -1.95708 106 103 112
-5.67004 11.4631 -1.95537 105 99 109
-4.95767 11.8721 -1.88319 128 127 132
-4.89548 11.8731 -1.88026 115 113 124
-11.8468 1.20251 -1.86521 74 84 98
-11.8538 1.25346 -1.86784 71 72 86
-11.8548 1.28709 -1.86896 85 78 92
-11.1507 2.32415 -1.87229 140 134 142
-11.1312 2.35223 -1.86994 131 120 122
-11.121 2.38256 -1.86955 130 119 124
-10.321 3.66145 -1.8812 94 90 104
-10.3174 3.70981 -1.88446 100 95 109
-10.2976 3.73511 -1.88283 92 87 101
-10.2851 3.76334 -1.88282 94 90 104
-10.2736 3.80865 -1.88445 94 92 106
-10.2554 3.83451 -1.88322 101 95 109
-10.2389 3.86107 -1.8824 100 94 106
-8.69303 6.48403 -1.9125 60 72 94
-8.66296 6.49971 -1.91004 60 72 94
-8.63585 6.5385 -1.91125 60 71 91
-8.613 6.56041 -1.91083 60 71 90
-8.58861 6.58096 -1.91 58 69 89
-8.55817 6.61684 -1.91039 56 69 88
-8.54668 6.649 -1.91322 59 70 88
-8.52639 6.67326 -1.91362 65 74 91
-7.08512 7.76181 -1.803 56 53 71
-7.09157 9.27404 -1.95038 120 36 69
-7.05307 9.27938 -1.94738 121 37 71
-7.01043 9.31039 -1.94809 123 38 69
-6.22499 10.5744 -1.95247 111 106 112
-6.19516 10.5991 -1.9542 108 102 109
-5.63462 11.4809 -1.95601 103 100 111
-4.85085 11.8642 -1.87671 101 99 111
-4.80633 11.8551 -1.87316 103 103 113
-11.8733 1.13853 -1.86856 78 84 107
-11.8611 1.17065 -1.86707 74 80 103
-11.1514 2.1773 -1.86524 143 121 107
-11.1437 2.20815 -1.86524 113 102 94
-11.1147 2.26665 -1.8625 74 75 89
-10.4213 3.43585 -1.88245 87 83 97
-10.4078 3.48012 -1.88327 98 96 109
-10.3961 3.50868 -1.88326 93 93 105
-10.3751 3.53367 -1.88122 98 97 110
-10.3648 3.5792 -1.88285 98 96 109
-10.3509 3.60691 -1.88244 96 94 107
-10.3369 3.63457 -1.88202 96 93 107
-8.49118 6.70491 -1.91278 64 73 91
-8.46497 6.7237 -1.91155 64 72 90
-8.44156 6.74505 -1.91112 58 64 82
-8.41744 6.787 -1.91355 53 58 77
-8.39527 6.80954 -1.91354 51 56 74
-8.37161 6.83068 -1.91311 46 52 68
-8.34931 6.85308 -1.9131 48 54 69
-6.97609 9.32208 -1.94658 124 37 69
-6.94797 9.34366 -1.9473 126 36 71
-6.89881 9.36417 -1.94578 127 36 70
-6.16021 10.6131 -1.95382 108 100 108
-6.12026 10.6162 -1.95133 107 100 108
-5.57034 11.478 -1.95162 103 100 111
-5.51785 11.4514 -1.94422 104 101 113
-5.45928 11.408 -1.9338 100 98 111
-4.74727 11.8648 -1.87184 105 105 117
-11.8857 1.02282 -1.86817 74 82 101
-11.8757 1.05525 -1.86706 75 82 98
-11.8716 1.08824 -1.86706 77 82 101
-11.1752 2.06876 -1.86484 138 118 107
-11.1679 2.09967 -1.86484 137 114 98
-11.1604 2.13057 -1.86484 135 111 95
-10.4791 3.22763 -1.87799 85 84 98
-10.4685 3.27273 -1.87921 80 79 94
-10.4592 3.30212 -1.87961 76 75 90
-10.4443 3.3295 -1.87879 88 87 101
-10.4168 3.36844 -1.87635 86 84 97
-10.4145 3.40042 -1.87838 93 89 104
-8.32174 6.892 -1.91471 54 59 74
-8.30204 6.91699 -1.91551 55 58 71
-8.27108 6.93097 -1.91305 55 56 69
-8.24309 6.9696 -1.91466 54 55 68
-8.22312 6.99437 -1.91546 50 50 64
-7.52738 6.78258 -1.78416 78 60 56
-7.48657 6.78232 -1.77844 82 63 56
-7.44708 6.8046 -1.77638 78 60 51
-7.42486 6.82415 -1.77637 80 63 54
-7.40783 6.84942 -1.77798 77 60 53
-7.32359 6.82184 -1.76208 78 61 52
-7.25694 6.79145 -1.74822 76 59 49
-7.23996 6.81626 -1.74983 78 61 50
-7.17493 6.78679 -1.73637 79 62 51
-7.10984 6.77803 -1.72617 80 62 52
-7.08128 6.78915 -1.72412 83 64 60
-7.52019 8.19989 -1.92514 56 51 69
-6.87461 9.39223 -1.948 126 35 68
-6.84317 9.40848 -1.9476 129 37 67
-6.06858 10.6376 -1.95094 105 99 107
-6.03597 10.6566 -1.95162 107 102 114
-5.41214 11.3938 -1.92874 97 94 105
-4.70403 11.8592 -1.86893 101 102 114
-4.66592 11.8704 -1.8689 90 93 107
-11.9224 0.942623 -1.87337 68 81 101
-11.876 0.988535 -1.86555 76 86 105
-11.2074 1.96194 -1.8664 86 82 97
-11.1966 1.99216 -1.86561 81 77 91
-11.1952 2.02434 -1.86679 85 78 90
-10.5357 3.06824 -1.87759 88 86 100
-10.5159 3.09408 -1.87555 91 89 103
-10.5041 3.13863 -1.87637 84 82 96
-10.5119 3.17381 -1.88044 79 78 92
-10.4882 3.1982 -1.87758 83 85 98
-8.19754 7.01356 -1.91462 52 54 68
-8.16634 7.04913 -1.91542 51 50 65
-8.14197 7.06952 -1.915 52 51 63
-8.11892 7.09123 -1.91498 56 53 59
-8.0958 7.11286 -1.91496 74 67 71
-7.06421 6.81349 -1.72573 87 67 62
-7.06176 6.87668 -1.73549 77 48 55
-7.45659 8.30822 -1.93486 78 80 94
-7.42025 8.31533 -1.93171 56 54 74
-7.37899 8.34307 -1.9313 61 70 94
-6.79782 9.4352 -1.94757 127 37 65
-6.76524 9.44952 -1.9468 126 36 65
-6.73363 9.46543 -1.94641 126 35 68
-5.99925 10.6664 -1.95054 103 100 111
-5.94575 10.6837 -1.94945 109 102 112
-5.36097 11.4231 -1.93038 143 138 139
-5.31266 11.4048 -1.92466 138 132 135
-5.26786 11.3956 -1.92061 130 124 128
-4.60797 11.8832 -1.86822 113 120 130
-11.9434 0.877453 -1.87597 73 84 104
-11.9378 0.910473 -1.87561 72 84 106
-11.2181 1.81855 -1.86247 87 89 101
-11.2299 1.88544 -1.86756 74 75 94
-11.2154 1.91501 -1.866 79 78 96
-10.5846 2.89055 -1.87516 93 90 105
-10.5757 2.93591 -1.87638 90 87 104
-10.56 2.96319 -1.87515 83 80 97
-10.5536 2.99338 -1.87597 85 82 99
-10.5442 3.03867 -1.87719 87 86 102
-8.06545 7.14941 -1.91617 75 64 67
-8.03809 7.16665 -1.91493 77 66 62
-8.01877 7.19229 -1.91613 80 65 58
-7.95983 7.19862 -1.90878 75 60 53
-7.06719 6.92783 -1.74443 82 51 63
-7.35658 8.36882 -1.93284 54 67 89
-7.31557 8.36919 -1.92813 47 57 82
-7.28784 8.41549 -1.93241 51 61 81
-6.69298 9.50012 -1.94824 123 37 66
-6.66517 9.5226 -1.94934 126 37 67
-5.91375 10.7041 -1.95047 113 107 117
-5.87773 10.7154 -1.94974 107 102 113
-5.20791 11.4001 -1.91789 129 127 132
-4.56268 11.8695 -1.86403 116 119 126
-4.52021 11.8651 -1.86144 115 113 118
-11.9535 0.794595 -1.87633 74 85 106
-11.956 0.828253 -1.87745 72 83 105
-11.2226 1.70673 -1.85894 86 82 96
-11.2318 1.74054 -1.86207 84 81 91
-11.2255 1.77161 -1.86207 86 83 97
-10.6184 2.72467 -1.87109 99 93 105
-10.6221 2.7577 -1.87394 97 94 108
-10.5976 2.78243 -1.87068 87 85 99
-10.5836 2.82608 -1.87068 94 92 103
-10.5963 2.86202 -1.87557 91 89 103
-7.27198 8.45057 -1.9363 66 67 87
-7.23206 8.45212 -1.93197 53 49 72
-7.20488 8.49978 -1.93664 61 61 79
-6.62844 9.52967 -1.94708 126 37 67
-6.58544 9.56053 -1.94816 124 38 63
-6.55544 9.57928 -1.94851 125 38 64
-5.82406 10.732 -1.94865 105 102 112
-5.7911 10.7502 -1.94933 105 101 113
-5.17388 11.4203 -1.9192 126 124 128
-5.12993 11.4124 -1.91548 126 122 125
-4.45488 11.8506 -1.85627 113 111 116
-11.9454 0.710511 -1.87333 72 83 103
-11.9783 0.762873 -1.88043 74 85 105
-11.2624 1.63326 -1.86402 144 125 109
-10.6498 2.59048 -1.86906 85 81 97
-10.6464 2.62131 -1.87028 92 88 103
-10.6374 2.65057 -1.87027 81 79 93
-10.6277 2.69547 -1.87109 92 86 97
-9.6273 4.32767 -1.89035 74 85 103
-9.61806 4.35659 -1.89161 75 86 104
-9.59318 4.37725 -1.88907 77 88 106
-9.59063 4.42651 -1.89372 77 88 106
-9.56386 4.44608 -1.89075 71 82 102
-9.56278 4.47955 -1.89412 75 86 104
-9.53225 4.5138 -1.892 74 85 103
-9.52577 4.54444 -1.89411 73 86 103
-9.50725 4.56841 -1.89325 72 85 102
-9.5057 4.6019 -1.89663 72 85 102
-9.46955 4.63288 -1.89324 74 85 103
-9.46772 4.66637 -1.89661 73 86 103
-9.4404 4.68523 -1.89364 72 85 102
-9.43263 4.73251 -1.89744 72 85 103
-9.40347 4.75019 -1.89405 73 85 104
-9.40622 4.78665 -1.89869 74 85 103
-9.37608 4.8209 -1.89699 73 86 105
-9.36847 4.85137 -1.8991 72 85 104
-9.35241 4.87678 -1.89909 73 84 102
-9.32189 4.91071 -1.89739 74 85 103
-9.31228 4.94009 -1.89907 73 86 104
-9.30092 4.96842 -1.90033 74 87 105
-9.26958 4.98428 -1.89651 74 85 106
-9.26172 5.03238 -1.90073 74 86 105
-9.24015 5.05431 -1.89945 74 86 104
-9.22015 5.07721 -1.8986 71 83 101
-9.19699 5.1157 -1.89901 72 85 102
-9.19482 5.1502 -1.90281 73 86 103
-9.16475 5.16649 -1.89941 71 84 103
-9.15907 5.21664 -1.90448 71 84 101
-9.1305 5.23381 -1.90151 71 83 105
-9.11646 5.26068 -1.90234 72 84 106
-9.10072 5.28642 -1.90275 76 89 106
-9.08623 5.33103 -1.9057 73 84 102
-9.05257 5.34449 -1.90146 72 85 104
-9.04297 5.37451 -1.90357 73 86 105
-9.0024 5.40103 -1.89975 72 85 102
-8.99258 5.43096 -1.90185 72 85 102
-8.98105 5.45976 -1.90353 73 84 102
-8.94812 5.49153 -1.90183 73 85 101
-8.93954 5.52254 -1.90436 73 84 102
-8.92767 5.55124 -1.90604 72 85 104
-8.89279 5.58155 -1.90391 71 84 103
-8.87128 5.60319 -1.90305 71 84 103
-8.86383 5.63526 -1.906 71 84 103
-8.84062 5.65563 -1.90472 70 82 104
-8.80687 5.6866 -1.90301 72 84 105
-7.18072 8.52349 -1.9378 62 63 81
-7.13852 8.52142 -1.93269 61 62 80
-7.1108 8.56879 -1.93736 60 57 72
-6.52732 9.60137 -1.94961 128 38 68
-6.49623 9.61824 -1.94958 128 36 69
-5.75342 10.7575 -1.9479 103 97 109
-5.70267 10.7808 -1.94821 105 99 111
-5.08234 11.4516 -1.91913 126 121 125
-5.03271 11.4267 -1.9124 126 121 125
-4.41154 11.8421 -1.85304 104 103 108
-4.37088 11.8429 -1.85141 108 107 111
-11.9924 0.646537 -1.88115 68 79 99
-11.9876 0.679744 -1.88078 72 83 101
-11.2687 1.55404 -1.86244 139 113 96
-11.2605 1.60081 -1.86245 134 112 91
-10.6755 2.43939 -1.86539 152 146 150
-10.6612 2.48288 -1.86498 84 81 90
-10.6676 2.51621 -1.86824 93 90 97
-10.6721 2.54909 -1.87109 80 77 92
-9.80125 3.94846 -1.8862 79 88 105
-9.79685 3.97933 -1.88831 83 92 109
-9.77897 4.0202 -1.88873 79 87 106
-9.77609 4.05192 -1.89126 79 87 108
-9.74143 4.06831 -1.88617 80 88 107
-9.73014 4.11239 -1.88828 78 86 105
-9.72691 4.14408 -1.89082 79 87 106
-9.69382 4.16097 -1.88616 80 89 106
-9.69252 4.2102 -1.8908 78 87 104
-9.67673 4.2357 -1.89037 78 87 104
-9.6539 4.25757 -1.88825 75 86 104
-9.65706 4.2928 -1.89247 74 85 104
-8.80216 5.72096 -1.90681 70 83 102
-8.77872 5.74109 -1.90553 72 85 102
-8.73998 5.76813 -1.90255 70 82 105
-8.73182 5.80004 -1.9055 70 82 105
-8.71893 5.82834 -1.90718 70 83 103
-8.68447 5.85863 -1.90547 69 82 102
-8.67745 5.89171 -1.90885 70 82 104
-8.64746 5.90646 -1.90587 70 82 104
-8.61269 5.93636 -1.90417 68 80 104
-8.60684 5.97058 -1.90796 69 81 105
-8.57972 5.98749 -1.90583 72 84 105
-8.55707 6.00801 -1.90497 68 80 102
-8.5309 6.04492 -1.9058 68 80 101
-7.06864 8.56638 -1.93225 69 49 69
-7.04968 8.59783 -1.93536 101 39 73
-7.01413 8.60489 -1.9326 115 36 73
-6.4518 9.64681 -1.9503 132 40 75
-6.42246 9.66689 -1.95102 132 40 73
-5.67025 10.8005 -1.94924 106 100 110
-5.63025 10.8019 -1.94675 108 100 113
-4.98959 11.4202 -1.90902 137 131 135
-4.32715 11.8321 -1.84786 114 114 116
-12.0125 0.563897 -1.88374 70 82 104
-11.9883 0.596119 -1.87964 71 83 105
-11.289 1.41298 -1.86164 95 92 99
-11.2664 1.48956 -1.8597 82 72 75
-11.3614 1.53645 -1.88006 136 114 100
-10.7137 2.35455 -1.86824 133 120 130
-10.6998 2.38256 -1.86702 131 119 127
-10.6933 2.41245 -1.86742 132 123 127
-9.90681 3.70252 -1.88413 76 85 101
-9.90687 3.73502 -1.88708 82 88 106
-9.87822 3.75494 -1.88327 82 90 108
-9.86856 3.79931 -1.88538 77 89 106
-9.86293 3.82943 -1.88707 75 87 104
-9.8394 3.85146 -1.88452 80 89 106
-9.83279 3.89739 -1.88748 83 91 108
-9.81617 3.92254 -1.88663 80 87 105
-8.51259 6.06904 -1.90621 68 81 100
-8.48673 6.08681 -1.90451 66 78 100
-8.47204 6.13356 -1.90872 65 77 99
-8.4401 6.14608 -1.90532 68 80 102
-8.41996 6.16867 -1.90531 62 77 100
-8.39149 6.20373 -1.90572 64 76 102
-8.37266 6.22746 -1.90613 63 75 99
-8.35227 6.24984 -1.90611 62 74 98
-7.59661 7.59912 -1.92235 88 65 62
-7.55362 7.62166 -1.92029 77 41 49
-7.53508 7.64909 -1.92231 77 37 52
-7.5102 7.66895 -1.92229 83 31 55
-6.98684 8.65351 -1.93766 118 34 71
-6.96205 8.67664 -1.93881 120 35 70
-6.92205 8.67681 -1.93449 119 34 69
-6.38928 9.67998 -1.95025 140 48 82
-6.34079 9.70116 -1.94948 138 49 84
-5.59774 10.8214 -1.94778 105 99 111
-4.93424 11.4364 -1.90864 108 103 109
-4.87824 11.3902 -1.89823 111 104 112
-12.0116 0.496852 -1.88261 69 80 102
-12.0033 0.529948 -1.8815 73 84 106
-11.3051 1.35127 -1.86281 129 118 123
-11.3 1.38255 -1.86281 128 122 124
-10.6863 2.23823 -1.85642 70 72 82
-10.705 2.27398 -1.86213 69 69 85
-10.7464 2.31543 -1.87272 96 91 102
-10.0135 3.48948 -1.8867 78 85 103
-9.97821 3.50723 -1.88119 72 81 98
-9.97177 3.53669 -1.88246 74 80 96
-9.96525 3.56614 -1.88372 84 90 106
-9.93676 3.60237 -1.88118 73 81 99
-9.94079 3.63635 -1.88498 73 85 101
-9.92136 3.66039 -1.88328 80 88 106
-8.34057 6.27995 -1.90864 63 75 99
-8.30721 6.31076 -1.90777 59 73 97
-8.29381 6.33949 -1.90988 59 74 98
-8.27017 6.35901 -1.90901 60 72 97
-8.23792 6.39078 -1.90858 60 72 96
-8.22419 6.41938 -1.91068 58 72 96
-8.19176 6.43068 -1.90728 58 72 95
-7.47317 7.69859 -1.92227 89 36 58
-7.44812 7.71825 -1.92225 103 40 67
-7.42671 7.74241 -1.92345 111 42 68
-7.40522 7.76651 -1.92466 113 38 68
-6.89527 8.7268 -1.93994 119 35 69
-6.85526 8.72667 -1.93561 120 36 70
-6.84183 8.76756 -1.94107 119 35 71
-6.31309 9.72439 -1.95094 123 52 80
-6.28069 9.73886 -1.95055 100 46 76
-5.54297 10.8349 -1.94633 104 100 111
-5.50665 10.8449 -1.9456 105 99 111
-4.83668 11.387 -1.89552 114 108 116
-4.77363 11.378 -1.89079 104 101 110
-12.0246 0.41368 -1.88408 69 80 101
-12.0244 0.447172 -1.88446 72 84 106
-11.3451 1.24464 -1.86749 67 60 74
-11.4024 1.28416 -1.88002 141 130 138
-11.3122 1.30432 -1.8628 127 118 121
-10.7499 2.0658 -1.86049 133 115 110
-10.7559 2.09829 -1.86334 132 111 97
-10.7489 2.14349 -1.86416 135 110 96
-10.7414 2.17303 -1.86416 129 110 93
-10.0597 3.23729 -1.8753 83 90 104
-10.0636 3.28609 -1.87995 75 80 96
-10.0634 3.31776 -1.88248 65 72 89
-10.0485 3.34384 -1.88163 63 68 87
-10.041 3.38855 -1.88375 79 85 105
-10.0186 3.41166 -1.8812 72 78 97
-8.17058 6.47277 -1.91022 57 72 95
-8.15084 6.49588 -1.91063 55 70 93
-8.12819 6.51624 -1.91019 56 71 92
-8.10086 6.55274 -1.91144 61 72 94
-8.08507 6.57973 -1.91312 60 68 91
-8.05937 6.59716 -1.91183 58 66 89
-8.02805 6.60904 -1.90886 60 68 91
-7.37137 7.80026 -1.92585 114 34 69
-7.34237 7.81502 -1.92461 114 36 70
-7.32059 7.8389 -1.92582 112 38 72
-6.78487 8.77108 -1.93557 120 36 72
-6.77217 8.81353 -1.94141 120 36 71
-6.72798 8.80622 -1.93552 120 35 68
-6.23104 9.75778 -1.9494 67 49 71
-6.20128 9.77722 -1.95012 88 77 90
-6.17323 9.80008 -1.95158 111 100 109
-5.47178 10.8586 -1.94557 103 99 111
-5.41977 10.8788 -1.94554 126 124 135
-4.72984 11.3669 -1.88674 101 100 108
-12.033 0.330247 -1.8848 71 83 105
-11.3523 1.16562 -1.8667 93 89 106
-11.3536 1.19775 -1.86787 83 81 100
-11.2108 1.32731 -1.86089 129 118 124
-11.2 1.36184 -1.85983 129 120 124
-10.7802 1.96343 -1.8617 80 80 97
-10.7853 2.01109 -1.86497 83 82 96
-10.7667 2.03829 -1.86252 82 83 92
-10.1367 3.09217 -1.87954 70 74 90
-10.1077 3.1133 -1.87531 73 77 92
-10.121 3.14953 -1.8808 77 84 102
-10.0924 3.18629 -1.87784 67 75 94
-10.0798 3.21318 -1.87741 66 75 92
-8.0016 6.6465 -1.91053 58 67 90
-7.98406 6.67189 -1.91179 60 70 91
-7.9609 6.69171 -1.91135 59 67 87
-7.93814 6.7331 -1.91429 57 67 86
-7.91204 6.74999 -1.913 56 64 84
-7.27916 7.86304 -1.92457 75 45 69
-7.2536 7.88211 -1.92455 59 48 65
-7.23037 7.90421 -1.92535 59 56 74
-6.69698 8.85065 -1.9398 120 35 64
-6.66625 8.86466 -1.939 122 37 64
-6.13613 9.80536 -1.94932 106 93 103
-6.09336 9.8376 -1.95116 103 93 105
-5.38194 10.8848 -1.9441 122 125 134
-5.34835 10.9017 -1.94478 133 136 146
-4.69444 11.3819 -1.88738 99 97 111
-4.64548 11.3535 -1.88031 101 100 115
-12.0287 0.263197 -1.8833 75 87 107
-12.029 0.29666 -1.88368 74 85 105
-11.3588 1.08659 -1.8659 72 77 97
-11.3528 1.13373 -1.86591 86 81 101
-11.2381 1.25876 -1.86407 103 92 105
-11.2099 1.29135 -1.85985 128 119 124
-10.8093 1.86069 -1.86292 74 80 94
-10.7882 1.90296 -1.86048 77 77 92
-10.7986 1.9361 -1.86415 73 72 86
-10.1788 2.91918 -1.87532 86 90 107
-10.1808 2.96653 -1.87913 84 89 103
-10.1614 2.9912 -1.87701 83 85 100
-10.153 3.01961 -1.87743 83 84 99
-10.1379 3.06121 -1.87743 77 81 99
-7.89823 6.77934 -1.91553 58 67 89
-7.85997 6.80513 -1.91382 56 64 82
-7.84592 6.83439 -1.91634 55 63 82
-7.81958 6.85094 -1.91505 52 58 77
-7.77971 6.87489 -1.91292 53 59 75
-7.44766 6.80385 -1.85318 52 51 65
-7.39641 6.81286 -1.84724 52 50 59
-7.19103 7.93101 -1.92492 69 79 96
-7.16762 7.95294 -1.92571 98 106 120
-7.14649 7.97793 -1.92732 80 86 102
-6.63138 8.87189 -1.93663 121 35 64
-6.6098 8.90075 -1.93934 123 34 63
-6.06328 9.85665 -1.95188 101 94 107
-6.02875 9.86682 -1.95073 100 94 106
-5.29613 10.9213 -1.94474 134 137 145
-4.58935 11.3643 -1.87927 108 108 119
-4.54935 11.3638 -1.87723 105 105 115
-12.0203 0.17948 -1.88104 70 85 108
-12.0287 0.213034 -1.88291 71 86 107
-11.3905 0.994193 -1.8698 73 84 104
-11.3826 1.02531 -1.86902 71 79 97
-11.3669 1.05556 -1.86668 76 84 103
-11.2028 1.12972 -1.85499 82 79 95
-11.2062 1.16578 -1.85638 75 71 88
-11.2389 1.20508 -1.86303 87 87 103
-10.8282 1.80228 -1.86414 111 110 120
-10.8217 1.83205 -1.86414 74 80 92
-10.2151 2.7604 -1.87152 94 95 107
-10.2279 2.79541 -1.8766 88 88 102
-10.1997 2.81741 -1.87236 87 89 102
-10.1986 2.86345 -1.87533 87 90 102
-10.185 2.89011 -1.87448 80 85 99
-9.21747 4.33169 -1.87946 76 88 104
-9.22176 4.38301 -1.88603 76 88 102
-9.21228 4.41067 -1.88734 80 88 107
-9.19078 4.43168 -1.88558 77 85 104
-9.15374 4.46014 -1.88162 75 86 104
-9.15584 4.49441 -1.886 74 87 104
-9.13581 4.51613 -1.88467 75 86 104
-9.10184 4.54613 -1.8816 73 86 103
-9.12543 4.5932 -1.89167 74 85 103
-9.10008 4.61182 -1.88903 75 86 104
-9.06465 4.62437 -1.88376 73 86 104
-9.0587 4.6709 -1.88814 74 86 108
-9.02817 4.68619 -1.88418 71 83 105
-9.03926 4.72662 -1.89119 73 84 103
-8.99785 4.75182 -1.88636 74 85 107
-8.9887 4.78008 -1.8881 74 84 109
-8.97781 4.8073 -1.88941 75 85 110
-8.94604 4.83824 -1.8872 73 85 107
-8.94646 4.87267 -1.89158 73 85 107
-8.94181 4.90401 -1.89464 72 84 106
-8.90262 4.91326 -1.88849 71 83 105
-8.89493 4.95966 -1.89286 75 88 107
-8.89645 4.99523 -1.89767 73 86 105
-8.84737 4.99767 -1.8889 73 85 107
-8.84241 5.04615 -1.89415 72 85 102
-8.83544 5.07634 -1.89677 71 84 101
-8.78958 5.08042 -1.88887 70 83 102
-8.77925 5.12556 -1.8928 73 85 101
-8.77999 5.16118 -1.89761 74 85 103
-8.73728 5.16697 -1.89059 73 84 102
-8.73283 5.2165 -1.89627 74 86 105
-8.71879 5.2421 -1.89714 70 82 103
-8.68093 5.28642 -1.89624 71 84 103
-7.76265 6.90115 -1.91459 52 58 74
-7.75352 6.93593 -1.91881 54 56 76
-7.72691 6.95215 -1.91752 59 60 76
-7.68003 6.9684 -1.91327 50 52 67
-7.6428 6.97284 -1.9086 52 53 68
-7.36506 6.82207 -1.84427 52 49 60
-7.3207 6.81658 -1.83706 48 41 57
-7.2735 6.82919 -1.83239 63 53 62
-7.2203 6.81296 -1.82222 70 59 64
-7.17496 6.80531 -1.81459 76 65 63
-7.15021 6.82106 -1.81373 75 64 58
-7.12995 6.86381 -1.81794 78 64 57
-7.10915 8.00748 -1.9277 93 104 127
-7.08081 8.02288 -1.92687 74 86 108
-7.05476 8.04135 -1.92685 67 77 97
-7.02749 8.05816 -1.92642 71 84 104
-6.56997 8.93138 -1.94049 121 35 67
-6.53601 8.93993 -1.93851 121 36 69
-6.51308 8.96689 -1.94084 122 35 70
-5.98298 9.89332 -1.95145 99 92 106
-5.95614 9.91912 -1.95366 94 88 100
-5.25894 10.9288 -1.94366 135 138 145
-5.22244 10.938 -1.94293 137 137 145
-4.50938 11.3632 -1.87519 97 95 106
-11.3918 0.914593 -1.86822 76 84 105
-11.392 0.946504 -1.86901 75 86 106
-11.2325 1.04348 -1.85852 76 84 103
-11.2166 1.07763 -1.8564 73 78 98
-10.8431 1.65052 -1.86086 99 90 87
-10.8344 1.69522 -1.86087 95 91 103
-10.8398 1.72708 -1.86332 100 99 107
-10.8509 1.76005 -1.86698 115 111 125
-10.2433 2.6305 -1.86857 102 102 116
-10.2529 2.66415 -1.87279 100 99 113
-10.24 2.69104 -1.87195 98 97 111
-10.245 2.73881 -1.87618 88 90 103
-9.42044 3.92135 -1.87562 76 87 105
-9.43183 3.95868 -1.88175 73 84 102
-9.38431 3.98312 -1.87473 77 89 105
-9.38667 4.01621 -1.87867 77 89 105
-9.39415 4.05197 -1.88392 79 88 105
-9.37243 4.0891 -1.88347 74 86 100
-9.33964 4.10467 -1.87865 77 89 104
-9.32938 4.13163 -1.87952 77 89 105
-9.32459 4.17742 -1.88345 77 89 105
-9.32273 4.20888 -1.88651 78 90 106
-9.30006 4.22947 -1.88432 77 89 105
-9.27752 4.26614 -1.88387 77 89 105
-9.26672 4.29299 -1.88474 75 86 103
-9.25583 4.31981 -1.88561 77 88 106
-8.70786 5.26991 -1.89888 71 83 105
-8.65988 5.32462 -1.89754 71 84 101
-8.64075 5.34662 -1.89709 70 82 104
-8.62154 5.36855 -1.89664 70 82 106
-8.59535 5.40307 -1.89663 71 84 103
-8.58695 5.43297 -1.89925 73 84 102
-8.56122 5.45007 -1.89704 72 83 101
-8.53467 5.48431 -1.89703 71 84 103
-8.51816 5.50825 -1.89746 70 83 102
-8.49846 5.52978 -1.89701 70 82 104
-8.48025 5.55243 -1.897 70 82 104
-8.45013 5.58391 -1.89611 71 84 101
-8.43635 5.61001 -1.89741 69 82 100
-8.42402 5.63729 -1.89915 71 84 101
-8.39658 5.6709 -1.89913 70 83 102
-8.36421 5.68231 -1.89518 69 82 101
-7.1177 6.89428 -1.82131 77 64 55
-7.14448 6.97094 -1.83778 81 63 52
-6.99547 8.09511 -1.92884 80 92 118
-6.9635 8.10536 -1.92679 76 90 116
-6.94512 8.13463 -1.92962 80 92 118
-6.47587 9.00216 -1.94315 119 38 71
-6.43783 9.0036 -1.93961 119 37 68
-5.91977 9.92539 -1.95177 106 98 109
-5.87538 9.95495 -1.95323 101 91 102
-5.16804 10.9515 -1.94183 135 135 140
-5.12881 10.953 -1.9397 132 130 132
-4.44879 11.3582 -1.87147 95 95 105
-4.40396 11.3402 -1.86641 98 98 108
-11.4061 0.836231 -1.86938 74 87 106
-11.4013 0.883586 -1.86939 72 80 101
-11.2463 1.00905 -1.86028 75 83 102
-10.8684 1.56224 -1.86249 140 113 94
-10.8549 1.59085 -1.86086 137 111 94
-10.8472 1.62037 -1.86045 135 113 96
-10.298 2.49327 -1.8711 96 94 107
-10.2797 2.5339 -1.86984 99 99 110
-10.2615 2.55929 -1.86772 84 85 97
-10.2733 2.59339 -1.87237 96 96 109
-9.55402 3.62155 -1.87304 78 85 104
-9.54358 3.64816 -1.87348 76 87 104
-9.55398 3.69955 -1.88049 79 87 108
-9.51487 3.71337 -1.8739 73 79 101
-9.5077 3.7415 -1.87521 81 87 109
-9.51574 3.79223 -1.88178 86 93 112
-9.47118 3.80318 -1.87389 79 86 103
-9.49368 3.84526 -1.88265 78 90 104
-9.45004 3.87205 -1.87651 78 87 104
-9.44934 3.90344 -1.87957 77 89 105
-8.35463 5.71187 -1.89779 71 84 104
-8.3329 5.75008 -1.89953 70 83 103
-8.30342 5.76361 -1.89645 70 83 103
-8.28597 5.7869 -1.89688 67 81 104
-8.25783 5.81989 -1.89686 68 81 100
-8.23721 5.84056 -1.89641 70 83 101
-8.224 5.86743 -1.89815 69 81 99
-8.20473 5.88925 -1.89814 68 79 100
-8.17609 5.92187 -1.89812 65 78 99
-6.90137 8.15528 -1.92796 83 96 116
-6.8749 8.1732 -1.92794 69 74 93
-6.84838 8.19104 -1.92792 46 49 68
-6.41262 9.02693 -1.94115 121 40 72
-6.37696 9.06521 -1.94425 127 39 77
-6.33113 9.05263 -1.93758 126 43 77
-5.83642 9.95562 -1.95022 100 94 104
-5.80504 9.97215 -1.95057 102 95 106
-5.09227 10.9617 -1.93897 138 134 140
-5.05505 10.9685 -1.93788 138 134 142
-4.36528 11.3429 -1.86504 93 95 108
-11.4225 0.773843 -1.87133 75 86 104
-11.4232 0.805783 -1.87211 71 82 100
-11.277 0.922435 -1.86415 75 83 104
-11.2576 0.956515 -1.86134 67 78 98
-10.8758 1.45579 -1.86003 83 78 91
-10.8916 1.48895 -1.86451 92 80 83
-10.8668 1.51587 -1.86044 138 121 106
-10.3128 2.36019 -1.86603 131 121 126
-10.3103 2.40505 -1.86815 129 123 126
-10.2906 2.43014 -1.86561 136 132 138
-10.2915 2.46089 -1.86772 133 130 142
-9.648 3.4137 -1.87308 67 75 94
-9.61301 3.43016 -1.86737 69 76 95
-9.60854 3.47439 -1.87044 71 77 97
-9.61117 3.50642 -1.87394 79 87 106
-9.62083 3.54154 -1.87919 77 86 103
-9.58021 3.5553 -1.87218 79 88 105
-9.59475 3.60809 -1.88006 83 91 109
-8.16256 5.94861 -1.89986 69 80 99
-8.13567 5.96388 -1.89766 67 80 99
-8.10814 5.99746 -1.89808 66 78 100
-8.09578 6.02535 -1.90026 65 77 99
-8.07748 6.04807 -1.90068 67 79 101
-8.04664 6.07881 -1.90023 64 76 98
-8.02524 6.09879 -1.89978 64 76 100
-8.00814 6.12262 -1.90064 66 78 100
-7.34944 7.28316 -1.91811 82 64 55
-6.81108 8.22087 -1.92871 60 56 70
-6.78662 8.24174 -1.9295 73 45 66
-6.31341 9.08932 -1.94225 104 41 63
-6.28877 9.11404 -1.94419 101 41 65
-5.76285 10.0066 -1.95315 102 94 107
-5.72882 10.0175 -1.95238 97 91 105
-4.9928 10.9589 -1.93257 95 89 103
-4.93765 10.9133 -1.92165 98 92 107
-4.30555 11.3391 -1.86165 83 90 104
-4.26747 11.3433 -1.86062 107 113 125
-11.4211 0.662315 -1.86896 75 86 107
-11.4338 0.695044 -1.87209 77 88 107
-11.4113 0.725229 -1.86818 74 83 103
-11.2959 0.852429 -1.86627 75 86 106
-11.2865 0.887454 -1.86521 76 84 105
-10.8924 1.38153 -1.86084 131 122 125
-10.3179 2.25552 -1.86095 76 80 97
-10.3953 2.32087 -1.88084 73 71 83
-10.3531 2.3404 -1.87322 140 131 139
-9.71125 3.22447 -1.86959 69 77 94
-9.72026 3.25848 -1.87441 73 80 98
-9.69134 3.29298 -1.87134 74 83 100
-9.70009 3.32708 -1.87616 63 74 92
-9.65804 3.34108 -1.8687 67 79 95
-9.67211 3.39267 -1.87615 74 85 101
-7.97552 6.15171 -1.89974 63 75 97
-7.95535 6.17278 -1.89973 62 74 96
-7.93799 6.19642 -1.90059 62 74 98
-7.9191 6.2187 -1.90102 60 72 96
-7.88892 6.25001 -1.901 63 74 94
-7.87129 6.27349 -1.90186 61 72 92
-7.32072 7.29643 -1.9164 78 61 54
-7.31194 7.33366 -1.92146 80 63 55
-7.27033 7.35481 -1.91932 81 61 53
-7.25134 7.3799 -1.921 82 62 55
-6.75987 8.25931 -1.92948 97 39 71
-6.72331 8.29038 -1.93068 114 37 72
-6.69859 8.31101 -1.93147 115 36 69
-6.2335 9.11759 -1.93946 86 49 67
-6.21346 9.15068 -1.94335 79 51 65
-5.69805 10.0355 -1.9531 98 93 106
-4.88409 10.8712 -1.91143 104 104 114
-4.81634 10.8421 -1.9026 102 103 115
-4.22781 11.3417 -1.85858 108 111 124
-4.17938 11.3077 -1.85084 110 112 124
-11.4376 0.631594 -1.87169 71 82 104
-11.3 0.763361 -1.86559 72 83 101
-11.2987 0.799014 -1.86593 75 86 104
-10.9123 1.30764 -1.86245 131 120 126
-10.8975 1.35157 -1.86083 131 120 126
-10.3633 2.10084 -1.86179 129 111 97
-10.3559 2.12919 -1.86179 129 113 100
-10.354 2.1589 -1.86306 132 112 101
-10.3449 2.20184 -1.86349 143 125 122
-9.78066 3.0833 -1.87224 75 84 100
-9.7555 3.10444 -1.86873 74 83 100
-9.76502 3.13829 -1.87355 82 91 109
-9.72928 3.17043 -1.86872 64 72 93
-9.73669 3.20367 -1.8731 77 85 104
-7.8578 6.30094 -1.90404 65 73 96
-7.81877 6.32389 -1.90139 64 72 95
-7.80649 6.35259 -1.90401 61 72 94
-7.78009 6.36772 -1.90224 62 73 93
-7.75198 6.40113 -1.9031 59 70 90
-7.73381 6.42424 -1.90396 60 71 91
-7.23225 7.40494 -1.92267 82 63 53
-7.19651 7.43328 -1.92265 81 63 49
-7.16502 7.44291 -1.92009 80 64 49
-6.6727 8.32994 -1.93186 118 36 70
-6.64567 8.34716 -1.93184 117 35 71
-6.60009 8.36464 -1.92978 118 35 72
-6.18197 9.16311 -1.94255 88 70 83
-6.14066 9.1919 -1.94369 108 90 102
-5.65056 10.0588 -1.95344 99 96 107
-5.6148 10.0658 -1.95192 100 97 108
-4.76717 10.8107 -1.89449 97 99 112
-4.72192 10.7902 -1.88849 98 100 113
-4.12926 11.3372 -1.85348 102 104 118
-11.4718 0.522127 -1.87676 72 83 104
-11.4615 0.553439 -1.8752 72 83 101
-11.4608 0.585284 -1.87559 70 81 101
-11.315 0.675037 -1.86701 66 77 97
-11.3031 0.727842 -1.8656 76 84 103
-10.9247 1.2173 -1.86204 94 93 109
-10.9782 1.25479 -1.87426 78 67 82
-10.9133 1.27711 -1.86164 145 134 142
-10.3787 1.99933 -1.85967 92 89 99
-10.364 2.02599 -1.85798 96 94 102
-10.3834 2.06048 -1.8639 102 93 95
-9.8278 2.85913 -1.86437 76 85 102
-9.83827 2.89262 -1.86919 77 86 103
-9.80438 2.9111 -1.86348 78 87 104
-9.82939 2.94973 -1.87181 76 85 102
-9.82011 2.99161 -1.87312 79 91 107
-9.77866 3.00718 -1.86567 79 89 105
-9.79589 3.0435 -1.87224 80 89 106
-7.71555 6.44732 -1.90482 60 71 89
-7.69996 6.4731 -1.90656 59 70 89
-7.6576 6.49235 -1.90303 62 69 94
-7.64867 6.52494 -1.90696 60 71 93
-7.62596 6.54362 -1.90651 61 69 90
-7.14567 7.46774 -1.92177 80 64 51
-7.12502 7.49099 -1.92302 78 60 48
-7.08526 7.51422 -1.92173 82 64 59
-7.05965 7.53113 -1.92128 82 68 58
-6.57827 8.38985 -1.93179 118 34 69
-6.55635 8.41501 -1.93381 118 34 68
-6.10259 9.192 -1.94015 99 88 99
-6.08113 9.22309 -1.94365 81 70 84
-5.58623 10.0888 -1.95376 95 93 104
-5.54964 10.0938 -1.95187 93 91 104
-4.65992 10.7752 -1.88247 97 99 112
-4.08067 11.3009 -1.84541 106 111 123
-11.4769 0.474577 -1.87713 66 78 99
-11.3265 0.604236 -1.86808 71 82 104
-11.3356 0.640514 -1.87018 70 81 103
-10.9282 1.11075 -1.85958 74 77 94
-10.9161 1.13989 -1.85795 74 77 90
-10.9369 1.17293 -1.86325 75 77 89
-10.4044 1.90023 -1.86009 72 68 85
-10.3957 1.92828 -1.85967 89 87 104
-10.3819 1.97008 -1.85883 86 85 99
-9.87296 2.72497 -1.86393 81 89 105
-9.8889 2.77467 -1.87095 79 87 105
-9.86823 2.79786 -1.86832 80 88 105
-9.86786 2.82766 -1.8705 71 78 97
-7.59017 6.5694 -1.90517 58 66 89
-7.57815 6.59911 -1.90823 59 67 90
-7.55524 6.61756 -1.90777 56 67 87
-7.52452 6.64863 -1.90819 55 66 86
-7.04113 7.55726 -1.92338 85 67 62
-6.994 7.57074 -1.91955 77 62 60
-6.97883 7.60138 -1.92291 77 67 68
-6.51159 8.43367 -1.93215 119 35 69
-6.48423 8.4504 -1.93213 118 37 70
-6.46202 8.47533 -1.93414 119 38 73
-6.03492 9.24278 -1.94283 75 69 79
-5.99596 9.24072 -1.9389 102 94 106
-5.97326 9.26984 -1.942 130 119 129
-5.50105 10.1146 -1.95184 90 88 101
-5.46444 10.1193 -1.94995 96 94 105
-4.62346 10.7806 -1.88139 98 100 113
-4.5858 10.7821 -1.8796 97 99 112
-11.5028 0.411949 -1.88143 74 86 108
-11.4967 0.443617 -1.88065 72 83 103
-11.3497 0.551844 -1.8716 73 84 102
-10.9597 1.03786 -1.86404 72 79 98
-10.9517 1.06758 -1.86323 67 74 92
-10.4406 1.80316 -1.86305 101 96 107
-10.4341 1.83173 -1.86305 82 80 92
-10.4054 1.87054 -1.85882 83 80 94
-9.89475 2.56895 -1.85737 83 92 110
-9.925 2.60758 -1.86657 79 87 106
-9.91783 2.63506 -1.86701 78 85 103
-9.89895 2.67367 -1.86569 78 85 101
-9.86555 2.69294 -1.85999 85 92 108
-7.50545 6.67116 -1.90905 59 70 91
-7.47965 6.68653 -1.90772 57 67 89
-7.44725 6.71584 -1.9077 57 68 86
-7.40548 6.71381 -1.90111 54 67 86
-7.39407 6.74463 -1.9046 57 67 86
-6.96236 7.63044 -1.92586 60 56 71
-6.91971 7.64971 -1.92372 65 78 104
-6.89369 7.6661 -1.92328 82 97 123
-6.42325 8.50348 -1.93493 112 39 68
-6.39569 8.51994 -1.93491 105 35 65
-5.93134 9.29773 -1.94315 138 130 129
-5.43636 10.1437 -1.95216 100 96 110
-4.54757 10.7816 -1.87747 97 101 115
-11.4995 0.332028 -1.87984 75 87 106
-11.4937 0.363716 -1.87907 73 86 106
-11.3487 0.48025 -1.87057 71 82 102
-11.3502 0.516086 -1.87126 72 83 102
-10.9711 0.962667 -1.86444 73 81 100
-10.9442 1.00572 -1.85997 73 81 100
-10.4488 1.70048 -1.86008 89 87 101
-10.4522 1.73092 -1.86219 75 73 85
-10.4585 1.77685 -1.86558 77 69 82
-9.95026 2.45271 -1.86132 99 104 118
-9.95483 2.48345 -1.86438 76 83 100
-9.9387 2.50829 -1.86263 85 92 110
-9.94119 2.53853 -1.86526 75 82 101
-9.01363 4.09705 -1.88783 76 87 105
-9.00337 4.12311 -1.88873 77 88 106
-8.99164 4.16401 -1.89099 76 87 105
-8.96579 4.18159 -1.88781 74 87 106
-8.96035 4.21037 -1.89007 74 87 106
-8.94971 4.23631 -1.89097 75 87 108
-8.92041 4.26754 -1.88869 76 88 108
-8.91126 4.29435 -1.89005 76 87 106
-8.90034 4.32018 -1.89094 75 86 104
-8.87407 4.35304 -1.88958 76 87 106
-8.85789 4.37585 -1.88911 74 86 108
-8.85509 4.40648 -1.89228 72 85 104
-8.82677 4.43809 -1.89046 73 86 103
-8.82372 4.46872 -1.89362 74 87 104
-8.79886 4.48634 -1.89089 74 87 106
-8.78685 4.52773 -1.89361 73 86 106
-8.77014 4.55024 -1.89314 73 86 105
-8.76498 4.57985 -1.89586 74 87 106
-8.7415 4.59817 -1.89358 72 85 104
-8.71898 4.63324 -1.89357 73 86 105
-8.70362 4.65656 -1.89356 73 86 105
-8.68817 4.67983 -1.89355 73 86 106
-8.67673 4.72203 -1.89672 72 85 104
-8.65945 4.74417 -1.89625 71 84 101
-8.65188 4.77263 -1.89851 71 84 102
-8.61716 4.79979 -1.89533 69 82 101
-8.61588 4.83249 -1.8994 73 86 105
-8.59502 4.85226 -1.89803 73 85 107
-8.57897 4.87521 -1.89802 73 85 109
-8.56805 4.91829 -1.90163 72 85 104
-8.53731 4.93127 -1.89754 71 84 103
-8.53223 4.96177 -1.90071 76 89 108
-8.50961 4.997 -1.90115 73 85 107
-8.47873 5.00965 -1.89706 71 83 105
-8.46695 5.03561 -1.89841 72 85 104
-8.44873 5.07395 -1.90021 71 83 105
-8.42881 5.09419 -1.89929 71 83 105
-8.41041 5.11549 -1.89883 72 84 104
-8.40299 5.14475 -1.90154 71 84 103
-8.37319 5.17483 -1.90016 71 84 103
-8.35611 5.19711 -1.90015 70 82 104
-8.34211 5.22165 -1.90105 70 82 104
-8.31665 5.25491 -1.90104 71 83 105
-7.38124 6.77401 -1.90765 55 63 82
-7.3445 6.79853 -1.90632 54 62 81
-7.31318 6.80752 -1.90323 56 63 82
-7.27539 6.80911 -1.89796 56 62 80
-7.22305 6.81557 -1.89137 54 60 79
-6.86648 7.68082 -1.92241 85 98 124
-6.84782 7.73276 -1.92915 45 49 78
-6.80324 7.72358 -1.92195 34 39 69
-6.3701 8.53965 -1.9357 104 42 69
-6.32896 8.56406 -1.93568 104 42 67
-5.89594 9.30225 -1.94078 135 130 131
-5.87291 9.33114 -1.94388 149 142 132
-5.38447 10.1567 -1.95064 100 97 110
-5.35391 10.1755 -1.95173 102 100 109
-4.48898 10.775 -1.87321 93 95 108
-4.44857 10.7667 -1.86967 88 90 103
-11.4991 0.268234 -1.87905 73 86 105
-11.5052 0.300318 -1.88062 74 85 105
-11.3655 0.391537 -1.87269 72 85 104
-11.3811 0.427941 -1.87583 75 86 106
-10.9646 0.870557 -1.86076 75 83 104
-10.9591 0.900521 -1.86036 77 85 106
-10.9476 0.929909 -1.85873 73 83 103
-10.4674 1.59994 -1.85964 133 112 92
-10.459 1.64289 -1.85965 137 121 108
-9.97909 2.35807 -1.86132 112 112 123
-9.96522 2.38359 -1.86 113 114 125
-9.95501 2.4101 -1.85956 114 115 127
-9.17808 3.7456 -1.88338 61 71 91
-9.1438 3.77498 -1.87929 74 85 105
-9.14687 3.80727 -1.88336 73 84 102
-9.14282 3.83618 -1.88563 71 83 100
-9.10902 3.85037 -1.88018 69 79 95
-9.10742 3.89584 -1.88471 81 90 109
-9.0822 3.91416 -1.88152 71 82 102
-9.08642 3.94743 -1.88605 74 85 107
-9.07908 3.99031 -1.88922 76 87 107
-9.05708 4.01022 -1.88695 75 86 105
-9.0385 4.03184 -1.88558 75 86 104
-9.03069 4.07463 -1.88875 75 86 104
-8.29624 5.27467 -1.90012 69 81 103
-8.29591 5.30968 -1.90509 70 82 105
-8.25306 5.32968 -1.90009 71 83 107
-8.24628 5.35993 -1.90325 70 82 104
-8.22557 5.37944 -1.90234 70 82 104
-8.2009 5.41336 -1.90278 69 82 101
-8.17697 5.43029 -1.90095 71 82 102
-8.16673 5.45804 -1.90321 71 83 102
-8.14269 5.47482 -1.90138 71 84 105
-8.10544 5.49861 -1.89819 69 81 105
-8.0919 5.52376 -1.89954 69 81 103
-8.08277 5.55258 -1.90225 69 81 103
-7.23293 6.87096 -1.9023 57 63 78
-7.22845 6.91033 -1.90842 56 62 78
-7.20136 6.94586 -1.91059 48 54 71
-6.78956 7.75705 -1.92616 76 91 119
-6.7621 7.77142 -1.92529 92 106 128
-6.72575 7.7992 -1.92569 65 61 81
-6.30018 8.57855 -1.93525 93 41 64
-6.27136 8.59295 -1.93482 91 48 66
-6.24851 8.61736 -1.93683 87 52 65
-5.82976 9.35684 -1.94464 151 141 143
-5.79169 9.35572 -1.94109 152 141 146
-5.31875 10.1834 -1.95058 110 107 114
-5.26974 10.2031 -1.95055 106 100 114
-4.40597 10.7507 -1.86472 83 85 98
-4.34609 10.7377 -1.85941 100 104 116
-11.4932 0.220292 -1.87747 77 90 109
-11.3791 0.320425 -1.87446 73 84 104
-11.3773 0.356161 -1.87445 72 85 104
-10.9766 0.795479 -1.86156 73 84 102
-10.9674 0.825164 -1.86034 72 83 101
-10.4654 1.54029 -1.85668 129 107 94
-10.4713 1.57095 -1.85922 132 110 97
-9.98425 2.25727 -1.85606 68 81 94
-10.0065 2.29226 -1.86307 59 67 84
-10.0116 2.32292 -1.86614 108 110 127
-9.27105 3.51456 -1.87934 63 71 90
-9.28228 3.54991 -1.88523 67 74 90
-9.24547 3.56367 -1.87887 77 86 103
-9.25438 3.61317 -1.88567 71 79 98
-9.22807 3.63156 -1.88204 68 76 95
-9.23702 3.66628 -1.88747 77 85 104
-9.18894 3.68945 -1.87976 76 83 102
-9.19763 3.72421 -1.8852 68 76 95
-8.05126 5.58094 -1.90087 68 80 102
-8.04191 5.60971 -1.90358 69 81 103
-8.01451 5.62349 -1.90085 68 80 102
-7.98867 5.65651 -1.90129 72 84 106
-7.97455 5.6814 -1.90263 69 81 105
-7.94849 5.69614 -1.90035 69 81 103
-7.93421 5.72094 -1.9017 64 79 102
-7.90642 5.75234 -1.90169 66 81 102
-7.88314 5.76936 -1.90031 66 81 102
-7.86274 5.78886 -1.89985 66 78 100
-7.17743 6.96309 -1.91014 44 49 67
-7.15598 6.98321 -1.91056 48 51 66
-7.12343 7.01253 -1.91097 53 51 66
-7.10306 7.03399 -1.91183 54 50 65
-6.70717 7.82616 -1.92821 53 45 68
-6.67952 7.84026 -1.92734 42 49 72
-6.64173 7.86606 -1.92732 60 64 86
-6.205 8.63784 -1.93599 68 49 60
-6.17799 8.65532 -1.93638 63 48 57
-5.77264 9.39316 -1.94615 112 102 112
-5.73969 9.40239 -1.94496 104 95 106
-5.23674 10.2161 -1.95052 106 102 113
-5.20518 10.2326 -1.95124 104 101 112
-4.306 10.7288 -1.85587 96 102 114
-11.4999 0.156741 -1.87824 71 82 100
-11.3911 0.267066 -1.87622 71 84 101
-10.9822 0.719866 -1.86114 75 84 101
-10.974 0.764846 -1.86033 73 85 101
-10.4769 1.46833 -1.85625 83 79 92
-10.5504 1.5102 -1.87359 99 83 83
-10.0255 2.09341 -1.85518 118 105 96
-10.0147 2.1342 -1.85518 118 104 96
-10.0147 2.16324 -1.85693 117 104 95
-10.0109 2.19136 -1.85781 125 112 103
-9.37312 3.31804 -1.88209 78 86 105
-9.3475 3.33729 -1.87846 67 76 93
-9.35593 3.37084 -1.88344 72 79 95
-9.33202 3.4056 -1.88163 77 84 100
-9.32406 3.4323 -1.88253 73 82 100
-9.31247 3.45743 -1.88252 63 74 92
-9.30243 3.49821 -1.88433 59 67 88
-7.84919 5.83287 -1.90436 66 80 103
-7.81119 5.83668 -1.89846 65 80 103
-7.80506 5.86898 -1.90252 68 80 102
-7.76937 5.89324 -1.90024 66 79 95
-7.75292 5.91632 -1.90113 68 81 98
-7.73782 5.94067 -1.90248 65 77 99
-7.08761 7.06138 -1.91444 52 50 67
-7.05462 7.06773 -1.91092 47 44 59
-7.02165 7.09661 -1.91134 52 46 54
-6.61179 7.87672 -1.92561 57 55 75
-6.59832 7.9115 -1.93024 57 56 70
-6.14896 8.66933 -1.93595 56 44 52
-6.10623 8.69102 -1.93551 56 48 58
-5.69957 9.43457 -1.94727 103 99 114
-5.65556 9.42056 -1.94099 96 92 107
-5.15593 10.2518 -1.95121 108 105 116
-4.26819 10.7274 -1.85373 96 100 111
-4.21575 10.7383 -1.85299 98 102 114
-11.3785 0.195203 -1.87344 72 85 104
-11.3789 0.230978 -1.87378 74 87 106
-10.9901 0.659598 -1.86153 74 82 103
-11.0067 0.691155 -1.86561 76 84 103
-10.5134 1.3412 -1.8592 127 120 126
-10.5045 1.36938 -1.85835 130 122 124
-10.4936 1.39722 -1.85708 136 133 134
-10.0712 2.0028 -1.86 71 76 96
-10.0609 2.0438 -1.86 70 68 82
-10.0442 2.06887 -1.85781 108 100 99
-9.434 3.10484 -1.87577 72 83 101
-9.42886 3.13241 -1.87713 64 76 92
-9.43089 3.16285 -1.8803 79 88 105
-9.40065 3.19523 -1.87667 70 82 98
-9.39521 3.22277 -1.87802 70 81 98
-9.39688 3.25324 -1.88119 69 78 95
-9.38044 3.27637 -1.87983 76 84 103
-7.71328 5.97515 -1.90382 65 77 99
-7.69227 5.99409 -1.90336 62 77 100
-7.66981 6.01164 -1.90243 61 76 99
-7.65295 6.03446 -1.90333 65 77 99
-7.63494 6.07534 -1.90694 63 78 99
-7.61644 6.09672 -1.90738 63 75 97
-6.99975 7.11628 -1.91176 54 50 59
-6.98022 7.13892 -1.91306 56 48 61
-6.9469 7.16746 -1.91347 62 57 63
-6.9199 7.18082 -1.91214 70 62 65
-6.55253 7.92559 -1.92725 53 49 63
-6.52791 7.94405 -1.92766 70 44 63
-6.50538 7.96568 -1.9289 93 42 69
-6.07902 8.70821 -1.9359 51 48 59
-6.05369 8.72873 -1.9371 54 53 59
-5.63012 9.44534 -1.94331 95 91 106
-5.59383 9.48595 -1.94758 95 93 107
-5.12349 10.2663 -1.95156 108 108 120
-5.0896 10.2771 -1.95116 106 106 118
-4.178 10.7366 -1.85085 98 101 115
-11.0025 0.584388 -1.86274 76 87 109
-10.9939 0.614271 -1.86152 71 82 103
-10.5524 1.27305 -1.86511 139 128 136
-10.5107 1.31129 -1.8575 129 118 123
-10.059 1.89915 -1.85166 68 77 96
-10.0624 1.94302 -1.85474 64 75 93
-10.0631 1.97203 -1.85649 69 77 96
-9.51145 2.95749 -1.87987 73 84 99
-9.49037 2.97913 -1.87714 76 87 101
-9.47729 3.01824 -1.87759 77 87 104
-9.45969 3.04107 -1.87578 76 85 102
-9.46023 3.07076 -1.87849 77 86 103
-7.59509 6.11535 -1.90691 64 76 100
-7.55708 6.13704 -1.90417 64 77 96
-7.5481 6.16776 -1.90778 65 78 95
-7.52931 6.18891 -1.90822 64 76 99
-7.49242 6.21158 -1.90594 61 72 94
-6.8989 7.20173 -1.913 76 67 66
-6.86166 7.22532 -1.9121 80 67 59
-6.83932 7.24453 -1.91252 77 64 58
-6.46591 7.98906 -1.92846 90 41 62
-6.43679 8.00072 -1.92717 87 37 54
-6.4204 8.03194 -1.93095 86 34 51
-6.01164 8.75169 -1.93707 58 53 59
-5.98518 8.77031 -1.93786 87 81 85
-5.95866 8.78885 -1.93865 105 96 101
-5.5615 9.49636 -1.94678 98 96 109
-5.52097 9.48886 -1.94206 96 94 108
-5.05849 10.295 -1.95225 98 96 109
-4.14398 10.748 -1.85118 99 103 114
-11.0056 0.523781 -1.86232 66 77 99
-11.007 0.554243 -1.86314 68 80 102
-10.5424 1.21263 -1.86087 88 83 103
-10.5262 1.23987 -1.85834 91 83 98
-10.075 1.81637 -1.85079 83 88 104
-10.0913 1.8485 -1.85605 83 90 106
-10.0657 1.87184 -1.85166 64 72 92
-9.55053 2.81061 -1.87625 76 88 104
-9.54272 2.83705 -1.8767 74 86 102
-9.51645 2.857 -1.87262 70 82 99
-9.50664 2.88269 -1.87261 78 88 104
-9.51417 2.92912 -1.87806 81 89 108
-7.48171 6.24085 -1.9091 63 74 96
-7.46404 6.26319 -1.90999 65 72 98
-7.42552 6.28409 -1.90725 63 71 94
-7.4104 6.30908 -1.90905 61 71 96
-7.39114 6.32983 -1.90949 61 71 96
-7.36505 6.34351 -1.90766 61 71 96
-6.82645 7.276 -1.91644 77 61 57
-6.80037 7.29048 -1.91555 78 63 55
-6.75922 7.30893 -1.91334 79 62 55
-6.38482 8.03359 -1.92713 84 45 52
-6.34822 8.06134 -1.92795 82 46 55
-5.91541 8.80965 -1.93821 102 92 100
-5.88779 8.82628 -1.9386 104 93 101
-5.48263 9.5255 -1.94555 97 94 107
-5.00336 10.2988 -1.94923 92 91 105
-4.9763 10.3276 -1.95256 95 95 109
-4.08733 10.7431 -1.84762 103 107 117
-4.05174 10.7485 -1.84689 106 109 120
-11.0423 0.449509 -1.86882 70 81 101
-11.0205 0.478951 -1.86475 70 81 101
-10.546 1.11011 -1.85832 78 84 99
-10.5416 1.13897 -1.85832 82 85 100
-10.5391 1.16807 -1.85875 87 88 106
-10.116 1.72427 -1.85516 66 71 85
-10.0887 1.74757 -1.85034 80 85 98
-10.1167 1.78186 -1.85823 77 82 101
-9.57818 2.64623 -1.86946 70 77 93
-9.57644 2.67453 -1.87127 69 76 92
-9.57036 2.71579 -1.87308 66 73 89
-9.56839 2.74413 -1.8749 77 86 103
-9.55341 2.7681 -1.87353 78 87 103
-7.34373 6.38219 -1.91081 62 73 95
-7.32422 6.40275 -1.91125 61 68 94
-7.30063 6.41901 -1.91033 64 70 95
-7.26955 6.44752 -1.91031 64 72 95
-6.73775 7.3294 -1.91419 80 63 56
-6.71504 7.34826 -1.91461 75 60 63
-6.68418 7.38032 -1.91634 45 50 72
-6.3273 8.08579 -1.93004 94 69 75
-6.30211 8.10359 -1.93044 96 74 78
-6.25689 8.11771 -1.92788 91 68 76
-5.85829 8.83937 -1.93817 101 92 103
-5.83057 8.85583 -1.93855 101 92 101
-5.45987 9.55699 -1.94944 103 97 109
-5.41859 9.54728 -1.94433 103 97 110
-5.39566 9.57863 -1.94821 98 92 106
-4.93947 10.3305 -1.95067 93 96 109
-4.01716 10.7577 -1.84686 104 103 116
-11.0288 0.418508 -1.86556 74 85 103
-10.6006 1.0431 -1.86804 76 82 100
-10.581 1.07027 -1.86466 82 86 105
-10.133 1.62733 -1.85428 123 113 103
-10.1232 1.65412 -1.8534 104 99 96
-10.1267 1.68341 -1.8556 69 75 86
-9.62847 2.50402 -1.86992 81 90 106
-9.61604 2.5289 -1.86901 71 80 96
-9.62215 2.55953 -1.87264 86 92 111
-9.60399 2.5826 -1.87037 84 91 108
-9.59836 2.6239 -1.87218 72 79 95
-7.2485 6.46644 -1.91029 61 68 94
-7.23264 6.49104 -1.91209 61 69 94
-7.20122 6.51923 -1.91207 59 69 94
-7.18125 6.53939 -1.91251 59 70 92
-6.66014 7.39745 -1.91633 82 93 115
-6.63373 7.41137 -1.91543 105 114 136
-6.59906 7.43839 -1.91585 65 66 87
-6.24495 8.1569 -1.93378 90 74 80
-6.20727 8.15448 -1.92911 93 80 83
-5.7861 8.87429 -1.93771 99 93 104
-5.75827 8.89053 -1.9381 99 93 105
-5.35274 9.60581 -1.94975 99 96 107
-4.89519 10.3632 -1.95362 92 95 110
-4.86237 10.3769 -1.95396 92 95 110
-3.95769 10.7407 -1.8412 96 98 111
-3.92215 10.7457 -1.84047 70 73 89
-11.0411 0.312547 -1.86675 68 79 99
-11.0354 0.342766 -1.86594 69 82 101
-11.0295 0.372955 -1.86514 73 84 104
-10.6144 0.98566 -1.8693 74 82 103
-10.6085 1.0145 -1.86888 72 80 99
-10.147 1.52994 -1.85296 127 108 97
-10.1356 1.55648 -1.85164 126 108 96
-10.1337 1.58467 -1.85252 120 103 90
-9.63357 2.40562 -1.86403 108 110 125
-9.64198 2.43665 -1.86811 111 117 131
-9.62045 2.45878 -1.86493 119 126 139
-7.1573 6.55516 -1.91159 59 69 92
-7.1359 6.57374 -1.91157 62 69 92
-7.10539 6.60295 -1.91201 60 70 90
-7.09284 6.63161 -1.91516 58 69 87
-6.57255 7.4521 -1.91495 42 42 67
-6.55511 7.47839 -1.91756 71 79 107
-6.51898 7.50347 -1.91754 85 99 120
-6.18017 8.19815 -1.93415 75 72 75
-6.14148 8.19377 -1.92906 71 67 72
-5.73396 8.91365 -1.94011 95 89 103
-5.69104 8.93513 -1.94008 93 87 101
-5.32012 9.61545 -1.94894 103 100 109
-5.29292 9.63757 -1.95087 104 98 110
-4.82682 10.3831 -1.95282 90 94 107
-3.88126 10.7297 -1.83588 73 78 95
-11.0433 0.26702 -1.86674 69 82 102
-10.6118 0.911776 -1.86675 73 82 100
-10.6237 0.942457 -1.87013 74 84 103
-10.156 1.43187 -1.85075 78 79 88
-10.1776 1.46384 -1.85689 93 91 99
-10.2217 1.51403 -1.86873 112 97 99
-9.68287 2.27771 -1.86629 68 75 94
-9.65752 2.34151 -1.86493 116 118 131
-9.66057 2.37085 -1.86765 113 111 124
-7.06479 6.64267 -1.91288 55 68 87
-7.03395 6.67157 -1.91331 59 67 90
-7.02107 6.70011 -1.91647 57 68 90
-6.98405 6.70052 -1.91101 56 67 87
-6.49117 7.51533 -1.9162 76 70 88
-6.4723 7.53985 -1.91837 70 64 78
-6.44777 7.55633 -1.91835 79 78 93
-6.12696 8.22945 -1.93411 56 52 59
-6.08037 8.24096 -1.93113 51 46 53
-6.05762 8.26308 -1.9328 49 42 50
-5.66212 8.94935 -1.94006 97 93 107
-5.63313 8.96348 -1.94003 95 92 103
-5.24657 9.6571 -1.95084 102 100 113
-4.77885 10.4061 -1.9539 87 93 105
-4.74196 10.4084 -1.95201 86 94 105
-11.0483 0.206345 -1.86713 75 87 109
-11.0488 0.23675 -1.86755 70 82 104
-10.6222 0.839296 -1.86716 74 85 103
-10.6174 0.882911 -1.86717 73 84 102
-10.1725 1.36348 -1.85162 129 122 125
-10.1748 1.40641 -1.85382 126 126 134
-9.7023 2.15569 -1.86267 117 104 95
-9.68939 2.19453 -1.86222 118 107 100
-9.6779 2.21971 -1.86131 110 109 108
-9.79496 2.35181 -1.89623 67 74 90
-6.94662 6.72164 -1.90918 59 71 87
-6.93598 6.75299 -1.91324 58 66 85
-6.90896 6.76492 -1.91141 58 66 85
-6.41347 7.58413 -1.91921 55 58 75
-6.3899 7.60205 -1.91963 55 58 71
-6.03477 8.28514 -1.93447 52 44 58
-6.005 8.29532 -1.93318 56 48 63
-5.58649 8.97749 -1.93837 96 93 104
-5.56003 8.99665 -1.93957 96 93 102
-5.2146 9.6682 -1.95042 102 100 113
-5.17583 9.66291 -1.94649 97 95 106
-4.7096 10.4235 -1.95273 93 99 111
-11.0498 0.175976 -1.86713 73 84 106
-10.6425 0.782304 -1.87011 75 83 102
-10.6315 0.810739 -1.86842 72 81 101
-10.1901 1.30933 -1.85337 126 119 123
-10.1794 1.33614 -1.85206 128 121 127
-9.72219 2.06231 -1.86131 71 68 78
-9.71727 2.10317 -1.86267 118 104 101
-9.70417 2.12798 -1.86131 114 104 95
-8.44922 4.16084 -1.88605 77 90 107
-8.40442 4.27268 -1.89122 73 86 105
-8.38509 4.29204 -1.88979 72 84 106
-8.37399 4.31636 -1.89073 74 86 108
-8.3576 4.35279 -1.89214 68 79 99
-8.34466 4.37604 -1.89261 75 86 104
-8.3234 4.39413 -1.8907 73 86 103
-8.3066 4.43039 -1.89212 72 84 102
-8.28684 4.44935 -1.89068 73 84 102
-8.27193 4.47136 -1.89068 73 84 104
-8.25963 4.51061 -1.89351 73 85 107
-8.23639 4.52726 -1.89113 74 86 108
-8.23425 4.55761 -1.89491 72 84 106
-8.1867 4.60574 -1.89205 71 84 103
-6.89117 6.80963 -1.91683 59 68 85
-6.86526 6.8229 -1.91545 57 64 80
-6.83809 6.83456 -1.91362 56 62 81
-6.82564 6.86426 -1.91723 53 61 79
-6.36297 7.61506 -1.91873 51 53 66
-6.324 7.63603 -1.91783 53 53 63
-6.30241 7.65692 -1.91912 53 50 61
-5.96505 8.31803 -1.93315 51 48 57
-5.94486 8.34495 -1.93609 51 48 57
-5.53348 9.01574 -1.94077 98 95 104
-5.50257 9.02595 -1.93993 96 93 104
-5.13682 9.70002 -1.95037 90 90 102
-5.10694 9.71622 -1.95112 90 89 103
-4.66073 10.4441 -1.95344 90 96 108
-4.62635 10.4534 -1.95304 92 98 112
-10.6461 0.709118 -1.86925 77 85 104
-10.6489 0.738745 -1.87052 77 85 104
-10.1859 1.18138 -1.84766 73 79 95
-10.2161 1.2137 -1.85555 79 78 96
-10.1786 1.23692 -1.8481 86 78 95
-10.1951 1.26754 -1.85292 130 120 130
-9.75558 1.94421 -1.86176 68 76 95
-9.74105 1.96879 -1.85994 66 78 92
-9.74415 2.01151 -1.86312 68 75 94
-9.73699 2.03786 -1.86312 69 71 88
-8.69316 3.7376 -1.88617 71 82 100
-8.66491 3.75291 -1.8819 73 84 103
-8.65912 3.77957 -1.88378 79 90 109
-8.63686 3.81244 -1.88283 78 90 106
-8.63946 3.84356 -1.88709 80 92 108
-8.61099 3.85849 -1.88282 78 90 106
-8.58838 3.8911 -1.88186 73 86 103
-8.58722 3.92042 -1.88517 60 73 92
-8.56885 3.94055 -1.88374 66 79 98
-8.56409 3.96803 -1.8861 75 88 105
-8.54609 4.0032 -1.88657 65 76 94
-8.519 4.01846 -1.88277 64 75 95
-8.52581 4.0525 -1.88845 67 78 98
-8.50401 4.08561 -1.88797 75 86 105
-8.48687 4.10635 -1.88701 77 88 106
-8.47811 4.13185 -1.88842 77 88 106
-8.44529 4.1892 -1.88888 73 85 107
-8.43624 4.21463 -1.89029 73 86 105
-8.42374 4.23807 -1.89076 72 84 106
-8.21737 4.57841 -1.89443 72 84 106
-8.17775 4.63177 -1.89393 73 84 103
-8.16871 4.6578 -1.89582 71 84 101
-8.15057 4.69355 -1.89723 71 83 105
-8.11885 4.7042 -1.89248 70 82 104
-8.11114 4.73122 -1.89484 70 82 104
-8.0942 4.76788 -1.89672 72 84 106
-8.06716 4.78152 -1.8934 72 84 106
-8.06073 4.8096 -1.89623 71 83 105
-8.03863 4.84272 -1.89669 71 83 105
-8.02406 4.86513 -1.89715 72 85 104
