-26.9977 6.74325 -2.13022 85 94 111
-26.9995 6.87317 -2.1333 83 95 108
-12.3065 11.4719 -1.33442 116 105 103
-12.2448 11.4808 -1.33089 139 124 126
-12.212 11.5196 -1.33142 85 74 81
-11.5144 16.2255 -1.47556 67 77 89
-11.4467 16.2324 -1.47287 65 75 87
-11.3633 16.2137 -1.46757 66 76 88
-11.2724 16.2391 -1.46521 66 76 87
-11.1935 16.2264 -1.4606 65 75 87
-11.1189 16.2201 -1.4567 66 74 85
-11.0252 16.2392 -1.45381 70 73 85
-9.32443 16.1684 -1.32485 66 75 90
-9.23576 16.1832 -1.32257 68 78 90
-9.1664 16.1726 -1.31913 66 76 88
-9.10421 16.1759 -1.31704 67 76 91
-9.01317 16.1842 -1.31426 65 74 91
-6.0757 16.1452 -1.10602 69 79 91
-27.9701 3.39766 -2.08206 71 77 98
-28.0157 3.48852 -2.08695 72 82 99
-28.0078 3.5726 -2.08724 62 76 97
-28.0115 3.70087 -2.08906 66 78 100
-28.0206 3.78747 -2.09088 75 80 102
-27.177 5.41872 -2.11858 87 99 116
-27.1815 5.54688 -2.12132 88 96 115
-27.1807 5.6317 -2.12285 90 98 118
-27.1776 5.71616 -2.1242 89 96 115
-27.1704 5.79976 -2.12521 90 96 117
-27.1517 5.92341 -2.12601 83 91 109
-27.1147 6.00022 -2.12437 75 85 104
-27.091 6.08007 -2.12397 98 107 122
-14.7124 7.28165 -1.33844 120 115 124
-10.9529 16.2356 -1.45025 62 61 70
-10.8707 16.2147 -1.44495 58 59 64
-10.7793 16.2358 -1.44242 64 63 68
-10.7084 16.233 -1.43904 60 64 67
-10.6366 16.2282 -1.43548 61 62 66
-10.5306 16.2222 -1.43033 49 48 59
-10.468 16.2323 -1.42834 72 82 92
-8.94593 16.1762 -1.31116 60 73 92
-8.88309 16.177 -1.3089 89 106 121
-8.79066 16.1805 -1.30578 102 111 127
-8.72966 16.1843 -1.30386 109 116 127
-8.66624 16.1825 -1.30144 112 114 122
-27.8767 2.71137 -2.06725 149 150 160
-27.7921 2.78658 -2.06073 96 108 124
-26.9051 4.61103 -2.0812 92 101 114
-26.9268 4.69802 -2.08449 92 102 119
-26.9522 4.78595 -2.08813 92 102 120
-26.9521 4.91085 -2.09018 91 100 121
-26.9963 5.00301 -2.09558 90 98 117
-27.0617 5.0998 -2.10292 91 98 117
-27.1087 5.23545 -2.10936 87 99 115
-27.1382 5.32594 -2.11353 86 97 115
-14.8244 7.39835 -1.35416 116 113 120
-14.8026 7.46959 -1.35571 119 117 120
-7.30333 10.7511 -0.985582 72 74 86
-10.0841 16.2093 -1.41002 66 76 88
-9.9946 16.228 -1.40766 65 75 87
-8.60038 16.1751 -1.29851 104 101 110
-8.51006 16.1806 -1.29572 69 72 87
-8.44692 16.178 -1.2933 68 77 92
-8.37899 16.1642 -1.28987 69 78 93
-8.29624 16.185 -1.2886 67 76 91
-27.7964 2.41027 -2.05785 124 123 135
-27.8434 2.49831 -2.06258 143 132 129
-27.0523 4.05649 -2.08575 85 93 112
-27.0367 4.13674 -2.08552 79 85 104
-26.9807 4.25159 -2.08229 95 102 118
-26.937 4.32692 -2.0796 94 103 118
-26.9362 4.40952 -2.08078 92 101 116
-26.9183 4.53052 -2.08107 94 101 117
-7.25888 10.7529 -0.983616 61 59 70
-7.22717 10.7771 -0.98415 59 59 64
-7.21186 10.8307 -0.987951 60 60 63
-9.93153 16.2344 -1.40551 63 73 88
-9.86008 16.2247 -1.40178 65 74 89
-9.76795 16.237 -1.3989 65 73 86
-9.69773 16.2284 -1.39535 64 74 88
-9.63128 16.2266 -1.39249 67 77 89
-9.56583 16.2264 -1.38981 66 76 88
-8.23415 16.1835 -1.28635 67 76 91
-8.16819 16.1725 -1.28325 67 76 91
-8.08086 16.1813 -1.28097 66 75 90
-8.01595 16.1716 -1.27805 65 74 89
-27.8505 1.74647 -2.05783 152 152 160
-27.758 1.90677 -2.05093 125 121 130
-27.755 1.98979 -2.05123 152 133 128
-26.9945 3.59448 -2.07456 84 95 110
-27.0197 3.68029 -2.07786 83 94 112
-27.0525 3.76746 -2.08186 82 93 115
-9.46961 16.2282 -1.38606 65 75 88
-9.4035 16.2256 -1.38321 65 74 89
-9.33569 16.2191 -1.38001 66 75 90
-9.24696 16.2339 -1.37765 66 75 90
-9.17938 16.2269 -1.37445 66 75 89
-7.95578 16.1727 -1.27613 65 72 90
-7.87023 16.184 -1.27419 65 74 89
-7.80867 16.1809 -1.27194 65 75 88
-7.74343 16.1683 -1.26885 67 76 91
-7.68652 16.1758 -1.26761 68 76 91
-27.8156 1.6193 -2.05413 91 102 126
-22.1089 10.2821 -2.04473 85 89 100
-21.9226 10.2712 -2.02804 87 90 99
-21.7437 10.2628 -2.01213 95 97 106
-21.5453 10.2833 -1.99581 108 112 121
-21.39 10.2844 -1.98242 120 120 130
-21.3055 10.321 -1.97675 121 119 128
-21.2294 10.4012 -1.97377 109 108 116
-21.1484 10.4388 -1.96849 108 106 114
-21.1252 10.5066 -1.96959 110 107 115
-21.0537 10.5885 -1.96718 112 107 113
-11.0757 7.48207 -1.13423 91 106 128
-10.9994 7.47278 -1.12702 91 105 127
-10.9405 7.47645 -1.1222 90 102 126
-10.8605 7.48751 -1.11607 96 108 128
-10.8939 7.56286 -1.12406 91 104 127
-10.9035 7.62003 -1.1288 89 103 123
-10.8217 7.62921 -1.12245 80 92 114
-9.11105 16.2178 -1.37107 67 77 89
-9.02001 16.226 -1.36819 63 75 90
-8.9528 16.2181 -1.36499 70 83 100
-8.88402 16.2063 -1.36144 93 107 124
-8.79924 16.226 -1.35979 102 111 127
-7.59611 16.1729 -1.26449 68 75 91
-7.53783 16.1762 -1.26291 68 77 92
-7.47814 16.1756 -1.261 68 77 92
-26.8482 2.43751 -2.04945 148 134 131
-26.7326 2.50673 -2.0399 147 132 125
-26.8273 2.71819 -2.05019 148 152 161
-26.7782 2.79365 -2.04663 128 133 145
-23.1055 10.2658 -2.1313 86 89 96
-22.9035 10.2957 -2.11478 88 92 103
-22.7178 10.2903 -2.09829 91 95 106
-22.5146 10.2752 -2.07986 88 91 106
-22.3062 10.2972 -2.06257 89 93 102
-10.8371 7.69139 -1.12805 82 90 113
-10.8368 7.74126 -1.13149 64 74 99
-10.7256 7.72578 -1.12101 48 59 85
-10.7695 7.81207 -1.13074 36 46 73
-10.8055 7.94378 -1.14303 49 64 92
-10.6669 7.90413 -1.12865 54 70 98
-10.7003 7.98351 -1.13707 56 78 104
-10.7001 8.03487 -1.14072 57 75 104
-17.2761 14.777 -1.9032 60 65 84
-17.1325 14.738 -1.89041 58 59 77
-17.0896 14.7919 -1.89092 66 66 78
-17.0016 14.8499 -1.88851 86 78 92
-16.9584 14.9033 -1.88902 98 96 110
-16.9021 14.9443 -1.88779 112 115 126
-16.8207 15.0081 -1.88635 121 119 127
-16.7755 15.0597 -1.88666 41 41 51
-16.7202 15.1014 -1.88563 57 57 67
-16.6307 15.1095 -1.87997 100 99 103
-16.5614 15.1845 -1.88026 106 95 90
-16.5128 15.2325 -1.88019 75 63 62
-12.3345 11.4662 -1.40534 86 71 72
-16.4529 15.269 -1.87858 93 75 77
-12.321 11.5253 -1.40871 95 62 74
-12.2169 11.4894 -1.39878 105 71 90
-12.1936 11.5382 -1.40075 115 83 98
-8.73406 16.2208 -1.35693 110 116 127
-8.6748 16.2281 -1.3553 108 106 117
-8.6024 16.2061 -1.35088 94 91 102
-8.51702 16.2226 -1.34905 73 79 95
-8.45712 16.2272 -1.34725 69 79 92
-7.38881 16.1733 -1.25805 68 77 92
-7.33071 16.1759 -1.25647 67 76 91
-7.27195 16.1764 -1.25473 68 77 92
-7.18574 16.1806 -1.25245 67 76 91
-23.7605 9.01675 -2.1411 87 90 107
-23.728 9.12681 -2.14218 87 89 104
-23.704 9.19937 -2.1427 88 91 106
-23.687 9.27491 -2.14399 86 90 102
-23.613 9.36784 -2.14081 75 79 91
-23.6083 9.44862 -2.14346 76 80 92
-23.5887 9.52324 -2.14456 92 96 105
-23.5538 9.63274 -2.14564 125 128 136
-23.6429 9.75495 -2.15834 134 137 142
-23.4749 9.76496 -2.14377 111 111 116
-23.4406 9.87485 -2.14504 88 87 95
-23.4177 9.94833 -2.14595 92 90 100
-23.4019 10.0251 -2.14762 96 94 96
-23.3351 10.0786 -2.14389 116 111 116
-23.2993 10.1881 -2.14515 92 90 99
-23.2357 10.2428 -2.1418 99 99 109
-10.7305 8.13859 -1.15065 55 71 103
-10.7161 8.17856 -1.15235 54 72 101
-10.6985 8.21591 -1.15361 56 72 102
-10.7245 8.31777 -1.1631 54 70 100
-16.3786 15.339 -1.87829 96 50 65
-16.31 15.3665 -1.87553 120 76 93
-16.2553 15.408 -1.87469 115 94 104
-16.0273 15.6126 -1.87361 118 113 105
-15.9378 15.6661 -1.8714 121 110 108
-15.8579 15.6802 -1.86709 117 105 105
-15.8145 15.7332 -1.86798 98 90 88
-8.38925 16.2135 -1.3437 68 77 92
-8.30484 16.2307 -1.34204 68 77 91
-8.24039 16.2236 -1.33919 66 76 89
-8.18311 16.2328 -1.33791 67 77 89
-7.12573 16.1769 -1.25037 67 76 91
-7.0658 16.173 -1.24829 68 77 92
-7.0053 16.167 -1.24604 68 77 92
-6.91748 16.1641 -1.24326 66 75 92
-23.9496 7.9135 -2.12045 81 91 103
-23.9445 7.99175 -2.12252 82 91 104
-23.9334 8.06805 -2.12401 86 89 104
-23.924 8.14504 -2.12569 86 89 104
-23.8996 8.25681 -2.12716 85 88 103
-23.8989 8.33725 -2.12981 85 88 105
-23.8792 8.41086 -2.13053 85 88 105
-23.8479 8.52048 -2.13142 86 89 104
-23.8481 8.60177 -2.13426 87 89 102
-23.8461 8.68243 -2.13691 88 90 103
-23.819 8.79417 -2.13838 85 91 103
-23.7942 8.86621 -2.1387 84 90 102
-23.7784 8.94185 -2.14 86 90 103
-10.8075 8.44468 -1.17912 54 68 99
-10.7691 8.60063 -1.18744 129 45 97
-10.8205 8.70251 -1.19911 134 42 91
-15.7515 15.8148 -1.86962 102 95 94
-15.6741 15.8309 -1.8657 102 93 93
-15.6169 15.8688 -1.86466 103 97 99
-15.5425 15.9377 -1.86476 72 69 74
-15.461 15.9485 -1.86026 79 77 86
-15.4312 16.0168 -1.86327 83 80 89
-15.3508 16.0789 -1.8626 93 90 99
-15.2759 16.0962 -1.85906 78 75 82
-15.2023 16.1147 -1.85572 75 72 83
-15.1157 16.1178 -1.85045 70 67 78
-8.23133 16.562 -1.36606 67 76 91
-8.03305 16.2375 -1.33306 65 72 88
-7.96137 16.2111 -1.32847 65 72 89
-7.90202 16.2138 -1.32667 67 74 89
-6.86114 16.1688 -1.24202 69 78 93
-6.80158 16.164 -1.23994 68 77 92
-6.71667 16.1676 -1.23784 65 77 91
-6.65983 16.1698 -1.23643 66 78 92
-24.1065 6.93649 -2.10526 83 92 109
-24.088 7.04834 -2.10674 86 96 108
-24.0744 7.12271 -2.10765 86 96 108
-24.0739 7.20125 -2.10992 86 94 107
-24.0598 7.27564 -2.11083 87 95 108
-24.0491 7.39056 -2.11327 85 94 109
-24.0287 7.46308 -2.1136 87 93 107
-24.0289 7.54243 -2.11606 88 94 108
-23.9716 7.64226 -2.11386 89 91 106
-23.9768 7.72354 -2.1169 87 88 106
-23.9648 7.79913 -2.1182 88 91 106
-10.8392 8.77529 -1.20601 153 51 96
-10.9368 8.94954 -1.22678 108 39 82
-14.9961 16.133 -1.84399 93 91 102
-14.9059 16.1307 -1.83815 92 92 100
-14.8185 16.131 -1.83269 93 95 100
-14.6969 16.1413 -1.82585 90 94 93
-14.6046 16.1346 -1.81962 87 86 92
-14.5189 16.1351 -1.81435 90 89 97
-14.394 16.1389 -1.80694 84 84 96
-14.3011 16.1292 -1.80051 85 84 92
-14.2158 16.1284 -1.79525 86 84 89
-14.1232 16.1179 -1.78883 86 84 91
-14.0191 16.1441 -1.78449 92 92 97
-13.9293 16.1358 -1.77846 98 98 100
-13.8372 16.124 -1.77204 97 97 99
-7.34208 10.7478 -1.04058 67 75 86
-7.2811 10.7203 -1.03511 75 77 95
-7.22811 10.7064 -1.03125 59 59 69
-7.21774 10.7686 -1.03623 64 63 71
-7.17184 10.8072 -1.03738 63 63 67
-7.81503 16.2212 -1.32431 67 76 90
-7.75062 16.2105 -1.32129 67 76 90
-7.69443 16.2199 -1.32019 69 78 92
-7.60695 16.2243 -1.31766 68 77 92
-6.59987 16.1623 -1.23418 68 78 90
-6.51522 16.1649 -1.23208 70 78 91
-6.45607 16.1589 -1.23 67 76 91
-24.1943 6.26154 -2.09507 79 84 103
-24.2101 6.34333 -2.0987 80 85 105
-24.1874 6.41457 -2.09845 87 93 112
-24.1638 6.52428 -2.09916 86 93 110
-24.1405 6.59535 -2.09891 86 93 111
-24.1226 6.66803 -2.09925 86 93 109
-24.1016 6.77865 -2.10034 85 94 111
-24.0699 6.84723 -2.09932 84 94 108
-20.9875 10.2715 -2.04513 85 91 103
-20.8174 10.2609 -2.0293 81 87 100
-20.6441 10.2474 -2.01307 80 83 97
-20.4707 10.2715 -1.99864 92 94 107
-13.7237 16.136 -1.76617 104 105 113
-13.6418 16.1358 -1.76129 99 100 103
-13.5769 16.1573 -1.7591 95 95 97
-13.483 16.1931 -1.75631 90 89 93
-13.3989 16.1887 -1.75105 85 86 90
-13.3245 16.1966 -1.74732 80 77 84
-13.2034 16.1943 -1.74011 72 74 87
-13.1281 16.1998 -1.73619 71 75 88
-13.0187 16.1585 -1.7267 69 77 90
-12.9448 16.1648 -1.72297 70 77 93
-7.54503 16.2184 -1.31516 70 79 93
-7.48608 16.2196 -1.31336 69 78 93
-7.39604 16.2156 -1.31014 70 79 94
-7.33796 16.2182 -1.30851 70 79 94
-6.40255 16.1696 -1.22943 68 77 92
-6.31751 16.1693 -1.22716 70 79 94
-6.25979 16.1664 -1.22542 70 79 94
-25.4673 2.1739 -2.01586 88 95 110
-24.4581 5.7122 -2.1063 86 95 112
-24.4161 5.77897 -2.10393 87 96 113
-24.3103 5.82943 -2.09517 88 97 114
-24.2606 5.93206 -2.09297 82 91 106
-24.2526 6.00701 -2.09408 75 82 98
-24.2578 6.08552 -2.09655 106 112 128
-24.3068 6.21462 -2.10442 136 140 152
-21.9744 9.85248 -2.11595 84 83 96
-21.9641 9.92763 -2.11832 80 80 93
-21.9249 9.98891 -2.11745 88 86 98
-21.8698 10.0823 -2.11656 96 94 104
-21.8071 10.1318 -2.11306 88 87 99
-21.7637 10.1907 -2.11178 87 87 97
-21.667 10.2226 -2.10444 88 92 103
-21.5224 10.2696 -2.09345 90 93 106
-21.3463 10.2594 -2.07701 95 97 109
-21.1704 10.2482 -2.06058 88 91 103
-14.5474 7.28685 -1.44033 84 87 102
-14.4029 7.2882 -1.42657 77 80 93
-14.3583 7.31756 -1.42392 88 92 101
-14.1006 7.30641 -1.39882 117 120 126
-10.991 7.41005 -1.17998 57 56 73
-10.9512 7.42828 -1.17767 54 52 68
-10.8628 7.40857 -1.16833 51 51 71
-10.9035 7.51355 -1.17939 73 83 105
-10.7966 7.47842 -1.16733 56 67 86
-10.8328 7.55636 -1.17614 45 54 72
-16.3867 14.0307 -1.88159 57 53 67
-16.3259 14.0631 -1.8793 54 51 68
-16.2601 14.1352 -1.87941 76 78 90
-16.2365 14.2027 -1.88237 84 84 92
-16.191 14.2495 -1.88231 52 53 73
-16.1244 14.321 -1.88242 79 80 98
-16.0672 14.3564 -1.88074 62 61 79
-15.9943 14.3764 -1.87684 48 48 66
-15.9582 14.4323 -1.87819 52 49 64
-15.8639 14.476 -1.87447 53 52 60
-15.8218 14.526 -1.875 46 39 51
-12.8445 16.1876 -1.71903 71 78 92
-12.7708 16.1933 -1.71531 70 80 91
-12.6833 16.1792 -1.70928 71 81 93
-12.5752 16.1891 -1.70399 68 79 93
-12.4962 16.1856 -1.69931 69 80 94
-12.4183 16.1833 -1.69481 69 78 91
-12.3231 16.2096 -1.69164 70 77 93
-7.27783 16.215 -1.30636 68 77 92
-7.19301 16.2229 -1.30436 68 77 92
-7.12895 16.208 -1.30117 68 77 92
-7.06909 16.2041 -1.29902 67 76 91
-6.1998 16.1556 -1.22301 69 78 93
-6.144 16.1579 -1.22177 70 80 92
-6.06457 16.1735 -1.22101 67 77 90
-25.4896 1.77188 -2.01491 153 160 172
-25.509 1.97524 -2.01799 152 133 120
-25.4761 2.05344 -2.01571 124 116 113
-24.4459 4.98188 -2.08893 92 101 118
-24.4543 5.09786 -2.09216 91 99 115
-24.4956 5.18337 -2.09792 88 97 114
-24.4978 5.26041 -2.09981 87 96 113
-24.4836 5.37207 -2.10091 88 98 115
-24.4832 5.44878 -2.1026 89 98 115
-24.4807 5.52508 -2.1041 87 96 113
-24.4778 5.60142 -2.1056 87 95 114
-22.4702 8.61509 -2.11114 87 88 106
-22.446 8.68293 -2.11148 88 90 105
-22.4234 8.75149 -2.11203 89 91 106
-22.383 8.8515 -2.11216 90 91 106
-22.358 8.91912 -2.1125 90 92 107
-22.3383 8.98902 -2.11346 89 91 103
-22.3041 9.09182 -2.11439 92 92 105
-22.2638 9.15285 -2.11312 93 92 108
-22.2542 9.22738 -2.11528 92 93 109
-22.2171 9.2898 -2.11441 85 89 100
-22.1832 9.39299 -2.11555 80 80 92
-22.1529 9.45843 -2.11549 94 92 102
-22.1421 9.53289 -2.11765 113 113 122
-22.1053 9.63502 -2.11858 136 139 144
-22.0922 9.70864 -2.12054 125 124 129
-22.0231 9.75597 -2.11624 109 108 116
-14.8818 7.30405 -1.47329 94 99 111
-14.8737 7.35505 -1.4752 96 100 114
-14.6564 7.29194 -1.45103 94 97 112
-10.8303 7.62849 -1.18107 81 89 108
-10.7716 7.63091 -1.17604 85 97 117
-10.7683 7.67813 -1.17918 81 96 117
-10.7497 7.73774 -1.18184 74 90 113
-10.712 7.85822 -1.18739 75 88 109
-10.6499 7.88196 -1.18371 65 75 98
-10.6258 7.91256 -1.18389 82 94 114
-10.6649 7.9973 -1.1936 80 95 114
-15.753 14.549 -1.87171 126 78 96
-15.664 14.5972 -1.8688 154 61 82
-15.5993 14.6239 -1.86611 136 47 76
-15.5525 14.6688 -1.86604 93 36 71
-15.2303 14.893 -1.85981 111 110 117
-15.1637 14.9164 -1.85693 111 109 116
-15.1052 14.9483 -1.85525 114 109 116
-12.2534 16.2182 -1.6885 70 78 95
-12.187 16.2313 -1.68593 68 78 91
-12.1107 16.2294 -1.68164 70 80 92
-12.0267 16.2706 -1.68039 71 81 93
-11.9044 16.1984 -1.66801 68 78 90
-11.822 16.1853 -1.66256 69 78 93
-11.7188 16.1951 -1.65785 69 79 91
-11.6411 16.188 -1.65317 71 80 93
-7.01333 16.2112 -1.29791 67 76 91
-6.92817 16.2159 -1.29574 67 74 90
-6.87312 16.2244 -1.29481 68 77 92
-25.5098 1.69256 -2.01614 158 155 168
-24.4344 4.48757 -2.078 93 100 118
-24.4369 4.56348 -2.0797 93 100 118
-24.4334 4.63827 -2.08081 92 99 117
-24.4374 4.71469 -2.0827 92 99 117
-24.4452 4.82985 -2.08574 92 100 117
-24.4486 4.90646 -2.08763 91 99 118
-22.7331 7.56432 -2.09798 92 94 109
-22.716 7.63415 -2.09874 91 93 108
-22.7023 7.7053 -2.09989 90 92 107
-22.6949 7.81681 -2.10306 91 93 108
-22.6695 7.88384 -2.103 87 90 105
-22.6587 7.95636 -2.10457 87 90 105
-22.6314 8.06094 -2.10571 85 89 106
-22.6201 8.13346 -2.10727 86 89 107
-22.6029 8.20385 -2.10822 86 89 104
-22.5726 8.30756 -2.10916 87 90 105
-22.5548 8.37787 -2.11011 86 89 104
-22.5295 8.4452 -2.11026 88 91 106
-22.5095 8.51469 -2.11101 85 89 104
-10.6609 8.07117 -1.19876 60 74 90
-10.6511 8.11485 -1.20121 66 79 99
-10.6591 8.17424 -1.20638 57 72 94
-10.6658 8.25898 -1.21335 70 84 109
-10.6642 8.31078 -1.21716 74 84 112
-15.0379 15.0177 -1.85576 108 106 109
-14.9512 15.0182 -1.84985 108 108 111
-14.9191 15.0788 -1.8522 106 105 110
-14.8193 15.1119 -1.84788 110 107 113
-14.7921 15.1781 -1.85103 111 110 116
-14.7318 15.2071 -1.84915 113 111 117
-14.6858 15.2523 -1.84949 111 109 113
-14.5726 15.2689 -1.84315 117 114 116
-14.5173 15.303 -1.84208 83 77 88
-11.5658 16.1838 -1.64888 66 78 89
-11.4651 16.1955 -1.64456 67 79 93
-11.3932 16.1956 -1.64084 66 78 92
-11.314 16.1837 -1.63577 65 77 91
-11.22 16.2041 -1.63261 67 75 91
-11.1411 16.1914 -1.62754 67 77 91
-11.0727 16.1954 -1.6244 69 79 91
-6.81417 16.2215 -1.29283 67 76 91
-6.72666 16.2176 -1.28996 68 77 93
-6.66662 16.2104 -1.28764 70 78 92
-6.60795 16.2068 -1.28567 69 79 91
-24.4778 4.04479 -2.07419 84 92 111
-24.4602 4.11668 -2.07376 90 97 113
-24.4163 4.22117 -2.07137 91 98 112
-24.4256 4.29791 -2.07365 96 101 115
-24.4326 4.37439 -2.07574 94 100 116
-22.8597 6.74272 -2.08359 84 94 108
-22.866 6.81929 -2.08658 86 95 110
-22.8608 6.89232 -2.08834 86 93 109
-22.8405 6.99793 -2.08969 85 92 108
-22.8309 7.06977 -2.09105 86 92 108
-22.8116 7.13849 -2.09141 86 93 108
-22.7901 7.244 -2.09275 88 94 108
-22.7703 7.31261 -2.0931 89 92 107
-22.7614 7.38507 -2.09467 90 93 109
-22.75 7.49446 -2.09723 91 93 108
-10.7348 8.4275 -1.23208 100 68 109
-10.7388 8.62181 -1.24735 161 50 87
-14.4839 15.3627 -1.84443 74 68 78
-14.3977 15.4096 -1.84232 60 58 69
-14.3561 15.4599 -1.84346 107 104 111
-14.3003 15.4933 -1.84239 112 110 111
-14.2023 15.5256 -1.83847 105 101 105
-14.1172 15.5233 -1.83276 104 98 105
-14.0802 15.5789 -1.83471 90 87 90
-14.0059 15.6391 -1.83461 79 76 81
-10.9952 16.1838 -1.61953 74 76 88
-10.9006 16.2008 -1.61617 57 56 61
-10.8274 16.1953 -1.61207 61 60 66
-10.7493 16.1809 -1.60701 67 66 74
-10.653 16.1931 -1.60327 64 61 70
-10.5843 16.1935 -1.59994 60 57 68
-6.52579 16.217 -1.28419 66 74 92
-6.46849 16.2166 -1.28257 68 77 92
-6.4082 16.2066 -1.28007 69 78 93
-24.371 3.35815 -2.05307 85 93 113
-24.4342 3.44146 -2.06038 86 95 112
-24.4304 3.51508 -2.06112 86 95 110
-24.4442 3.62862 -2.06416 81 92 110
-24.4475 3.70359 -2.06566 82 93 113
-24.4703 3.78182 -2.06911 85 95 113
-22.9701 5.99976 -2.07276 100 106 118
-22.9771 6.07519 -2.07555 128 132 145
-22.9494 6.17756 -2.07568 125 124 138
-22.931 6.24593 -2.07584 101 105 117
-22.8969 6.42032 -2.07754 89 94 113
-22.8987 6.49488 -2.07992 87 94 111
-22.8888 6.56602 -2.08108 86 93 109
-22.8759 6.67335 -2.08304 87 94 110
-13.1773 7.28648 -1.37751 50 52 64
-12.9737 7.28851 -1.35789 66 72 84
-13.9459 15.6667 -1.83294 88 84 88
-13.8896 15.6987 -1.83186 77 72 76
-13.8258 15.7212 -1.82958 72 66 73
-13.7533 15.7834 -1.82989 78 73 77
-13.7114 15.8334 -1.83123 76 76 78
-13.6572 15.8678 -1.83056 81 80 85
-10.5206 16.2022 -1.59757 45 49 61
-6.35226 16.2096 -1.27879 71 80 95
-6.26853 16.2128 -1.2768 69 78 93
-6.2103 16.2078 -1.27482 70 80 92
-24.221 2.97027 -2.03331 82 93 116
-24.2651 3.08581 -2.03906 85 96 115
-24.3274 3.1677 -2.04619 86 94 115
-24.3558 3.24532 -2.05002 86 94 115
-23.1687 5.5402 -2.08018 88 97 112
-23.1262 5.63891 -2.07849 87 96 113
-23.0788 5.69967 -2.07541 87 95 114
-23.0428 5.76326 -2.07353 88 96 115
-23.0012 5.86174 -2.07205 91 96 112
-22.9838 5.93024 -2.07221 81 89 100
-13.7553 7.29498 -1.43452 81 84 97
-12.3199 11.5009 -1.53026 108 33 62
-12.2486 11.4997 -1.52479 110 34 68
-13.6143 15.9684 -1.8359 78 77 83
-13.5814 16.0308 -1.83886 82 81 86
-13.523 16.06 -1.83758 92 89 96
-13.432 16.0986 -1.83507 103 102 108
-13.3532 16.1002 -1.83037 96 97 102
-13.272 16.0983 -1.82527 86 86 91
-13.1863 16.0897 -1.81937 91 91 92
-13.0684 16.0897 -1.81223 86 81 88
-10.1036 16.1834 -1.57606 65 74 90
-10.0366 16.1834 -1.57292 64 73 90
-9.97248 16.1884 -1.57036 65 75 87
-9.87734 16.1963 -1.56662 63 72 87
-9.80497 16.1849 -1.56233 65 74 89
-9.73274 16.1732 -1.55804 63 72 87
-6.15335 16.2064 -1.2732 70 80 93
-6.06927 16.2067 -1.27103 69 78 93
-24.1929 2.49352 -2.02484 160 137 121
-24.1308 2.55922 -2.01957 126 113 109
-24.2127 2.64112 -2.02844 108 107 118
-24.2426 2.75388 -2.03265 153 152 156
-23.1523 4.88287 -2.06277 91 100 117
-23.1554 4.95574 -2.06475 92 101 118
-23.1659 5.06653 -2.06833 91 98 113
-23.1703 5.14005 -2.07051 89 98 113
-23.1861 5.21643 -2.0739 89 98 113
-23.1862 5.28922 -2.07568 88 97 114
-23.1892 5.39921 -2.07865 89 98 113
-23.1887 5.47213 -2.08043 89 98 113
-14.218 7.29612 -1.48035 83 90 100
-12.2226 11.5456 -1.52647 101 37 69
-12.9936 16.0946 -1.80813 103 102 106
-12.9038 16.0783 -1.80142 100 100 103
-12.8016 16.0976 -1.7969 93 93 102
-12.7237 16.0965 -1.7922 87 88 97
-12.6447 16.0936 -1.78731 80 79 90
-12.5292 16.0918 -1.78037 71 72 84
-12.4483 16.0848 -1.77507 70 72 84
-12.3721 16.0839 -1.77058 67 68 80
-9.64636 16.1956 -1.55603 69 79 89
-9.579 16.1921 -1.5527 68 78 88
-9.51357 16.1919 -1.54976 68 77 91
-9.42367 16.2061 -1.54698 67 76 93
-24.1093 2.05138 -2.01227 140 127 119
-24.1601 2.23655 -2.01896 87 90 108
-24.1521 2.3081 -2.01893 88 95 114
-24.2092 2.38639 -2.02528 90 91 100
-23.1314 4.30534 -2.04833 97 100 117
-23.1345 4.37725 -2.05011 98 102 119
-23.1452 4.45083 -2.0527 97 103 119
-23.1465 4.55834 -2.05507 94 100 116
-23.1468 4.63008 -2.05664 94 100 117
-23.1585 4.7044 -2.05943 91 100 116
-23.1528 4.81094 -2.06119 92 101 117
-14.8755 7.2788 -1.54513 94 92 100
-14.7289 7.28165 -1.53054 83 81 92
-14.6461 7.29116 -1.52277 86 83 99
-14.5443 7.28965 -1.51251 76 73 90
-14.5021 7.34791 -1.51154 74 78 91
-12.2729 16.1034 -1.76646 75 74 84
-12.188 16.0887 -1.76036 75 74 86
-12.1154 16.0917 -1.75647 73 72 84
-12.0397 16.0895 -1.75198 72 70 85
-11.9366 16.1005 -1.74705 72 76 88
-11.8644 16.1025 -1.74317 70 75 86
-11.7846 16.0925 -1.73787 65 73 84
-11.6863 16.1087 -1.73375 69 75 87
-9.35302 16.1946 -1.54289 72 79 95
-9.2834 16.1846 -1.53898 71 78 94
-9.21658 16.1797 -1.53566 67 74 90
-9.12624 16.1906 -1.53269 66 73 92
-9.06051 16.1869 -1.52955 67 74 91
-24.2246 1.73627 -2.02076 149 150 164
-24.1131 1.7998 -2.01045 144 148 162
-24.2214 1.98901 -2.02258 151 132 120
-23.1415 3.81077 -2.03991 84 92 110
-23.1247 3.87846 -2.03946 90 95 114
-23.1288 3.98528 -2.04184 83 88 107
-23.1447 4.05913 -2.04483 91 97 113
-23.1525 4.13163 -2.04701 99 106 122
-23.1515 4.23808 -2.04898 96 103 119
-11.6069 16.098 -1.72846 67 74 84
-11.5394 16.1054 -1.72538 60 68 79
-11.4381 16.1152 -1.72066 65 68 83
-11.3655 16.1135 -1.71657 66 70 83
-11.3077 16.1351 -1.7153 65 68 83
-11.2426 16.1447 -1.71262 65 71 85
-8.99664 16.1865 -1.52681 64 75 92
-8.90742 16.198 -1.52403 89 104 122
-8.83601 16.1809 -1.51955 97 109 125
-8.77496 16.185 -1.51738 103 112 127
-24.205 1.66265 -2.01828 93 98 119
-23.1061 3.41776 -2.0296 85 92 110
-23.1179 3.48985 -2.03199 84 93 110
-23.1335 3.56269 -2.03478 85 93 112
-23.1351 3.63337 -2.03616 83 91 108
-23.1424 3.74031 -2.03874 84 93 109
-20.4459 8.90084 -2.09655 92 91 105
-20.4279 8.96584 -2.0978 90 89 103
-20.4203 9.0359 -2.10035 91 92 106
-20.3607 9.11795 -2.09832 93 92 106
-20.3437 9.18368 -2.09978 91 90 104
-20.3318 9.25198 -2.1019 93 91 105
-20.3055 9.31332 -2.10228 89 87 100
-20.2677 9.40608 -2.10307 83 81 91
-20.2409 9.46725 -2.10345 83 81 92
-20.212 9.52745 -2.10361 95 98 105
-20.1803 9.62346 -2.10527 135 136 145
-20.1598 9.68802 -2.10651 131 131 139
-20.1144 9.73978 -2.10472 117 113 121
-20.0588 9.82352 -2.10355 96 89 98
-20.0394 9.88875 -2.10501 87 80 90
-20.0232 9.95583 -2.10691 91 82 94
-15.3734 13.1342 -1.89329 83 80 100
-15.3791 13.2231 -1.90038 58 76 108
-15.3231 13.2962 -1.90138 61 75 119
-15.2891 13.3484 -1.90262 60 82 130
-15.2119 13.3593 -1.89735 72 93 138
-15.1433 13.3782 -1.89339 45 69 118
-15.0594 13.424 -1.89026 60 86 134
-14.9922 13.4435 -1.88651 80 103 139
-14.9406 13.4781 -1.88515 85 102 136
-14.879 13.5451 -1.88549 50 52 74
-11.1489 16.1646 -1.70931 65 69 83
-11.0766 16.1618 -1.70522 62 69 77
-7.31189 10.7274 -1.13311 68 70 78
-11.0075 16.1637 -1.70174 69 70 76
-7.24868 10.7352 -1.13045 74 70 68
-10.91 16.1755 -1.69762 78 74 71
-7.22765 10.7783 -1.13343 62 56 58
-10.835 16.1665 -1.69294 65 59 61
-10.7642 16.1641 -1.68905 78 72 75
-8.68518 16.1936 -1.51441 113 115 124
-8.61758 16.1828 -1.5107 100 99 108
-8.55509 16.1825 -1.50815 77 75 89
-8.48611 16.1676 -1.50405 70 76 90
-22.9917 2.98247 -2.01139 83 93 117
-23.0187 3.0557 -2.0152 89 97 116
-23.0328 3.16203 -2.01819 83 92 109
-23.0671 3.23687 -2.02281 84 92 111
-23.0893 3.31016 -2.02621 86 93 111
-20.8148 7.86829 -2.08827 90 92 107
-20.786 7.96364 -2.08929 92 91 107
-20.7527 8.0216 -2.08836 91 90 104
-20.7377 8.08707 -2.08961 90 91 104
-20.7059 8.18139 -2.09041 89 90 103
-20.6684 8.23747 -2.08905 88 90 103
-20.6562 8.30436 -2.09074 86 92 104
-20.6234 8.39839 -2.09154 87 91 103
-20.5943 8.45808 -2.09126 88 90 103
-20.5977 8.53213 -2.09491 89 90 105
-20.5773 8.59577 -2.09572 92 89 106
-20.5069 8.67319 -2.09217 91 90 104
-20.5077 8.74648 -2.09559 89 91 104
-20.4974 8.81491 -2.09771 91 90 106
-14.83 13.5821 -1.88456 63 59 74
-14.7543 13.5922 -1.87951 58 50 66
-14.7004 13.6668 -1.88116 96 48 70
-14.6441 13.6961 -1.87915 127 69 92
-14.5864 13.7238 -1.87691 120 69 84
-14.3784 13.9003 -1.87512 105 104 112
-14.297 13.9459 -1.87265 107 105 116
-14.2212 13.9533 -1.8676 105 104 115
-7.20834 10.8249 -1.13685 86 78 80
-10.6661 16.1728 -1.68474 66 61 70
-10.5965 16.1715 -1.68105 79 73 80
-10.5231 16.1629 -1.67657 72 70 78
-8.39759 16.1765 -1.50128 67 77 89
-8.337 16.1791 -1.49911 66 76 89
-8.27085 16.1687 -1.49559 66 75 89
-8.18737 16.1874 -1.49397 66 75 90
-22.9149 2.48966 -1.99706 158 138 122
-23.0565 2.67922 -2.01379 161 159 165
-22.9645 2.73672 -2.00524 162 158 169
-21.0673 7.01039 -2.08046 89 92 107
-21.0537 7.0756 -2.0815 92 94 109
-21.0623 7.1489 -2.08515 92 94 109
-20.9978 7.23069 -2.0816 93 95 110
-21.004 7.30337 -2.08503 92 93 111
-20.9876 7.36783 -2.08585 92 93 110
-20.9538 7.46092 -2.08599 95 94 108
-20.9184 7.51817 -2.08464 96 95 109
-20.9124 7.58673 -2.08676 93 94 107
-20.8867 7.68313 -2.088 93 92 106
-20.858 7.74297 -2.08751 91 93 108
-20.8476 7.81008 -2.0892 92 94 109
-10.8662 7.49759 -1.2708 63 61 70
-14.1792 13.9968 -1.86797 103 102 113
-14.0949 14.0384 -1.86506 101 101 109
-14.0512 14.08 -1.86522 102 105 113
-13.9888 14.1009 -1.86234 97 97 108
-13.9347 14.1754 -1.86442 98 100 111
-13.8853 14.2107 -1.8637 99 100 113
-13.8477 14.2592 -1.86494 98 100 112
-13.8007 14.2971 -1.86466 101 99 112
-10.0519 16.1647 -1.65321 67 77 90
-9.98606 16.1662 -1.65014 67 76 90
-8.12774 16.1911 -1.49199 65 75 87
-8.05645 16.1671 -1.48713 66 75 90
-7.97314 16.1847 -1.48551 67 76 90
-7.91067 16.1803 -1.48277 67 77 89
-22.9373 2.18346 -1.9958 85 89 111
-22.9473 2.25307 -1.99759 85 90 111
-22.9593 2.35732 -1.99997 90 93 100
-23.0043 2.43119 -2.00541 143 133 124
-21.2626 6.34657 -2.07726 89 91 106
-21.2531 6.41267 -2.07852 93 96 111
-21.2275 6.50814 -2.07911 92 95 109
-21.2006 6.56863 -2.0784 92 98 112
-21.1941 6.63592 -2.0801 90 96 110
-21.1637 6.7299 -2.08025 89 95 109
-21.1305 6.7882 -2.07889 88 94 108
-21.127 6.85675 -2.08102 90 93 109
-21.0956 6.95044 -2.08117 90 93 108
-11.9641 7.41659 -1.37197 50 58 71
-11.7693 7.33044 -1.3465 50 56 70
-11.7194 7.34488 -1.34259 51 59 72
-10.7582 7.98691 -1.29866 58 60 59
-10.7514 8.05832 -1.30369 57 57 61
-10.7357 8.09695 -1.30534 52 53 59
-10.7439 8.1563 -1.31086 50 52 62
-12.3074 11.4577 -1.60211 80 58 71
-12.2279 11.4836 -1.59796 154 113 130
-12.1951 11.5223 -1.59858 119 73 95
-13.7259 14.3485 -1.86349 98 99 105
-13.6644 14.3695 -1.86082 104 101 106
-13.6249 14.4159 -1.86184 75 74 80
-13.5328 14.4467 -1.85785 67 64 76
-13.4853 14.4836 -1.85757 56 55 68
-13.4389 14.5219 -1.85751 96 95 104
-13.353 14.5592 -1.8546 98 98 108
-13.29 14.5772 -1.85172 100 100 112
-9.88364 16.16 -1.64462 70 79 94
-9.82358 16.1714 -1.64275 69 78 93
-9.75336 16.1632 -1.63866 69 79 94
-9.65881 16.1698 -1.63476 71 80 92
-9.59343 16.1698 -1.63168 70 78 91
-7.84828 16.1757 -1.48002 67 76 91
-7.76133 16.183 -1.47744 66 75 90
-7.69839 16.176 -1.4745 66 75 90
-7.6363 16.1706 -1.47176 69 78 93
-22.9186 1.80567 -1.99012 137 139 149
-23.0317 1.95257 -2.00302 156 135 124
-22.912 2.00992 -1.99143 166 142 121
-21.3964 5.76907 -2.07267 88 97 109
-21.3679 5.82917 -2.07154 86 93 109
-21.3715 5.89867 -2.0741 86 96 108
-21.3523 5.99568 -2.07513 85 92 105
-21.3382 6.06013 -2.07573 88 92 102
-21.3107 6.1205 -2.07481 129 129 140
-21.26 6.2079 -2.07235 130 130 140
-21.2472 6.27273 -2.07318 96 95 106
-12.0554 7.4047 -1.38025 49 56 70
-13.2509 14.6241 -1.85296 97 97 108
-13.194 14.6494 -1.85116 93 96 105
-13.1303 14.7131 -1.85216 95 98 107
-13.0832 14.7503 -1.8521 95 97 106
-13.0236 14.7719 -1.84987 94 94 102
-12.937 14.8069 -1.84696 94 96 105
-12.8761 14.8263 -1.84451 95 95 105
-9.52358 16.1607 -1.6276 71 79 93
-9.45931 16.162 -1.62472 71 80 93
-9.36346 16.1634 -1.62041 70 77 92
-9.29492 16.1552 -1.61653 71 78 94
-9.23094 16.1556 -1.61366 71 78 94
-7.57946 16.1779 -1.47035 70 80 92
-7.49138 16.1802 -1.46739 70 80 92
-7.42884 16.1722 -1.46446 68 78 91
-22.9852 1.64041 -1.99547 92 98 118
-23.0285 1.71227 -2.0005 157 155 167
-21.4275 5.13372 -2.05741 93 100 116
-21.4388 5.23763 -2.06149 90 99 114
-21.4176 5.2996 -2.06101 90 97 113
-21.4346 5.37174 -2.06488 89 96 114
-21.4045 5.46515 -2.06438 92 98 114
-21.4342 5.54121 -2.06978 95 98 115
-21.4006 5.59993 -2.06799 93 97 116
-21.4165 5.67251 -2.07186 88 95 113
-19.2108 8.79853 -2.06592 91 91 103
-19.2004 8.89856 -2.06993 90 90 104
-19.1858 8.96174 -2.0717 90 92 105
-19.1373 9.00785 -2.06914 91 93 105
-19.1152 9.10245 -2.07179 92 93 105
-19.0981 9.16461 -2.07333 91 91 104
-19.0772 9.22492 -2.07441 92 91 105
-19.0346 9.30929 -2.07456 82 84 99
-19.0133 9.36947 -2.07564 73 75 90
-18.9935 9.43055 -2.07694 80 79 95
-11.0962 7.41078 -1.31959 48 53 67
-10.8843 7.46759 -1.30307 58 58 67
-10.7969 7.47202 -1.29485 59 58 63
-10.8083 7.53016 -1.3005 57 56 64
-10.772 7.62443 -1.30437 35 46 66
-14.6455 12.4732 -1.87378 102 103 108
-14.5593 12.4715 -1.86647 76 89 110
-14.5025 12.5366 -1.86684 69 94 140
-14.4565 12.5725 -1.86588 67 94 137
-14.409 12.6069 -1.86468 55 86 141
-14.37 12.6494 -1.86485 76 102 150
-14.3096 12.7108 -1.86477 55 82 132
-14.2575 12.7405 -1.8629 57 83 139
-12.8323 14.8674 -1.8451 92 92 104
-12.7456 14.9013 -1.84219 89 90 102
-12.6858 14.9216 -1.83996 88 91 99
-12.6452 14.9669 -1.8412 87 91 100
-12.5678 15.0124 -1.84003 84 85 97
-12.5138 15.0399 -1.83888 84 86 98
-9.139 16.1629 -1.61016 72 79 96
-9.07604 16.1645 -1.60748 69 76 94
-9.00625 16.1515 -1.6032 73 82 97
-8.9198 16.1684 -1.6009 84 102 116
-7.36927 16.1713 -1.46229 68 78 91
-7.28365 16.1781 -1.4599 68 77 92
-7.21933 16.1637 -1.45639 69 78 93
-7.1621 16.1678 -1.45479 67 76 93
-22.9996 1.33416 -1.9946 93 108 129
-22.9806 1.40116 -1.99315 95 107 129
-22.9891 1.46997 -1.99453 98 110 133
-21.4692 4.70841 -2.05051 95 101 119
-21.4651 4.77422 -2.05177 94 100 116
-21.4704 4.84239 -2.05412 97 100 117
-21.4485 4.90406 -2.05342 96 99 116
-21.4667 5.00909 -2.05816 94 101 117
-21.4597 5.07459 -2.0592 93 100 116
-19.6171 7.6415 -2.05306 95 93 107
-19.582 7.72823 -2.05321 92 94 106
-19.5714 7.79171 -2.05498 92 91 107
-19.5552 7.85284 -2.05606 92 91 106
-19.5173 7.93851 -2.05599 92 91 105
-19.4988 7.99874 -2.05685 92 90 104
-19.4855 8.06136 -2.05839 92 89 105
-19.4611 8.11909 -2.05856 91 90 106
-19.431 8.20844 -2.05963 89 91 104
-19.4205 8.27264 -2.06162 91 93 106
-19.3955 8.33019 -2.06179 91 90 104
-19.3428 8.40923 -2.06013 89 91 104
-19.3388 8.47672 -2.06303 90 92 107
-19.3203 8.53746 -2.06411 91 90 106
-19.272 8.61859 -2.06313 89 91 104
-19.2726 8.68873 -2.06671 89 91 104
-19.2605 8.75285 -2.0687 89 91 106
-11.7672 7.33606 -1.38146 49 59 71
-11.6835 7.32637 -1.37226 48 58 70
-11.6207 7.35546 -1.36799 47 57 69
-10.7611 7.66537 -1.30655 21 32 51
-10.7638 7.71762 -1.31097 43 57 77
-10.7479 7.75485 -1.31242 76 90 110
-10.7349 7.81951 -1.31632 61 70 90
-10.7262 7.86308 -1.319 57 61 71
-10.7143 7.90412 -1.32119 54 56 60
-10.7004 7.96891 -1.32509 56 56 58
-14.2208 12.7853 -1.86352 56 83 129
-14.1415 12.8279 -1.86049 61 75 113
-14.1143 12.8822 -1.86269 51 53 73
-14.0591 12.9083 -1.86037 48 50 61
-13.9821 12.9527 -1.85779 100 91 98
-13.9406 12.9925 -1.85773 66 49 67
-13.8907 13.0236 -1.85631 63 40 66
-12.4621 15.0704 -1.83817 82 86 95
-12.4234 15.1183 -1.83984 82 86 95
-12.3465 15.1644 -1.83888 86 87 96
-12.3038 15.2071 -1.8399 84 85 97
-12.24 15.2209 -1.83702 83 83 94
-12.1465 15.2434 -1.83304 86 86 97
-8.85453 16.1638 -1.59763 93 108 123
-8.78685 16.1536 -1.59375 98 110 124
-8.69893 16.1657 -1.59105 111 115 126
-8.63067 16.1531 -1.58697 103 102 110
-7.0781 16.1772 -1.45279 67 76 93
-7.01484 16.1639 -1.44947 67 76 93
-6.96114 16.1766 -1.44884 67 76 93
-23.027 0.926492 -1.99499 93 108 131
-23.0156 1.02819 -1.99434 89 104 127
-23.0095 1.09604 -1.9941 94 109 132
-23.011 1.16432 -1.99468 90 105 128
-21.4747 4.14606 -2.03756 110 112 126
-21.4639 4.24271 -2.0386 107 110 125
-21.4691 4.30991 -2.04073 106 105 121
-21.4818 4.37887 -2.04374 104 102 119
-21.4737 4.47653 -2.04521 106 105 121
-21.4684 4.54179 -2.04625 104 103 119
-21.4822 4.61149 -2.04948 98 99 117
-19.8853 6.84241 -2.0478 90 93 108
-19.8463 6.89431 -2.04571 88 93 108
-19.8609 6.96638 -2.0502 87 93 107
-19.8067 7.04566 -2.04764 88 94 108
-19.8059 7.11217 -2.05031 88 94 108
-19.7846 7.1708 -2.05049 90 93 110
-19.7351 7.2517 -2.04861 93 95 110
-19.7207 7.31307 -2.04969 92 96 108
-19.7134 7.3774 -2.05169 91 95 107
-19.7023 7.44026 -2.05323 91 95 107
-19.6626 7.5251 -2.0527 94 93 107
-19.6363 7.58181 -2.05242 93 92 106
-14.2057 7.26862 -1.59309 88 89 102
-12.0907 7.33659 -1.41458 48 58 70
-12.0766 7.37711 -1.41603 45 52 68
-12.0264 7.41748 -1.41374 48 58 70
-11.8268 7.32824 -1.38695 47 57 69
-10.7047 8.02416 -1.33 62 58 62
-10.7087 8.07952 -1.33491 55 51 58
-10.6922 8.14325 -1.33857 47 49 62
-10.6971 8.20012 -1.34372 54 55 66
-10.6988 8.25448 -1.34838 59 59 69
-10.7151 8.32209 -1.35552 53 46 62
-13.7484 13.2495 -1.86375 97 97 103
-13.6716 13.2935 -1.8614 99 100 108
-13.6209 13.3236 -1.85998 95 97 109
-13.5702 13.3535 -1.85856 99 98 112
-13.5063 13.4112 -1.85848 97 97 110
-13.4527 13.4378 -1.85661 99 99 111
-13.3898 13.4538 -1.85315 99 99 111
-13.3189 13.5032 -1.85193 98 100 112
-12.0908 15.2678 -1.83167 82 84 97
-12.05 15.3132 -1.83313 84 84 96
-11.9621 15.3427 -1.83022 83 83 92
-11.9153 15.3796 -1.83059 85 86 90
-11.8548 15.3966 -1.82836 85 87 91
-7.30908 10.7021 -1.18878 98 103 109
-7.26456 10.7427 -1.1903 94 98 103
-7.23284 10.7668 -1.19094 90 94 100
-7.19243 10.7752 -1.18954 92 94 98
-8.57081 16.1583 -1.5849 91 89 100
-8.50524 16.1506 -1.58143 73 76 90
-8.41686 16.1594 -1.57853 68 77 90
-8.35396 16.1566 -1.57566 67 76 91
-6.87533 16.1794 -1.44626 69 78 93
-6.81636 16.1767 -1.4441 69 79 91
-6.7568 16.1718 -1.44174 70 78 91
-21.4586 3.71634 -2.0265 91 94 111
-21.4499 3.78009 -2.02689 89 90 110
-21.4624 3.84793 -2.02968 87 90 109
-21.4374 3.94132 -2.02898 83 90 106
-21.4534 4.01009 -2.0322 84 91 107
-21.506 4.08647 -2.03956 84 90 105
-20.072 6.21581 -2.04397 90 94 108
-20.0535 6.27518 -2.04415 86 90 105
-20.023 6.36317 -2.04408 88 95 110
-20.0077 6.4237 -2.04472 88 96 110
-19.9979 6.48616 -2.04603 86 94 107
-19.9739 6.57655 -2.04688 89 93 107
-19.9524 6.63498 -2.04683 91 93 108
-19.9139 6.68727 -2.04473 89 94 106
-19.9107 6.75233 -2.04696 90 93 108
-14.7155 7.28003 -1.64806 92 92 105
-14.6228 7.31134 -1.64 95 92 107
-14.4861 7.2905 -1.62421 90 89 105
-10.7134 8.40072 -1.36189 54 29 55
-13.2572 13.5202 -1.8487 97 100 111
-13.2113 13.5547 -1.84819 94 95 107
-13.1744 13.5996 -1.84926 96 96 107
-13.1095 13.6555 -1.84918 92 95 103
-13.058 13.6835 -1.84776 98 101 105
-13.018 13.725 -1.84838 87 84 94
-12.9537 13.7816 -1.84852 69 67 78
-11.81 15.4364 -1.82917 78 78 87
-11.7341 15.4827 -1.82864 82 82 92
-11.6735 15.4991 -1.82641 85 85 93
-11.635 15.5483 -1.82852 78 77 85
-11.5201 15.5359 -1.82042 76 78 84
-8.28956 16.1499 -1.57238 67 76 91
-8.20145 16.1576 -1.56949 67 76 91
-8.1404 16.1576 -1.56702 66 75 90
-8.07552 16.1483 -1.56354 67 76 91
-6.69408 16.1574 -1.43842 61 64 78
-6.6151 16.1776 -1.43776 50 57 67
-6.55768 16.1778 -1.43598 68 80 94
-21.4195 3.31937 -2.01452 90 94 111
-21.4433 3.38817 -2.0184 86 94 111
-21.4576 3.48803 -2.02184 86 96 108
-21.4731 3.55586 -2.02485 85 92 108
-21.4571 3.61823 -2.02437 88 94 110
-20.2216 5.677 -2.04141 90 98 111
-20.2181 5.74084 -2.04319 90 97 113
-20.2087 5.80296 -2.04428 90 96 111
-20.1785 5.89108 -2.04399 86 89 105
-20.1478 5.94653 -2.04258 79 84 95
-20.1415 6.00975 -2.04412 106 109 120
-20.1311 6.07177 -2.04521 133 133 145
-20.1393 6.17258 -2.0497 104 109 123
-14.8107 7.27665 -1.65803 91 93 105
-12.8955 13.8015 -1.84597 67 65 78
-12.8551 13.8425 -1.84659 90 93 105
-12.7966 13.9061 -1.84786 91 96 104
-12.7508 13.9406 -1.84757 91 94 104
-12.6911 13.9582 -1.84479 90 92 104
-12.6414 13.9878 -1.84383 92 91 105
-12.5721 14.0381 -1.84329 92 94 106
-11.4945 15.6045 -1.82512 80 83 88
-11.4533 15.6499 -1.82678 78 81 89
-11.3699 15.6845 -1.82496 75 75 87
-11.3219 15.7196 -1.82533 71 73 85
-11.2417 15.7044 -1.81921 73 76 88
-7.98847 16.1567 -1.56085 66 75 92
-7.92766 16.156 -1.55838 66 75 90
-7.86313 16.1459 -1.5549 67 74 90
-6.4953 16.1626 -1.43266 71 79 92
-6.41142 16.1668 -1.43047 68 77 92
-6.35483 16.1681 -1.42888 69 78 93
-21.4249 2.96507 -2.00884 84 95 115
-21.444 3.03241 -2.01207 82 91 110
-21.4552 3.09868 -2.01443 86 94 112
-21.4689 3.19782 -2.01765 85 91 107
-21.4697 3.26277 -2.01892 89 94 109
-20.3083 5.18614 -2.03517 88 97 114
-20.293 5.24614 -2.03535 89 97 113
-20.27 5.30393 -2.03462 89 96 112
-20.2905 5.37418 -2.03912 89 96 112
-20.2566 5.46105 -2.03815 90 99 114
-20.2653 5.5282 -2.04129 89 97 113
-20.2299 5.58244 -2.0392 89 99 111
-13.5408 7.31867 -1.56549 92 93 105
-13.4576 7.32099 -1.55677 59 62 79
-12.5173 14.0611 -1.84142 89 92 104
-12.4809 14.1072 -1.84294 87 88 103
-12.4283 14.1786 -1.84557 93 95 108
-12.3707 14.1979 -1.84325 93 94 105
-12.3483 14.2625 -1.84749 90 90 101
-12.2512 14.2768 -1.84197 90 92 105
-11.1859 15.7815 -1.82301 74 75 82
-11.1291 15.8026 -1.82165 78 79 84
-11.069 15.8184 -1.81964 84 85 89
-11.0342 15.8745 -1.82282 71 75 83
-7.80399 16.1484 -1.55284 66 75 90
-7.71729 16.1554 -1.55014 68 77 92
-7.65752 16.1555 -1.54787 70 78 91
-7.59561 16.1499 -1.545 69 78 93
-6.30072 16.1768 -1.42806 69 78 93
-6.2152 16.1743 -1.42529 70 80 92
-21.4014 2.64085 -2.00117 125 126 134
-21.3938 2.73587 -2.00178 155 151 158
-20.3722 4.6606 -2.02687 92 99 115
-20.3685 4.75491 -2.02909 93 99 114
-20.3565 4.81554 -2.0295 92 100 113
-20.3309 4.87266 -2.02832 92 99 115
-20.3396 4.97054 -2.03213 90 99 114
-20.3404 5.0347 -2.03413 90 97 115
-20.3122 5.09115 -2.03272 91 98 116
-14.3727 7.32248 -1.65534 91 92 106
-14.2523 7.30851 -1.64141 89 90 104
-14.1975 7.3313 -1.63691 91 92 108
-12.2115 14.3191 -1.84304 87 91 102
-12.1645 14.3518 -1.84275 89 91 102
-12.115 14.3812 -1.84201 88 91 98
-12.0297 14.4099 -1.83876 88 91 100
-11.9836 14.4436 -1.8387 87 90 99
-11.9327 14.4708 -1.83773 85 89 100
-10.9491 15.9053 -1.82079 68 71 79
-10.8972 15.934 -1.82051 75 79 85
-10.8534 15.9762 -1.82196 84 89 92
-10.7711 16.0111 -1.82057 99 103 112
-7.50483 16.1448 -1.5411 69 78 93
-7.44747 16.1497 -1.53944 69 79 91
-7.38872 16.1508 -1.53737 69 79 91
-6.15697 16.1692 -1.42312 70 79 94
-6.10001 16.1678 -1.42134 68 77 92
-6.04312 16.1661 -1.41956 67 76 93
-21.3358 2.21861 -1.98811 99 101 124
-21.3949 2.28882 -1.99548 94 100 119
-21.3828 2.35116 -1.99501 92 91 108
-21.3215 2.4393 -1.98952 158 139 128
-21.368 2.50874 -1.99558 155 132 117
-20.3927 4.2547 -2.01827 99 100 118
-20.3823 4.3153 -2.01868 99 99 117
-20.3852 4.37902 -2.02068 98 99 118
-20.3733 4.47082 -2.02177 95 100 119
-20.3796 4.53558 -2.02423 94 101 117
-20.3702 4.59667 -2.02487 92 99 115
-14.8377 7.30635 -1.70512 90 89 107
-14.7659 7.34977 -1.69986 91 89 105
-14.5117 7.31897 -1.67027 89 90 108
-11.8601 14.5161 -1.83697 85 88 97
-11.8055 14.538 -1.83532 87 90 99
-11.7578 14.5695 -1.83504 79 83 92
-11.671 14.5945 -1.83156 82 85 94
-11.6392 14.6482 -1.83444 84 84 96
-10.7199 16.041 -1.82051 93 96 101
-10.6696 16.0724 -1.82066 86 89 96
-10.5639 16.0669 -1.81429 81 84 89
-10.5245 16.1168 -1.81683 90 93 98
-7.30323 16.1576 -1.53488 70 79 94
-7.24322 16.1544 -1.53241 68 77 92
-7.18188 16.1473 -1.52954 68 77 92
-21.3496 1.99814 -1.98692 160 132 113
-20.361 3.74798 -2.00242 85 93 110
-20.3503 3.80798 -2.00261 82 91 108
-20.3666 3.87355 -2.00598 84 93 110
-20.3787 3.93845 -2.0089 86 93 111
-20.3611 4.02835 -2.00908 83 89 108
-20.3689 4.0926 -2.01154 85 88 106
-20.3862 4.15907 -2.01513 88 87 105
-12.2312 11.4949 -1.72392 59 53 71
-11.5718 14.6515 -1.8303 85 85 97
-11.4939 14.6885 -1.82863 84 84 94
-11.4356 14.7043 -1.82631 84 85 91
-11.3729 14.7133 -1.82308 81 82 88
-11.3191 14.7351 -1.82166 82 82 90
-11.2354 14.7627 -1.81886 81 82 92
-7.09394 16.1455 -1.52625 68 78 90
-7.03622 16.1472 -1.52439 68 77 92
-6.97318 16.1337 -1.52091 67 76 91
-21.3949 1.71733 -1.9888 157 154 165
-21.3768 1.77906 -1.98746 158 160 167
-21.3813 1.90618 -1.98936 123 119 125
-20.3463 3.37413 -1.99263 85 92 110
-20.3485 3.43619 -1.99419 86 93 111
-20.3449 3.52808 -1.99573 86 92 108
-20.3427 3.5895 -1.99683 87 93 107
-20.3636 3.65547 -2.00066 87 93 110
-18.0962 7.91996 -2.05115 89 91 104
-18.0579 7.96649 -2.0494 89 91 104
-18.0373 8.02145 -2.05008 88 90 105
-18.0092 8.1051 -2.05146 87 91 103
-17.99 8.16083 -2.05238 87 91 103
-17.9652 8.21388 -2.05257 88 90 103
-17.9527 8.27305 -2.05446 88 90 103
-17.911 8.35022 -2.05415 87 89 102
-17.8873 8.40396 -2.05458 89 91 104
-17.8636 8.45762 -2.05501 85 88 103
-17.8333 8.54074 -2.05639 88 90 105
-17.802 8.59061 -2.05586 89 88 104
-17.7847 8.64774 -2.05726 88 90 104
-17.7447 8.72597 -2.05743 88 90 105
-13.8069 11.7287 -1.88011 56 58 71
-13.7287 11.7299 -1.87329 86 89 101
-13.6953 11.7729 -1.87396 86 90 108
-13.626 11.8189 -1.8717 66 77 114
-13.5779 11.8479 -1.86995 45 55 94
-13.5541 11.9002 -1.87231 38 51 89
-13.5044 11.9275 -1.87032 33 47 89
-13.4416 11.9794 -1.86928 43 51 82
-12.3533 11.5493 -1.73896 77 76 86
-12.1911 11.5622 -1.7265 62 64 74
-11.1915 14.7989 -1.81948 79 82 91
-11.1397 14.8234 -1.81852 78 81 88
-11.0646 14.8632 -1.81752 80 81 84
-11.0116 14.8856 -1.81633 81 81 81
-10.9619 14.9129 -1.81582 82 81 87
-10.0574 16.1258 -1.7926 89 94 100
-9.98777 16.1204 -1.78842 85 88 93
-9.92205 16.1217 -1.78511 91 92 96
-9.82635 16.1275 -1.7807 91 92 96
-9.75613 16.1193 -1.77631 98 99 103
-6.91961 16.1463 -1.52026 67 76 91
-6.83469 16.1506 -1.51776 68 77 92
-6.77589 16.1477 -1.5155 69 78 93
-21.4445 1.40468 -1.99135 96 107 129
-21.4289 1.49848 -1.99044 94 106 130
-21.4154 1.56076 -1.98953 91 106 129
-21.4214 1.62455 -1.99081 94 105 126
-20.3373 3.03488 -1.98487 92 103 120
-20.3875 3.10442 -1.99189 96 105 122
-20.4003 3.16805 -1.99458 90 99 115
-20.3934 3.22845 -1.995 84 93 108
-20.344 3.31213 -1.99108 89 98 115
-18.402 7.00436 -2.03956 89 92 107
-18.3772 7.08829 -2.04071 87 93 107
-18.3686 7.14779 -2.0426 89 92 109
-18.3416 7.19957 -2.04207 89 92 107
-18.3085 7.2802 -2.04224 89 92 107
-18.2884 7.33492 -2.04268 91 93 108
-18.2753 7.39277 -2.04408 90 92 107
-18.2304 7.46831 -2.04281 91 93 106
-18.2151 7.52525 -2.04397 91 93 106
-18.1923 7.57893 -2.04416 92 91 105
-18.1839 7.63909 -2.04629 92 91 105
-18.1325 7.7116 -2.04429 91 93 106
-18.1271 7.77337 -2.0469 91 93 106
-18.1126 7.831 -2.04831 90 92 105
-13.3974 12.0119 -1.86825 60 64 86
-13.3588 12.0498 -1.8682 68 69 94
-13.294 12.0995 -1.86691 81 77 98
-13.2412 12.123 -1.86443 77 73 88
-13.2092 12.1675 -1.86558 69 66 79
-13.1536 12.2264 -1.86599 63 60 70
-13.1129 12.2622 -1.86569 68 63 77
-10.881 14.9434 -1.8137 80 80 89
-10.8332 14.9736 -1.81364 82 82 91
-10.7811 14.9969 -1.81267 84 84 91
-10.7362 15.0318 -1.81329 84 82 92
-9.69164 16.1215 -1.77322 89 92 96
-9.59633 16.126 -1.76881 91 94 102
-9.52923 16.1223 -1.76507 91 94 103
-9.46045 16.1147 -1.76089 95 98 107
-9.39629 16.1158 -1.7578 88 91 100
-6.71718 16.1445 -1.51323 69 78 93
-6.63505 16.1554 -1.51155 70 78 89
-6.57584 16.1499 -1.50908 70 79 93
-21.4598 1.12098 -1.99084 95 107 129
-21.4652 1.18453 -1.99189 95 107 129
-21.4487 1.27839 -1.99076 92 105 128
-21.4279 1.34029 -1.98899 96 111 132
-20.3558 2.67153 -1.98053 149 150 155
-20.3367 2.72967 -1.97935 156 155 166
-20.3365 2.94308 -1.9831 92 106 125
-18.5966 6.24138 -2.02756 85 85 101
-18.6131 6.37063 -2.03499 92 97 111
-18.5746 6.44894 -2.03396 90 93 108
-18.5664 6.5078 -2.03561 90 93 108
-18.5562 6.56597 -2.03702 89 92 107
-18.5279 6.64823 -2.03744 87 93 107
-18.4988 6.69916 -2.03642 88 92 108
-18.4897 6.75797 -2.03807 89 92 109
-18.4569 6.8385 -2.03801 90 91 109
-18.4437 6.8958 -2.03917 90 91 109
-18.4266 6.95161 -2.03985 89 92 107
-11.0861 7.34024 -1.41931 46 49 68
-10.9777 7.3797 -1.41102 44 50 66
-10.9169 7.43067 -1.40883 47 53 67
-10.8669 7.46496 -1.4064 53 59 71
-10.7834 7.44862 -1.39631 49 54 69
-12.9676 12.4627 -1.87124 96 95 102
-12.9113 12.4819 -1.86828 99 98 106
-12.8529 12.538 -1.86844 100 98 105
-12.8059 12.567 -1.86718 101 99 106
-12.7361 12.5709 -1.8618 101 100 106
-12.6573 12.6041 -1.85834 99 98 105
-12.6234 12.6471 -1.85949 103 100 107
-10.6603 15.0696 -1.8123 81 83 91
-10.6174 15.1075 -1.81337 80 83 88
-10.5503 15.1065 -1.80924 80 83 88
-10.4844 15.1603 -1.81051 79 78 86
-10.4226 15.1672 -1.80751 83 82 90
-9.30865 16.1329 -1.75512 93 97 107
-9.23754 16.1191 -1.7503 84 87 96
-9.16833 16.1087 -1.74592 77 80 86
-6.5161 16.1423 -1.50641 68 77 94
-6.43353 16.1503 -1.50453 69 78 93
-21.4714 0.900394 -1.99072 93 106 126
-21.478 0.995474 -1.99199 92 105 124
-21.4798 1.05881 -1.99261 93 103 128
-20.3206 2.33306 -1.97116 90 89 103
-20.3831 2.40159 -1.97931 143 129 130
-20.2901 2.45015 -1.96949 159 135 115
-20.3169 2.51427 -1.97355 149 129 117
-18.8046 5.82399 -2.03446 92 95 114
-18.8004 5.88371 -2.03636 91 94 113
-18.7585 5.93069 -2.0334 86 93 111
-18.7351 6.01439 -2.03407 78 89 103
-18.7078 6.06621 -2.03305 114 120 131
-18.6879 6.12058 -2.03301 133 136 149
-18.6169 6.1873 -2.02761 111 110 124
-17.6039 7.55436 -2.02758 91 93 106
-17.5871 7.64012 -2.03024 90 92 107
-17.5408 7.68082 -2.02722 90 92 106
-17.5497 7.74792 -2.03188 89 93 105
-17.4891 7.81286 -2.02859 88 92 104
-17.4939 7.87831 -2.03275 88 92 104
-17.4505 7.92018 -2.03022 88 91 104
-17.4496 7.98306 -2.03364 88 90 103
-17.3969 8.05166 -2.03159 90 89 103
-17.392 8.11277 -2.03452 88 90 104
-17.3515 8.15589 -2.03248 87 89 104
-17.3456 8.24847 -2.03713 88 90 105
-17.2942 8.28583 -2.0336 89 91 106
-17.2884 8.34693 -2.03653 87 89 104
-17.2323 8.41354 -2.03423 87 89 103
-17.2418 8.48303 -2.03938 88 90 105
-17.1898 8.51972 -2.03586 88 90 105
-11.5961 7.32113 -1.47249 50 51 70
-11.5513 7.33846 -1.46901 49 52 71
-11.1687 7.35315 -1.42913 49 51 71
-11.0685 7.37569 -1.42033 45 51 67
-10.8166 7.52369 -1.40606 40 45 61
-10.7572 7.59943 -1.40623 56 61 73
-10.7247 7.6229 -1.40487 70 75 86
-10.7352 7.68114 -1.4109 64 69 81
-13.4783 11.4432 -1.87302 65 62 75
-13.4933 11.5304 -1.88188 45 42 62
-13.3779 11.5302 -1.87141 34 32 54
-13.3366 11.5639 -1.87061 35 36 56
-13.2709 11.5741 -1.86561 42 44 66
-13.2294 11.6075 -1.86481 41 48 73
-13.1724 11.6622 -1.86448 40 46 66
-13.1265 11.691 -1.86294 40 45 62
-12.2948 11.5074 -1.7739 58 49 65
-12.2207 11.5389 -1.77037 73 66 75
-12.1985 11.5891 -1.77303 78 79 84
-12.5867 12.6871 -1.86016 104 103 105
-12.5434 12.7196 -1.85962 107 107 109
-12.5073 12.8008 -1.86413 103 103 103
-12.4349 12.8002 -1.85827 107 106 104
-12.386 12.8261 -1.85676 111 106 107
-12.3272 12.8813 -1.85717 107 103 105
-12.2755 12.9039 -1.85518 111 105 106
-10.3873 15.218 -1.81039 82 82 90
-10.3016 15.2388 -1.80736 78 81 90
-10.2508 15.2637 -1.80685 76 76 85
-10.19 15.2714 -1.80408 81 82 86
-9.08184 16.1264 -1.74345 87 90 99
-9.01725 16.1242 -1.74014 79 82 94
-8.94843 16.1129 -1.73576 71 78 93
-8.86212 16.1294 -1.73329 94 105 123
-6.37398 16.1421 -1.50186 69 78 93
-6.31574 16.1376 -1.4996 69 78 94
-6.23457 16.1484 -1.49811 70 79 94
-21.5044 0.680513 -1.99322 94 109 132
-21.514 0.775687 -1.9947 98 111 130
-21.4967 0.838262 -1.99315 98 110 132
-20.293 2.02833 -1.9638 132 115 108
-20.2907 2.17855 -1.96555 81 85 106
-20.2711 2.2365 -1.96415 92 100 120
-18.9259 5.28653 -2.02831 89 98 113
-18.9019 5.36963 -2.02849 89 98 113
-18.8974 5.42868 -2.03015 88 97 112
-18.8756 5.48243 -2.02962 89 96 114
-18.8545 5.56651 -2.03029 88 97 112
-18.8512 5.62617 -2.03218 89 96 112
-18.825 5.67852 -2.03117 89 95 111
-18.8345 5.74252 -2.03476 89 95 111
-17.8987 6.75901 -2.02108 86 92 106
-17.8659 6.83682 -2.02101 87 93 109
-17.849 6.89091 -2.02171 85 93 108
-17.8284 6.94343 -2.02191 87 93 109
-17.8038 7.02482 -2.02309 86 92 106
-17.7809 7.07642 -2.02304 86 92 106
-17.7668 7.13191 -2.02423 89 92 107
-17.7323 7.20912 -2.02417 90 92 107
