-40.2175 -9.12573 -1.32773 93 74 67
-18.2359 -38.485 -1.38126 75 67 63
-18.6147 -38.2008 -1.3775 141 92 87
-18.7033 -38.0801 -1.37482 141 92 87
-18.9894 -37.9129 -1.37375 126 85 83
-11.9375 -23.0808 -0.864025 137 134 143
-11.971 -22.9693 -0.860498 117 116 121
-16.129 -25.025 -1.01949 140 131 124
-17.2431 -25.0193 -1.04443 133 126 123
-18.0041 -24.9485 -1.05989 102 92 94
-28.9183 -23.7807 -1.3339 138 91 85
-29.0968 -23.7765 -1.3395 137 90 83
-29.2787 -23.7738 -1.34526 138 89 84
-29.5028 -23.728 -1.35126 136 89 84
-29.6993 -23.7345 -1.35777 131 86 81
-29.8805 -23.7275 -1.36345 143 108 102
-30.1022 -23.6751 -1.36928 96 81 72
-30.2368 -23.6291 -1.37248 120 106 103
-30.3304 -23.5504 -1.37354 123 109 107
-30.3922 -23.447 -1.37294 111 101 105
-30.4951 -23.2994 -1.37257 115 104 110
-30.6275 -23.25 -1.37569 109 99 106
-30.7122 -23.1638 -1.37633 104 97 100
-30.8887 -23.0711 -1.37985 109 103 103
-30.9745 -22.9852 -1.38058 110 103 105
-31.0536 -22.8942 -1.38098 110 100 105
-31.1714 -22.7566 -1.38152 113 103 106
-31.2515 -22.6661 -1.382 109 98 101
-31.2876 -22.5437 -1.38025 105 94 95
-31.3898 -22.4691 -1.38188 110 99 100
-31.4943 -22.3217 -1.38185 108 98 101
-31.5829 -22.2369 -1.38283 109 99 103
-31.6239 -22.1186 -1.38141 114 103 107
-31.7284 -21.9711 -1.38146 111 103 101
-31.7799 -21.8605 -1.38062 129 121 118
-31.8981 -21.7224 -1.38142 114 105 103
-31.9189 -21.5912 -1.37909 108 100 97
-32.0088 -21.5069 -1.38023 102 94 94
-32.067 -21.4011 -1.37981 102 94 96
-32.1748 -21.2559 -1.3802 100 94 97
-32.2155 -21.1387 -1.37894 98 92 93
-32.2757 -21.0346 -1.37868 98 91 90
-32.3769 -20.8851 -1.37882 97 90 90
-32.4649 -20.7988 -1.37997 101 93 96
-32.5022 -20.68 -1.37864 99 90 92
-32.6422 -20.555 -1.38076 106 98 100
-32.6887 -20.4421 -1.37993 100 93 94
-32.784 -20.3598 -1.38149 104 95 98
-32.8146 -20.2372 -1.37991 105 97 96
-32.9393 -20.1017 -1.38137 100 92 88
-32.9911 -19.9923 -1.38087 99 93 91
-33.0528 -19.889 -1.38086 107 97 97
-33.1383 -19.7295 -1.38051 100 90 93
-33.2232 -19.64 -1.38166 102 93 95
-33.239 -19.5095 -1.3795 106 97 100
-33.34 -19.3593 -1.37998 98 92 96
-33.3668 -19.2359 -1.3784 98 89 94
-33.4157 -19.1254 -1.3779 113 102 108
-33.4955 -19.0326 -1.37889 102 93 94
-33.5752 -18.8702 -1.37846 97 87 89
-33.6281 -18.7621 -1.3782 97 91 93
-33.7016 -18.6654 -1.37894 98 92 91
-33.8302 -18.53 -1.38091 100 94 93
-33.854 -18.4058 -1.37934 100 96 94
-41.4438 -9.88527 -1.37861 120 113 107
-41.5727 -9.7784 -1.38244 135 125 123
-42.0987 -9.20796 -1.39714 110 106 106
-42.2044 -9.09249 -1.40015 116 111 112
-42.3 -8.97435 -1.40278 114 109 113
-42.4403 -8.79558 -1.40661 116 117 114
-42.6015 -8.68978 -1.41178 117 117 115
-17.3259 -39.0535 -1.38714 132 131 137
-17.4452 -38.9944 -1.38684 113 110 119
-17.7369 -38.8312 -1.38554 141 137 143
-17.8431 -38.7435 -1.38412 133 128 132
-13.0828 -24.9552 -0.954929 128 126 138
-13.1787 -24.9503 -0.956541 135 134 142
-13.3194 -24.9352 -0.958633 131 130 140
-13.4164 -24.9312 -0.960329 99 97 108
-13.5163 -24.9321 -0.962274 131 128 140
-26.8156 -31.4353 -1.4961 146 89 83
-33.9494 -18.3207 -1.38115 117 110 110
-34.0079 -18.1469 -1.3799 126 118 116
-34.0938 -18.0562 -1.3813 125 116 116
-34.1565 -17.9531 -1.38163 125 119 119
-34.2401 -17.8609 -1.38295 127 118 119
-34.2998 -17.6879 -1.38186 128 123 119
-34.3507 -17.5786 -1.3817 132 127 126
-34.4386 -17.4881 -1.38326 121 115 115
-34.4947 -17.3136 -1.3821 116 112 113
-34.6105 -17.2367 -1.38499 116 110 110
-34.6313 -17.1122 -1.3835 123 117 119
-34.7357 -16.9616 -1.38465 123 118 114
-34.7753 -16.8466 -1.38407 128 120 117
-34.8667 -16.7567 -1.38589 124 117 111
-34.9308 -16.6534 -1.38647 124 117 111
-35.0169 -16.4933 -1.38687 120 115 112
-35.0893 -16.3937 -1.38787 123 117 115
-35.1832 -16.3038 -1.38985 126 116 116
-35.2931 -16.1541 -1.39142 120 112 112
-35.3518 -16.0476 -1.39183 118 108 113
-35.4029 -15.9376 -1.39192 121 112 117
-35.566 -15.8108 -1.39596 117 108 113
-35.6365 -15.7089 -1.39696 119 113 113
-42.7761 -8.58578 -1.41747 118 116 116
-42.8606 -8.46293 -1.41974 125 122 119
-42.9831 -8.27704 -1.42297 125 125 122
-43.1235 -8.16388 -1.4274 127 124 125
-43.242 -8.04587 -1.431 141 137 137
-42.3488 -7.67259 -1.39571 176 175 175
-43.5762 -7.61377 -1.44064 130 123 128
-11.9678 -25.1489 -0.942229 104 100 81
-12.2833 -25.1073 -0.946132 141 92 87
-12.3986 -25.1468 -0.949653 142 93 88
-12.6081 -25.0795 -0.950867 141 111 110
-12.7304 -25.1301 -0.954968 105 102 111
-13.0776 -25.6284 -0.97989 136 136 141
-23.1974 -32.6582 -1.44532 131 128 131
-23.3128 -32.6055 -1.44626 70 65 73
-23.5876 -32.5605 -1.45129 138 132 138
-23.768 -32.489 -1.4532 135 130 128
-23.8938 -32.4488 -1.45489 136 131 138
-24.0349 -32.429 -1.45766 125 118 125
-24.2341 -32.3807 -1.46089 131 124 126
-24.5325 -32.3586 -1.4675 100 91 92
-24.6994 -32.2644 -1.4685 96 86 83
-24.8398 -32.2398 -1.47119 108 102 102
-24.9632 -32.1924 -1.47271 122 114 113
-25.1024 -32.1651 -1.47531 132 122 121
-25.2761 -32.0775 -1.47681 119 110 108
-25.4042 -32.0347 -1.47867 123 114 113
-25.8848 -31.9209 -1.48728 100 88 89
-25.9388 -31.7843 -1.48425 143 131 133
-26.1177 -31.6999 -1.48617 104 77 89
-26.2518 -31.6616 -1.48844 75 45 57
-26.3833 -31.6197 -1.49054 114 81 93
-26.511 -31.5726 -1.4924 122 77 79
-26.6894 -31.4851 -1.49432 145 88 82
-35.6737 -15.5924 -1.39647 126 120 120
-35.7399 -15.4885 -1.3973 127 119 120
-35.7968 -15.314 -1.39663 123 117 119
-35.8861 -15.2197 -1.39854 126 121 122
-35.9714 -15.1234 -1.40028 122 116 117
-36.0413 -14.9541 -1.40028 125 119 122
-36.1019 -14.8471 -1.40095 127 121 123
-36.14 -14.7309 -1.40062 120 114 116
-36.2507 -14.578 -1.40252 120 111 113
-36.3028 -14.4672 -1.40286 115 107 106
-36.3601 -14.3585 -1.40345 114 109 108
-36.4543 -14.2641 -1.40569 113 107 111
-36.5201 -14.0925 -1.40569 110 103 110
-36.5949 -13.99 -1.4071 108 103 109
-36.6191 -13.8682 -1.40629 109 104 110
-36.7167 -13.7084 -1.40778 115 108 115
-36.7755 -13.5994 -1.40853 120 114 118
-43.7265 -7.42798 -1.44506 127 122 125
-43.9354 -7.32175 -1.45218 122 120 121
-44.0517 -7.19909 -1.45579 123 120 120
-44.5002 -7.12932 -1.47199 123 122 122
-46.039 -7.15473 -1.52904 131 130 126
-11.3263 -25.1931 -0.933179 121 119 131
-11.6445 -25.1685 -0.937496 142 137 144
-20.9088 -33.3439 -1.4174 140 133 139
-21.0179 -33.2873 -1.41776 129 121 129
-21.1406 -33.2524 -1.4192 109 105 107
-21.4596 -33.1816 -1.4237 136 129 133
-21.5736 -33.1316 -1.42447 139 131 136
-21.7362 -33.0425 -1.42497 140 134 136
-21.8609 -33.0082 -1.42657 106 100 107
-22.0252 -33.0335 -1.43116 122 117 121
-22.1313 -32.97 -1.43135 142 132 140
-22.33 -32.9328 -1.43459 140 129 136
-22.4381 -32.8716 -1.43495 132 121 126
-22.7175 -32.7309 -1.43656 105 100 108
-22.8648 -32.7258 -1.43982 103 102 107
-22.9996 -32.7021 -1.44217 128 126 131
-36.8434 -13.4936 -1.4097 115 110 108
-36.9262 -13.3277 -1.41061 152 145 139
-37.0196 -13.2306 -1.41294 116 109 108
-37.0845 -13.1231 -1.41402 98 90 93
-37.0945 -12.9962 -1.41271 139 134 130
-37.1506 -12.8203 -1.41255 110 100 98
-37.2332 -12.7185 -1.41447 114 105 108
-37.2796 -12.6042 -1.41481 112 106 106
-37.3868 -12.4451 -1.41697 109 101 99
-37.4494 -12.3359 -1.41806 110 100 100
-37.5231 -12.2301 -1.41964 109 99 100
-37.5528 -12.0449 -1.41849 107 103 100
-37.6218 -11.9373 -1.41991 110 101 105
-37.6468 -11.8157 -1.41943 127 117 125
-47.2426 -7.19079 -1.57379 131 131 131
-47.5916 -6.86204 -1.58505 78 80 85
-10.3908 -25.2781 -0.921809 118 123 136
-10.7022 -25.2542 -0.925626 120 121 138
-11.3611 -26.2663 -0.974907 123 130 143
-11.4474 -26.2424 -0.975353 124 123 139
-19.4521 -34.2525 -1.41979 115 112 123
-19.5636 -34.2008 -1.42014 136 133 144
-19.7247 -34.1112 -1.42014 132 130 141
-19.8259 -34.0413 -1.41966 103 101 115
-19.9539 -34.0177 -1.42143 126 122 134
-20.0959 -33.8953 -1.41993 132 130 139
-20.1811 -33.7984 -1.41822 127 126 134
-20.2995 -33.758 -1.41923 104 108 117
-20.4626 -33.6718 -1.41957 132 130 136
-20.5612 -33.5979 -1.41901 115 112 121
-20.6616 -33.5272 -1.41862 101 97 104
-20.7513 -33.4391 -1.4174 137 132 138
-37.7171 -11.7081 -1.42094 92 83 90
-37.7633 -11.5282 -1.42061 126 119 113
-37.8327 -11.4201 -1.42212 121 111 110
-37.9211 -11.3173 -1.42445 123 114 113
-37.996 -11.1455 -1.42545 123 115 114
-38.0893 -11.0434 -1.42803 127 118 118
-38.1402 -10.9288 -1.42879 120 115 112
-38.2518 -10.7665 -1.43145 119 113 113
-38.3325 -10.6597 -1.43353 117 112 111
-38.4323 -10.5579 -1.43645 112 108 106
-38.4701 -10.4388 -1.43671 117 113 113
-18.9819 -34.543 -1.42114 113 113 125
-19.0779 -34.4631 -1.42008 130 131 143
-19.247 -34.3881 -1.42066 129 131 143
-19.3423 -34.3073 -1.4196 115 114 126
-38.5391 -10.2632 -1.43764 115 113 113
-38.5645 -10.1407 -1.43741 112 109 109
-38.6261 -10.0277 -1.43875 115 112 114
-38.7146 -9.85654 -1.44059 115 106 108
-38.7792 -9.74373 -1.44209 128 121 115
-38.8339 -9.62821 -1.44319 126 118 110
-38.9031 -9.45138 -1.44428 124 118 106
-38.9278 -9.3283 -1.44414 109 102 99
-38.9696 -9.20927 -1.44474 104 93 98
-39.0519 -9.09956 -1.44708 72 58 67
-39.1264 -8.92311 -1.4485 77 67 67
-48.2375 -3.27288 -1.59659 95 121 136
-17.2113 -35.8201 -1.4361 107 81 72
-17.5806 -35.5888 -1.43388 142 93 88
-39.2352 -8.8186 -1.45199 130 126 128
-39.2851 -8.70055 -1.45301 129 125 125
-39.4125 -8.53446 -1.45675 128 126 129
-39.4773 -8.41897 -1.45843 127 125 129
-39.5827 -8.31179 -1.46184 124 122 127
-39.6596 -8.13329 -1.46352 130 123 130
-39.7701 -8.02605 -1.46718 127 120 127
-39.8256 -7.90735 -1.46853 128 125 126
-39.9041 -7.79296 -1.47087 127 125 126
-16.4017 -36.4367 -1.44585 128 123 136
-16.5453 -36.3003 -1.44301 117 112 124
-16.773 -36.2011 -1.44304 107 99 104
-16.9283 -36.0922 -1.44153 95 92 89
-17.1301 -35.9381 -1.43915 120 112 86
-39.9709 -7.61087 -1.47221 136 135 133
-40.078 -7.50107 -1.4758 137 134 135
-40.1751 -7.38887 -1.47896 135 131 135
-40.2891 -7.21393 -1.48238 127 126 124
-40.3991 -7.10289 -1.48612 133 129 130
-40.5068 -6.99086 -1.48979 128 126 127
-41.1191 -6.89713 -1.5142 131 127 130
-15.3643 -37.1892 -1.45842 129 130 147
-15.453 -37.0752 -1.45536 129 134 150
-15.7258 -36.9164 -1.45344 118 120 132
-42.3824 -6.97188 -1.56639 122 120 121
-43.3629 -6.99308 -1.60668 129 129 128
-43.6593 -6.68972 -1.61699 86 85 93
-43.689 -6.55402 -1.61744 84 84 88
-15.1324 -37.4548 -1.46524 114 115 132
-21.0654 -24.7306 -1.35409 147 86 85
-21.5778 -24.7847 -1.37212 146 88 84
-21.511 -24.5515 -1.36146 147 89 85
-21.494 -24.3776 -1.35457 147 91 86
-21.6393 -24.3131 -1.35683 146 90 85
-21.7821 -24.322 -1.36172 147 90 86
-21.9092 -24.3123 -1.36546 145 90 85
-22.0618 -24.3303 -1.37102 146 91 86
-22.2194 -24.276 -1.37416 145 90 85
-22.3792 -24.2998 -1.38021 145 91 85
-22.5017 -24.2816 -1.38356 144 91 85
-22.6867 -24.254 -1.38862 145 90 87
-22.8339 -24.2607 -1.39371 147 89 87
-22.9554 -24.2391 -1.39696 147 92 89
-23.1411 -24.2086 -1.40203 142 92 84
-23.2959 -24.2203 -1.4076 142 92 84
-23.4274 -24.2068 -1.41152 146 93 86
-23.5758 -24.21 -1.41661 146 93 85
-23.7735 -24.1869 -1.42245 143 90 82
-23.8987 -24.1642 -1.42589 145 90 83
-24.0576 -24.175 -1.43166 144 89 84
-24.2321 -24.1246 -1.43586 145 90 84
-24.4028 -24.145 -1.44239 146 91 85
-24.5314 -24.1224 -1.44603 147 89 86
-24.7405 -24.1027 -1.45255 143 91 83
-24.8893 -24.0981 -1.45754 142 89 83
-25.0283 -24.083 -1.46185 143 90 84
-25.202 -24.1006 -1.46848 142 89 79
-25.3734 -24.0391 -1.47239 143 88 76
-25.549 -24.0562 -1.47912 143 92 81
-25.7033 -24.0518 -1.4844 143 91 83
-25.9057 -24.0159 -1.49034 144 89 86
-26.0443 -23.9949 -1.49456 142 87 82
-26.2373 -24.0233 -1.50235 141 86 79
-26.4125 -23.9583 -1.50646 143 88 84
-26.5915 -23.9712 -1.51328 144 88 84
-26.7456 -23.9604 -1.51847 145 87 83
-26.9282 -23.9743 -1.52549 141 85 83
-27.1069 -23.9077 -1.52979 142 99 88
-27.305 -23.9328 -1.53777 150 119 105
-27.451 -23.9107 -1.54238 156 133 123
-27.6723 -23.8777 -1.54938 153 140 137
-27.8367 -23.8695 -1.55515 147 138 132
-28.0241 -23.8801 -1.56236 141 133 132
-28.0441 -23.6711 -1.55653 136 128 126
-28.026 -23.5061 -1.55071 139 130 131
-28.0116 -23.3454 -1.54518 141 133 133
-27.9874 -23.1772 -1.53908 134 128 130
-27.9999 -22.9671 -1.53306 134 126 126
-27.9784 -22.8036 -1.52724 130 121 122
-27.9578 -22.6417 -1.52152 134 127 127
-27.9638 -22.4302 -1.51531 134 129 126
-27.9383 -22.2666 -1.5094 129 123 125
-27.9183 -22.1083 -1.50388 130 121 122
-27.9272 -21.9031 -1.49805 130 119 125
-27.9117 -21.7504 -1.49292 134 125 130
-27.8925 -21.5956 -1.48759 130 120 128
-27.8835 -21.4497 -1.48294 133 127 131
-27.9136 -21.2655 -1.47866 133 128 132
-28.0317 -21.2182 -1.48182 130 126 127
-28.1099 -21.1402 -1.48258 130 124 126
-28.221 -21.0179 -1.48331 134 128 132
-28.2923 -20.9344 -1.48368 134 127 134
-28.3698 -20.8555 -1.48444 132 126 130
-28.4603 -20.7176 -1.48402 130 124 128
-28.5452 -20.6439 -1.48525 129 123 127
-28.6057 -20.5523 -1.48504 132 125 129
-28.708 -20.4908 -1.48734 127 121 125
-28.8357 -20.3792 -1.48924 129 122 129
-28.9214 -20.3052 -1.49058 128 118 126
-28.9874 -20.217 -1.49076 126 121 127
-29.1141 -20.1038 -1.49266 126 120 124
-29.1892 -20.0218 -1.49341 129 125 126
-29.2214 -19.9101 -1.49166 124 117 124
-29.2974 -19.7617 -1.49067 126 121 128
-29.3583 -19.6701 -1.49066 126 122 123
-29.4024 -19.5671 -1.48968 127 121 123
-29.4478 -19.4652 -1.4888 126 120 124
-29.5515 -19.3357 -1.48954 124 118 122
-29.6162 -19.2465 -1.48982 123 117 122
-29.6755 -19.1539 -1.48981 125 118 125
-29.7711 -19.0188 -1.49017 127 123 124
-29.8348 -18.9289 -1.49045 125 121 122
-29.9243 -18.7898 -1.49052 125 120 124
-29.9923 -18.7026 -1.49109 125 120 124
-30.0347 -18.5992 -1.49021 125 120 126
-30.1124 -18.5178 -1.49136 128 121 129
-30.2221 -18.391 -1.49268 125 118 126
-30.2736 -18.2933 -1.49239 121 117 119
-30.33 -18.1985 -1.49238 124 119 123
-30.4075 -18.0519 -1.49197 123 118 123
-30.4717 -17.9618 -1.49244 122 115 123
-30.5098 -17.8563 -1.49147 122 115 123
-30.6081 -17.722 -1.49232 126 121 128
-30.6816 -17.6372 -1.49337 123 118 125
-30.7134 -17.5282 -1.49211 126 121 125
-30.7587 -17.4271 -1.49162 126 120 124
-20.232 -24.8218 -1.33193 135 133 143
-20.3479 -24.807 -1.33489 75 64 75
-20.5267 -24.7892 -1.33967 93 64 72
-20.6416 -24.7716 -1.34253 114 81 92
-20.7668 -24.7658 -1.34616 109 67 70
-20.8959 -24.7641 -1.35009 144 92 88
-21.2671 -24.8129 -1.36342 146 86 86
-21.5045 -24.9351 -1.37537 146 90 86
-30.8464 -17.2865 -1.49199 124 119 125
-30.9396 -17.2123 -1.4942 125 120 126
-31.0309 -17.1368 -1.49632 124 119 125
-31.1453 -17.0102 -1.49823 122 116 120
-31.2221 -16.926 -1.49958 125 123 126
-31.3232 -16.8549 -1.50227 121 119 122
-31.3802 -16.6963 -1.5011 120 119 121
-31.4456 -16.6056 -1.50187 122 122 122
-31.5108 -16.5145 -1.50264 122 122 122
-31.5633 -16.4167 -1.50273 120 118 121
-31.6428 -16.2702 -1.50291 122 118 120
-31.6946 -16.172 -1.503 123 118 122
-31.7247 -16.0627 -1.50194 125 120 125
-31.8364 -15.9325 -1.50395 124 119 125
-31.8782 -15.8291 -1.50357 127 122 128
-31.9339 -15.7328 -1.50395 125 120 126
-32.0157 -15.5871 -1.50442 122 121 123
-32.0832 -15.4964 -1.50548 124 118 122
-32.111 -15.3863 -1.50442 124 119 124
-32.1348 -15.2745 -1.50317 126 121 127
-32.2776 -15.1575 -1.50702 122 117 124
-32.3168 -15.053 -1.50663 123 116 123
-12.0929 -22.9165 -1.0393 128 124 130
-12.4572 -22.8319 -1.04376 103 101 113
-12.5222 -22.697 -1.03944 111 111 121
-15.497 -25.1334 -1.21322 101 99 108
-16.3487 -25.1045 -1.23367 132 129 137
-21.6882 -28.6853 -1.52318 134 133 137
-21.818 -28.672 -1.52643 135 131 137
-21.9857 -28.6146 -1.52906 137 132 138
-22.1218 -28.6081 -1.53279 124 124 129
-22.2143 -28.544 -1.53303 105 103 110
-22.3273 -28.5064 -1.53492 119 116 123
-22.4924 -28.4429 -1.53737 93 93 99
-22.5782 -28.3698 -1.53713 140 137 143
-22.7183 -28.3652 -1.54115 144 140 149
-22.9068 -28.3292 -1.54543 139 134 148
-32.3612 -14.9508 -1.50654 122 117 124
-32.4284 -14.7978 -1.50643 121 116 123
-32.5101 -14.7127 -1.50836 126 120 126
-32.5843 -14.624 -1.50991 127 120 127
-32.6664 -14.4773 -1.51067 129 122 128
-32.7162 -14.3773 -1.51097 128 122 128
-32.7493 -14.2699 -1.51039 127 121 127
-32.8314 -14.184 -1.51242 127 121 128
-32.9335 -14.0453 -1.51434 128 122 126
-32.9967 -13.9506 -1.51541 126 121 127
-33.0486 -13.8511 -1.5159 126 119 126
-33.1254 -13.701 -1.51657 127 122 128
-33.2189 -13.6184 -1.51927 126 124 129
-33.34 -13.5467 -1.52343 128 126 131
-33.4838 -13.4227 -1.52767 124 122 125
-33.5471 -13.3266 -1.52883 126 124 127
-44.3004 -3.05357 -1.62849 120 149 167
-11.8785 -23.1162 -1.04332 97 96 106
-11.9991 -23.0863 -1.04462 92 92 102
-12.0561 -23.021 -1.04302 122 121 129
-13.485 -24.9512 -1.15792 155 149 159
-19.8661 -29.4772 -1.5041 103 97 107
-20.0139 -29.3994 -1.5049 108 106 109
-20.093 -29.3191 -1.50379 138 133 139
-20.1874 -29.2616 -1.50403 146 140 150
-20.332 -29.1789 -1.50463 140 138 145
-20.4238 -29.1173 -1.50468 130 128 132
-20.5451 -29.0981 -1.50724 101 99 102
-20.6959 -29.0234 -1.50843 78 82 91
-20.7965 -28.9737 -1.50925 141 141 150
-20.9131 -28.9465 -1.51143 104 104 112
-21.0286 -28.9171 -1.51351 99 98 110
-21.1895 -28.8545 -1.51556 98 97 111
-21.3167 -28.8402 -1.51861 98 94 102
-21.4311 -28.8077 -1.52059 136 133 142
-21.587 -28.7364 -1.52226 122 121 129
-33.6212 -13.2346 -1.53057 125 120 126
-33.6561 -13.127 -1.53029 123 118 125
-33.7277 -12.973 -1.53087 125 120 127
-33.8083 -12.8829 -1.533 125 123 126
-33.8756 -12.7875 -1.53445 125 123 124
-33.9906 -12.6491 -1.53735 125 125 125
-34.0441 -12.548 -1.53813 129 124 122
-34.0487 -12.4289 -1.5364 133 125 121
-34.1378 -12.2802 -1.53804 149 136 124
-34.2841 -12.2121 -1.54364 145 131 118
-34.3402 -12.1112 -1.54462 142 129 120
-34.3564 -11.9963 -1.54357 123 114 107
-34.4586 -11.8508 -1.54598 129 121 118
-12.303 -25.0287 -1.13585 136 93 86
-12.3938 -25.0178 -1.13726 140 91 87
-12.4906 -25.0192 -1.13934 139 92 92
-12.6243 -24.9955 -1.14111 137 130 133
-12.7223 -24.9977 -1.14329 121 120 134
-13.2454 -24.9672 -1.15329 117 115 128
-13.3861 -24.9519 -1.15575 122 117 128
-18.6779 -30.1813 -1.50232 130 127 138
-18.7644 -30.1114 -1.50159 102 99 108
-18.8999 -30.0155 -1.50103 109 104 111
-18.99 -29.9517 -1.50069 135 132 141
-19.098 -29.9165 -1.50199 136 133 144
-19.2517 -29.8493 -1.50317 133 129 139
-19.4382 -29.7312 -1.50317 115 107 117
-19.588 -29.6573 -1.50406 123 119 129
-19.6671 -29.5764 -1.50285 138 134 141
-19.7623 -29.5203 -1.50309 131 127 140
-34.5419 -11.7589 -1.54841 129 125 125
-34.5607 -11.6448 -1.54755 132 126 129
-34.6426 -11.4916 -1.549 126 121 127
-34.6833 -11.3848 -1.5493 123 121 124
-34.7899 -11.2995 -1.55298 123 121 121
-34.8741 -11.1461 -1.55462 123 120 122
-34.8757 -11.0264 -1.553 124 120 126
-34.9415 -10.9271 -1.55465 123 121 126
-35.0242 -10.8329 -1.55717 123 119 124
-35.0853 -10.6715 -1.55776 125 123 123
-35.1311 -10.5655 -1.55845 123 121 124
-11.3455 -25.1075 -1.12028 136 128 141
-11.4324 -25.0928 -1.12129 130 124 141
-11.5644 -25.0728 -1.12297 133 125 140
-11.662 -25.081 -1.12524 133 123 134
-11.7506 -25.0688 -1.12645 104 106 97
-11.8803 -25.0418 -1.12784 105 113 76
-11.9774 -25.0469 -1.13001 109 101 68
-12.0722 -25.0463 -1.1319 120 92 81
-12.1628 -25.0362 -1.13331 127 93 84
-17.6228 -30.8941 -1.50672 119 119 131
-17.7169 -30.836 -1.50647 111 111 123
-17.8562 -30.7449 -1.5059 115 115 127
-17.9398 -30.6687 -1.50469 131 133 145
-18.0212 -30.5889 -1.50328 108 110 120
-18.1784 -30.5291 -1.50455 97 97 107
-18.2682 -30.4642 -1.50401 129 133 144
-18.3425 -30.3732 -1.50202 97 96 105
-18.4794 -30.2792 -1.50146 92 90 98
-35.2281 -10.4746 -1.56174 122 117 123
-35.3182 -10.3211 -1.56387 122 118 125
-35.3399 -10.2075 -1.56341 122 119 124
-35.3728 -10.0972 -1.56352 122 120 122
-35.4171 -9.93007 -1.56343 125 123 124
-35.4299 -9.81409 -1.56258 122 120 123
-35.448 -9.69972 -1.56202 124 122 125
-35.5082 -9.59682 -1.56358 125 123 126
-35.5694 -9.43424 -1.56446 123 118 123
-35.6114 -9.32615 -1.56515 127 123 128
-35.6473 -9.21636 -1.56555 127 122 126
-10.536 -25.1579 -1.10754 125 125 139
-10.63 -25.1645 -1.10953 129 125 139
-10.7181 -25.1559 -1.11073 131 129 140
-10.8488 -25.1379 -1.11231 130 125 141
-10.9463 -25.1507 -1.11468 130 127 139
-11.0291 -25.1282 -1.11521 118 103 118
-11.1189 -25.1219 -1.11662 133 126 139
-11.2555 -25.1146 -1.11887 133 121 135
-17.1936 -31.1466 -1.50755 128 126 134
-17.3087 -31.1266 -1.50933 123 122 130
-17.4523 -31.0426 -1.50906 111 112 121
-17.5217 -30.9397 -1.50629 137 135 148
-35.7241 -9.05736 -1.5673 124 122 125
-35.7805 -8.95251 -1.56877 125 123 126
-35.8578 -8.85268 -1.57129 126 123 126
-35.8691 -8.67673 -1.56986 128 123 127
-35.9767 -8.58367 -1.57393 126 124 127
-36.0374 -8.47897 -1.57569 128 126 130
-36.096 -8.37353 -1.57735 126 124 127
-36.2099 -8.22082 -1.58113 132 130 134
-10.2262 -25.1796 -1.10306 129 129 144
-10.3206 -25.1892 -1.10514 131 127 144
-10.4107 -25.1873 -1.10664 130 130 144
-21.5453 -24.3628 -1.51387 146 88 87
-21.7357 -24.3488 -1.51998 144 91 87
-21.8669 -24.3438 -1.52442 143 90 86
-21.9956 -24.3352 -1.52863 142 89 83
-22.1392 -24.3423 -1.53402 144 89 85
-22.2997 -24.2905 -1.53769 142 89 85
-22.433 -24.2843 -1.54223 142 89 87
-22.5515 -24.2614 -1.5456 138 87 84
-22.7163 -24.2115 -1.54958 135 84 80
-22.8323 -24.1844 -1.55274 133 84 76
-22.9045 -24.1104 -1.55249 134 86 76
-23.0486 -24.0366 -1.55489 134 86 78
-23.1396 -23.9821 -1.55613 146 99 91
-23.279 -23.9775 -1.56109 138 90 86
-23.3672 -23.9194 -1.56212 132 83 78
-23.5136 -23.8457 -1.56473 129 84 77
-23.6295 -23.8151 -1.56789 132 89 83
-23.7538 -23.7925 -1.57168 147 111 92
-23.9522 -23.7688 -1.57823 140 101 90
-24.0457 -23.7139 -1.57968 139 100 85
-24.1134 -23.6333 -1.57922 152 115 94
-24.2664 -23.5623 -1.58236 149 111 97
-24.388 -23.534 -1.58595 151 117 104
-24.4939 -23.4898 -1.58836 156 125 112
-24.5796 -23.4259 -1.58929 162 132 121
-24.7553 -23.3741 -1.59413 161 129 117
-24.819 -23.2887 -1.59346 173 142 126
-24.8839 -23.2044 -1.5929 158 131 120
-25.011 -23.1056 -1.59424 156 127 120
-25.2038 -22.9952 -1.59779 164 133 131
-25.3448 -22.9081 -1.60019 153 129 120
-25.3817 -22.7983 -1.59772 155 132 123
-25.5384 -22.7964 -1.60386 150 125 115
-25.667 -22.7686 -1.60798 126 100 90
-27.3282 -22.0545 -1.65073 126 120 121
-27.4853 -21.9702 -1.65441 135 125 125
-27.5423 -21.8756 -1.65364 123 115 113
-27.5756 -21.7623 -1.65128 131 126 124
-27.5513 -21.5344 -1.64274 123 117 117
-27.6997 -21.5122 -1.64824 111 106 105
-27.7583 -21.4195 -1.64769 115 111 108
-27.8008 -21.3146 -1.64608 113 109 108
-27.8603 -21.154 -1.64338 122 118 118
-27.9066 -21.0525 -1.64209 130 126 127
-27.9127 -20.9208 -1.63814 123 119 118
-27.9476 -20.7434 -1.63396 136 132 133
-27.9572 -20.6157 -1.63032 140 136 135
-27.9373 -20.4669 -1.62478 132 128 127
-27.9695 -20.29 -1.6206 130 126 125
-27.9789 -20.164 -1.61708 129 124 127
-27.9893 -20.0393 -1.61366 128 123 129
-27.9992 -19.9147 -1.61024 126 121 127
-28.0413 -19.7477 -1.60692 130 126 128
-28.0663 -19.6348 -1.60456 131 129 130
-28.0844 -19.5174 -1.60178 130 128 129
-28.1308 -19.355 -1.59889 132 127 132
-28.1115 -19.2129 -1.59377 133 128 134
-28.1378 -19.1025 -1.59163 140 135 139
-28.1753 -18.9359 -1.58831 137 131 134
-28.1856 -18.8156 -1.58521 135 129 134
-28.2054 -18.7021 -1.58275 136 131 137
-28.2199 -18.5853 -1.57998 131 129 138
-28.2527 -18.4179 -1.57655 128 129 131
-28.276 -18.3078 -1.57441 132 132 134
-28.2839 -18.188 -1.57132 133 131 134
-28.333 -18.0328 -1.56906 129 127 130
-28.3548 -17.9228 -1.56693 132 127 131
-28.356 -17.8001 -1.56351 131 126 132
-28.4403 -17.6681 -1.5636 129 124 130
-28.4608 -17.5581 -1.56146 127 122 128
-28.5217 -17.4733 -1.56188 131 125 130
-28.5823 -17.3883 -1.56229 128 123 129
-28.6834 -17.2665 -1.56354 132 125 132
-28.7212 -17.1675 -1.56258 131 126 132
-28.7621 -17.0706 -1.56182 127 122 128
-28.8292 -16.9285 -1.56106 127 122 128
-28.8778 -16.8363 -1.56084 127 122 126
-28.9766 -16.7127 -1.56209 126 124 127
-29.0176 -16.6161 -1.56145 126 124 127
-29.0722 -16.5273 -1.56165 128 123 127
-29.1508 -16.452 -1.56334 127 122 126
-29.2306 -16.3171 -1.56354 126 121 127
-29.2685 -16.2189 -1.56278 126 121 127
-29.3201 -16.1282 -1.56288 124 120 126
-29.4088 -15.9982 -1.56372 122 119 124
-29.458 -15.9062 -1.56371 130 125 131
-29.5561 -15.8404 -1.56668 131 126 130
-29.6154 -15.6942 -1.56581 136 132 133
-29.6724 -15.6061 -1.56634 133 128 134
-29.7327 -15.5197 -1.56708 128 122 130
-29.7928 -15.4331 -1.56782 128 120 131
-29.8784 -15.3004 -1.56865 126 121 127
-29.9503 -15.2196 -1.57014 126 123 130
-36.2599 -8.11281 -1.5824 129 129 131
-36.3251 -8.00803 -1.58445 129 128 130
-36.4141 -7.84831 -1.58707 130 128 131
-36.5118 -7.74979 -1.59076 126 124 128
-36.6131 -7.65154 -1.59464 125 123 128
-36.7396 -7.49789 -1.59919 127 125 130
-36.7952 -7.38923 -1.60086 127 125 128
-36.8819 -7.28651 -1.60406 128 126 129
-20.5044 -25.8165 -1.53837 130 121 123
-20.5821 -25.7496 -1.53811 146 142 140
-20.7229 -25.7621 -1.54329 151 144 152
-20.8469 -25.6701 -1.54354 145 147 155
-20.9566 -25.6425 -1.54606 124 111 127
-20.5915 -24.7933 -1.49861 68 42 51
-21.1646 -25.3288 -1.54006 110 71 82
-21.1882 -25.197 -1.53545 136 87 88
-21.2677 -25.1326 -1.53552 143 88 82
-21.3024 -24.9359 -1.52865 144 91 83
-21.3138 -24.7921 -1.52319 145 92 84
-21.3971 -24.7334 -1.52368 143 90 84
-21.5321 -24.6561 -1.52522 144 88 87
-21.5365 -24.5063 -1.51933 145 86 88
-29.9952 -15.1249 -1.57003 126 122 129
-30.067 -14.9849 -1.57012 128 125 129
-30.1291 -14.8988 -1.57107 125 122 128
-30.1712 -14.8027 -1.57086 128 125 131
-30.2522 -14.6671 -1.57159 131 125 131
-30.299 -14.5732 -1.57169 127 122 126
-30.3347 -14.474 -1.57116 128 123 129
-30.3935 -14.3859 -1.57201 126 121 128
-30.5196 -14.271 -1.5755 127 122 126
-30.5597 -14.1737 -1.57529 127 122 126
-30.6376 -14.0939 -1.57731 127 124 127
-30.7209 -13.9582 -1.57836 124 122 125
-30.7709 -13.8653 -1.57879 126 121 125
-30.8298 -13.7762 -1.57974 127 122 126
-30.9171 -13.6418 -1.58111 127 123 126
-30.9972 -13.5618 -1.58335 127 121 125
-31.0534 -13.4711 -1.5842 129 125 128
-31.1404 -13.3935 -1.58685 126 123 126
-37.1816 -7.22498 -1.61779 121 121 124
-37.5316 -7.11027 -1.63344 129 130 134
-37.9821 -7.07278 -1.6546 130 129 134
-38.4602 -7.03758 -1.67711 122 121 127
-16.519 -25.122 -1.38516 140 134 145
-16.6636 -25.0869 -1.38775 138 138 146
-16.7656 -25.072 -1.39005 105 108 114
-16.8644 -25.0516 -1.39203 124 125 135
-16.9765 -25.0508 -1.39529 149 148 154
-17.118 -25.0082 -1.39757 144 144 155
-17.2417 -25.0229 -1.40189 134 134 146
-17.3621 -25.032 -1.40589 107 109 122
-17.5153 -25.0037 -1.40923 118 116 129
-17.6237 -24.9936 -1.41206 114 110 124
-19.1644 -26.7587 -1.5363 101 98 107
-19.266 -26.7252 -1.53795 92 90 99
-19.3595 -26.68 -1.53887 91 90 104
-19.4458 -26.6248 -1.53914 82 81 94
-19.5666 -26.5293 -1.53876 85 78 85
-19.6348 -26.4492 -1.53743 88 86 93
-19.7062 -26.3738 -1.53643 90 88 98
-19.821 -26.2707 -1.53562 101 95 105
-19.8941 -26.198 -1.53483 116 110 118
-19.9935 -26.1601 -1.53639 134 125 132
-20.0854 -26.0272 -1.53366 159 154 162
-20.171 -25.9711 -1.53405 160 156 166
-20.2662 -25.9273 -1.53528 154 152 163
-20.3774 -25.9037 -1.5379 92 87 100
-31.2316 -13.2596 -1.58855 125 124 129
-31.2685 -13.1603 -1.58834 124 123 128
-31.3547 -13.0815 -1.591 122 118 121
-31.4556 -12.9509 -1.59333 129 124 131
-31.5285 -12.8659 -1.59524 128 123 131
-31.5715 -12.7686 -1.59546 128 126 129
-31.6378 -12.6231 -1.59588 128 124 128
-31.7431 -12.5504 -1.59971 124 121 126
-31.8093 -12.4619 -1.60131 124 122 125
-31.8939 -12.3803 -1.60397 129 126 128
-31.9956 -12.2474 -1.60651 127 125 130
-32.0945 -12.1705 -1.61002 123 123 125
-38.9434 -6.93724 -1.69932 87 86 91
-39.5415 -6.91647 -1.72772 94 93 99
-40.4543 -6.94632 -1.77156 94 94 96
-38.2594 -6.13555 -1.66056 79 75 73
-12.1719 -23.0084 -1.17164 128 131 146
-12.2525 -22.9887 -1.17266 104 106 119
-12.4806 -22.9875 -1.1782 120 123 132
-12.5642 -22.9719 -1.17954 130 130 142
-32.1821 -12.0889 -1.6129 129 127 128
-32.2939 -11.9583 -1.61608 124 123 126
-32.3247 -11.8551 -1.61577 126 124 127
-32.3346 -11.7442 -1.61429 131 126 133
-32.4112 -11.6002 -1.61556 131 126 130
-32.4672 -11.5059 -1.61674 126 122 125
-32.5437 -11.4187 -1.61909 125 119 121
-32.6086 -11.3271 -1.62079 135 125 120
-32.6984 -11.1867 -1.62292 142 133 124
-32.7344 -11.0848 -1.62303 144 136 128
-32.7454 -10.9746 -1.62177 137 129 124
-32.8147 -10.8268 -1.62283 128 123 120
-38.334 -5.40929 -1.65924 61 70 79
-38.3262 -5.28556 -1.65811 63 67 78
-38.3437 -5.16539 -1.65824 71 72 81
-11.8692 -23.3959 -1.18297 98 98 110
-11.8909 -23.2578 -1.17685 125 128 141
-11.9522 -23.1999 -1.17553 116 120 132
-12.0216 -23.0683 -1.17088 108 109 125
-12.1114 -23.0669 -1.17296 105 107 124
-13.4377 -24.9736 -1.29591 100 102 113
-14.1486 -25.2621 -1.3273 126 126 137
-14.5866 -25.2146 -1.33636 129 129 140
-17.3343 -28.273 -1.55114 137 137 149
-17.4045 -28.1904 -1.54928 100 103 115
-17.9569 -27.7164 -1.54318 120 118 130
-32.8951 -10.7394 -1.6255 125 121 121
-32.9733 -10.6509 -1.62806 130 126 128
-33.0659 -10.5097 -1.63051 128 126 129
-33.132 -10.4168 -1.63243 130 127 130
-33.1618 -10.3123 -1.63233 131 129 130
-33.2141 -10.2147 -1.63351 131 130 129
-33.2876 -10.0665 -1.63501 126 126 122
-33.3315 -9.96616 -1.63576 124 124 124
-33.3847 -9.86839 -1.63705 129 127 132
-33.449 -9.71686 -1.63812 126 125 129
-38.4276 -4.44154 -1.65829 76 84 97
-38.4543 -4.32236 -1.65899 81 88 98
-12.4488 -25.0524 -1.27616 128 96 86
-12.5433 -25.0481 -1.27813 127 88 86
-16.592 -28.9497 -1.56272 129 133 139
-16.7545 -28.7119 -1.55587 113 115 127
-16.8477 -28.667 -1.55624 105 107 120
-16.9026 -28.5562 -1.55257 131 132 145
-33.5206 -9.62405 -1.64047 124 124 125
-33.5767 -9.52654 -1.64197 128 128 130
-33.6836 -9.38618 -1.64548 123 123 125
-33.7505 -9.29111 -1.64762 125 124 129
-33.8113 -9.19411 -1.64944 125 124 129
-33.9104 -9.10718 -1.65338 124 123 125
-34.006 -8.9618 -1.65637 123 121 122
-34.0775 -8.86665 -1.65883 142 142 140
-34.1371 -8.76817 -1.66065 137 136 144
-11.6143 -25.1019 -1.25997 129 113 95
-11.7113 -25.1081 -1.26237 122 102 85
-11.8043 -25.1048 -1.26424 133 100 91
-11.9342 -25.0775 -1.26577 121 127 85
-12.0274 -25.0734 -1.26763 104 103 69
-12.1257 -25.0797 -1.27014 123 100 89
-12.2147 -25.0659 -1.27148 126 102 90
-12.3535 -25.0544 -1.27407 129 100 89
-16.1004 -29.2392 -1.56376 99 99 111
-16.1885 -29.1842 -1.56339 125 127 140
-16.4319 -29.0882 -1.56506 119 121 134
-16.5058 -29.0077 -1.5632 93 96 108
-34.241 -8.62354 -1.66416 133 134 133
-34.3502 -8.53678 -1.66875 124 124 117
-34.4186 -8.43943 -1.6711 124 123 120
-34.4454 -8.27461 -1.67048 123 122 118
-34.4741 -8.16743 -1.67071 123 119 116
-34.6153 -8.08646 -1.6771 103 99 97
-34.7718 -8.00822 -1.68434 112 110 110
-38.9207 -2.40382 -1.6745 72 87 115
-38.8431 -2.21523 -1.67029 70 85 116
-38.7813 -2.08941 -1.66704 68 85 107
-10.892 -25.1556 -1.24746 132 90 90
-10.9819 -25.1498 -1.24901 131 89 90
-11.0734 -25.1473 -1.25077 130 88 90
-11.1681 -25.1518 -1.25296 133 88 88
-11.3009 -25.1351 -1.25491 133 89 88
-11.387 -25.1188 -1.25593 131 91 89
-11.4829 -25.1239 -1.25822 130 93 91
-34.7165 -7.02766 -1.67086 95 94 102
-34.7179 -6.9148 -1.66982 80 81 86
-38.5282 -1.40821 -1.6537 68 89 109
-38.4697 -1.22443 -1.65065 56 73 98
-10.1447 -25.23 -1.23647 127 89 92
-10.2693 -25.2002 -1.23736 125 91 90
-10.3617 -25.204 -1.23933 127 92 90
-10.4526 -25.2038 -1.24109 130 89 89
-10.5788 -25.1761 -1.24219 131 89 90
-10.6714 -25.1788 -1.24417 131 91 89
-10.7612 -25.1738 -1.24572 131 92 88
-34.8875 -6.15606 -1.67164 109 104 102
-34.947 -6.05366 -1.67389 132 127 123
-35.0102 -5.9516 -1.67636 118 113 102
-38.4486 -1.10277 -1.64952 93 99 126
-35.2278 -5.19573 -1.68191 76 83 91
-35.2292 -5.08311 -1.68119 139 144 150
-38.5339 -0.378064 -1.65338 84 102 130
-38.5101 -0.256716 -1.65226 89 100 130
-38.4999 -0.135554 -1.65181 81 93 116
-22.8971 -20.1498 -1.64221 89 79 87
-35.2597 -4.91825 -1.68164 130 131 135
-35.3547 -4.31101 -1.68282 86 97 117
-35.3771 -4.20114 -1.68338 105 114 131
-19.9585 -22.5313 -1.61817 93 80 89
-20.107 -22.4172 -1.61896 84 70 83
-20.2273 -22.341 -1.62038 83 68 81
-35.3956 -4.03444 -1.68341 129 134 139
-35.4429 -3.92718 -1.68535 130 138 140
-18.445 -23.9348 -1.62602 99 98 109
-18.5289 -23.8901 -1.62696 95 94 108
-18.6268 -23.7863 -1.62557 99 100 113
-18.7115 -23.7425 -1.62664 103 101 108
-18.7851 -23.6843 -1.62661 102 101 111
-18.8486 -23.6134 -1.6256 99 100 112
-18.9537 -23.5191 -1.62506 101 101 109
-19.0165 -23.4477 -1.62406 101 102 111
-19.0767 -23.373 -1.62281 102 99 110
-19.1831 -23.2808 -1.62252 100 94 106
-19.2501 -23.215 -1.622 97 91 104
-19.3156 -23.1474 -1.62136 95 87 100
-19.4184 -23.051 -1.62083 95 83 94
-17.5235 -24.6624 -1.62876 90 87 101
-17.5919 -24.5966 -1.62787 92 88 105
-17.6566 -24.5257 -1.62662 92 89 103
-17.7722 -24.445 -1.62669 91 90 103
-17.8433 -24.3833 -1.62617 96 96 107
-17.913 -24.3198 -1.62552 94 94 106
-18.0095 -24.2931 -1.62768 96 95 108
-18.1193 -24.2043 -1.62727 100 97 111
-18.2133 -24.1736 -1.62918 98 98 110
-18.2668 -24.0883 -1.62695 95 95 107
-18.3587 -23.976 -1.62483 94 95 109
-29.0058 -10.8703 -1.67476 87 91 97
-29.0742 -10.7925 -1.67709 77 82 77
-29.1182 -10.7054 -1.67783 80 81 82
-29.1299 -10.5546 -1.6754 97 92 99
-29.2068 -10.4794 -1.67834 85 80 92
-29.3587 -10.4306 -1.68614 83 80 93
-35.8437 -2.27031 -1.69996 125 149 171
-35.8 -2.15472 -1.69733 136 156 175
-16.5689 -25.1751 -1.62224 86 81 92
-16.6438 -25.1188 -1.62183 115 111 124
-16.7457 -25.1038 -1.62448 104 104 117
-16.8651 -25.0291 -1.62467 96 99 116
-16.966 -25.0116 -1.62719 102 106 123
-17.0469 -24.9639 -1.62752 99 101 116
-17.1444 -24.9407 -1.62967 94 93 109
-17.2574 -24.8559 -1.62925 102 103 117
-17.3334 -24.8007 -1.6291 103 96 112
-17.4023 -24.7354 -1.62821 95 88 105
-23.8083 -16.3612 -1.6552 79 76 85
-29.5172 -10.3313 -1.69333 72 66 76
-29.6276 -10.2662 -1.69846 73 71 77
-29.7265 -10.1966 -1.70285 81 75 85
-29.8139 -10.1225 -1.70652 90 86 91
-29.8998 -9.99541 -1.70909 92 87 91
-35.7292 -1.98159 -1.69311 137 148 166
-16.0865 -25.8204 -1.63999 97 103 121
-16.1373 -25.723 -1.63653 101 109 127
-16.2287 -25.6916 -1.63783 103 111 129
-16.3031 -25.6328 -1.63718 108 115 133
-16.4057 -25.53 -1.63517 113 115 132
-16.4379 -25.4051 -1.62977 111 113 127
-16.4586 -25.2635 -1.62315 106 109 124
-20.236 -20.3709 -1.64391 79 76 89
-20.2943 -20.2395 -1.64051 82 75 91
-20.3625 -20.1819 -1.64101 82 75 91
-20.7695 -19.8312 -1.64398 91 78 91
-23.8941 -16.2562 -1.65596 82 79 88
-30.0821 -9.48387 -1.71038 86 84 90
-30.1102 -9.33739 -1.70942 86 89 93
-30.0527 -9.2164 -1.70395 114 115 110
-30.0463 -9.11157 -1.70178 106 95 95
-30.0547 -9.01145 -1.70058 111 100 106
-30.0653 -8.86076 -1.69864 105 98 106
-30.0557 -8.75568 -1.69635 103 99 106
-30.0878 -8.66294 -1.69673 102 102 102
-30.1119 -8.51678 -1.69577 113 108 109
-30.0877 -8.40818 -1.69262 115 108 115
-35.414 -1.23966 -1.67501 136 161 181
-35.3707 -1.07129 -1.67249 136 145 161
-35.4069 -0.961008 -1.67433 141 148 166
-11.9678 -23.1993 -1.37742 99 108 137
-12.0217 -23.1269 -1.37494 81 95 119
-12.1397 -23.1804 -1.38112 104 111 137
-12.2397 -23.1083 -1.37997 83 94 112
-14.1711 -25.2759 -1.55253 104 115 136
-14.3123 -25.3455 -1.56042 107 119 141
-15.3756 -26.385 -1.64769 90 101 123
-15.4465 -26.3184 -1.64631 92 105 125
-15.5665 -26.2414 -1.64588 90 102 120
-15.6449 -26.188 -1.64547 90 102 120
-15.711 -26.1138 -1.6436 93 106 123
-15.8279 -26.0322 -1.64293 92 102 122
-15.885 -25.9439 -1.64009 96 104 123
-15.9521 -25.8725 -1.63846 101 108 126
-18.5739 -21.7179 -1.63561 88 79 102
-18.6386 -21.6571 -1.63532 88 79 98
-18.7448 -21.576 -1.63579 85 78 94
-18.8246 -21.5327 -1.63706 82 80 94
-18.9018 -21.4862 -1.63807 81 79 93
-18.9954 -21.3904 -1.63738 80 77 94
-19.0629 -21.3327 -1.63748 79 76 94
-19.1449 -21.2912 -1.63901 81 75 94
-19.2322 -21.1884 -1.6378 81 77 92
-19.382 -21.0891 -1.63956 80 78 89
-30.136 -8.32004 -1.6941 119 118 131
-30.1508 -8.17171 -1.69265 117 124 125
-30.1119 -8.05991 -1.68865 113 116 109
-30.1688 -7.97399 -1.69074 112 109 103
-35.4717 -0.349308 -1.67758 74 101 117
-11.7834 -23.2833 -1.37703 108 109 119
-11.8805 -23.297 -1.38041 102 105 123
-13.3067 -24.9798 -1.51171 75 84 102
-13.4055 -24.9793 -1.51447 76 86 101
-13.5045 -24.9784 -1.51723 87 98 116
-14.7301 -26.7862 -1.65011 113 121 144
-14.838 -26.7862 -1.65324 111 120 145
-15.2093 -26.4759 -1.64754 86 97 118
-15.3014 -26.4462 -1.64871 90 98 119
-17.6691 -22.5052 -1.63835 72 76 95
-17.7204 -22.4267 -1.63637 68 75 91
-17.8183 -22.4077 -1.63932 69 76 92
-18.2255 -22.0627 -1.63836 79 77 99
-18.2596 -21.9645 -1.63483 81 78 99
-18.4503 -21.8466 -1.63683 87 79 100
-18.5064 -21.7755 -1.63564 84 76 97
-26.8606 -10.7971 -1.66137 84 81 92
-27.0456 -10.7734 -1.67199 67 60 72
-26.9892 -10.6534 -1.66579 62 56 64
-12.2279 -25.0635 -1.48705 126 98 90
-12.3213 -25.0582 -1.48921 127 94 87
-12.4147 -25.0525 -1.49136 120 91 80
-12.5458 -25.0237 -1.49325 124 97 89
-16.9772 -23.292 -1.65247 115 114 130
-17.0248 -23.2054 -1.64971 99 101 118
-17.0673 -23.1123 -1.64644 92 96 113
-17.139 -23.0593 -1.6464 83 91 107
-17.2157 -22.9378 -1.64298 77 84 99
-17.2748 -22.8683 -1.64165 79 86 102
-17.3493 -22.8194 -1.64201 71 78 96
-17.4377 -22.7147 -1.64002 67 75 93
-17.4765 -22.6193 -1.63661 69 78 92
-17.5503 -22.5698 -1.63697 72 78 95
-27.0159 -10.5178 -1.66424 73 67 78
-27.061 -10.4381 -1.66515 105 99 121
-27.0741 -10.3461 -1.66387 123 122 137
-27.0925 -10.2563 -1.66297 119 119 124
-27.1359 -10.1274 -1.66272 123 120 111
-27.1405 -10.0326 -1.66091 114 105 99
-27.1373 -9.93517 -1.65859 129 113 123
-27.1941 -9.81154 -1.65938 98 96 113
-27.1845 -9.71216 -1.65667 98 99 110
-27.2234 -9.63022 -1.65733 114 110 111
-27.3392 -9.52702 -1.66225 125 116 109
-11.489 -25.1063 -1.47068 134 90 89
-11.58 -25.1001 -1.47259 125 94 85
-11.6778 -25.1081 -1.47547 124 111 85
-11.8093 -25.0849 -1.47748 135 110 85
-11.9081 -25.0938 -1.48049 99 108 65
-11.9987 -25.0843 -1.48228 105 106 62
-12.1338 -25.0666 -1.48478 129 102 89
-16.2767 -23.9342 -1.66088 96 99 116
-16.3476 -23.8787 -1.66045 95 98 115
-16.4228 -23.8296 -1.66054 91 96 112
-16.5216 -23.7351 -1.65907 90 96 112
-16.6009 -23.692 -1.65968 87 92 110
-16.6596 -23.6192 -1.65796 80 88 105
-16.7641 -23.5334 -1.65726 83 93 109
-16.8024 -23.4326 -1.65333 86 94 108
-16.8704 -23.3739 -1.65278 102 105 120
-27.3869 -9.44776 -1.66356 137 125 137
-27.4402 -9.37021 -1.66525 130 122 141
-27.6071 -9.09095 -1.66994 106 102 95
-27.7918 -8.91134 -1.67786 113 106 116
-27.8759 -8.84221 -1.68176 117 115 127
-27.9255 -8.76189 -1.68333 118 117 118
-10.8574 -25.1517 -1.45805 130 90 89
-10.9542 -25.1625 -1.46093 130 92 91
-11.0844 -25.1413 -1.46282 130 92 91
-11.172 -25.1292 -1.46424 130 90 90
-11.2644 -25.1278 -1.46639 131 89 90
-11.3553 -25.1223 -1.4683 131 90 88
-15.6048 -24.4695 -1.66642 98 95 112
-15.7105 -24.3834 -1.66533 100 99 115
-15.7776 -24.3213 -1.66425 100 103 118
-15.8476 -24.264 -1.66356 98 100 115
-15.9609 -24.1902 -1.66351 98 100 118
-16.0272 -24.1274 -1.66243 101 107 121
-16.0933 -24.0644 -1.66136 102 105 120
-16.2034 -23.9861 -1.66105 99 102 119
-27.958 -8.62807 -1.68282 127 126 121
-27.9287 -8.52348 -1.67908 110 105 106
-27.9621 -8.43814 -1.67961 127 116 130
-27.9722 -8.34582 -1.67859 118 114 127
-27.9874 -8.20739 -1.67705 113 124 139
-28.0083 -8.11844 -1.6768 113 123 124
-28.0213 -8.02724 -1.67604 118 107 98
-28.0425 -7.89098 -1.67502 118 109 114
-10.3332 -25.2149 -1.44965 130 89 89
-10.4586 -25.1858 -1.4508 128 94 91
-10.5466 -25.1778 -1.45234 127 94 89
-10.6407 -25.1842 -1.45486 128 94 89
-10.7692 -25.1609 -1.45651 131 90 88
-15.0472 -24.9419 -1.67387 88 93 116
-15.1596 -24.8651 -1.67329 91 91 115
-15.2306 -24.8079 -1.67248 92 94 114
-15.2972 -24.7437 -1.67114 91 93 116
-15.4075 -24.6641 -1.67043 95 93 113
-15.4672 -24.5892 -1.66832 92 92 110
-15.5372 -24.5311 -1.6675 96 94 112
-28.0917 -7.71538 -1.67518 82 85 101
-28.1519 -7.58982 -1.67687 73 77 86
-28.1496 -7.49477 -1.67521 64 62 74
-28.1876 -7.41045 -1.67626 64 65 77
-28.2118 -7.32246 -1.6764 73 79 91
-28.2277 -7.18516 -1.67525 79 83 94
-31.3116 -4.38664 -1.71865 92 100 113
-31.3224 -4.28787 -1.71855 87 99 113
-31.3136 -4.13637 -1.71687 91 102 119
-10.053 -25.1931 -1.44222 126 86 87
-10.1501 -25.2106 -1.44534 128 88 89
-10.2416 -25.2129 -1.4475 128 89 88
-14.3003 -25.2736 -1.66854 105 120 147
-14.3944 -25.2571 -1.67057 98 112 138
-14.5242 -25.211 -1.67207 97 112 136
-14.6193 -25.1955 -1.67423 97 108 129
-14.7065 -25.1658 -1.67535 95 106 129
-14.7917 -25.1324 -1.67622 93 102 127
-14.8838 -25.0206 -1.67292 88 94 117
-14.9483 -24.9522 -1.67119 84 91 111
-11.5311 -23.1959 -1.4657 139 95 91
-11.6748 -23.214 -1.47083 128 95 97
-11.7557 -23.1959 -1.47209 99 108 121
-11.8267 -23.158 -1.47192 96 110 135
-12.0224 -23.2757 -1.48445 99 109 137
-12.0801 -23.2102 -1.48233 97 104 124
-13.2348 -24.9851 -1.61937 112 118 136
-13.33 -24.9778 -1.62179 95 105 126
-13.4365 -24.9912 -1.62577 95 108 129
-13.5375 -24.9937 -1.62897 99 111 135
-13.857 -25.3063 -1.65667 97 111 139
-13.9574 -25.3038 -1.65961 93 109 136
-14.0561 -25.2974 -1.66229 95 110 136
-14.1985 -25.2757 -1.66547 102 116 138
-11.9566 -24.4522 -1.55144 139 94 89
-21.1849 -15.5558 -1.68252 75 74 88
-22.1189 -14.1174 -1.67984 78 78 82
-22.1807 -14.06 -1.68142 79 78 83
-22.2524 -13.9603 -1.68199 79 79 83
-22.3003 -13.8939 -1.68241 79 80 82
-22.3328 -13.8179 -1.68154 79 80 84
-22.4017 -13.7163 -1.68196 79 78 86
-22.4234 -13.6337 -1.68022 80 79 84
-22.4481 -13.5533 -1.67877 82 81 87
-22.505 -13.4924 -1.68007 82 81 86
-22.5605 -13.3827 -1.67948 83 83 83
-22.6015 -13.3122 -1.67947 82 82 84
-22.6286 -13.2334 -1.67831 83 82 87
-11.3183 -24.4763 -1.53552 91 92 65
-11.4151 -24.4868 -1.53872 107 95 68
-11.542 -24.4612 -1.5406 114 99 74
-11.6297 -24.451 -1.54237 116 106 76
-11.7328 -24.4729 -1.54648 104 94 68
-11.8669 -24.46 -1.5494 129 96 87
-12.2558 -24.8765 -1.58474 140 94 91
-22.6914 -13.1282 -1.67844 82 81 87
-22.7436 -13.0642 -1.67945 80 79 87
-22.7716 -12.9862 -1.67844 82 81 86
-22.8315 -12.8793 -1.67843 83 83 85
-22.8744 -12.8099 -1.67871 85 83 86
-22.917 -12.7403 -1.679 84 82 87
-22.963 -12.6725 -1.67957 85 83 89
-23.0057 -12.556 -1.67826 83 80 88
-23.0494 -12.4869 -1.67869 83 82 87
-23.0788 -12.4101 -1.67797 81 81 82
-23.1325 -12.2998 -1.67767 85 83 87
-23.1824 -12.234 -1.67868 84 82 85
-23.2004 -12.1512 -1.67709 83 80 87
-23.2653 -12.0469 -1.67781 88 86 91
-23.3286 -11.9879 -1.67997 90 84 91
-23.3528 -11.9085 -1.67896 87 84 91
-23.3785 -11.83 -1.6781 88 88 90
-23.4348 -11.7211 -1.67823 85 85 86
-23.4705 -11.6477 -1.67823 87 88 90
-23.5007 -11.5716 -1.6778 87 87 89
-23.5326 -11.4507 -1.67606 91 91 92
-10.7043 -24.5299 -1.52284 112 87 91
-10.8443 -24.539 -1.52693 118 88 94
-10.9372 -24.5441 -1.52961 109 77 82
-11.0206 -24.5269 -1.53074 120 87 87
-11.1105 -24.524 -1.5329 122 94 86
-11.2292 -24.4818 -1.53348 122 114 94
-17.7794 -19.5213 -1.69155 77 81 94
-23.5746 -11.3806 -1.67664 89 89 91
-23.5968 -11.3007 -1.67563 91 89 92
-23.6524 -11.1916 -1.67592 96 91 96
-23.6847 -11.1167 -1.67577 93 88 94
-23.7384 -11.0518 -1.67737 94 91 97
-23.7793 -10.9809 -1.67795 94 93 96
-23.8175 -10.7739 -1.67433 88 81 90
-23.9447 -10.742 -1.68185 84 78 85
-23.9195 -10.5962 -1.67592 94 88 93
-23.959 -10.5245 -1.67651 90 80 88
-23.9892 -10.4486 -1.67636 77 64 73
-24.0281 -10.332 -1.67564 86 74 83
-24.0485 -10.252 -1.67478 88 79 86
-10.2187 -24.5475 -1.51193 114 86 91
-10.3138 -24.5623 -1.51513 120 97 99
-10.4015 -24.5583 -1.51703 126 102 105
-10.5332 -24.5508 -1.51982 130 110 113
-10.6203 -24.5441 -1.52159 137 117 120
-16.5546 -20.7433 -1.70197 75 84 101
-16.6089 -20.6794 -1.70079 78 87 104
-16.699 -20.5942 -1.70002 76 84 104
-16.7639 -20.5439 -1.70013 75 84 101
-16.8162 -20.4779 -1.6988 75 82 100
-16.9015 -20.3872 -1.6976 76 81 103
-24.076 -10.1751 -1.67449 71 69 70
-24.1014 -10.0974 -1.67407 72 70 72
-24.1293 -9.97642 -1.67262 68 65 71
-24.1339 -9.8902 -1.6706 65 64 72
-24.1528 -9.81007 -1.66974 69 68 72
-24.2421 -9.71443 -1.67321 90 85 91
-9.80159 -24.4998 -1.49915 123 97 101
-9.91055 -24.5532 -1.50495 115 90 93
-10.0059 -24.571 -1.50827 133 110 112
-10.0978 -24.5792 -1.51095 137 115 116
-15.7955 -21.308 -1.70132 74 87 106
-15.8698 -21.2703 -1.7023 72 88 104
-15.9748 -21.2044 -1.70298 73 85 102
-16.0357 -21.1485 -1.70237 75 85 103
-16.1023 -21.1004 -1.70248 75 87 103
-16.1959 -21.019 -1.70185 75 86 104
-16.2573 -20.964 -1.70139 74 85 103
-16.3392 -20.9357 -1.70338 73 86 103
-16.4208 -20.8391 -1.70146 73 86 103
-16.4939 -20.7992 -1.70244 74 86 103
-26.2575 -24.0755 -2.35984 90 83 80
-26.4504 -24.0264 -2.36775 95 82 81
-24.8363 -8.84512 -1.69191 151 149 156
-24.8574 -8.76527 -1.69149 156 152 162
-24.8881 -8.64507 -1.69077 148 142 153
-24.9179 -8.56835 -1.69107 133 129 139
-15.2336 -21.7967 -1.70668 77 90 110
-15.3 -21.7479 -1.7065 74 86 108
-15.3548 -21.6825 -1.70488 76 88 110
-15.4468 -21.598 -1.70367 77 89 111
-15.5194 -21.5583 -1.70436 78 89 110
-15.5804 -21.5021 -1.7036 78 89 109
-15.6643 -21.4069 -1.70153 79 87 105
-15.7446 -21.3778 -1.70323 77 88 106
-31.3441 -28.3321 -2.84043 109 97 96
-31.3241 -28.1364 -2.82985 93 82 83
-31.3321 -27.879 -2.81781 114 100 96
-31.2936 -27.6697 -2.80564 108 93 91
-24.9325 -8.48636 -1.69021 152 154 162
-24.9336 -8.39987 -1.68834 161 164 169
-24.9965 -8.29079 -1.69022 179 176 187
-24.9799 -8.19867 -1.68706 157 154 166
-25.0235 -8.12653 -1.68851 145 143 158
-25.0606 -8.00882 -1.68852 123 117 125
-25.0638 -7.92358 -1.68694 105 103 107
-25.1067 -7.85097 -1.68839 85 83 88
-14.6419 -22.3247 -1.71483 102 104 119
-14.7396 -22.2466 -1.71391 101 106 123
-14.8063 -22.1976 -1.71358 95 102 120
-14.8718 -22.1468 -1.71311 93 101 119
-14.9651 -22.0628 -1.71176 85 92 111
-15.0246 -22.0032 -1.71057 84 92 111
-15.0872 -21.9484 -1.70981 79 92 109
-15.1406 -21.8803 -1.70789 78 93 114
-20.7279 -13.0965 -1.67906 79 79 88
-25.1999 -7.6645 -1.69101 55 56 69
-25.1963 -7.57737 -1.689 54 54 71
-25.219 -7.49835 -1.68901 73 75 86
-25.2493 -7.37855 -1.68873 78 81 96
-25.2619 -7.29657 -1.68802 85 85 98
-25.3086 -7.22449 -1.68991 79 81 95
-25.3088 -7.09618 -1.68747 78 82 95
-25.3301 -7.01679 -1.68748 79 81 96
-14.2448 -22.7054 -1.72289 106 113 132
-14.3026 -22.641 -1.72111 105 111 130
-14.359 -22.5748 -1.71919 112 116 133
-14.4184 -22.5135 -1.71771 114 115 133
-14.5245 -22.4483 -1.7178 109 115 131
-14.5812 -22.3832 -1.71602 104 106 121
-17.6652 -17.2901 -1.69416 85 74 82
-18.1414 -16.7382 -1.69133 96 90 90
-18.2224 -16.6048 -1.68898 100 90 92
-18.2966 -16.517 -1.68864 106 92 89
-18.3401 -16.4533 -1.68784 114 101 97
-18.3968 -16.4016 -1.68844 111 96 93
-18.4581 -16.3023 -1.68687 110 91 95
-18.4874 -16.2264 -1.68469 105 89 90
-18.5374 -16.1688 -1.68467 102 84 90
-20.7766 -12.992 -1.67796 79 79 89
-20.8097 -12.9228 -1.67734 79 79 90
-20.8544 -12.861 -1.6778 81 80 89
-20.956 -12.6108 -1.67452 80 80 89
-21.0135 -12.5566 -1.67622 78 78 88
-21.0595 -12.4509 -1.67512 81 81 91
-21.1027 -12.3881 -1.67558 81 81 91
-21.3746 -11.7556 -1.66997 81 79 92
-21.4481 -11.6659 -1.67166 78 78 90
-21.4522 -11.5817 -1.66887 79 79 92
-21.4876 -11.5146 -1.66887 80 79 92
-21.5231 -11.4045 -1.66731 78 78 91
-21.5861 -11.352 -1.66978 79 77 92
-21.5943 -11.2707 -1.66746 79 77 94
-21.6604 -11.1767 -1.66869 78 78 95
-21.6768 -11.0998 -1.66715 76 78 95
-21.6964 -11.0248 -1.66591 76 77 95
-25.3741 -6.94367 -1.68923 79 81 96
-25.3768 -6.81644 -1.68707 78 82 94
-25.3895 -6.73477 -1.68651 77 81 90
-13.7877 -23.0762 -1.72894 78 92 119
-13.8612 -23.037 -1.72919 80 94 120
-13.9154 -22.9651 -1.72669 79 93 119
-14.0174 -22.892 -1.72591 83 98 121
-14.076 -22.8282 -1.72414 86 101 124
-14.1406 -22.7744 -1.72323 89 101 123
-21.7425 -10.9632 -1.66699 80 79 96
-21.7824 -10.8558 -1.66605 84 81 97
-21.7958 -10.7779 -1.66435 81 79 97
-21.8662 -10.7282 -1.6676 72 74 92
-21.8618 -10.5995 -1.66295 81 77 93
-21.8923 -10.5302 -1.6628 93 87 103
-21.9298 -10.4643 -1.66326 94 86 100
-21.9672 -10.3562 -1.66233 76 67 75
-22.0113 -10.2934 -1.66341 74 64 74
-22.0174 -10.2127 -1.66125 67 61 69
-22.0521 -10.1455 -1.66156 72 70 76
-22.0842 -10.0353 -1.66032 93 94 104
-22.1238 -9.97033 -1.6611 111 111 121
-22.1505 -9.89946 -1.66079 123 122 127
-25.7001 -5.83616 -1.69358 84 82 93
-13.2712 -23.5203 -1.73852 102 114 138
-13.3287 -23.4515 -1.73617 90 104 126
-13.3946 -23.3982 -1.73511 86 102 126
-13.4764 -23.2876 -1.731 83 99 124
-13.5693 -23.2823 -1.734 84 95 120
-13.6286 -23.218 -1.73208 84 96 120
-13.6876 -23.1534 -1.73016 82 94 118
-22.2252 -9.80831 -1.66326 92 85 88
-22.2733 -9.74673 -1.66481 95 88 95
-22.3742 -9.70797 -1.67084 99 96 106
-22.4097 -9.59895 -1.67006 114 118 128
-22.4792 -9.54594 -1.67346 141 145 151
-22.5137 -9.47788 -1.67393 150 151 155
-22.5682 -9.41813 -1.6761 156 155 159
