-34.7376 -13.6394 0.448147 120 75 67
-34.8727 -13.5667 0.448771 153 95 72
-35.1946 -13.0615 0.449476 171 123 55
-35.6403 -13.1001 0.452256 166 118 59
-35.1146 -12.7825 0.448317 150 112 48
-35.5017 -12.4846 0.449965 167 129 88
-36.1554 -12.2708 0.453454 168 137 58
-36.3456 -11.3284 0.452566 131 114 77
-36.1794 -11.1526 0.451174 95 83 55
-36.8263 -11.1624 0.45518 99 81 69
-41.8421 -6.9984 0.479622 69 25 9
-38.1973 -58.0749 0.659126 59 62 46
-9.40834 -13.097 0.128077 28 37 57
-44.6794 -12.7019 0.506681 117 103 89
-13.9559 -19.4686 0.19157 62 72 95
-13.9757 -19.3684 0.191622 53 57 68
-14.4384 -17.8689 0.192332 93 84 81
-14.4799 -17.807 0.192351 59 50 45
-15.1037 -17.8899 0.192113 92 79 68
-7.69927 -7.46231 0.0798736 112 100 23
-7.71053 -7.42745 0.0800679 91 83 26
-7.73894 -7.38636 0.080169 105 89 33
-7.76986 -7.37102 0.0800261 92 90 35
-7.81653 -7.37087 0.0796184 86 89 33
-13.0432 -7.63075 0.133121 72 83 75
-12.9902 -7.54577 0.133547 61 71 65
-13.0303 -7.51529 0.133444 70 80 72
-18.048 -7.82982 0.193975 66 77 45
-18.0772 -7.77575 0.193959 92 105 71
-45.9202 -13.3656 0.515663 241 219 185
-45.9592 -13.2209 0.515612 71 41 31
-51.5403 -13.2617 0.550264 86 73 61
-51.8489 -7.49879 0.543646 53 47 43
-17.2553 -13.3897 0.193168 54 55 49
-17.2365 -13.2893 0.193209 59 60 41
-17.2696 -13.1866 0.193232 70 81 65
-17.272 -13.1036 0.193256 54 56 45
-17.352 -13.08 0.193221 75 82 69
-17.4938 -13.0602 0.193159 75 87 68
-17.6186 -13.0692 0.193089 59 76 49
-17.742 -13.0763 0.193021 65 78 60
-54.2224 -12.8681 0.566295 174 127 87
-54.3086 -12.7088 0.566557 169 121 66
-55.5894 -12.8242 0.574751 207 168 95
-55.4201 -12.5109 0.573189 208 166 95
-55.4993 -12.346 0.57341 109 78 52
-55.4159 -12.1452 0.572559 109 91 72
-62.7695 -13.2384 0.620412 99 97 76
-56.9952 -7.60208 0.576444 86 66 44
-61.9886 -7.57345 0.608168 163 149 131
-66.9389 -7.64327 0.639759 109 95 71
-11.1478 -14.4396 0.117799 93 90 92
-11.264 -14.4988 0.117228 67 62 62
-11.2611 -14.4023 0.117616 67 64 55
-11.6198 -13.14 0.121364 88 63 41
-18.465 -14.4316 0.192205 70 70 61
-18.9075 -13.7184 0.19221 38 42 43
-18.9513 -13.6605 0.192203 53 60 53
-18.8362 -13.4878 0.192315 66 68 65
-18.8532 -13.367 0.192347 62 66 65
-19.2369 -13.4625 0.192108 71 76 70
-19.3172 -13.385 0.192092 77 79 73
-19.1696 -13.1936 0.192225 84 90 85
-21.2208 -7.05153 0.191894 200 166 89
-9.59534 -18.8508 0.102729 128 129 131
-11.2982 -15.6726 0.112421 63 62 69
-11.3584 -15.5008 0.112954 69 64 62
-11.5023 -15.4966 0.112568 112 112 109
-11.3273 -15.0113 0.11501 49 68 90
-11.4287 -15.0499 0.114566 106 113 124
-11.5774 -15.1503 0.11374 65 73 78
-11.8916 -15.0741 0.113134 61 58 51
-17.1143 -21.5795 0.189527 95 90 84
-11.7951 -14.8548 0.114276 105 98 92
-17.2022 -21.5531 0.189513 96 90 87
-11.8 -14.7665 0.114605 75 70 67
-11.8337 -14.6679 0.114892 64 55 52
-11.8789 -14.6313 0.114898 54 44 43
-11.9089 -14.5759 0.115021 86 71 71
-12.0206 -14.6213 0.114508 74 54 52
-12.0685 -14.4494 0.115024 78 49 46
-18.7578 -21.3875 0.189096 113 90 72
-18.9009 -21.3495 0.189069 63 37 23
-18.996 -21.3237 0.189046 90 68 41
-12.3876 -13.4185 0.117865 121 86 47
-12.3856 -13.333 0.118181 123 85 37
-12.3795 -13.2021 0.118679 46 21 10
-12.3955 -13.1374 0.118857 56 45 41
-12.3181 -12.9737 0.119701 51 48 43
-12.4842 -13.0281 0.118956 78 74 49
-12.5657 -13.0328 0.118665 106 99 58
-12.6528 -13.0428 0.118335 110 90 32
-12.7606 -13.0327 0.11801 95 69 28
-12.7713 -12.9631 0.118217 132 106 61
-12.9064 -13.0205 0.117554 104 84 42
-13.0602 -12.974 0.117191 57 51 24
-12.9769 -12.8106 0.118044 114 104 59
-13.4581 -12.3726 0.117832 121 109 42
-13.2252 -11.6369 0.121086 102 112 54
-20.0897 -13.7409 0.191565 65 72 58
-20.1533 -13.6928 0.191541 76 85 75
-20.1027 -13.4303 0.191645 71 72 68
-20.1423 -13.3663 0.191638 73 75 72
-20.6171 -13.5456 0.19133 60 65 63
-20.4902 -13.3703 0.191445 75 74 72
-20.4442 -13.2494 0.1915 99 82 73
-21.6107 -13.8688 0.190687 125 98 79
-20.9021 -13.3185 0.191227 120 93 81
-20.8538 -13.1962 0.191282 120 85 82
-20.8976 -13.1331 0.191271 124 83 78
-3.44049 -6.89193 0.0153274 190 177 175
-3.4545 -6.83875 0.016403 155 150 141
-3.48116 -6.84128 0.016054 139 140 142
-9.68862 -18.8173 0.102696 105 90 93
-19.1839 -21.4021 0.188939 104 75 45
-19.3964 -21.3044 0.188913 132 96 45
-13.8162 -12.7839 0.115182 107 100 31
-13.8417 -12.6491 0.115534 86 75 17
-13.8249 -12.5158 0.116038 82 79 11
-13.7026 -12.2504 0.117347 112 122 55
-14.2705 -12.6827 0.113866 58 66 21
-13.7327 -11.9366 0.118249 43 37 12
-14.4817 -12.3963 0.114008 49 47 37
-14.2372 -12.1093 0.115825 83 70 66
-14.5144 -12.2304 0.114411 76 51 56
-14.4892 -12.1324 0.11481 89 59 59
-14.27 -11.7978 0.116674 103 62 62
-14.5946 -11.9537 0.114965 123 78 77
-14.2831 -11.6232 0.117164 119 78 79
-14.3451 -11.6002 0.116995 123 85 83
-14.4237 -11.5533 0.116841 107 81 78
-21.8143 -16.0054 0.189962 73 78 66
-22.0712 -14.8572 0.190166 98 100 88
-21.9872 -13.6805 0.190517 123 82 80
-21.8376 -13.4925 0.190646 113 80 80
-22.2426 -13.6491 0.190372 59 50 48
-21.9599 -13.333 0.190616 66 65 60
-21.9683 -13.2446 0.190629 85 89 85
-22.0688 -13.212 0.190575 70 76 72
-22.1042 -13.0931 0.190587 46 54 53
-22.7356 -12.6214 0.190304 50 57 42
-24.4457 -7.8351 0.189668 190 141 66
-24.4472 -7.7092 0.189674 148 133 82
-20.0324 -31.5317 0.183047 145 134 142
-20.2209 -31.395 0.183089 78 69 66
-7.70007 -7.46943 0.0432891 95 79 19
-7.72425 -7.42412 0.0435115 91 85 49
-7.75669 -7.41012 0.0432963 97 89 41
-7.79056 -7.39736 0.04305 95 87 30
-14.5553 -12.5382 0.113285 35 37 23
-24.8435 -14.158 0.18873 55 67 63
-24.3628 -13.7816 0.189092 106 112 109
-26.0004 -13.9731 0.188063 137 111 70
-25.7236 -13.1068 0.188383 120 91 84
-26.1145 -13.2048 0.188121 120 87 78
-25.5469 -12.816 0.188533 88 66 59
-25.6454 -12.7155 0.188493 102 97 74
-25.6732 -12.3815 0.188524 145 128 90
-25.8713 -12.2791 0.188406 134 109 73
-26.1718 -12.2726 0.188222 110 93 72
-26.4592 -11.8579 0.188081 100 98 82
-5.59684 -13.5735 0.0305993 74 70 66
-20.4745 -42.4559 0.175881 135 134 145
-14.8701 -14.9278 0.10417 103 82 73
-7.77396 -7.58873 0.0411785 127 108 54
-7.85767 -7.39314 0.0423419 94 93 33
-26.4418 -14.8028 0.187645 77 85 74
-27.2667 -14.9339 0.18711 79 78 51
-26.657 -14.4358 0.187581 110 88 73
-27.0235 -14.418 0.187354 141 117 72
-26.3368 -13.8911 0.187875 146 118 70
-27.7632 -14.5376 0.186881 92 61 35
-28.438 -14.7801 0.186419 98 65 47
-26.904 -13.8183 0.187537 101 74 57
-26.4433 -13.011 0.187944 96 91 75
-26.3613 -12.8683 0.188013 73 70 50
-26.6718 -12.0539 0.187925 90 87 69
-27.801 -12.3587 0.187154 96 96 84
-27.794 -12.1998 0.187183 102 94 76
-17.9736 -7.84388 0.110688 102 92 76
-17.9881 -7.78368 0.110726 95 87 70
-18.0282 -7.73449 0.110626 98 93 70
-5.69566 -13.7019 0.028726 78 67 61
-5.69226 -13.5697 0.0302412 87 82 70
-5.83917 -13.6305 0.0289228 99 89 82
-5.87211 -13.5908 0.0292274 85 77 77
-5.93916 -13.5736 0.0291286 87 73 71
-6.01648 -13.6406 0.0280298 117 104 94
-6.14012 -13.8158 0.025504 77 67 63
-6.20361 -13.7862 0.0255502 112 99 86
-20.8633 -42.4146 0.175884 176 174 179
-6.5715 -13.1012 0.0313876 183 171 158
-21.7334 -42.3378 0.17586 109 96 100
-22.4611 -42.2868 0.175818 111 107 107
-23.5192 -33.6059 0.181041 52 53 55
-25.4484 -31.0188 0.181933 83 68 61
-25.5348 -30.927 0.181951 71 52 47
-25.6801 -30.2268 0.182262 104 84 73
-15.2365 -17.7764 0.0926028 120 93 75
-25.7461 -29.8285 0.182445 126 99 78
-16.7824 -13.1571 0.102919 47 53 46
-17.1818 -13.3859 0.100686 49 54 46
-17.2797 -13.3765 0.10033 67 76 63
-17.2117 -13.2383 0.101001 61 72 49
-17.2318 -13.1261 0.101256 58 68 53
-17.2371 -13.0458 0.101467 66 69 61
-17.3601 -13.0547 0.100954 71 77 72
-17.4959 -13.0297 0.100495 82 97 66
-17.621 -13.0384 0.0999715 86 101 70
-17.7366 -13.0393 0.0995068 54 65 56
-6.30704 -13.9088 0.0237019 100 88 87
-6.31808 -13.7006 0.0259786 178 158 134
-6.38991 -13.6902 0.0257582 90 71 72
-6.50731 -13.8387 0.0235474 93 67 70
-6.98495 -13.1187 0.0290458 111 107 106
-7.10188 -13.0957 0.0286655 99 80 75
-7.27038 -13.0709 0.0280061 143 135 127
-7.39269 -13.1039 0.0269658 68 60 68
-7.59331 -13.2277 0.0245082 100 97 96
-7.64831 -13.1343 0.0251812 120 119 115
-7.66105 -13.0142 0.0263813 75 71 74
-7.71399 -13.0134 0.0260779 81 76 70
-7.76997 -13.0177 0.025702 78 76 74
-4.72947 -6.70885 0.00311844 78 89 103
-17.8282 -16.6822 0.0878295 101 90 26
-18.3674 -14.6387 0.0923482 34 17 18
-19.1976 -13.8891 0.0912716 58 60 60
-18.916 -13.5952 0.093223 52 54 53
-18.9805 -13.5524 0.0930804 72 74 74
-19.0678 -13.4809 0.0929323 53 58 55
-19.0995 -13.4144 0.0929851 50 53 46
-19.1898 -13.3892 0.0926854 73 76 72
-19.2437 -13.2936 0.0927325 53 58 53
-18.9781 -13.0226 0.0945467 59 61 58
-19.0016 -12.952 0.0946383 53 59 55
-33.9917 -15.8332 0.182764 100 87 71
-34.3411 -15.8662 0.182531 131 107 86
-33.2058 -13.7906 0.183476 104 83 69
-35.2012 -14.4298 0.182115 103 80 73
-33.5923 -13.6447 0.183237 101 83 76
-34.2359 -13.7827 0.182796 72 53 49
-34.6742 -13.771 0.182514 109 68 67
-34.7387 -13.6711 0.182474 114 70 64
-34.8754 -13.5992 0.182382 149 97 80
-34.7588 -13.4284 0.182466 121 81 51
-34.7759 -13.2476 0.182475 154 115 60
-34.9304 -13.1817 0.18237 134 97 65
-35.2699 -13.1844 0.182137 174 141 91
-34.5665 -12.7355 0.182642 171 138 81
-35.0627 -12.6704 0.1823 186 146 89
-35.138 -12.5114 0.182264 152 111 47
-35.7466 -12.6031 0.181843 170 134 86
-34.8107 -12.1493 0.182489 160 141 117
-34.9101 -12.0616 0.182419 177 141 85
-34.8825 -11.8688 0.182452 185 147 67
-34.8014 -11.7197 0.182506 102 81 46
-21.2353 -7.09818 0.0965891 157 141 109
-35.3211 -11.5883 0.182157 187 146 76
-21.1598 -6.99964 0.0970774 185 140 63
-35.1457 -11.4087 0.182274 208 159 69
-7.65833 -13.2483 0.0239155 100 99 91
-7.84549 -13.0081 0.025357 74 76 82
-7.9027 -13.0135 0.0249569 62 65 77
-7.95289 -13.0066 0.0247254 40 39 50
-8.03683 -13.0097 0.0241872 134 138 152
-8.0851 -12.9989 0.0240039 132 130 138
-8.1468 -13.0101 0.0235069 105 99 97
-4.69976 -6.75379 0.00260329 64 66 65
-4.71467 -6.73134 0.00286091 69 75 81
-4.79272 -6.7355 0.00165481 73 80 90
-4.78501 -6.67976 0.00292634 32 40 45
-4.81987 -6.68679 0.002271 66 64 60
-4.86877 -6.69127 0.00146635 74 76 67
-19.3618 -14.1467 0.0898828 47 51 52
-20.0786 -13.5974 0.0884925 62 65 62
-20.1632 -13.5178 0.0883624 58 64 59
-20.1532 -13.4204 0.0886586 42 47 43
-20.1761 -13.3453 0.0887587 51 52 47
-20.2964 -13.2891 0.0884125 48 56 55
-20.2619 -13.1765 0.0888456 86 81 76
-20.6767 -13.3557 0.0866532 107 89 75
-20.7167 -13.2447 0.0867764 126 100 79
-20.7759 -13.1918 0.0866604 73 43 37
-35.976 -15.0788 0.181545 87 80 65
-3.38315 -6.84815 -0.0102585 171 168 175
-3.4171 -6.83869 -0.0104227 183 168 175
-3.42918 -6.81062 -0.00983522 196 180 172
-3.45575 -6.81318 -0.0102354 141 139 144
-37.0383 -56.8533 0.164239 86 88 64
-8.65835 -13.1091 0.0192677 92 60 70
-18.6672 -21.3406 0.0684503 125 100 82
-18.9119 -21.2849 0.0678831 93 91 94
-19.1449 -21.2803 0.0671488 123 93 50
-19.3125 -21.2665 0.0666638 137 95 47
-19.4012 -21.2315 0.0665017 148 107 61
-20.4107 -16.1715 0.0798541 71 72 70
-22.0183 -13.8868 0.0796858 126 86 87
-21.8324 -13.6744 0.0809993 124 82 83
-21.804 -13.515 0.0815236 128 88 89
-21.786 -13.4101 0.081857 81 62 55
-21.8084 -13.3305 0.081955 71 74 55
-21.9027 -13.2479 0.0817634 66 68 62
-21.9554 -13.1866 0.0816847 60 67 64
-22.0336 -13.1406 0.0814588 61 73 72
-22.1324 -13.0596 0.0812372 96 94 95
-22.6717 -12.5349 0.0801171 77 84 63
-40.1896 -14.6741 0.178752 125 85 45
-24.3394 -7.83919 0.0808266 171 138 63
-44.7664 -12.9333 0.175611 88 55 25
-44.7004 -12.7624 0.175647 150 147 136
-44.8125 -12.4911 0.175548 84 77 79
-41.7414 -7.02194 0.177296 133 84 60
-10.0372 -13.2696 0.00831443 76 87 113
-10.0043 -13.1392 0.00981532 46 45 47
-13.0097 -7.60585 0.027201 70 75 78
-13.0121 -7.55321 0.0274851 76 86 81
-13.0366 -7.51374 0.0274557 67 78 70
-24.7273 -13.9262 0.0680123 65 71 70
-25.1511 -12.9998 0.0681945 71 44 24
-24.8818 -12.7132 0.0700005 102 79 69
-24.8263 -12.5873 0.070507 124 92 82
-25.1525 -12.6544 0.0689112 127 98 85
-25.3356 -12.4998 0.0684139 97 88 59
-25.5894 -12.5261 0.0672197 112 100 79
-24.4203 -7.78108 0.080512 104 91 72
-46.8348 -14.4932 0.174189 84 73 56
-51.8778 -15.6144 0.170703 104 79 79
-45.8384 -13.6344 0.174871 97 75 77
-45.8763 -13.4893 0.174836 127 126 118
-51.4405 -13.4794 0.170938 137 108 102
-51.5203 -13.3277 0.170867 96 77 68
-20.0618 -31.4208 0.0240396 120 118 140
-26.1937 -14.8611 0.0595112 58 67 62
-26.4582 -14.7397 0.0586451 71 81 67
-27.4263 -14.8896 0.054084 124 103 64
-27.2768 -14.6983 0.0551583 155 114 72
-25.7492 -13.7707 0.0638984 110 81 26
-27.1162 -14.3941 0.0565222 136 104 62
-26.4127 -13.862 0.0607814 154 123 83
-25.5832 -12.7715 0.0667451 74 60 44
-26.2107 -12.7293 0.0640209 101 88 68
-27.2541 -13.0788 0.058643 56 51 45
-25.7954 -12.2796 0.066784 107 101 72
-26.1495 -12.3483 0.0650479 109 95 72
-26.4329 -12.0311 0.0643664 97 83 56
-26.5888 -11.952 0.0638116 68 71 61
-54.1533 -13.0181 0.168968 167 136 93
-55.6814 -12.9253 0.167881 207 107 87
-58.543 -13.3981 0.165869 211 129 91
-59.6177 -13.3496 0.165115 195 90 90
-60.5884 -13.368 0.164414 221 105 108
-51.7815 -7.71852 0.170113 110 103 93
-56.9436 -7.66988 0.16634 103 92 68
-5.6436 -13.7333 -0.0222434 99 92 86
-5.65341 -13.6347 -0.0208578 88 77 73
-5.67529 -13.5677 -0.0200019 117 105 99
-5.87606 -13.7597 -0.0239186 121 112 103
-5.86495 -13.6128 -0.0217243 87 86 76
-5.9536 -13.6472 -0.0227289 86 78 76
-6.03755 -13.7286 -0.0243954 89 80 75
-6.08525 -13.7233 -0.0245988 74 64 59
-6.13151 -13.6555 -0.0238914 100 88 77
-6.21498 -13.7323 -0.0254957 99 88 81
-6.9635 -13.114 -0.0215798 87 79 76
-7.00838 -13.1018 -0.0217233 63 57 57
-25.777 -30.5765 0.0114392 88 68 57
-25.8471 -29.7989 0.0141546 124 100 77
-12.1787 -13.112 -0.00660808 148 122 80
-12.3312 -13.0734 -0.00751032 76 64 55
-12.4469 -13.0349 -0.00813019 70 68 54
-12.6054 -12.6398 -0.00603266 79 64 41
-28.4416 -14.8151 0.049771 112 78 44
-29.5879 -13.5793 0.0471151 132 100 84
-61.5404 -13.3761 0.163726 209 97 113
-62.5177 -13.2811 0.163035 177 87 98
-63.6839 -13.3207 0.162193 181 106 118
-65.0153 -13.387 0.161236 160 85 110
-66.1989 -13.4148 0.160379 157 76 99
-67.3749 -13.3236 0.159542 171 77 90
-59.9021 -7.68704 0.164168 87 94 86
-61.956 -7.65492 0.16268 86 78 59
-66.8636 -7.83732 0.159107 110 94 78
-6.32691 -13.7568 -0.0265254 151 122 104
-6.39892 -13.7463 -0.0268144 75 55 53
-6.50214 -13.8617 -0.0291032 92 65 72
-6.58128 -13.922 -0.0304583 94 66 67
-20.9596 -42.337 -0.0259963 173 168 175
-6.87284 -13.4965 -0.0263141 132 136 139
-21.8418 -42.2811 -0.0275133 81 61 62
-22.2392 -42.2398 -0.0281462 124 115 107
-22.5784 -42.244 -0.0288813 64 56 57
-7.278 -13.1208 -0.0238996 123 109 98
-7.42851 -13.2044 -0.0261456 108 95 89
-7.54868 -13.1808 -0.0267061 126 120 107
-7.65469 -13.2746 -0.028777 78 82 83
-7.65321 -13.1765 -0.0274297 53 67 61
-7.66076 -13.0478 -0.0257335 69 71 63
-7.70482 -13.0314 -0.025847 93 89 79
-7.76891 -13.0494 -0.026582 88 84 78
-7.83951 -13.0311 -0.026875 53 55 62
-7.89172 -13.0278 -0.0272374 68 64 75
-7.95115 -13.0364 -0.0278172 54 40 60
-8.02394 -13.0205 -0.0281726 159 164 181
-8.08153 -13.025 -0.0286905 91 94 110
-8.14443 -13.0379 -0.0293637 224 212 228
-4.67888 -6.7402 -0.0261236 69 78 71
-4.69026 -6.71286 -0.025655 54 63 67
-4.68953 -6.64541 -0.0240224 70 82 81
-4.75474 -6.69719 -0.0263401 58 76 91
-4.75903 -6.65984 -0.0255234 67 85 99
-4.80094 -6.65468 -0.0260969 63 57 67
-4.83821 -6.66472 -0.0269635 64 64 66
-11.4597 -15.4513 -0.0230576 39 40 48
-11.2931 -15.1221 -0.0186639 92 103 116
-11.5016 -15.0605 -0.0195491 70 64 65
-11.7353 -15.2743 -0.0233004 58 61 56
-11.7145 -15.0989 -0.0214546 63 64 58
-11.6968 -14.9786 -0.0201706 60 58 53
-11.721 -14.914 -0.01973 68 60 57
-11.7205 -14.7697 -0.0183428 92 88 81
-11.5336 -14.4359 -0.0137833 65 64 64
-11.6102 -14.4412 -0.0144031 70 57 56
-12.0487 -14.8553 -0.0215921 93 79 72
-12.0982 -14.8228 -0.0216582 105 87 81
-12.1527 -14.7964 -0.0218207 74 52 37
-12.2134 -14.7775 -0.0221037 106 83 54
-12.2846 -14.7239 -0.022139 91 60 41
-12.3232 -13.354 -0.00993434 130 98 60
-12.3944 -13.2659 -0.00973476 52 50 31
-12.4217 -13.0894 -0.00839803 68 62 47
-12.5554 -13.0279 -0.00896401 63 53 29
-12.6491 -13.0455 -0.00990023 108 90 50
-12.7334 -13.0525 -0.010668 105 83 42
-12.8412 -13.0422 -0.0114782 110 85 38
-12.923 -13.0454 -0.0121981 116 91 50
-13.1138 -13.0777 -0.0140953 67 59 46
-13.1576 -12.9998 -0.0137988 104 93 65
-13.3544 -12.5554 -0.0117795 130 103 46
-13.5694 -12.6029 -0.0140646 109 106 20
-13.2601 -12.1956 -0.00799245 113 106 32
-13.7599 -12.5845 -0.0155987 115 113 34
-13.8271 -12.4506 -0.0151112 96 104 63
-13.7878 -12.2602 -0.0132334 63 66 49
-14.0887 -11.9171 -0.013275 75 49 50
-14.1758 -11.8787 -0.0137766 87 56 53
-14.2194 -11.7661 -0.0133217 91 50 51
-9.58851 -18.8718 -0.0472798 132 137 139
-9.63984 -18.8281 -0.0470702 116 112 117
-26.2665 -41.9507 -0.0360292 196 192 199
-8.3969 -13.1298 -0.0326193 94 72 103
-27.0753 -41.9237 -0.0379249 88 78 73
-8.53229 -13.1193 -0.0335867 80 88 64
-8.74538 -13.1379 -0.035601 62 64 61
-14.466 -13.5342 -0.0296163 102 84 18
-13.8851 -12.6218 -0.0170186 121 126 36
-14.0901 -12.4159 -0.0172004 39 39 32
-14.1103 -12.3562 -0.0169117 82 70 63
-14.1275 -12.217 -0.0159738 57 50 48
-14.2202 -12.1827 -0.0165471 42 42 45
-14.3952 -11.9895 -0.0166666 83 51 53
-14.3214 -11.777 -0.0143581 125 80 77
-34.3996 -15.9187 0.0208426 122 106 97
-34.2594 -15.1443 0.0229186 76 75 74
-35.2319 -14.7905 0.0190893 86 82 71
-35.4528 -14.753 0.0181301 105 82 64
-35.5833 -14.6769 0.0176524 111 82 66
-35.4622 -14.4327 0.0186357 86 56 65
-35.1745 -14.1876 0.0203743 76 46 60
-34.6925 -13.8672 0.0231373 121 83 84
-34.7343 -13.6952 0.0232343 110 61 57
-34.7763 -13.5863 0.0232099 128 77 70
-34.8665 -13.4961 0.0229286 128 92 76
-34.7607 -13.2679 0.0237937 103 88 48
-34.7622 -13.144 0.023976 136 108 74
-35.0797 -13.1388 0.0224913 149 104 71
-35.9562 -13.1472 0.0183699 150 118 79
-35.8197 -12.9704 0.0192703 121 89 46
-35.6529 -12.5955 0.0206119 112 75 44
-35.9483 -12.5734 0.0192428 119 100 82
-36.0908 -12.4966 0.0186727 193 165 111
-35.9247 -12.3135 0.0197118 154 128 44
-9.26472 -13.841 -0.0491605 76 81 76
-9.56748 -13.1623 -0.0430515 53 53 55
-9.75683 -13.2098 -0.0453567 76 73 67
-13.0002 -7.62073 -0.0244515 65 69 70
-13.0353 -7.58729 -0.0246735 58 60 62
-13.0323 -7.53164 -0.0242129 73 80 73
-13.0932 -7.51298 -0.0249005 58 67 58
-38.7211 -14.364 0.00353215 121 92 56
-10.032 -13.5009 -0.0515249 75 78 78
-9.92314 -13.2656 -0.0475757 101 111 116
-10.0049 -13.1619 -0.0470266 75 74 77
-10.0922 -13.1933 -0.0482295 57 57 55
-11.0473 -13.1431 -0.0567751 96 77 68
-14.2353 -16.8953 -0.0572909 94 75 66
-14.0666 -16.5331 -0.052629 118 96 82
-14.1935 -16.5798 -0.0540442 127 101 84
-14.3073 -16.4529 -0.0537605 130 99 78
-14.3802 -16.4343 -0.0541647 131 100 82
-16.2138 -14.1389 -0.0501323 106 93 77
-17.2267 -13.3667 -0.0536993 59 63 49
-17.219 -13.2749 -0.052956 57 59 46
-17.2297 -13.198 -0.052502 104 111 94
-17.2401 -13.0786 -0.0517302 59 64 57
-17.3121 -13.0491 -0.0522152 51 58 46
-17.4381 -13.0604 -0.0535192 65 78 53
-17.9924 -7.80744 -0.0281121 83 82 78
-17.9904 -7.74005 -0.0277853 89 82 66
-18.0504 -7.69964 -0.0282789 77 79 65
-44.0023 -13.3298 -0.0201372 108 84 80
-45.9022 -13.5132 -0.029471 90 71 59
-45.936 -13.3669 -0.029469 241 231 210
-44.7185 -12.7854 -0.0229252 111 101 96
-44.7116 -12.481 -0.0225629 89 84 80
-41.7575 -7.0498 -0.00353655 225 201 175
-41.7984 -6.92193 -0.00367379 189 124 123
-11.547 -13.1539 -0.0619103 139 100 83
-15.3646 -17.4685 -0.0713532 125 82 66
-17.5832 -13.0424 -0.0547945 88 105 75
-17.7033 -13.0474 -0.0560024 67 84 54
-51.4222 -13.5731 -0.0562001 94 65 65
-51.5313 -13.343 -0.0564778 85 65 62
-51.8668 -13.2564 -0.0580273 89 80 75
-54.2214 -12.8658 -0.0691314 147 82 51
-51.8112 -7.57521 -0.0536287 65 59 60
-11.1355 -14.7693 -0.0775387 78 80 87
-11.5443 -15.0258 -0.0845278 58 63 58
-11.6105 -14.9675 -0.0844193 60 64 59
-11.5134 -14.419 -0.0767498 73 69 66
-11.4932 -14.302 -0.0751296 61 54 54
-11.5072 -14.1832 -0.0738128 71 63 48
-11.8955 -14.5756 -0.0823375 128 114 88
-16.7985 -18.5913 -0.0929243 97 76 51
-16.8142 -18.4342 -0.0916351 151 114 71
-12.3622 -13.4069 -0.0732479 137 119 76
-12.4547 -13.4246 -0.0744222 85 75 53
-12.3662 -13.2039 -0.0709697 48 46 24
-12.419 -13.1788 -0.0712451 62 63 46
-12.4281 -13.1069 -0.070528 89 82 55
-12.4601 -13.0597 -0.0703385 66 54 37
-12.5399 -13.022 -0.070763 111 90 62
-12.6339 -13.0394 -0.071969 62 53 26
-12.7378 -13.0665 -0.0733924 61 55 31
-12.836 -13.0459 -0.0742207 87 66 45
-12.9334 -13.0646 -0.075489 111 89 48
-13.3212 -12.3776 -0.0723775 104 99 25
-13.7043 -12.3457 -0.0764247 94 96 49
-13.6698 -12.1618 -0.074129 70 73 44
-18.31 -14.7751 -0.0744477 120 79 75
-18.7123 -14.7693 -0.0782067 38 41 34
-18.5818 -14.5244 -0.0751469 56 58 49
-18.9198 -13.7282 -0.0726927 41 51 42
-18.9507 -13.661 -0.072529 52 55 46
-18.8146 -13.473 -0.0698854 56 59 52
-18.8609 -13.4179 -0.069963 66 69 62
-19.4535 -13.7074 -0.0778135 83 84 76
-19.0716 -13.3467 -0.0715582 67 74 67
-18.9458 -13.1701 -0.0691077 74 85 67
-19.0199 -13.0905 -0.0693012 90 95 82
-19.0617 -13.0323 -0.0693313 72 73 70
-19.2087 -13.0464 -0.070903 75 75 67
-20.0873 -13.5582 -0.0831438 51 51 42
-20.1432 -13.369 -0.0824544 72 74 71
-20.4769 -13.2731 -0.085217 97 88 81
-21.2163 -7.055 -0.0618168 81 66 48
-55.6097 -12.9187 -0.075939 222 98 107
-56.1601 -12.8609 -0.078586 253 200 183
-59.2379 -13.3693 -0.0940791 220 169 147
-60.2704 -13.3043 -0.0990597 243 186 164
-61.226 -13.3136 -0.103757 227 150 144
-62.1861 -13.318 -0.108475 176 92 101
-56.9506 -7.6863 -0.079207 89 78 64
-11.7895 -15.1043 -0.0877936 59 63 62
-11.7834 -15 -0.0864519 55 61 59
-11.8679 -14.9642 -0.0868094 66 63 56
-12.0877 -14.7205 -0.0859607 72 51 23
-12.482 -14.9677 -0.0927962 91 67 63
-7.72297 -7.46384 -0.0609329 112 104 59
-7.74133 -7.43586 -0.0607804 68 47 15
-7.76242 -7.41063 -0.0607294 74 60 34
-7.80363 -7.38171 -0.0609801 106 93 22
-7.8533 -7.38404 -0.0619429 132 132 46
-13.8709 -12.6146 -0.0811437 101 103 26
-14 -12.188 -0.0782468 74 59 38
-14.1677 -12.1431 -0.0797612 42 42 40
-14.2641 -12.1499 -0.0809706 63 58 53
-14.4353 -12.2197 -0.0836996 68 47 44
-14.1634 -11.8751 -0.0770287 79 55 52
-14.2718 -11.8914 -0.0784865 84 53 50
-14.2683 -11.8138 -0.0776812 75 36 35
-14.3938 -11.8058 -0.0791035 127 79 77
-20.5982 -16.7501 -0.110845 123 78 72
-14.4424 -11.7712 -0.0793525 122 79 73
-14.5032 -11.7465 -0.0798499 119 80 75
-14.5951 -11.7467 -0.0809675 123 82 79
-20.8049 -16.5459 -0.111258 61 44 42
-20.6931 -13.8307 -0.0910455 66 74 69
-21.167 -13.9605 -0.096696 50 51 54
-21.3934 -13.968 -0.0990352 75 77 72
-21.4288 -13.8015 -0.0983281 106 87 72
-21.57 -13.7508 -0.0994397 141 110 88
-21.5937 -13.6716 -0.0991832 92 59 45
-21.7217 -13.6588 -0.10042 126 84 88
-22.1236 -13.8178 -0.10556 122 83 83
-21.7756 -13.4572 -0.0997105 113 81 79
-21.8102 -13.3849 -0.0996229 69 62 53
-21.9913 -13.2621 -0.100745 90 93 85
-22.0491 -13.2037 -0.100996 64 74 71
-22.0485 -13.1102 -0.100427 81 91 92
-61.9569 -7.76653 -0.104168 109 102 93
-66.8803 -7.8491 -0.128707 114 105 94
-9.57227 -18.8235 -0.119287 132 137 140
-9.63856 -18.8102 -0.11955 117 115 120
-18.8763 -21.3914 -0.1348 88 52 29
-18.9893 -21.3183 -0.135025 35 29 4
-19.099 -21.3086 -0.135814 57 52 40
-14.2565 -14.1041 -0.101398 65 46 23
-23.1938 -14.1425 -0.118641 68 68 56
-23.7145 -13.5149 -0.120326 79 89 81
-23.7924 -13.4615 -0.120844 47 59 52
-22.6303 -12.5666 -0.103365 69 77 61
-22.6758 -12.4998 -0.103472 67 76 55
-24.4199 -7.83369 -0.101666 104 91 73
-24.3637 -7.73163 -0.100668 88 80 55
-14.508 -16.4658 -0.130854 109 73 51
-14.8784 -14.9554 -0.117565 86 70 21
-15.8112 -14.4832 -0.12291 107 112 17
-15.8289 -14.186 -0.120018 101 102 50
-15.9262 -14.0521 -0.119764 69 64 60
-15.9979 -14.0277 -0.120353 59 59 49
-16.396 -14.2 -0.126771 71 63 52
-17.2538 -13.2063 -0.127422 65 73 56
-17.2736 -13.0941 -0.126614 65 74 62
-26.3594 -14.8174 -0.155874 62 75 66
-25.7181 -13.7234 -0.142856 134 111 80
-24.8962 -12.6883 -0.128378 126 100 89
-25.196 -12.4972 -0.130634 97 91 67
-25.9742 -12.5844 -0.139601 73 75 61
-25.793 -12.347 -0.136404 108 95 86
-26.0074 -12.3508 -0.138783 88 77 61
-26.0055 -12.2505 -0.138268 75 65 55
-26.4016 -12.1874 -0.142324 122 104 90
-26.4153 -12.0938 -0.142027 116 93 72
-18.0701 -7.83906 -0.0968229 79 79 72
-17.9983 -7.74146 -0.0952181 75 69 59
-18.0567 -7.70008 -0.095819 85 86 82
-3.38751 -6.8083 -0.069375 177 169 182
-3.39817 -6.77669 -0.0684751 191 183 175
-3.45834 -6.76997 -0.0692022 136 141 143
-19.9394 -31.5033 -0.241174 78 79 75
-20.1513 -31.2955 -0.240371 59 66 54
-15.031 -17.8347 -0.152311 99 80 76
-15.4442 -18.0426 -0.158896 121 95 78
-15.3711 -17.3459 -0.149954 126 110 76
-15.4586 -17.1742 -0.148849 94 79 64
-17.2066 -13.426 -0.128902 97 93 90
-17.3299 -13.4363 -0.130517 39 47 32
-17.2558 -13.2929 -0.128257 73 78 57
-17.3617 -13.0765 -0.127547 52 59 51
-17.4754 -13.0777 -0.128976 73 83 56
-17.6177 -13.0569 -0.130556 64 76 48
-17.743 -13.065 -0.132204 63 80 39
-27.3803 -15.0039 -0.167792 77 80 59
-27.3936 -14.8446 -0.16703 140 126 78
-26.8529 -14.2259 -0.157816 87 75 59
-26.5865 -13.9246 -0.153293 82 63 50
-27.3442 -14.2156 -0.163048 81 55 57
-26.8809 -13.8667 -0.156167 63 45 43
-27.038 -13.5761 -0.156328 138 110 88
-26.9469 -13.2675 -0.153727 112 106 81
-26.8442 -13.1126 -0.151812 82 77 60
-21.2749 -34.4774 -0.280257 89 90 77
-21.4845 -34.4563 -0.281326 46 47 47
-22.5311 -34.4446 -0.28782 67 76 57
-23.4953 -33.5851 -0.285519 68 71 60
-25.673 -30.911 -0.275337 116 96 87
-17.5743 -16.2104 -0.161172 113 122 31
-18.3375 -14.5437 -0.153399 86 81 78
-18.7788 -14.8005 -0.161246 44 49 45
-18.9304 -13.8525 -0.154287 81 97 69
-18.9154 -13.7063 -0.152766 50 62 52
-18.8327 -13.5572 -0.150383 43 45 43
-18.8403 -13.474 -0.149736 68 70 67
-18.9142 -13.4384 -0.150361 74 79 68
-19.1055 -13.441 -0.152811 75 78 68
-19.0257 -13.2965 -0.150521 59 65 54
-19.055 -13.2291 -0.150309 65 74 57
-19.3385 -13.2932 -0.154496 76 80 66
-19.3018 -13.1797 -0.153044 78 80 67
-19.7828 -13.2848 -0.160153 63 66 52
-20.2158 -13.4855 -0.167479 68 70 61
-20.2017 -13.2953 -0.165693 73 78 76
-30.87 -13.6255 -0.198791 64 62 57
-24.2324 -34.4204 -0.298855 66 69 68
-24.5015 -34.4607 -0.301086 89 95 83
-24.663 -34.461 -0.302201 86 86 90
-24.8851 -34.5452 -0.30457 58 54 52
-25.1062 -34.5115 -0.305766 77 69 66
-7.69641 -7.47637 -0.0993344 90 84 57
-7.69763 -7.43168 -0.0984633 64 60 34
-7.71867 -7.40657 -0.0984047 90 75 42
-7.75407 -7.37224 -0.0984595 130 112 66
-7.79223 -7.36355 -0.0990972 90 84 29
-20.3872 -13.5087 -0.169904 56 59 40
-21.5653 -13.9559 -0.189027 104 91 83
-21.0585 -13.5344 -0.178892 124 98 81
-21.0386 -13.383 -0.177374 142 108 81
-21.4835 -13.573 -0.184795 125 85 80
-21.6453 -13.5815 -0.187006 124 84 82
-21.7125 -13.5298 -0.187479 122 80 83
-21.4945 -13.2546 -0.182364 87 62 57
-21.7585 -13.3245 -0.186437 71 73 60
-21.7704 -13.2388 -0.185918 78 84 73
-21.9464 -13.206 -0.188 86 93 79
-22.0659 -13.1846 -0.189436 33 38 40
-22.0926 -13.1075 -0.189197 40 38 41
-34.2171 -15.9505 -0.247045 71 69 68
-34.3178 -15.6075 -0.246506 92 72 59
-34.3864 -15.4445 -0.246474 66 63 64
-34.3536 -15.3008 -0.245435 92 89 83
-35.0977 -14.7215 -0.251088 78 72 69
-35.364 -14.7039 -0.254008 100 76 65
-34.6621 -13.8414 -0.242343 128 84 75
-34.6962 -13.6665 -0.241977 109 54 39
-34.8385 -13.5971 -0.243305 185 111 85
-34.7405 -13.4336 -0.241518 180 110 79
-34.7316 -13.243 -0.240622 116 88 44
-34.8114 -13.1489 -0.241153 168 137 91
-21.2148 -7.04043 -0.138641 82 69 48
-20.4517 -42.4319 -0.361058 130 126 141
-20.7683 -42.4124 -0.362436 160 154 163
-20.9829 -42.3477 -0.362812 172 163 173
-21.7061 -42.3077 -0.366128 113 106 113
-22.0292 -42.2878 -0.367631 125 109 105
-22.4313 -42.2538 -0.369426 88 85 80
-22.592 -42.2388 -0.370142 89 83 72
-23.0009 -42.2101 -0.372083 128 119 110
-23.4154 -42.1863 -0.374146 122 108 105
-19.08 -21.3677 -0.234828 87 69 40
-19.3248 -21.1739 -0.235109 92 75 37
-7.84486 -7.36846 -0.100315 99 102 25
-23.9423 -13.4118 -0.216533 63 74 58
-22.7524 -12.6048 -0.194321 72 77 62
-35.7229 -14.7229 -0.258135 112 82 70
-35.704 -14.5193 -0.257021 73 47 50
-37.7441 -15.2157 -0.283068 70 39 48
-35.1227 -13.1417 -0.244679 119 92 55
-35.2397 -13.0601 -0.245694 129 101 63
-35.3242 -12.9032 -0.246031 162 127 92
-35.6565 -12.8989 -0.249824 201 159 99
-35.5513 -12.735 -0.24799 141 105 48
-35.5466 -12.4202 -0.246734 132 110 80
-36.1184 -12.4943 -0.253597 133 115 73
-36.0305 -12.2745 -0.251761 104 68 37
-4.68034 -6.70992 -0.0899126 74 75 72
-4.68632 -6.67429 -0.0889412 71 67 66
-4.73199 -6.69848 -0.0906471 131 129 112
-4.73111 -6.65283 -0.0892297 35 36 40
-4.76281 -6.63322 -0.0892966 60 53 51
-4.78737 -6.62555 -0.0895897 78 70 70
-4.82777 -6.64082 -0.090924 81 73 69
-25.6776 -13.6577 -0.242106 78 62 62
-24.7997 -12.6009 -0.222545 124 92 83
-26.1586 -12.9346 -0.243784 98 92 76
-26.261 -12.7822 -0.244217 88 80 63
-26.3371 -12.2149 -0.241613 100 90 84
-39.4216 -13.2979 -0.294627 136 101 100
-24.4861 -7.82784 -0.190864 98 85 71
-24.4049 -7.71799 -0.189172 86 80 36
-27.5569 -15.0467 -0.277948 59 69 60
-27.7111 -14.9629 -0.279446 50 43 24
-27.5756 -14.7789 -0.276263 158 144 106
-27.2596 -14.3913 -0.269152 76 66 69
-26.6031 -13.8855 -0.256498 75 60 60
-27.2406 -14.1106 -0.26691 82 61 63
-26.9247 -13.8406 -0.260654 106 82 79
-26.8524 -13.5396 -0.257574 116 85 79
-27.0942 -13.5559 -0.261065 103 81 72
-26.9289 -13.2115 -0.256434 77 70 57
-27.1772 -13.1237 -0.259351 106 98 79
-27.3805 -13.0641 -0.261815 122 117 107
-26.5168 -12.5505 -0.246306 98 96 82
-26.5036 -12.1918 -0.243833 119 101 88
-43.8003 -13.4184 -0.345846 99 81 75
-44.0458 -13.3431 -0.348467 110 87 82
-45.8423 -13.4982 -0.369932 89 69 51
-45.0171 -13.101 -0.359038 197 169 139
-44.7089 -12.7832 -0.354429 124 108 114
-44.6961 -12.477 -0.353364 93 83 83
-41.735 -7.03883 -0.30524 208 185 166
-6.60398 -13.121 -0.162053 165 152 151
-6.69796 -13.1077 -0.162794 129 132 137
-19.563 -31.2071 -0.362967 60 78 58
-19.7242 -31.033 -0.361963 61 71 55
-19.9561 -30.8641 -0.361626 71 77 64
-20.0316 -30.7703 -0.361016 75 86 62
-20.9686 -29.52 -0.352808 99 105 94
-21.0731 -29.4727 -0.353133 53 54 59
-25.9648 -29.9731 -0.405737 127 101 78
-49.0726 -12.9601 -0.406244 91 58 67
-51.4708 -13.337 -0.435555 83 57 62
-53.2882 -13.4535 -0.457344 77 72 76
-5.64482 -13.8322 -0.169003 111 101 91
-5.68581 -13.7472 -0.167358 88 80 78
-5.71274 -13.691 -0.166279 119 108 102
-5.74309 -13.6441 -0.165454 111 104 98
-5.82558 -13.7269 -0.168183 75 67 65
-5.94625 -13.8392 -0.171972 79 75 66
-5.97293 -13.7824 -0.170894 83 78 74
-5.91088 -13.5136 -0.163977 88 78 75
-6.09738 -13.7794 -0.17203 130 120 112
-6.10151 -13.6709 -0.169531 109 94 85
-6.10421 -13.5607 -0.166981 116 108 91
-6.17926 -13.5604 -0.167724 88 75 67
-6.29017 -13.6991 -0.172078 130 111 95
-6.34535 -13.7092 -0.172879 107 100 84
-17.0448 -34.5324 -0.390208 173 168 174
-3.40582 -6.80959 -0.100388 172 163 169
-3.42773 -6.77484 -0.0994687 160 148 149
-3.45594 -6.78109 -0.100205 139 141 143
-17.8326 -34.4918 -0.394933 77 63 70
-7.00401 -13.108 -0.166285 71 79 61
-18.4667 -34.5265 -0.399836 82 92 70
-18.5819 -34.4834 -0.400056 75 81 61
-18.9355 -34.495 -0.402748 87 93 77
-7.42361 -13.1126 -0.171383 56 63 51
-7.63952 -13.2617 -0.177346 56 61 45
-7.6833 -13.2436 -0.17749 68 79 56
-7.68084 -13.1436 -0.175249 70 76 61
-7.67486 -13.0385 -0.172857 72 75 61
-7.75141 -13.031 -0.173654 72 76 64
-7.81156 -13.0418 -0.174661 66 68 60
-7.86581 -13.0421 -0.175363 63 67 52
-7.94266 -13.0335 -0.17616 57 64 50
-8.00013 -13.0384 -0.177015 52 62 46
-8.05566 -13.0396 -0.177768 60 76 64
-8.13591 -13.035 -0.178718 84 100 81
-8.19786 -13.0459 -0.179776 60 77 57
-25.551 -31.1273 -0.415441 111 93 93
-13.0775 -7.62993 -0.17339 67 70 68
-13.0522 -7.53344 -0.171619 72 76 78
-13.094 -7.50377 -0.172184 70 80 72
-34.356 -15.675 -0.377225 121 101 90
-34.445 -15.5209 -0.377521 85 79 57
-34.4216 -15.3812 -0.376331 88 84 77
-34.1727 -15.1422 -0.371321 76 73 56
-54.1736 -13.0467 -0.466745 201 188 170
-54.2063 -12.785 -0.46645 199 107 107
-55.6791 -12.7653 -0.483898 208 104 101
-51.7273 -7.8169 -0.426764 95 83 83
-51.7804 -7.57565 -0.427027 77 66 70
-6.45363 -13.8378 -0.176979 80 62 63
-6.59791 -13.985 -0.181885 88 64 67
-3.38853 -6.82668 -0.100725 168 163 169
-7.55794 -13.8137 -0.188676 93 98 80
-7.56016 -13.7148 -0.186485 94 104 89
-7.59109 -13.6706 -0.185866 94 100 90
-7.71658 -13.7499 -0.189148 66 82 68
-8.51179 -13.467 -0.193056 58 69 53
-8.6352 -13.5734 -0.197005 65 69 52
-8.67396 -13.4947 -0.195825 77 88 68
-8.73134 -13.4007 -0.194593 72 82 57
-8.87154 -13.3906 -0.196298 58 61 53
-8.87798 -13.3097 -0.194668 65 70 60
-35.1368 -14.6585 -0.382284 91 71 61
-35.4444 -14.6569 -0.386718 113 86 70
-35.7393 -14.6483 -0.390936 114 81 75
-35.8832 -14.511 -0.392228 98 80 84
-35.7346 -14.3212 -0.389021 109 76 74
-34.7469 -13.7996 -0.371801 128 72 68
-34.8238 -13.6414 -0.372037 185 121 91
-34.9402 -13.5612 -0.373304 176 99 57
-34.8119 -13.3864 -0.3705 222 170 106
-34.8177 -13.2015 -0.369587 211 152 93
-35.023 -13.1542 -0.372346 171 125 76
-35.3427 -13.1483 -0.377001 109 78 45
-35.7555 -12.732 -0.380952 114 78 41
-35.9548 -12.487 -0.382678 169 151 116
-62.4583 -13.6044 -0.566503 220 102 127
-62.6404 -13.4384 -0.568301 192 84 105
-64.8851 -13.1774 -0.594496 169 95 108
-68.0854 -13.6069 -0.633644 172 93 110
-68.4085 -13.3369 -0.636923 161 93 103
-56.8423 -7.68241 -0.488255 86 77 61
-61.8783 -7.77302 -0.549248 123 118 115
-7.64477 -14.2452 -0.199407 88 103 75
-8.84846 -13.6795 -0.202157 68 77 60
-8.93898 -13.5877 -0.201426 56 63 48
-9.58031 -13.4118 -0.206816 85 96 94
-9.59293 -13.3414 -0.205542 67 64 60
-9.69391 -13.3967 -0.208173 71 64 65
-9.68191 -13.2477 -0.204917 73 67 65
-9.77743 -13.2942 -0.207295 66 62 64
-9.80781 -13.2495 -0.206834 71 61 69
-9.86229 -13.1944 -0.206519 98 88 90
-9.88159 -13.135 -0.205601 108 111 96
-10.1608 -13.4274 -0.215787 61 62 65
-38.5758 -14.2131 -0.429893 206 171 135
-39.071 -13.4314 -0.433285 149 128 72
-39.3035 -13.3053 -0.436108 159 126 101
-40.2985 -13.5014 -0.451775 102 87 84
-66.7902 -7.86025 -0.60875 101 91 80
-4.66953 -6.70233 -0.122378 61 73 60
-4.67975 -6.67344 -0.12163 101 105 90
-4.69319 -6.6495 -0.12113 88 99 81
-4.72821 -6.63499 -0.121453 58 68 64
-4.75729 -6.63398 -0.122108 64 64 60
-4.78527 -6.63121 -0.122681 72 67 67
-4.8363 -6.63912 -0.124159 79 71 69
-12.4406 -13.1756 -0.248194 140 107 58
-12.4539 -13.0667 -0.246414 161 135 67
-12.5105 -13.0455 -0.247021 94 70 9
-12.6618 -12.9205 -0.247421 149 136 48
-13.1321 -12.3255 -0.245436 106 117 48
-12.678 -11.7815 -0.22759 86 84 46
-12.7097 -11.738 -0.227439 61 61 35
-12.7194 -11.674 -0.226528 93 99 52
-13.2595 -11.802 -0.238895 94 92 77
-44.0723 -13.3962 -0.507499 92 77 68
-45.9409 -13.4153 -0.535564 234 219 182
-44.7076 -12.9039 -0.514975 63 33 14
-44.7595 -12.6914 -0.514881 136 103 114
-11.4508 -15.0246 -0.267842 71 71 61
-11.3819 -14.8358 -0.26297 61 60 60
-11.4357 -14.716 -0.261389 49 53 42
-11.7665 -14.5767 -0.26379 60 66 55
-11.7778 -14.4981 -0.262417 58 58 47
-12.4219 -13.4044 -0.2521 164 124 83
-12.4389 -13.3394 -0.251186 144 114 66
-12.4392 -13.2567 -0.249665 119 81 37
-12.596 -13.0545 -0.248693 80 61 6
-12.6994 -13.0405 -0.250259 186 161 85
-12.7697 -12.9515 -0.249904 87 75 7
-12.901 -12.9648 -0.252484 135 131 26
-12.9423 -12.9262 -0.252535 164 153 42
-12.9412 -12.765 -0.249646 108 82 49
-13.5871 -12.8392 -0.26277 119 126 42
-13.7155 -12.4071 -0.257752 58 64 24
-13.5381 -12.1679 -0.250353 76 80 61
-13.9452 -12.3441 -0.261049 76 80 63
-14.1673 -12.387 -0.266021 72 70 58
-14.2097 -12.3077 -0.265513 72 69 54
-14.1677 -12.1938 -0.262829 42 44 31
-14.0527 -12.0175 -0.257712 75 72 46
-14.0537 -11.905 -0.255886 68 47 49
-14.069 -11.8431 -0.25518 89 66 63
-14.0383 -11.7425 -0.252952 81 51 51
-14.4381 -11.8916 -0.263195 126 85 81
-41.8987 -6.98096 -0.453336 77 43 28
-11.5843 -15.0078 -0.269556 64 69 58
-11.8609 -15.1269 -0.276232 86 92 70
-11.9271 -15.1155 -0.277039 66 68 57
-11.9517 -15.0502 -0.276122 80 88 70
-11.8895 -14.8266 -0.270688 61 65 49
-12.1713 -14.7545 -0.273759 79 52 46
-12.5573 -15.0389 -0.285563 134 110 98
-14.1057 -14.0196 -0.293034 93 84 9
-52.7293 -13.1785 -0.637084 89 77 73
-54.2659 -12.9313 -0.659563 104 53 39
-55.7347 -12.82 -0.681538 109 41 46
-5.55246 -13.619 -0.216406 128 123 117
-5.6187 -13.6013 -0.216618 103 102 97
-5.68659 -13.6493 -0.21864 108 104 94
-5.95393 -13.64 -0.221301 100 98 83
-5.99146 -13.5523 -0.219363 115 115 97
-6.01742 -13.4975 -0.218189 72 73 60
-7.0839 -13.54 -0.23236 64 78 60
-6.98699 -13.0975 -0.219613 73 87 64
-7.49135 -13.2561 -0.230567 62 70 63
-7.62485 -13.2544 -0.232401 68 75 63
-7.64991 -13.2033 -0.231463 67 75 52
-7.65296 -13.114 -0.229247 76 81 58
-7.65254 -13.0195 -0.226858 65 69 51
-7.72501 -13.0051 -0.22754 69 81 54
-7.78213 -13.0108 -0.228518 66 75 54
-7.83935 -13.0163 -0.229497 70 83 54
-7.91509 -13.006 -0.230353 66 81 51
-7.97253 -13.0109 -0.231332 55 70 49
-8.02906 -13.0139 -0.232253 59 72 54
-8.10715 -13.0059 -0.233226 66 78 58
-8.15967 -13.0015 -0.233915 57 68 51
-13.0288 -7.61498 -0.226911 73 75 73
-13.0205 -7.52891 -0.225464 65 67 66
-13.0502 -7.49227 -0.225702 67 69 64
-18.0197 -7.69119 -0.287378 77 78 69
-63.926 -13.0222 -0.807252 104 77 73
-64.1344 -12.8553 -0.809987 86 54 57
-51.8477 -7.71594 -0.608503 119 108 103
-56.9215 -7.83066 -0.687207 115 108 96
-5.82669 -13.8747 -0.226241 133 135 121
-5.88577 -13.7143 -0.222546 113 109 100
-5.92725 -13.6947 -0.222475 96 89 83
-6.17978 -13.7579 -0.22701 99 110 90
-6.22524 -13.6877 -0.225654 69 76 64
-6.38716 -13.9391 -0.234242 84 80 68
-6.47084 -14.011 -0.237135 101 102 88
-6.54173 -13.8799 -0.234489 89 60 59
-6.63708 -13.9744 -0.238138 94 63 69
-7.18061 -13.5733 -0.234492 66 78 56
-7.60455 -13.8139 -0.246399 66 79 62
-7.58438 -13.6747 -0.242556 67 77 66
-7.68719 -13.7117 -0.244921 60 72 60
-7.68335 -13.5057 -0.239617 64 75 60
-8.50325 -13.4675 -0.250686 63 73 59
-8.53731 -13.4295 -0.250271 68 77 60
-8.60604 -13.4003 -0.250606 70 79 60
-8.70286 -13.4617 -0.253617 71 77 62
-8.72602 -13.4063 -0.252622 76 86 62
-8.79692 -13.3795 -0.253073 76 91 65
-8.93927 -13.4173 -0.256251 54 63 46
-8.94762 -13.2943 -0.253394 64 74 57
-9.49632 -13.2157 -0.260521 59 66 55
-9.65621 -13.3542 -0.266493 65 67 64
-9.63196 -13.1894 -0.262187 77 74 68
-9.69592 -13.1921 -0.263342 69 72 64
-9.87637 -13.3544 -0.270243 59 66 52
-9.8792 -13.2282 -0.267329 53 62 57
-9.99028 -13.2072 -0.26877 57 68 64
-15.1253 -16.7368 -0.360785 133 119 81
-7.67737 -7.43986 -0.183002 87 66 25
-7.70448 -7.39749 -0.182626 126 119 40
-7.72974 -7.37665 -0.182774 124 120 26
-7.75779 -7.35851 -0.183071 124 130 31
-7.80307 -7.33388 -0.183662 60 61 4
-7.85403 -7.3376 -0.185148 77 72 44
-16.4861 -13.6878 -0.332287 82 52 54
-17.1435 -13.3593 -0.340179 66 71 60
-17.3487 -13.3908 -0.344794 91 93 63
-17.2699 -13.2437 -0.340947 83 85 70
-17.2599 -13.1508 -0.33933 68 71 59
-17.2685 -13.0726 -0.338322 61 67 45
-17.4039 -13.0484 -0.340707 105 109 89
-17.5317 -13.0602 -0.343502 69 80 47
-17.6518 -13.0653 -0.346044 82 87 64
-17.7845 -13.0361 -0.348328 86 89 72
-18.0244 -7.79324 -0.288484 76 69 66
-59.9967 -7.58197 -0.734415 164 164 156
-6.66993 -14.3373 -0.248163 91 85 79
-7.11597 -14.3082 -0.252822 177 171 173
-9.44659 -18.8573 -0.324638 184 173 175
-9.65061 -18.9008 -0.3279 131 135 138
-9.69215 -18.8372 -0.326923 113 112 117
-7.37783 -14.2266 -0.254037 69 63 65
-7.71874 -14.1314 -0.256108 62 71 54
-10.4598 -13.6157 -0.286455 54 61 49
-15.5831 -18.4332 -0.400872 97 80 73
-15.3836 -16.9203 -0.36864 58 46 23
-12.1468 -12.6644 -0.297335 110 91 4
-12.0076 -12.4404 -0.289848 130 124 29
-12.3146 -12.371 -0.294652 108 101 43
-12.6477 -11.8323 -0.290751 95 98 21
-12.633 -11.7452 -0.28872 86 82 49
-12.8122 -11.8394 -0.294408 57 57 34
-18.0347 -14.5657 -0.376861 120 83 77
-18.1152 -14.5383 -0.378032 123 80 81
-18.3186 -14.6096 -0.383209 60 39 43
-18.3988 -14.5338 -0.383616 57 59 44
-18.2432 -14.3175 -0.377132 85 88 62
-19.0205 -13.77 -0.384697 68 66 61
-18.9047 -13.5508 -0.379072 74 77 67
-18.9771 -13.5139 -0.380043 82 88 77
-18.9845 -13.4302 -0.378986 67 71 64
-19.0616 -13.3963 -0.380109 49 51 46
-19.7115 -13.6289 -0.397059 29 35 31
-19.6319 -13.4831 -0.393315 45 50 44
-56.1898 -1.15549 -0.669706 101 126 141
-12.4165 -13.3994 -0.318237 124 98 46
-12.4035 -13.3022 -0.315914 95 66 26
-12.4144 -13.2315 -0.314636 145 107 58
-12.3801 -13.1127 -0.311443 171 131 71
-12.4272 -13.0405 -0.310856 149 125 36
-12.552 -12.8892 -0.310209 153 138 44
-12.7503 -13.0137 -0.316823 108 95 59
-12.8503 -13.0355 -0.319317 126 97 61
-12.8802 -12.8646 -0.31641 102 91 31
-12.7679 -12.5942 -0.308576 138 112 71
-13.1945 -12.12 -0.308103 81 85 56
-13.6025 -12.3812 -0.321968 70 74 50
-13.4943 -12.2056 -0.316225 62 65 43
-13.5613 -12.1905 -0.317387 64 66 48
-13.8616 -12.346 -0.3269 36 40 34
-13.986 -12.38 -0.330267 63 68 55
-13.8101 -12.147 -0.321971 49 54 45
-13.9968 -12.1208 -0.325569 85 84 65
-14.1376 -12.0909 -0.328127 73 70 58
-14.0414 -11.8205 -0.320932 91 69 67
-19.0193 -15.6163 -0.413051 132 87 84
-19.129 -15.6077 -0.415084 122 81 79
-20.2393 -14.7573 -0.42444 70 72 55
-19.8903 -13.5255 -0.399354 55 65 55
-20.3989 -13.7816 -0.413714 80 86 73
-20.3271 -13.6406 -0.410225 87 90 81
-20.6806 -13.7866 -0.419768 84 87 70
-20.5748 -13.5766 -0.414602 73 77 56
-20.6513 -13.4434 -0.414418 58 53 44
-21.3603 -13.6726 -0.432744 130 101 79
-10.5199 -21.4863 -0.39664 147 144 153
-11.0562 -21.3961 -0.400537 100 95 98
-11.1489 -21.3306 -0.400106 69 81 62
-11.319 -14.6559 -0.325624 59 72 51
-11.4395 -14.7192 -0.329217 62 77 58
-11.6376 -14.8335 -0.335357 61 79 55
-11.7017 -14.8211 -0.336223 57 68 51
-11.7868 -14.8352 -0.338075 62 73 54
-11.8843 -14.8164 -0.339399 61 67 53
-18.6044 -21.1029 -0.502219 131 101 75
-18.6342 -21.0044 -0.500848 119 83 45
-18.9111 -20.7251 -0.500275 68 64 20
-14.2343 -12.4446 -0.336944 57 57 50
-14.203 -12.2237 -0.33207 56 57 43
-14.4596 -12.2517 -0.33828 71 53 49
-21.7711 -14.2755 -0.449756 66 70 55
-21.5107 -13.8645 -0.438565 115 93 82
-21.4981 -13.6672 -0.435645 148 114 87
-21.6845 -13.6444 -0.439355 125 84 81
-21.9004 -13.6862 -0.44459 122 86 85
-21.6106 -13.4101 -0.434661 120 85 83
-21.6144 -13.3193 -0.433556 86 63 55
-21.739 -13.2564 -0.435441 67 72 55
-21.9365 -13.2841 -0.440119 90 106 81
-21.9499 -13.1989 -0.43932 46 66 54
-22.0863 -13.141 -0.44156 67 78 70
-22.1335 -13.076 -0.441775 101 102 94
-22.7263 -12.5811 -0.448822 78 79 65
-21.2603 -7.10792 -0.359977 167 157 145
-21.2074 -6.97961 -0.357706 127 101 76
-18.6124 -21.7211 -0.514201 120 98 84
-18.5086 -21.4624 -0.507506 125 103 84
-18.4775 -21.2909 -0.503702 127 101 84
-18.5474 -21.2379 -0.503851 121 98 80
-14.0814 -13.9882 -0.364165 68 54 17
-23.8164 -13.5314 -0.484703 74 76 71
-24.0302 -13.505 -0.489128 45 50 46
-3.388 -6.82024 -0.151578 160 158 163
-3.41689 -6.80007 -0.151278 179 170 171
-3.44166 -6.79923 -0.151753 165 157 159
-14.7496 -16.2963 -0.426061 70 60 28
-16.5916 -13.7624 -0.413955 87 54 49
-16.6385 -13.7145 -0.414132 122 81 77
-16.6159 -13.6092 -0.411699 124 78 78
-16.4101 -13.2279 -0.400096 122 80 74
-17.1592 -13.3572 -0.419556 55 58 39
-17.2385 -13.2903 -0.420195 55 58 41
-17.2492 -13.2134 -0.419097 108 110 89
-17.2358 -13.1183 -0.417129 88 87 69
-17.2745 -13.0633 -0.417077 64 63 42
-17.4101 -13.0388 -0.419806 74 74 47
-17.5317 -13.0455 -0.422771 77 82 52
-17.6568 -13.0539 -0.425853 94 102 78
-26.3854 -14.7297 -0.556567 54 56 48
-25.9353 -14.1069 -0.539007 68 72 60
-27.3823 -14.7884 -0.579613 66 62 53
-27.2661 -14.5603 -0.574299 55 47 50
-27.3671 -14.5049 -0.57594 67 67 69
-27.4964 -14.464 -0.578393 67 62 60
-27.5762 -14.3964 -0.579426 70 56 58
-26.3827 -13.6124 -0.543362 78 53 69
-26.6765 -13.6596 -0.550584 92 69 74
-26.8429 -13.6396 -0.554154 122 89 84
-26.8275 -13.4737 -0.551936 111 84 77
-27.108 -13.5096 -0.558754 98 90 75
-26.8491 -13.2752 -0.550246 72 68 67
-26.8844 -13.1883 -0.550112 125 119 106
-26.2562 -12.7258 -0.530638 62 66 59
-27.2424 -13.1017 -0.557403 75 77 68
-26.3428 -12.5653 -0.530928 122 121 116
-26.5076 -12.3909 -0.53289 87 86 60
-26.522 -12.2968 -0.532249 85 76 68
-17.9641 -7.76249 -0.357998 85 78 69
-17.9721 -7.66632 -0.357137 78 75 66
-24.3329 -7.84748 -0.440255 115 87 73
-24.4391 -7.7554 -0.442153 124 90 62
-14.4499 -17.8262 -0.454235 78 70 59
-15.4425 -16.8565 -0.451646 125 117 46
-7.68741 -7.41091 -0.225672 129 97 35
-7.69842 -7.37615 -0.22501 135 110 18
-7.72217 -7.3539 -0.225092 157 133 30
-7.76746 -7.32937 -0.225748 135 133 28
-7.81273 -7.32758 -0.227066 91 90 35
-18.3275 -14.6879 -0.470087 125 83 79
-18.2947 -14.5683 -0.46719 42 27 23
-18.331 -14.4578 -0.46603 35 35 33
-18.3503 -14.3808 -0.465106 66 68 48
-18.9678 -13.5755 -0.465627 75 76 69
-19.1022 -13.5824 -0.468943 73 74 67
-19.1178 -13.5043 -0.468022 64 63 50
-19.0547 -13.3709 -0.464314 38 40 42
-29.7796 -13.5343 -0.62071 121 102 86
-9.53463 -18.8633 -0.402716 152 149 152
-9.64048 -18.855 -0.403855 128 131 135
-4.66195 -6.69541 -0.176613 52 54 40
-4.70151 -6.68784 -0.177375 53 58 47
-4.72172 -6.6738 -0.17737 53 63 47
-4.74078 -6.65805 -0.177269 59 70 56
-4.77878 -6.67035 -0.178806 61 69 57
-4.80266 -6.63901 -0.178219 82 76 69
-4.85437 -6.67071 -0.180913 74 69 64
-15.6785 -18.5154 -0.492377 105 91 79
-7.76001 -7.52853 -0.231199 136 107 47
-19.4429 -14.2398 -0.488072 93 93 75
-19.1882 -13.9611 -0.477342 59 58 57
-19.3427 -13.9821 -0.481353 88 88 80
-19.4281 -13.4987 -0.475346 73 77 66
-20.1939 -13.9396 -0.500951 48 50 43
-20.1067 -13.7871 -0.496374 51 52 48
-20.0896 -13.6376 -0.493534 75 80 73
-20.2888 -13.6812 -0.499057 50 54 46
-20.2612 -13.571 -0.496628 42 45 40
-20.2608 -13.4339 -0.494427 64 66 59
-20.2654 -13.3463 -0.493159 79 82 62
-20.6602 -13.2864 -0.501891 117 93 80
-10.9996 -20.6779 -0.469002 71 78 63
-16.628 -20.2156 -0.547996 67 46 50
-16.8548 -20.2352 -0.552629 82 58 59
-17.3613 -20.3912 -0.565548 116 98 84
-17.5689 -20.1861 -0.564948 123 100 84
-17.8376 -20.3042 -0.572655 114 90 71
-21.0815 -13.7915 -0.520102 84 86 60
-20.9665 -13.623 -0.514656 98 90 73
-21.2663 -13.5838 -0.521405 145 113 88
-21.6857 -13.7575 -0.534419 150 114 88
-21.7798 -13.6749 -0.535471 120 84 78
-21.7049 -13.5337 -0.531476 118 84 79
-21.4986 -13.3119 -0.523011 126 92 88
-21.7504 -13.3747 -0.53022 84 71 60
-21.6759 -13.1893 -0.525583 62 65 52
-21.6804 -13.0998 -0.524375 69 71 60
-21.8388 -13.103 -0.528392 75 84 70
-21.7346 -12.9024 -0.522826 66 67 69
-22.0236 -12.9817 -0.531256 151 142 135
-22.6005 -12.5737 -0.540104 55 54 30
-22.6547 -12.5116 -0.540639 65 63 47
-33.8437 -15.5192 -0.73561 129 112 99
-34.2569 -15.4509 -0.744543 81 71 60
-34.3499 -15.3638 -0.745836 105 105 75
-34.6218 -15.2911 -0.751442 93 87 72
-34.9392 -15.3015 -0.758982 115 102 93
-32.9616 -13.6995 -0.696959 111 88 74
-33.0073 -13.5976 -0.697086 111 78 69
-33.3076 -13.6001 -0.704219 97 67 69
-35.4688 -14.3573 -0.762437 112 91 98
-34.7309 -13.8676 -0.740423 131 86 80
-34.6658 -13.7158 -0.737504 130 75 70
-34.7357 -13.618 -0.738293 167 106 86
-34.8711 -13.4826 -0.740299 186 121 94
-34.7521 -13.3114 -0.735958 117 96 64
-34.7593 -13.1895 -0.735071 120 102 57
-35.0406 -13.1714 -0.74165 120 98 51
-21.2006 -7.0733 -0.439694 165 159 145
-10.9823 -21.9601 -0.502124 179 170 171
-17.6508 -20.5381 -0.57424 120 98 84
-17.7417 -20.515 -0.575455 120 98 83
-18.053 -20.2948 -0.576594 90 65 43
-24.0006 -13.6001 -0.590134 61 66 62
-23.9625 -13.4306 -0.586776 89 90 82
-35.7525 -13.2486 -0.75935 152 120 70
-36.2052 -13.2883 -0.770553 172 130 88
-36.6584 -13.3252 -0.781757 208 172 133
-37.5916 -13.466 -0.805353 128 95 68
-35.784 -12.6895 -0.75545 134 111 74
-38.4964 -13.5199 -0.827613 119 98 70
-12.9875 -7.58888 -0.345999 70 69 70
-13.014 -7.46959 -0.34467 66 71 68
-26.157 -14.1835 -0.653319 75 73 63
-25.3413 -13.183 -0.618898 72 54 54
-26.8127 -13.7899 -0.665024 74 51 57
-25.6202 -13.0751 -0.624734 109 86 82
-26.3464 -13.3426 -0.647111 124 89 87
-26.4099 -13.2196 -0.647183 91 73 65
-26.5972 -13.2098 -0.651962 61 56 54
-25.9317 -12.7783 -0.629094 116 110 85
-26.0266 -12.6739 -0.63027 100 95 51
-26.2346 -12.6741 -0.635747 69 74 68
-25.8176 -12.3733 -0.621068 56 60 56
-26.1442 -12.4297 -0.63038 98 95 87
-26.3752 -12.3883 -0.635971 86 85 63
-26.5055 -12.3487 -0.638951 104 97 80
-38.6808 -13.2453 -0.829859 104 78 54
-38.6003 -13.0827 -0.826639 117 80 65
-24.3088 -7.81396 -0.532479 135 100 75
-24.356 -7.70315 -0.532846 163 119 77
-13.062 -7.57882 -0.348236 77 78 77
