-5.13436 3.41504 -1.84479 82 81 97
-5.13534 3.43825 -1.85127 80 79 97
-5.11545 3.45396 -1.84979 80 79 97
-5.10235 3.4648 -1.84905 82 81 97
-4.76821 4.0187 -1.85677 86 87 105
-4.7523 4.02704 -1.85533 75 76 94
-4.7337 4.0451 -1.856 84 85 102
-4.47157 4.49451 -1.86368 90 93 109
-4.45104 4.49721 -1.86023 102 103 120
-4.15976 4.96723 -1.86696 93 96 112
-4.14336 4.97643 -1.86692 93 96 112
-4.01939 5.2335 -1.87699 94 97 114
-4.00033 5.23898 -1.87565 93 96 113
-3.87416 5.42765 -1.87425 93 96 113
-3.85639 5.43611 -1.87421 95 98 115
-3.51915 5.99204 -1.88225 113 115 127
-3.49882 5.99772 -1.8816 113 113 123
-3.29655 6.32282 -1.88561 99 101 116
-3.04243 6.75294 -1.89483 98 101 116
-2.87515 7.00561 -1.89726 96 100 112
-2.69697 7.28697 -1.89758 99 101 114
-7.39654 0.161169 -1.86217 92 99 117
-7.39328 0.180039 -1.86154 90 97 116
-7.17749 0.517566 -1.86838 92 99 115
-6.76278 0.929178 -1.83409 86 89 108
-6.78119 0.949922 -1.84231 78 84 100
-6.77582 0.975445 -1.84232 83 90 106
-6.45263 1.35988 -1.83084 84 91 107
-6.44572 1.37546 -1.83013 88 91 110
-6.44557 1.40155 -1.83295 83 86 105
-6.49193 1.49432 -1.86042 141 134 141
-6.12496 1.85194 -1.83207 157 139 125
-6.12523 1.86962 -1.83495 92 81 76
-6.10463 1.87921 -1.82915 99 98 101
-5.83093 2.1618 -1.81174 81 83 98
-5.82999 2.17923 -1.81467 83 82 97
-5.82399 2.19423 -1.8154 73 63 70
-5.81117 2.21462 -1.81465 132 113 105
-5.80008 2.22706 -1.81316 139 117 95
-5.81876 2.25457 -1.82494 139 116 92
-5.81748 2.27209 -1.82787 148 125 102
-5.80761 2.29415 -1.8286 138 119 101
-5.80288 2.30997 -1.83006 139 117 97
-5.78825 2.32062 -1.8271 142 118 99
-5.77484 2.34083 -1.82634 139 112 85
-5.76177 2.35221 -1.82412 140 115 90
-5.75521 2.36707 -1.82484 119 103 89
-5.74812 2.39066 -1.82704 84 80 87
-5.37497 2.97019 -1.83299 81 83 96
-5.36783 2.98525 -1.83444 82 84 99
-5.36213 3.00139 -1.83663 94 96 111
-5.34272 3.01725 -1.8344 103 105 118
-5.31911 3.01994 -1.82775 104 106 120
-5.31916 3.04048 -1.83288 94 93 109
-5.31322 3.05655 -1.83507 77 76 94
-5.28626 3.06645 -1.82915 85 85 97
-5.28169 3.08359 -1.83208 92 94 106
-5.25289 3.11266 -1.83056 97 100 113
-5.24085 3.12399 -1.8298 84 86 99
-5.09198 3.47808 -1.84974 87 86 102
-5.08158 3.50235 -1.85333 98 96 110
-5.07248 3.51684 -1.85475 94 96 111
-5.05782 3.52627 -1.85328 76 75 91
-5.03494 3.52805 -1.84747 64 63 77
-4.7214 4.05757 -1.85667 89 90 106
-4.6842 4.08074 -1.85449 94 96 109
-4.43553 4.52163 -1.86429 121 119 132
-4.41936 4.53027 -1.86357 121 119 132
-4.40099 4.53581 -1.86148 120 118 131
-4.1182 4.9885 -1.86621 94 95 113
-3.98927 5.25938 -1.88015 94 97 112
-3.83175 5.45212 -1.87543 92 97 113
-3.69003 5.74848 -1.88735 97 100 115
-3.66954 5.75288 -1.88607 98 101 114
-3.26526 6.33121 -1.88497 99 101 116
-3.01689 6.74587 -1.89085 97 100 115
-2.85548 7.02405 -1.90103 99 102 115
-2.67324 7.29187 -1.89752 99 102 114
-7.16457 0.494018 -1.86405 83 92 109
-6.86678 0.844043 -1.85083 79 86 104
-6.86519 0.865926 -1.85137 78 85 103
-6.7887 0.915859 -1.84231 88 91 110
-6.46428 1.30211 -1.82873 89 88 106
-6.4627 1.3277 -1.83085 82 88 102
-6.4613 1.34476 -1.83225 82 90 103
-6.15329 1.7754 -1.83065 150 125 104
-6.15625 1.80253 -1.83571 148 122 105
-6.1445 1.81566 -1.83353 146 123 106
-6.13622 1.83006 -1.8328 150 125 103
-5.87872 2.06047 -1.81034 83 85 100
-5.87082 2.0922 -1.81326 80 83 98
-5.86014 2.11362 -1.81325 79 80 98
-5.85771 2.13027 -1.81545 78 79 97
-5.84685 2.14292 -1.81396 80 81 99
-5.28581 3.1076 -1.83942 89 88 103
-5.24907 3.15152 -1.83935 78 77 95
-5.23197 3.16906 -1.83859 82 80 99
-5.20105 3.16508 -1.82825 80 83 95
-5.2104 3.19388 -1.83855 75 77 89
-5.03102 3.55852 -1.85467 50 47 66
-5.01626 3.56779 -1.8532 63 59 84
-4.98119 3.5578 -1.84087 75 72 93
-4.73087 4.09562 -1.87002 88 89 107
-4.66937 4.09021 -1.85376 95 94 110
-4.38303 4.55702 -1.86418 121 119 132
-4.10362 5.00084 -1.8675 94 95 113
-4.0834 5.00332 -1.8648 94 93 111
-3.95659 5.25907 -1.87491 93 96 111
-3.94274 5.27438 -1.87746 92 95 110
-3.81801 5.46899 -1.87857 94 95 113
-3.65133 5.76244 -1.88664 97 100 115
-3.46907 6.007 -1.88094 113 113 125
-3.446 6.0054 -1.87788 112 112 122
-3.24392 6.33612 -1.88434 100 101 117
-2.98677 6.76379 -1.89358 97 100 115
-2.64952 7.29671 -1.89747 99 102 115
-7.15996 0.459797 -1.86189 84 91 109
-6.87149 0.811569 -1.85085 83 92 109
-6.80478 0.874387 -1.84504 89 92 109
-6.8123 0.893241 -1.84915 89 92 109
-6.48667 1.27307 -1.83367 85 88 107
-6.47821 1.28831 -1.83226 96 97 115
-6.17948 1.70671 -1.82996 116 98 91
-6.18205 1.72496 -1.83357 161 131 113
-6.17303 1.74769 -1.83356 151 125 97
-6.16843 1.76346 -1.83428 150 125 102
-5.93104 1.96123 -1.81188 87 89 102
-5.92919 2.00409 -1.81849 80 86 100
-5.92209 2.01854 -1.81848 80 85 99
-5.90479 2.02842 -1.81405 81 84 99
-5.89778 2.05152 -1.81551 80 79 95
-5.90006 2.08802 -1.82286 81 84 99
-5.20101 3.20742 -1.83926 78 77 91
-5.19081 3.23066 -1.84218 66 68 83
-5.17985 3.24296 -1.84216 67 69 84
-5.16461 3.25165 -1.83992 73 76 91
-5.14706 3.26878 -1.83916 84 87 102
-5.11624 3.26405 -1.82882 99 100 115
-5.12348 3.29188 -1.83838 82 84 99
-5.08058 3.30863 -1.83022 79 81 96
-4.98641 3.59719 -1.85314 80 77 94
-4.9729 3.60759 -1.85239 105 103 117
-4.96203 3.62055 -1.85309 133 130 139
-4.92276 3.61714 -1.84148 149 148 156
-4.67724 4.12693 -1.8664 93 95 108
-4.65748 4.13061 -1.86285 93 95 110
-4.62652 4.13383 -1.85647 96 95 111
-4.36675 4.56549 -1.86346 121 119 132
-4.35691 4.58315 -1.86684 121 119 132
-4.07152 5.02049 -1.86808 93 95 111
-3.92447 5.28127 -1.87678 93 96 111
-3.79604 5.46875 -1.87535 96 98 113
-3.63008 5.76497 -1.88474 97 99 114
-3.429 6.01975 -1.88024 111 111 121
-3.22379 6.34458 -1.88487 99 101 116
-2.96665 6.7769 -1.89577 99 102 114
-2.81557 7.00774 -1.89386 97 101 112
-2.61392 7.30193 -1.89686 99 98 112
-7.16627 0.414932 -1.86247 83 92 109
-7.17178 0.437867 -1.86462 79 88 104
-6.8729 0.789687 -1.8503 88 96 114
-6.80833 0.857296 -1.84504 78 85 101
-6.4937 1.21419 -1.83015 81 84 99
-6.51156 1.25329 -1.84072 79 86 104
-6.21353 1.64068 -1.83288 78 83 97
-6.1934 1.65118 -1.82709 91 93 108
-6.19794 1.66996 -1.83142 88 89 104
-5.97181 1.91765 -1.81928 81 81 93
-5.96838 1.93368 -1.82074 83 82 96
-5.97037 1.96064 -1.82589 81 80 94
-5.94447 1.98459 -1.82071 85 90 105
-5.10435 3.30759 -1.83687 99 100 118
-5.0889 3.33778 -1.84051 75 77 92
-5.08316 3.35471 -1.84343 74 76 91
-5.05824 3.36525 -1.83898 83 82 98
-4.93709 3.65477 -1.85592 142 138 152
-4.92606 3.66763 -1.85662 137 136 144
-4.90444 3.66995 -1.85153 134 133 139
-4.86068 3.68527 -1.84423 127 121 131
-4.63633 4.17355 -1.87052 97 95 111
-4.60357 4.16106 -1.85923 96 97 112
-4.56105 4.17741 -1.85423 95 98 113
-4.32799 4.58877 -1.8627 119 117 129
-4.31269 4.59861 -1.86266 121 119 130
-4.04982 5.03881 -1.87002 92 95 112
-4.025 5.03284 -1.86401 93 96 113
-4.00479 5.03503 -1.86131 93 96 111
-3.89442 5.28563 -1.87348 96 99 114
-3.8813 5.30246 -1.87668 93 99 113
-3.77282 5.48792 -1.87784 95 97 112
-3.75488 5.49608 -1.8778 93 96 111
-3.60198 5.7765 -1.88468 99 100 115
-3.58367 5.78587 -1.88526 97 101 113
-3.39851 6.02693 -1.87898 113 113 125
-3.19302 6.35445 -1.88481 97 103 115
-2.9407 6.7677 -1.89123 98 100 113
-2.79533 7.02415 -1.89708 95 101 111
-2.59052 7.30847 -1.89734 101 97 112
-7.18177 0.39312 -1.86629 87 95 114
-6.87935 0.746358 -1.85034 89 95 111
-6.88569 0.769126 -1.85311 84 91 108
-6.8184 0.814799 -1.84572 86 95 112
-6.81685 0.832193 -1.8464 84 91 107
-6.4983 1.198 -1.83016 87 90 108
-6.52898 1.24014 -1.84565 98 104 119
-6.2391 1.58889 -1.83508 145 141 140
-6.23679 1.60536 -1.83652 145 143 146
-6.2142 1.62367 -1.83072 89 93 104
-6.25605 1.71584 -1.85892 82 79 90
-6.00874 1.87206 -1.82521 94 89 101
-5.99516 1.88393 -1.82225 100 99 112
-5.98202 1.90447 -1.82076 101 100 107
-5.0455 3.37592 -1.83822 94 93 109
-5.04234 3.39528 -1.84262 94 96 111
-5.02005 3.40805 -1.83964 104 103 119
-5.00992 3.4211 -1.84035 85 84 100
-5.0011 3.4354 -1.8418 84 81 98
-4.8928 3.69372 -1.85511 132 129 136
-4.8587 3.70722 -1.84999 126 120 130
-4.83123 3.71484 -1.8449 125 119 129
-4.82127 3.72875 -1.84631 125 122 133
-4.60185 4.20038 -1.87045 95 97 112
-4.55522 4.19821 -1.85913 93 97 112
-4.52769 4.20514 -1.85487 92 98 112
-4.29843 4.60996 -1.86331 122 121 127
-4.27998 4.6308 -1.866 123 121 133
-3.98836 5.063 -1.86724 94 97 114
-3.8638 5.31085 -1.87664 92 99 114
-3.72814 5.48531 -1.87075 95 99 114
-3.56168 5.78642 -1.88274 98 101 116
-3.37415 6.02151 -1.87471 113 111 124
-3.17459 6.36822 -1.88709 97 104 114
-2.92101 6.78255 -1.89398 98 100 113
-2.77369 7.0349 -1.89867 96 99 114
-2.56748 7.31683 -1.89834 99 98 112
-7.1786 0.359033 -1.86468 86 95 112
-6.88548 0.714045 -1.85091 80 86 102
-6.81394 0.778995 -1.84161 89 96 113
-6.83105 0.798989 -1.84914 81 90 107
-6.51178 1.1408 -1.82945 91 95 112
-6.51828 1.15954 -1.83368 84 90 108
-6.51562 1.17622 -1.83438 86 94 112
-6.25521 1.53404 -1.83364 147 141 145
-6.25663 1.55162 -1.83653 146 141 145
-6.24313 1.57299 -1.83436 147 143 144
-6.03962 1.8064 -1.82598 149 126 107
-6.04177 1.82458 -1.82966 146 124 103
-6.02027 1.84194 -1.82449 151 131 112
-6.0171 1.85804 -1.82595 136 124 111
-4.98681 3.45553 -1.84324 83 82 100
-4.9657 3.45833 -1.83806 81 80 98
-4.96077 3.47635 -1.84172 86 87 105
-4.92882 3.47966 -1.83359 70 72 87
-4.8087 3.73996 -1.84629 122 119 130
-4.78888 3.75535 -1.84553 122 118 132
-4.75586 3.76939 -1.84113 123 120 129
-4.52744 4.23328 -1.86328 95 96 114
-4.50531 4.23337 -1.85832 94 95 113
-4.26246 4.63738 -1.8646 106 103 116
-4.24494 4.64391 -1.8632 92 91 106
-3.97791 5.08329 -1.87185 93 96 111
-3.8371 5.32164 -1.87594 95 98 115
-3.71809 5.51052 -1.87708 94 98 112
-3.68677 5.51216 -1.8732 96 97 115
-3.53564 5.80291 -1.88453 97 100 115
-3.36094 6.0464 -1.88069 113 112 125
-3.15198 6.36921 -1.88529 96 98 111
-2.74809 7.02875 -1.89533 97 101 113
-7.19203 0.337001 -1.86795 87 96 113
-6.901 0.671615 -1.85374 75 82 100
-6.89232 0.692751 -1.85205 81 88 106
-6.84011 0.738639 -1.84844 89 96 112
-6.83695 0.755816 -1.84844 81 88 104
-6.5222 1.10017 -1.82945 80 87 103
-6.5179 1.11643 -1.82945 78 85 101
-6.26545 1.46053 -1.82788 81 73 88
-6.26462 1.50273 -1.83293 142 136 136
-6.26084 1.51866 -1.83365 146 140 142
-6.05155 1.69101 -1.81276 105 87 81
-6.06364 1.72094 -1.8216 154 125 102
-6.05915 1.73643 -1.82233 150 121 97
-6.06676 1.7565 -1.82822 142 117 96
-6.06044 1.77136 -1.82821 149 126 103
-6.0478 1.79227 -1.82673 144 124 107
-4.92914 3.50277 -1.84019 89 91 104
-4.90666 3.50397 -1.83427 99 98 114
-4.90681 3.52708 -1.84088 103 102 118
-4.89469 3.54947 -1.84379 87 89 102
-4.85232 3.55395 -1.83343 89 90 108
-4.80309 3.79488 -1.86069 123 120 131
-4.75332 3.79129 -1.84689 124 121 132
-4.47998 4.24297 -1.85547 96 95 111
-4.4613 4.24731 -1.85262 98 97 113
-4.45051 4.26202 -1.8547 96 98 111
-4.22947 4.65351 -1.86316 94 97 112
-4.20764 4.66939 -1.8638 93 98 110
-3.95939 5.08861 -1.87048 92 94 111
-3.82123 5.33327 -1.87719 96 99 116
-3.80364 5.34148 -1.87715 95 98 113
-3.66487 5.51143 -1.86997 95 96 114
-3.51795 5.81384 -1.88573 97 100 115
-3.32842 6.04788 -1.87762 113 113 125
-3.13228 6.37923 -1.88641 99 102 117
-2.8873 6.78706 -1.89279 99 97 118
-2.86332 6.78502 -1.89049 98 99 117
-2.71617 7.04559 -1.89799 96 100 112
-7.19578 0.314503 -1.86851 85 94 111
-6.84553 0.695435 -1.84775 82 87 106
-6.83394 0.720271 -1.84502 86 92 109
-6.53742 1.08625 -1.83368 81 88 106
-6.27654 1.40455 -1.82499 86 90 107
-6.29992 1.42811 -1.83657 90 91 110
-6.28677 1.48385 -1.83873 160 150 159
-6.08466 1.66885 -1.82162 87 83 104
-6.06463 1.67871 -1.81572 86 84 97
-4.88801 3.56612 -1.84671 84 86 99
-4.85049 3.58668 -1.84223 76 73 94
-4.8146 3.59732 -1.83555 63 62 78
-4.74972 3.82419 -1.85553 123 120 131
-4.72424 3.82148 -1.84827 121 119 130
-4.70508 3.82552 -1.84463 125 122 133
-4.67445 3.85399 -1.84529 127 124 135
-4.43406 4.26924 -1.85326 95 97 110
-4.41646 4.28896 -1.85533 95 97 112
-4.19312 4.68044 -1.86445 92 96 111
-4.17753 4.68989 -1.86442 91 96 111
-3.93462 5.10149 -1.87043 94 97 114
-3.91955 5.11334 -1.87171 94 97 112
-3.77846 5.35538 -1.87774 95 98 113
-3.65069 5.5279 -1.87311 95 98 113
-3.49595 5.81416 -1.88321 96 99 114
-3.30925 6.05654 -1.87817 116 114 127
-3.28877 6.06156 -1.87753 120 118 133
-3.09905 6.38139 -1.88402 98 102 114
-2.69357 7.05237 -1.89848 96 100 111
-7.17881 0.27995 -1.8631 81 92 108
-6.90767 0.617261 -1.85377 84 91 110
-6.90679 0.639192 -1.85431 80 87 106
-6.84028 0.659737 -1.84363 89 96 115
-6.84108 0.67735 -1.84501 88 95 114
-6.55107 1.0462 -1.83509 81 88 104
-6.56889 1.06714 -1.84355 82 89 106
-6.29088 1.36644 -1.82572 86 89 107
-6.30686 1.39609 -1.83513 75 81 93
-6.34772 1.46739 -1.85901 88 85 103
-6.11036 1.61838 -1.82385 73 78 87
-6.102 1.64955 -1.82531 89 86 103
-5.64162 2.38002 -1.8392 125 101 87
-5.61842 2.4034 -1.83616 81 85 93
-5.60783 2.42445 -1.83689 82 86 98
-5.61386 2.44605 -1.84364 81 82 100
-5.59083 2.45123 -1.83686 78 76 93
-5.57939 2.49014 -1.84134 142 137 143
-5.58189 2.51 -1.84659 128 122 128
-5.56199 2.51676 -1.84131 126 119 126
-5.54766 2.53571 -1.84054 132 128 130
-5.5436 2.5518 -1.84277 129 127 132
-5.53473 2.56502 -1.84276 131 126 132
-5.52649 2.5877 -1.84499 131 126 132
-5.51434 2.59893 -1.84347 131 127 130
-5.51006 2.61499 -1.84571 138 136 140
-5.48585 2.62779 -1.84043 109 108 119
-5.47673 2.64084 -1.84041 74 74 89
-5.4582 2.64792 -1.83588 73 75 91
-5.45214 2.66288 -1.83737 75 77 92
-5.44337 2.68531 -1.8396 82 81 98
-5.43874 2.70127 -1.84184 84 83 99
-5.42165 2.70911 -1.83806 89 89 101
-5.41725 2.73453 -1.84255 94 94 103
-5.40473 2.74533 -1.84103 88 88 98
-5.40295 2.7633 -1.84477 78 80 92
-5.38137 2.77732 -1.84099 77 78 96
-5.37179 2.79006 -1.84097 79 78 95
-5.36217 2.80278 -1.84095 79 76 93
-5.33531 2.83235 -1.8394 78 80 95
-4.84233 3.60193 -1.84442 85 82 103
-4.80721 3.62472 -1.84141 68 67 83
-4.77509 3.63899 -1.83694 79 75 92
-4.66643 3.87032 -1.84815 128 125 134
-4.64852 3.88782 -1.84884 127 126 131
-4.40549 4.30357 -1.85741 92 98 112
-4.14946 4.69606 -1.86095 93 96 111
-3.89836 5.11346 -1.86836 91 97 109
-3.75669 5.35496 -1.87446 96 99 115
-3.62169 5.53437 -1.87115 96 98 113
-3.60359 5.54208 -1.8711 95 98 113
-3.47043 5.83214 -1.88562 95 98 113
-3.4477 5.83053 -1.88248 93 96 113
-3.27018 6.07191 -1.87869 119 117 131
-3.0776 6.38578 -1.88339 97 100 113
-2.84303 6.79779 -1.89268 98 100 115
-2.66927 7.05158 -1.89679 97 99 112
-7.18816 0.257672 -1.86529 91 100 117
-6.8932 0.593963 -1.84876 83 90 107
-6.85347 0.635008 -1.84705 88 95 114
-6.5885 1.01934 -1.84637 82 85 102
-6.5863 1.03617 -1.84707 77 83 99
-6.31124 1.29626 -1.82501 78 84 98
-6.30283 1.33597 -1.82646 85 91 105
-6.31935 1.35726 -1.83514 84 90 108
-6.14082 1.56936 -1.8283 145 139 143
-6.1333 1.58383 -1.82755 145 139 140
-6.12574 1.59828 -1.82681 145 142 143
-5.74816 2.16908 -1.83412 80 79 95
-5.73883 2.18207 -1.83335 80 81 99
-5.73775 2.19913 -1.83635 85 86 98
-5.71822 2.21564 -1.83257 82 80 88
-5.72694 2.2377 -1.84008 127 108 101
-5.7207 2.25229 -1.84082 132 109 90
-5.72072 2.27881 -1.84607 135 113 92
-5.70449 2.28828 -1.8423 139 117 96
-5.69974 2.30367 -1.84379 129 103 81
-5.68635 2.32331 -1.84302 131 103 79
-5.67167 2.33345 -1.83999 132 104 77
-5.66511 2.34792 -1.84073 137 108 84
-5.65524 2.36061 -1.83996 146 111 86
-5.63135 2.50175 -1.86166 100 95 104
-5.36469 2.8239 -1.84695 81 79 95
-5.33768 2.85347 -1.8454 81 80 94
-5.32029 2.86075 -1.84162 78 79 92
-5.30743 2.88067 -1.84235 80 78 94
-5.31406 2.9051 -1.8506 79 79 95
-5.29357 2.91005 -1.84531 94 93 107
-5.28047 2.92988 -1.84604 88 90 102
-5.27786 2.94782 -1.84978 83 85 99
-5.25732 2.95256 -1.8445 87 88 101
-4.80794 3.64923 -1.84875 73 72 90
-4.77569 3.66348 -1.84428 67 64 81
-4.75634 3.67873 -1.84351 99 98 112
-4.74143 3.68704 -1.84201 119 118 134
-4.72019 3.68852 -1.83682 134 133 147
-4.63177 3.89432 -1.84664 128 125 134
-4.60429 3.91416 -1.84586 129 124 135
-4.41108 4.34077 -1.87005 94 96 110
-4.38869 4.35438 -1.8693 95 97 111
-4.35885 4.34318 -1.85942 95 98 112
-4.14289 4.71963 -1.86707 92 95 110
-4.12117 4.71939 -1.86293 89 92 107
-3.87692 5.13275 -1.87096 92 95 112
-3.86 5.1411 -1.87092 93 96 113
-3.74557 5.37659 -1.87961 94 97 112
-3.72461 5.37775 -1.87697 93 99 113
-3.59223 5.56534 -1.8768 96 99 116
-3.42712 5.83415 -1.8812 98 100 114
-3.23642 6.06933 -1.8744 113 112 126
-3.05669 6.39193 -1.88334 98 100 113
-2.81018 6.80566 -1.89261 98 100 113
-7.18399 0.23495 -1.86367 91 99 115
-6.90819 0.562379 -1.85213 83 92 107
-6.85342 0.599986 -1.84499 83 90 108
-6.86372 0.618601 -1.84978 88 95 114
-6.56325 0.95439 -1.83157 80 87 103
-6.56676 0.972168 -1.83439 78 85 101
-6.59039 0.993916 -1.84496 76 84 98
-6.32634 1.26656 -1.8272 83 90 106
-6.33955 1.2867 -1.83443 84 89 104
-6.34385 1.32992 -1.84094 88 94 107
-6.15401 1.47255 -1.82021 152 146 150
-6.16745 1.50193 -1.82906 143 139 140
-6.15662 1.51537 -1.82684 144 140 141
-6.15811 1.53277 -1.82978 146 142 143
-6.15004 1.55544 -1.82978 143 141 142
-5.80376 2.05636 -1.8327 77 79 95
-5.79644 2.07032 -1.83269 74 77 90
-5.78909 2.08426 -1.83268 80 80 96
-5.7767 2.10434 -1.83191 79 82 95
-5.77759 2.12219 -1.83566 82 85 98
-5.78345 2.14246 -1.84167 77 80 95
-5.75917 2.14834 -1.83413 81 83 98
-5.25759 2.97269 -1.84974 98 101 111
-5.24566 2.9935 -1.85122 92 92 105
-5.23096 3.0025 -1.84894 92 91 104
-5.22657 3.0193 -1.85193 97 99 114
-5.20851 3.03549 -1.8504 94 96 109
-5.19665 3.0466 -1.84963 96 96 109
-5.18769 3.05995 -1.85036 89 87 103
-5.16655 3.07364 -1.84732 85 87 102
-4.7146 3.71849 -1.84415 141 139 150
-4.68578 3.71161 -1.83455 139 135 149
-4.64195 3.93162 -1.86035 128 122 134
-4.59953 3.94694 -1.8545 127 125 133
-4.57536 3.94475 -1.84796 125 123 133
-4.3444 4.35311 -1.85938 95 97 112
-4.10297 4.74118 -1.8663 91 94 109
-4.08226 4.74237 -1.86285 94 97 112
-3.83797 5.13931 -1.8669 97 98 114
-3.69842 5.3896 -1.87692 96 96 114
-3.56386 5.57326 -1.87546 96 97 115
-3.40075 5.85007 -1.883 98 102 114
-3.21838 6.08133 -1.87617 111 110 124
-3.02625 6.40287 -1.88386 97 101 113
-2.78754 6.80896 -1.892 97 99 113
-2.63429 7.05493 -1.89562 99 101 114
-7.1916 0.201284 -1.86532 89 98 115
-6.92278 0.519625 -1.85495 78 84 100
-6.91647 0.541096 -1.85382 84 91 107
-6.86521 0.557495 -1.84703 84 93 108
-6.85982 0.583157 -1.84635 81 88 106
-6.5814 0.897993 -1.83368 73 81 94
-6.58694 0.916073 -1.8372 90 96 110
-6.57035 0.930151 -1.83227 81 88 104
-6.34866 1.23026 -1.83154 80 87 105
-6.32768 1.24188 -1.82502 76 85 100
-6.16154 1.39968 -1.8136 84 85 103
-6.16875 1.41853 -1.81875 89 91 111
-6.17009 1.44394 -1.82244 82 79 98
-6.15056 1.4547 -1.81653 82 76 91
-5.84589 1.99776 -1.83726 83 82 98
-5.83706 2.01109 -1.8365 82 81 95
-5.81805 2.01986 -1.83122 80 82 97
-5.81423 2.03538 -1.83271 80 81 99
-5.16184 3.09036 -1.85031 84 86 101
-5.14983 3.10132 -1.84953 90 92 105
-5.14067 3.11456 -1.85026 93 95 108
-5.14092 3.14545 -1.85851 92 93 105
-5.12875 3.15633 -1.85773 89 88 103
-4.69086 3.7416 -1.84483 140 136 150
-4.67242 3.75782 -1.8448 133 130 139
-4.64616 3.7534 -1.83667 124 121 130
-4.57898 3.9751 -1.85806 128 125 135
-4.55575 3.98655 -1.85585 130 127 136
-4.52322 3.9741 -1.84425 133 130 137
-4.33389 4.38317 -1.86638 94 95 113
-4.32253 4.39761 -1.86846 94 93 112
-4.2875 4.37835 -1.85505 93 94 112
-4.07041 4.75788 -1.86555 93 96 111
-3.82696 5.15932 -1.8715 96 98 113
-3.80186 5.17159 -1.87145 97 99 114
-3.68225 5.40085 -1.87817 95 98 115
-3.66287 5.40521 -1.87683 95 98 115
-3.54268 5.57382 -1.87287 97 100 115
-3.3801 5.85353 -1.88172 99 103 117
-3.19666 6.08245 -1.87431 110 109 124
-3.0064 6.41252 -1.88497 94 100 112
-2.76622 6.81779 -1.89307 98 100 115
-2.61323 7.06898 -1.8983 100 102 115
-7.19052 0.156094 -1.86427 86 93 111
-7.20454 0.178969 -1.8686 84 93 110
-6.91371 0.496967 -1.85162 85 92 110
-6.8659 0.54008 -1.84634 85 92 110
-6.35712 1.17383 -1.82865 79 82 100
-6.35078 1.18904 -1.82792 87 93 111
-6.36782 1.21809 -1.83734 85 90 109
-6.17718 1.37097 -1.81582 85 93 106
-6.1667 1.38456 -1.8136 85 89 105
-5.89147 1.87238 -1.83207 71 72 75
-5.89032 1.89722 -1.83582 80 79 87
-5.87325 1.90715 -1.8313 84 81 91
-5.87834 1.92633 -1.83655 86 84 97
-5.86498 1.94614 -1.83504 75 77 88
-5.86481 1.9632 -1.83804 79 78 92
-5.86287 1.97955 -1.84028 86 85 101
-5.11797 3.16835 -1.85771 89 88 104
-5.10072 3.18513 -1.85693 94 96 111
-5.08275 3.19114 -1.85315 90 92 107
-5.08181 3.21136 -1.85839 90 92 105
-5.06295 3.22677 -1.85686 84 86 101
-5.0421 3.23017 -1.85157 87 86 102
-5.03109 3.24193 -1.85155 83 82 98
-5.01864 3.25245 -1.85077 83 82 98
-4.64718 3.77931 -1.84474 128 125 136
-4.62341 3.77751 -1.83809 126 123 134
-4.59087 3.80259 -1.83729 128 125 134
-4.53248 4.01165 -1.85796 125 123 134
-4.49255 4.00271 -1.84563 134 132 145
-4.2943 4.41876 -1.8691 96 98 111
-4.05653 4.77016 -1.86688 94 97 112
-4.03508 4.7869 -1.8682 92 95 112
-3.77984 5.16958 -1.86743 95 96 112
-3.6342 5.41163 -1.87483 95 97 113
-3.52445 5.58128 -1.87283 99 102 117
-3.36151 5.86225 -1.88229 100 103 118
-3.16838 6.09575 -1.87545 99 100 113
-2.98431 6.41479 -1.88376 99 103 115
-2.59012 7.07358 -1.89824 100 99 113
-7.19372 0.133574 -1.86483 79 85 104
-6.93591 0.465678 -1.85722 84 93 112
-6.87212 0.523176 -1.8477 84 91 109
-6.60468 0.85939 -1.83931 85 89 107
-6.60665 0.876831 -1.84142 84 90 106
-6.36426 1.14212 -1.82793 85 87 102
-6.36888 1.15983 -1.83155 81 84 99
-6.18939 1.33302 -1.81583 87 91 103
-6.18438 1.34821 -1.81582 82 88 102
-5.92173 1.83374 -1.83662 146 125 104
-5.92372 1.85148 -1.84037 148 127 108
-5.91361 1.8644 -1.83885 154 138 125
-5.01499 3.28094 -1.85751 81 80 96
-5.01078 3.29873 -1.86124 82 82 101
-4.98428 3.29691 -1.85295 81 82 100
-4.62319 3.81433 -1.8491 130 127 134
-4.58909 3.82572 -1.84389 124 122 127
-4.56299 3.83304 -1.83943 130 128 133
-4.49325 4.03025 -1.85427 130 129 137
-4.48206 4.04338 -1.85569 133 132 142
-4.27157 4.43181 -1.86835 123 124 135
-4.25578 4.43994 -1.86761 121 120 131
-4.01433 4.78783 -1.86475 94 93 111
-3.99744 4.79512 -1.86403 92 93 111
-3.76694 5.18609 -1.8707 96 99 116
-3.73762 5.18961 -1.86733 96 99 116
-3.61792 5.42271 -1.87609 92 95 111
-3.49821 5.59412 -1.87341 99 101 116
-3.47993 5.60145 -1.87337 98 101 115
-3.34353 5.8727 -1.88348 98 100 115
-3.14545 6.0931 -1.87239 96 100 111
-2.7337 6.82718 -1.89355 101 100 116
-7.19893 0.0997737 -1.86593 86 96 115
-6.92477 0.442943 -1.85333 86 95 110
-6.87068 0.462007 -1.84426 84 92 109
-6.87772 0.48002 -1.84769 80 87 106
-6.88843 0.498411 -1.85248 80 86 104
-6.63005 0.82938 -1.84635 88 89 109
-6.62107 0.84503 -1.84424 84 88 107
-6.38083 1.08762 -1.82866 83 90 106
-6.37768 1.12021 -1.83083 83 89 103
-6.22048 1.28361 -1.82173 71 78 94
-6.19952 1.29449 -1.81509 71 78 94
-6.20866 1.32179 -1.82173 81 87 101
-5.95331 1.76199 -1.83665 145 124 100
-5.94929 1.78555 -1.8389 147 125 106
-5.94284 1.79993 -1.83889 149 124 108
-5.93117 1.81226 -1.83662 146 124 108
-4.97754 3.32292 -1.85818 83 85 100
-4.95659 3.32583 -1.85289 81 84 101
-4.9439 3.3361 -1.85212 80 81 99
-4.91909 3.3458 -1.84758 77 78 96
-4.9159 3.36472 -1.85206 75 74 92
-4.54895 3.84207 -1.83867 129 126 133
-4.54329 3.86095 -1.84306 128 122 132
-4.51353 3.86373 -1.83639 132 126 138
-4.46211 4.05867 -1.85565 134 133 146
-4.44965 4.07027 -1.85634 131 131 143
-4.41976 4.05995 -1.84619 123 121 134
-4.24311 4.45266 -1.86899 122 119 130
-4.21502 4.45772 -1.86472 122 119 130
-3.97202 4.80516 -1.86261 95 98 115
-3.72054 5.19753 -1.86729 93 99 115
-3.60083 5.43202 -1.87669 95 98 113
-3.4609 5.60697 -1.87269 97 100 116
-3.31623 5.88649 -1.88466 97 99 114
-3.12609 6.10122 -1.87295 95 98 110
-2.95214 6.4199 -1.88253 102 101 117
-2.7106 6.82837 -1.89238 100 101 116
-2.55393 7.07092 -1.89544 97 99 112
-6.92693 0.421154 -1.85335 85 94 111
-6.8867 0.437115 -1.84904 85 94 109
-6.63988 0.788217 -1.84705 83 88 106
-6.63842 0.805098 -1.84776 86 89 107
-6.37579 1.06179 -1.82431 79 85 99
-6.39839 1.10804 -1.83734 82 89 105
-6.22591 1.22724 -1.81732 82 89 105
-6.22123 1.24253 -1.81731 79 86 102
-6.21633 1.26593 -1.81805 81 88 104
-5.97937 1.6631 -1.83068 86 88 103
-5.97329 1.67755 -1.83068 85 84 92
-5.96369 1.69072 -1.82916 90 84 100
-5.97838 1.71278 -1.83818 87 73 75
-5.97636 1.73704 -1.84118 158 130 108
-5.96486 1.74954 -1.83892 144 116 94
-4.91943 3.38993 -1.86031 75 77 92
-4.88894 3.38368 -1.84976 76 75 91
-4.89236 3.41964 -1.861 78 79 97
-4.86998 3.42079 -1.85496 76 77 95
-4.5006 3.87402 -1.83636 132 126 139
-4.49118 3.88855 -1.83854 128 122 137
-4.42116 4.08898 -1.85556 129 127 140
-4.20125 4.46878 -1.86539 122 119 133
-4.19362 4.48914 -1.87028 122 120 133
-3.95982 4.82041 -1.86531 92 98 112
-3.94474 4.83078 -1.86596 92 98 112
-3.70423 5.20711 -1.86791 96 99 114
-3.57517 5.44504 -1.87728 94 96 113
-3.44683 5.62471 -1.87647 96 99 116
-3.29226 5.88077 -1.88028 99 100 118
-3.09826 6.11603 -1.8747 95 97 112
-2.93326 6.43302 -1.88481 100 102 115
-2.68919 6.83698 -1.89345 101 103 115
-2.53045 7.07344 -1.89484 96 97 111
-6.91625 0.387657 -1.84945 88 93 110
-6.88701 0.419686 -1.84835 81 89 107
-6.63276 0.744537 -1.8414 90 97 113
-6.6487 0.772453 -1.84916 76 83 101
-6.38768 1.03113 -1.82577 89 95 111
-6.42553 1.05541 -1.84241 90 93 108
-6.23334 1.19617 -1.81659 83 89 108
-6.22336 1.21011 -1.81437 81 88 105
-6.00198 1.64629 -1.83671 82 86 101
-4.86376 3.43715 -1.85795 74 76 91
-4.84933 3.45656 -1.85942 84 86 101
-4.83628 3.46647 -1.85864 75 77 90
-4.82188 3.47505 -1.85711 83 82 96
-4.79403 3.48133 -1.85106 89 91 106
-4.48289 3.9045 -1.84146 131 124 139
-4.46957 3.92697 -1.8451 130 124 138
-4.40671 4.11134 -1.85913 132 130 143
-4.39406 4.12279 -1.85983 116 115 129
-4.37114 4.12093 -1.85401 96 95 109
-4.33949 4.12091 -1.84674 87 87 101
-4.16341 4.49079 -1.86461 121 119 130
-3.92292 4.84707 -1.86728 95 98 113
-3.6781 5.21712 -1.8672 97 96 114
-3.65934 5.22145 -1.86583 92 95 112
-3.55647 5.45077 -1.87659 95 97 113
-3.53399 5.44779 -1.87266 97 99 114
-3.41405 5.62138 -1.87131 96 99 116
-3.27288 5.88745 -1.88024 97 102 117
-3.08052 6.12946 -1.87706 92 95 110
-2.91167 6.43689 -1.88418 96 100 112
-2.65534 6.8404 -1.89225 103 105 118
-2.50881 7.08532 -1.89697 100 98 112
-6.92208 0.344238 -1.85004 82 90 109
-6.95846 0.368177 -1.8612 90 95 114
-6.89493 0.385341 -1.84971 92 97 115
-6.88912 0.402394 -1.84834 83 89 105
-6.62046 0.708794 -1.83435 76 81 100
-6.65069 0.730081 -1.84704 84 90 106
-6.3991 0.992152 -1.82649 84 90 106
-6.42618 1.01399 -1.83879 83 85 103
-6.25402 1.14378 -1.8188 82 88 102
-6.24151 1.17362 -1.81732 81 87 103
-6.03741 1.5673 -1.83825 146 141 144
-6.0404 1.58485 -1.842 145 142 145
-6.02581 1.59652 -1.83823 144 140 144
-6.02264 1.6202 -1.84049 152 150 155
-5.46465 2.36668 -1.83029 148 126 103
-5.44944 2.38421 -1.82873 86 74 74
-5.44269 2.39804 -1.82949 81 77 90
-5.44697 2.41848 -1.83563 80 83 94
-5.42048 2.42922 -1.82868 81 78 100
-5.40726 2.43915 -1.82635 84 82 100
-5.39089 2.4471 -1.82249 60 57 75
-5.39808 2.49642 -1.83632 128 123 129
-5.38938 2.50916 -1.8363 127 122 128
-5.37597 2.51893 -1.83397 128 122 129
-5.36944 2.54191 -1.83703 131 125 133
-5.36215 2.55558 -1.83779 129 124 130
-5.34708 2.56421 -1.83469 126 122 124
-5.33875 2.58613 -1.83698 125 120 124
-5.33131 2.59972 -1.83773 125 123 125
-5.32537 2.61431 -1.83925 135 134 140
-5.30603 2.629 -1.83615 77 76 91
-5.28621 2.63426 -1.83074 77 75 94
-5.28167 2.64979 -1.83303 81 82 101
-5.26335 2.65595 -1.82839 75 76 95
-5.253 2.67657 -1.82991 81 80 97
-5.24981 2.69311 -1.83298 81 80 96
-5.23596 2.70225 -1.83065 81 80 96
-5.22234 2.72065 -1.83062 81 80 96
-5.21746 2.7361 -1.83292 82 81 97
-4.80595 3.51578 -1.86457 82 81 97
-4.77172 3.50466 -1.85176 93 92 108
-4.45877 3.94001 -1.84655 129 123 135
-4.43043 3.93137 -1.83694 130 124 134
-4.41227 3.94787 -1.83764 128 124 133
-4.34594 4.15741 -1.85972 95 93 108
-4.31295 4.14191 -1.8474 88 86 103
-4.15463 4.50953 -1.8688 121 119 128
-4.14065 4.52042 -1.86947 121 120 128
-3.90402 4.85081 -1.86519 93 95 110
-3.88883 4.86102 -1.86584 94 97 112
-3.64609 5.23768 -1.86911 89 95 111
-3.51604 5.45513 -1.87262 96 98 113
-3.39707 5.63197 -1.87254 98 100 115
-3.37592 5.63195 -1.86995 99 101 116
-3.24483 5.89915 -1.8808 97 103 117
-3.06046 6.13558 -1.87702 95 97 111
-2.89217 6.44806 -1.88588 99 103 116
-2.63144 6.8376 -1.88996 99 101 116
-6.92444 0.311576 -1.85006 82 89 108
-6.89565 0.359258 -1.84901 88 93 113
-6.65604 0.688252 -1.84632 87 92 111
-6.41787 0.962682 -1.83083 77 80 95
-6.44326 0.984031 -1.84241 83 93 105
-6.26445 1.1053 -1.8188 84 91 107
-6.25653 1.11985 -1.81733 89 95 109
-6.27123 1.1644 -1.82765 83 89 105
-6.06037 1.51713 -1.83977 143 138 142
-6.05827 1.53295 -1.84127 145 140 146
-6.05261 1.54763 -1.84126 144 138 142
-5.60277 2.10329 -1.82437 76 83 97
-5.58046 2.11741 -1.81897 79 83 97
-5.59429 2.14162 -1.82897 79 81 96
-5.57853 2.15069 -1.8251 82 81 98
-5.58713 2.18082 -1.83433 81 83 96
-5.56473 2.18637 -1.82739 82 83 95
-5.57983 2.2117 -1.83816 86 82 97
-5.54925 2.21279 -1.82736 79 70 79
-5.56067 2.24484 -1.83813 140 117 103
-5.5463 2.25452 -1.83503 149 120 96
-5.53512 2.26592 -1.83348 148 120 97
-5.52195 2.28472 -1.83269 144 123 101
-5.52037 2.30142 -1.83576 141 121 97
-5.5155 2.31633 -1.83728 141 122 102
-5.50255 2.32669 -1.83496 141 119 96
-5.49071 2.34625 -1.83494 142 114 87
-5.48249 2.35926 -1.83493 143 112 83
-5.21101 2.75047 -1.83444 82 81 95
-5.19418 2.7666 -1.83287 79 81 94
-5.18166 2.77658 -1.83131 81 81 96
-5.17506 2.79088 -1.83283 80 79 95
-5.16098 2.79969 -1.8305 80 79 95
-5.14987 2.81998 -1.83202 81 80 94
-5.14164 2.83311 -1.83277 80 79 93
-5.13483 2.84733 -1.83429 80 82 96
-5.11613 2.86194 -1.83196 78 80 95
-5.0935 2.88351 -1.83037 95 94 108
-4.77949 3.53526 -1.86301 92 91 107
-4.75411 3.54384 -1.85847 77 79 92
-4.73823 3.5508 -1.85619 83 85 98
-4.73139 3.56696 -1.85917 83 85 98
-4.41984 3.98401 -1.85087 126 123 132
-4.38812 3.97072 -1.83906 125 120 131
-4.29474 4.15943 -1.84881 92 89 106
-4.12461 4.52813 -1.86873 124 121 130
-4.10345 4.54354 -1.86939 122 118 131
-3.85216 4.85088 -1.85622 96 99 114
-3.6312 5.25047 -1.87106 94 97 112
-3.4917 5.47125 -1.87451 94 100 114
-3.22414 5.90211 -1.87951 97 103 118
-3.20343 5.90501 -1.87823 93 99 113
-3.03812 6.13437 -1.87456 100 99 113
-2.86143 6.45827 -1.88639 100 103 118
-2.60995 6.84597 -1.89102 98 100 115
-2.47484 7.09359 -1.89744 100 104 116
-6.93004 0.289974 -1.85119 80 85 105
-6.8957 0.324427 -1.84763 79 86 104
-6.90318 0.342267 -1.85106 85 93 112
-6.66189 0.654968 -1.84632 84 90 107
-6.64787 0.670146 -1.84209 86 91 110
-6.43061 0.923797 -1.83228 79 85 101
-6.43967 0.941959 -1.83734 94 100 115
-6.27277 1.06635 -1.81807 89 95 111
-6.26509 1.08907 -1.81733 86 93 109
-6.07557 1.4809 -1.84053 153 143 152
-6.07124 1.5041 -1.84204 139 134 138
-5.65843 1.99514 -1.82369 81 84 99
-5.66314 2.02252 -1.83061 79 85 99
-5.64595 2.03122 -1.82598 79 83 98
-5.63041 2.04064 -1.82211 78 80 95
-5.64637 2.06539 -1.83289 78 80 95
-5.62252 2.07902 -1.82671 77 80 95
-5.61843 2.09406 -1.82824 78 81 98
-5.45852 2.51568 -1.86175 137 132 142
-5.11654 2.88173 -1.83733 87 87 99
-5.09213 2.9115 -1.83728 96 98 110
-5.08213 2.92336 -1.83726 98 97 110
-5.07499 2.93748 -1.83878 90 89 105
-5.06347 2.94814 -1.83799 83 84 98
-5.03996 2.97869 -1.83871 97 96 110
-4.71368 3.58322 -1.85914 88 90 105
-4.69129 3.58334 -1.85309 83 86 101
-4.68943 3.60478 -1.85908 80 81 99
-4.37776 3.99727 -1.84491 124 121 132
-4.36327 4.0057 -1.84414 126 123 133
-4.34988 4.01554 -1.84411 122 119 129
-4.30078 4.19601 -1.86179 93 92 106
-4.27457 4.18918 -1.8538 88 86 100
-4.08436 4.54639 -1.86654 106 104 117
-4.07921 4.57133 -1.87354 96 97 113
-3.84697 4.87898 -1.86439 97 99 112
-3.83076 4.88739 -1.86435 95 97 112
-3.59404 5.23612 -1.86105 96 98 113
-3.58219 5.25564 -1.86565 99 101 116
-3.47149 5.47324 -1.87252 96 99 114
-3.35144 5.64942 -1.87244 97 101 113
-3.33231 5.65453 -1.87176 99 103 115
-2.83929 6.46007 -1.88518 98 102 114
-2.58723 6.84865 -1.89041 100 102 116
-2.4506 7.0921 -1.89574 100 102 115
-6.93172 0.268182 -1.85121 79 86 104
-6.89613 0.29837 -1.84693 86 93 111
-6.66294 0.612654 -1.84419 81 89 102
-6.66104 0.637851 -1.84491 81 87 103
-6.43937 0.884173 -1.83227 80 86 102
-6.46548 0.913412 -1.84458 76 82 98
-6.27737 1.03469 -1.8166 80 83 98
-6.28597 1.05291 -1.82176 79 82 99
-6.07975 1.39238 -1.83003 84 87 104
-6.08339 1.40973 -1.83379 82 88 102
-6.07455 1.42341 -1.83227 84 90 105
-6.0776 1.44871 -1.83679 83 85 104
-6.08458 1.46724 -1.84205 71 69 83
-5.69265 1.9524 -1.82835 78 79 91
-5.68927 1.97588 -1.83142 82 84 99
-5.68054 1.98868 -1.83064 79 82 96
-5.0674 2.98082 -1.84797 73 75 88
-5.03262 2.99272 -1.84023 89 88 102
-5.02619 3.01727 -1.84482 88 87 103
-5.01159 3.02541 -1.84249 88 87 103
-5.0055 3.04058 -1.84478 91 90 106
-4.98464 3.05323 -1.84167 91 89 106
-4.67664 3.62623 -1.86205 90 91 109
-4.66821 3.64096 -1.86428 95 96 114
-4.65337 3.64891 -1.86275 89 88 104
-4.34212 4.03271 -1.84776 123 120 129
-4.30884 4.02962 -1.83889 123 120 131
-4.26714 4.20778 -1.85811 86 84 98
-4.25077 4.22815 -1.86096 83 82 101
-4.04598 4.56749 -1.86576 94 97 114
-4.03276 4.57967 -1.86713 92 95 112
-3.81633 4.89904 -1.86568 94 96 111
-3.56872 5.2717 -1.86893 97 99 114
-3.45784 5.49084 -1.87637 97 100 115
-3.3125 5.65782 -1.87044 98 102 114
-3.1759 5.91819 -1.87941 100 105 118
-3.01392 6.16155 -1.88052 99 101 116
-2.99048 6.15653 -1.87686 100 102 115
-2.81615 6.45812 -1.88281 99 104 116
-6.94485 0.246836 -1.85458 83 88 107
-6.91078 0.264239 -1.85103 83 90 108
-6.90348 0.281325 -1.84898 75 82 100
-6.66381 0.595785 -1.84349 87 95 108
-6.45199 0.853336 -1.83444 73 80 96
-6.4448 0.868615 -1.833 82 89 105
-6.2924 0.997207 -1.81881 85 88 105
-6.28684 1.02041 -1.81881 80 87 103
-6.09954 1.37383 -1.8353 80 86 100
-5.73829 1.86438 -1.82918 80 68 61
-5.72483 1.87513 -1.82609 75 70 77
-5.73159 1.89476 -1.83224 80 80 92
-5.71972 1.90621 -1.82992 85 84 93
-5.71659 1.92973 -1.83299 88 87 95
-5.71639 1.94644 -1.83606 91 91 101
-4.97983 3.06955 -1.84473 82 81 98
-4.97356 3.08467 -1.84702 79 78 96
-4.956 3.09018 -1.84315 76 75 92
-4.94197 3.10857 -1.84389 79 81 96
-4.92997 3.11878 -1.8431 71 73 88
-4.63402 3.66347 -1.86196 82 84 99
-4.61036 3.66177 -1.85517 81 83 96
-4.5781 3.6745 -1.85061 85 87 101
-4.31326 4.06301 -1.85064 123 120 131
-4.2819 4.04894 -1.83883 122 120 131
-4.22791 4.22557 -1.85515 85 83 101
-4.21701 4.23956 -1.85728 90 88 106
-4.01462 4.58385 -1.86499 93 95 111
-3.79231 4.91149 -1.86563 94 97 114
-3.54083 5.27763 -1.86688 98 102 117
-3.43039 5.49974 -1.87566 96 99 114
-3.40942 5.49977 -1.87302 97 98 116
-3.28253 5.66085 -1.86784 101 105 117
-3.15704 5.92632 -1.87998 101 105 117
-3.1369 5.9308 -1.87931 98 102 114
-2.97086 6.1642 -1.87742 99 103 115
-2.78339 6.46059 -1.88099 99 103 115
-2.55566 6.86287 -1.89258 100 103 118
-6.96017 0.214547 -1.8585 83 89 105
-6.90531 0.237929 -1.84827 81 86 105
-6.67577 0.580197 -1.84701 77 84 100
-6.45102 0.81214 -1.83082 82 89 106
-6.45864 0.829775 -1.83516 82 88 104
-6.30562 0.967329 -1.82102 85 93 106
-6.29812 0.982096 -1.81955 79 85 101
-6.1254 1.30809 -1.83682 79 86 104
-6.11299 1.32889 -1.83456 84 89 106
-6.1151 1.34571 -1.83757 76 82 98
-6.11536 1.36205 -1.83982 84 90 106
-5.78536 1.78523 -1.83309 149 123 102
-5.77889 1.79908 -1.83308 146 123 105
-5.76613 1.81838 -1.83153 151 126 106
-5.75617 1.83073 -1.82998 148 125 107
-5.75805 1.84813 -1.83382 154 129 113
-4.93598 3.14476 -1.85231 93 92 106
-4.90645 3.14964 -1.84458 94 93 107
-4.88882 3.15482 -1.84071 81 80 94
-4.89455 3.18086 -1.84993 92 91 107
-4.85823 3.20032 -1.84449 91 90 104
-4.6155 3.69138 -1.86567 85 84 98
-4.56982 3.70108 -1.85658 82 84 97
-4.55362 3.70731 -1.8543 78 79 97
-4.27307 4.07823 -1.84615 125 122 133
-4.24734 4.07137 -1.83802 124 121 132
-4.20149 4.26127 -1.86085 89 87 102
-4.17439 4.25235 -1.85215 93 92 110
-3.9951 4.60198 -1.86705 93 96 111
-3.97982 4.61082 -1.86702 92 95 110
-3.77954 4.92634 -1.86833 93 98 112
-3.76142 4.93124 -1.86692 92 97 111
-3.52723 5.29359 -1.87016 96 99 114
-3.39273 5.51023 -1.87428 96 99 114
-3.26206 5.6622 -1.86588 98 101 116
-3.11374 5.92621 -1.87556 95 99 111
-2.76369 6.47139 -1.88269 99 101 114
-2.53218 6.86162 -1.89084 97 102 115
-6.94054 0.192003 -1.85238 80 88 101
-6.9031 0.22047 -1.8469 85 91 107
-6.67499 0.520812 -1.84347 84 91 108
-6.67436 0.537682 -1.84417 88 95 112
-6.6904 0.556387 -1.85122 84 91 107
-6.46872 0.781997 -1.83516 80 85 104
-6.48933 0.801577 -1.84457 92 99 117
-6.3074 0.9271 -1.81807 80 90 102
-6.3346 0.948699 -1.8306 87 96 108
-6.13695 1.2788 -1.83758 85 91 107
-6.11779 1.28986 -1.83156 80 87 104
-5.80593 1.70337 -1.82697 87 74 79
-5.81345 1.72269 -1.83312 156 135 113
-5.80377 1.73525 -1.83157 153 127 102
-5.80089 1.75053 -1.8331 151 126 106
-5.78835 1.76997 -1.83155 150 123 105
-4.87594 3.1953 -1.84836 89 88 104
-4.85005 3.21399 -1.846 80 79 95
-4.84045 3.2264 -1.84675 69 68 86
-4.81221 3.23177 -1.83979 81 80 95
-4.8066 3.24785 -1.84284 77 76 92
-4.54604 3.72316 -1.85728 78 80 94
-4.53863 3.7511 -1.86401 78 80 95
-4.24253 4.09285 -1.84388 123 121 132
-4.22352 4.10856 -1.84457 124 119 130
-4.16549 4.26928 -1.85573 88 89 108
-4.14975 4.29081 -1.8593 95 97 115
-3.96547 4.62122 -1.86769 93 96 111
-3.73637 4.94179 -1.86619 92 98 112
-3.50607 5.29224 -1.8668 95 97 112
-3.36451 5.51708 -1.87292 98 101 116
-3.24358 5.66881 -1.86584 98 100 115
-3.08668 5.94081 -1.87735 106 109 121
-2.9378 6.1619 -1.87373 102 106 118
-2.74442 6.484 -1.88497 98 100 114
-2.50981 6.86594 -1.89079 99 105 118
-6.9496 0.170403 -1.85462 92 102 114
-6.91166 0.185993 -1.84894 88 96 109
-6.91022 0.20333 -1.84894 83 90 106
-6.68192 0.496162 -1.84486 78 86 99
-6.46345 0.740306 -1.83009 81 87 102
-6.4824 0.759411 -1.83877 84 89 109
-6.31979 0.888954 -1.81954 87 94 110
-6.31838 0.912965 -1.82102 79 88 103
-6.14964 1.22567 -1.83609 81 85 102
-6.13956 1.23922 -1.83382 89 91 106
-6.14914 1.25783 -1.83984 86 89 104
-5.84242 1.66047 -1.83393 86 86 102
-5.8105 1.66459 -1.82236 87 86 103
-5.81992 1.68448 -1.82929 87 87 101
-4.8036 3.26646 -1.84744 82 81 97
-4.78734 3.28298 -1.84741 74 75 93
-4.7695 3.28757 -1.84353 67 70 87
-4.75833 3.29849 -1.84351 85 84 101
-4.52598 3.76138 -1.86398 78 77 93
-4.506 3.76324 -1.85944 80 79 97
-4.48617 3.77709 -1.85865 85 82 101
-4.21632 4.12702 -1.84896 123 120 129
-4.1896 4.11831 -1.84009 123 120 130
-4.13751 4.3031 -1.86071 88 89 109
-4.11996 4.30766 -1.85851 93 95 112
-3.94572 4.63917 -1.86975 90 98 111
-3.93032 4.64786 -1.86972 89 97 110
-3.72082 4.95153 -1.86684 94 98 113
-3.70352 4.95789 -1.86612 95 98 113
-3.47888 5.29959 -1.86542 94 100 114
-3.46217 5.30847 -1.86604 95 101 115
-3.34565 5.52215 -1.87223 97 100 117
-3.23085 5.69137 -1.87153 99 101 116
-3.0677 5.94868 -1.87792 110 113 125
-2.91869 6.17125 -1.87489 101 103 117
-6.94731 0.137549 -1.85352 84 90 106
-6.90768 0.159845 -1.84687 89 97 110
-6.68986 0.48 -1.84697 76 86 99
-6.47816 0.701476 -1.83297 82 89 105
-6.47765 0.725912 -1.83443 86 94 107
-6.33785 0.859792 -1.82396 87 94 110
-6.35258 0.878712 -1.83133 79 85 101
-6.15992 1.17204 -1.83384 96 100 115
-6.1536 1.18655 -1.83308 94 97 112
-6.1562 1.20326 -1.83608 81 86 105
-5.86117 1.61068 -1.83318 154 152 154
-5.84487 1.6209 -1.82855 87 92 98
-4.74854 3.32123 -1.84733 74 75 95
-4.73857 3.33338 -1.84807 86 88 103
-4.73119 3.34808 -1.85036 92 94 107
-4.70803 3.3472 -1.8434 84 81 98
-4.47104 3.7844 -1.85712 89 88 104
-4.45588 3.79166 -1.85559 81 83 100
-4.44431 3.8031 -1.85631 77 78 97
-4.17905 4.14591 -1.84668 124 121 132
-4.16735 4.15824 -1.84812 126 123 134
-4.13967 4.14772 -1.83852 131 128 139
-4.09457 4.31516 -1.85558 116 117 130
-4.07496 4.31647 -1.85193 125 123 134
-3.91018 4.64844 -1.86616 91 97 111
-3.89758 4.66188 -1.86824 94 97 112
-3.6818 4.97485 -1.86812 92 98 114
-3.44688 5.32077 -1.86799 94 101 112
-3.3247 5.52188 -1.8696 96 102 116
-3.19891 5.68865 -1.86701 98 100 115
-3.04752 5.95288 -1.87726 113 116 128
-2.90005 6.18237 -1.87666 101 103 118
-2.71161 6.48612 -1.88316 101 100 115
-2.47628 6.87041 -1.89016 103 105 120
-6.94277 0.115597 -1.85186 88 93 112
-6.91585 0.125293 -1.8489 86 92 108
-6.91085 0.142559 -1.84754 84 90 106
-6.69627 0.446724 -1.84767 82 90 107
-6.69775 0.463794 -1.84908 76 85 100
-6.48597 0.66978 -1.83369 83 90 106
-6.47562 0.684794 -1.8308 89 96 112
-6.3351 0.818884 -1.81953 82 88 104
-6.33769 0.843542 -1.82249 81 88 104
-6.16442 1.15708 -1.83384 75 81 97
-5.89378 1.54966 -1.83629 140 138 141
-5.88284 1.56196 -1.83397 145 143 144
-5.87708 1.57608 -1.83396 145 140 146
-5.87475 1.59144 -1.8355 145 142 143
-4.70181 3.37373 -1.84953 89 86 103
-4.68906 3.38314 -1.84874 88 87 101
-4.68018 3.39645 -1.85025 90 92 105
-4.42549 3.81809 -1.85628 77 78 96
-4.41263 3.82803 -1.85625 78 76 97
-4.13432 4.16909 -1.84438 126 126 134
-4.06362 4.33012 -1.85407 122 120 131
-3.8757 4.67632 -1.8689 92 96 113
-3.66357 4.97941 -1.86671 92 98 114
-3.41888 5.3261 -1.86594 95 98 113
-3.30926 5.53563 -1.87214 96 100 115
-3.18223 5.70042 -1.86888 99 101 116
-2.86805 6.18337 -1.87418 102 105 119
-2.68991 6.48931 -1.88253 99 101 114
-2.45249 6.86703 -1.88786 97 99 114
-6.94392 0.0937814 -1.85188 86 91 110
-6.91158 0.0992002 -1.84683 87 93 111
-6.68263 0.403375 -1.84061 86 93 109
-6.70101 0.42178 -1.84836 88 95 111
-6.4724 0.6274 -1.82572 77 87 103
-6.48067 0.644679 -1.83006 78 86 104
-6.35275 0.789488 -1.82395 78 85 103
-6.34577 0.804514 -1.82248 79 86 104
-6.18296 1.10545 -1.83535 81 88 104
-6.18404 1.1217 -1.8376 80 87 103
-6.17967 1.13672 -1.8376 84 92 105
-5.90004 1.45577 -1.82476 78 70 83
-5.90512 1.47343 -1.82938 161 149 159
-5.90953 1.49882 -1.83477 145 139 143
-5.90571 1.51361 -1.83553 142 136 140
-5.89663 1.52659 -1.83398 142 136 140
-5.27024 2.42022 -1.83363 80 83 98
-4.65813 3.40714 -1.84714 93 92 108
-4.65558 3.42699 -1.8525 93 95 110
-4.63499 3.42829 -1.84709 84 86 101
-4.40447 3.84364 -1.85922 78 77 96
-4.38194 3.85415 -1.85693 75 78 93
-4.36662 3.86109 -1.8554 73 75 92
-4.34898 3.8651 -1.85236 64 65 84
-4.11702 4.18741 -1.84654 125 125 132
-4.0926 4.18118 -1.83915 128 127 137
-4.05325 4.34529 -1.85692 123 121 134
-4.03187 4.35866 -1.85688 121 119 132
-3.85741 4.67993 -1.86675 93 96 113
-3.84281 4.68998 -1.86742 93 96 113
-3.64705 4.98727 -1.86667 93 99 113
-3.61617 4.96656 -1.85502 92 98 112
-3.40135 5.33306 -1.8659 95 96 114
-3.28098 5.54208 -1.87079 96 99 114
-3.16298 5.705 -1.8682 98 100 115
-3.01796 5.95996 -1.87658 110 114 125
-2.84986 6.19619 -1.87655 100 104 119
-2.66868 6.49429 -1.88248 99 103 115
-2.43183 6.88053 -1.89061 98 100 113
-6.91457 0.0818872 -1.84751 84 89 109
-6.71077 0.388719 -1.85047 82 89 105
-6.48812 0.612964 -1.83078 79 88 105
-6.35173 0.765141 -1.82174 82 89 105
-6.2022 1.06984 -1.83911 83 90 104
-6.19618 1.08451 -1.83836 78 85 101
-5.90948 1.41919 -1.82323 78 84 99
-5.92297 1.44732 -1.83248 84 83 99
-5.42605 2.17279 -1.83389 80 83 98
-5.40286 2.25401 -1.84323 143 121 106
-5.37676 2.29973 -1.84397 139 120 101
-5.36543 2.31069 -1.84238 143 122 104
-5.36158 2.33433 -1.84629 147 122 100
-5.35494 2.34796 -1.84706 134 109 86
-5.32756 2.34962 -1.83763 137 108 86
-5.3183 2.38765 -1.84309 129 114 106
-5.29408 2.39087 -1.83523 75 65 67
-5.30145 2.41282 -1.84305 77 78 89
-5.27272 2.43936 -1.8391 81 81 93
-5.26728 2.48015 -1.84691 69 68 82
-5.2539 2.48969 -1.84454 140 137 146
-5.25297 2.50699 -1.84844 128 123 131
-5.24108 2.51743 -1.84685 123 117 125
-5.2329 2.53896 -1.84919 127 122 129
-5.21784 2.54734 -1.84603 132 125 133
-5.2043 2.55665 -1.84366 133 128 135
-5.19282 2.57605 -1.84443 131 126 133
-5.19304 2.59435 -1.84911 131 124 134
-5.17787 2.60253 -1.84596 131 126 131
-5.16311 2.61979 -1.84515 141 141 145
-5.14788 2.62783 -1.842 105 105 113
-5.12807 2.6327 -1.83649 67 66 80
-5.12379 2.657 -1.84117 81 81 99
-5.11454 2.66904 -1.84116 78 79 97
-5.10525 2.68105 -1.84114 80 80 96
-5.08226 2.71096 -1.8411 78 80 95
-4.62179 3.44806 -1.84937 87 86 100
-4.61392 3.46255 -1.85165 83 82 96
-4.60093 3.47167 -1.85085 78 77 93
-4.33797 3.88977 -1.85758 67 66 82
-4.08908 4.20558 -1.84648 127 126 136
-4.06742 4.21756 -1.8457 130 129 139
-4.01831 4.36909 -1.85757 121 119 132
-4.0037 4.37791 -1.85754 122 120 133
-3.81806 4.69928 -1.86596 93 96 111
-3.60185 4.99829 -1.86317 92 98 112
-3.38381 5.33997 -1.86586 94 97 112
-3.36414 5.34159 -1.86382 95 101 117
-3.26342 5.55042 -1.8714 96 100 113
-3.24581 5.5587 -1.872 95 98 112
-3.13666 5.71802 -1.86941 97 102 116
-3.00118 5.97487 -1.87963 115 119 130
-2.82908 6.19978 -1.8759 98 104 118
-6.7004 0.345741 -1.84481 75 82 101
-6.70405 0.362881 -1.84693 79 86 104
-6.48703 0.572207 -1.82788 80 87 106
-6.50935 0.599062 -1.83802 80 87 103
-6.35623 0.733573 -1.821 77 85 101
-6.35858 0.750074 -1.82321 82 89 105
-6.20849 1.03137 -1.8376 81 88 104
-6.20637 1.05476 -1.83911 79 87 100
-5.93948 1.35734 -1.82634 73 79 95
-5.93572 1.37983 -1.82787 85 91 105
-5.91998 1.39078 -1.82325 81 87 101
-5.94113 1.41336 -1.8348 83 89 105
-5.50343 2.03613 -1.83402 72 75 91
-5.5011 2.05165 -1.83636 76 79 96
-5.49211 2.06395 -1.83556 78 80 95
-5.48143 2.08357 -1.83555 82 84 98
-5.4888 2.10401 -1.84259 78 83 95
-5.45994 2.10635 -1.83238 77 83 95
-5.47364 2.13833 -1.84413 75 77 92
-5.44477 2.14046 -1.83392 79 81 96
-5.44696 2.15848 -1.83861 80 82 97
-5.4281 2.19083 -1.83858 75 77 92
-5.44142 2.21495 -1.84877 83 82 98
-5.42545 2.22356 -1.84483 86 82 95
-5.41888 2.24553 -1.84717 87 73 73
-5.40132 2.27039 -1.84635 147 124 105
-5.38967 2.28963 -1.84634 140 120 106
-5.32845 2.4912 -1.87123 79 79 99
-5.11399 2.70569 -1.85053 81 80 95
-5.07134 2.72181 -1.84029 79 78 94
-5.07233 2.74119 -1.84576 79 78 94
-5.0525 2.75471 -1.8426 79 78 94
-5.0355 2.76112 -1.83866 77 79 94
-5.03333 2.77834 -1.84256 78 77 95
-5.02075 2.79709 -1.84332 78 80 96
-5.00812 2.80663 -1.84174 80 82 95
-4.99397 2.81502 -1.83936 81 83 96
-4.59043 3.48344 -1.8516 88 87 103
-4.56309 3.4882 -1.8454 92 91 105
-4.5563 3.50393 -1.84846 93 95 108
-4.32373 3.898 -1.8568 73 72 87
-4.30948 3.90619 -1.85602 75 74 94
-4.04617 4.21571 -1.84052 130 130 137
-3.98015 4.38792 -1.85605 121 119 132
-3.80338 4.70923 -1.86663 91 94 109
-3.78867 4.71914 -1.8673 91 94 111
-3.5861 5.00765 -1.86381 94 100 114
-3.55794 4.99166 -1.85421 94 97 112
-3.11434 5.71351 -1.86555 97 101 115
-3.0981 5.72684 -1.86805 96 101 115
-2.98207 5.98249 -1.8802 117 119 131
-2.79904 6.20779 -1.87583 98 103 116
-2.63856 6.50721 -1.88416 98 101 116
-2.39791 6.88276 -1.88941 97 99 113
-6.71533 0.329879 -1.84974 91 100 117
-6.4996 0.541009 -1.83077 81 88 106
-6.51741 0.559135 -1.83873 81 88 107
-6.37078 0.695498 -1.82394 84 92 108
-6.36777 0.711182 -1.82394 81 88 104
-6.21867 0.9857 -1.83686 79 86 103
-6.21471 1.00081 -1.83686 70 77 94
-6.22159 1.01815 -1.84137 85 91 107
-5.94954 1.30523 -1.82327 85 88 103
-5.95134 1.3293 -1.82712 85 91 103
-5.95692 1.34679 -1.83174 78 85 100
-5.55384 1.96086 -1.838 87 85 99
-5.54365 1.98074 -1.83799 80 79 95
-5.5382 1.99475 -1.83876 79 78 94
-5.52606 2.00561 -1.83639 81 80 96
-5.51566 2.02537 -1.83638 82 84 99
-4.99596 2.83556 -1.84562 79 81 94
-4.97724 2.8497 -1.84324 81 80 94
-4.96445 2.85908 -1.84165 83 80 97
-4.95893 2.87403 -1.84398 84 83 97
-4.94586 2.8925 -1.84474 83 82 97
-4.54944 3.51965 -1.85151 97 99 114
-4.53321 3.53641 -1.85224 100 99 115
-4.51259 3.53705 -1.84683 87 89 104
-4.30207 3.92307 -1.85975 77 75 96
-4.2804 3.9345 -1.85821 61 58 78
-4.26039 3.93522 -1.85367 65 62 82
-4.04647 4.24627 -1.85079 128 127 135
-4.01955 4.25028 -1.84633 122 122 132
-3.99426 4.24199 -1.8382 122 122 134
-3.96649 4.3982 -1.85674 123 121 132
-3.95875 4.41791 -1.86176 123 120 131
-3.7647 4.72982 -1.86655 90 93 110
-3.34166 5.36052 -1.86708 97 100 115
-3.32127 5.36024 -1.86439 95 98 113
-3.22009 5.57193 -1.87324 98 104 118
-2.9535 5.99291 -1.88075 122 121 134
-2.77922 6.2149 -1.87639 101 104 117
-2.61594 6.50644 -1.88236 98 101 115
-2.37648 6.89233 -1.89104 97 99 114
-6.6765 0.285403 -1.83351 83 90 108
-6.7046 0.3039 -1.84479 80 87 105
-6.49736 0.516462 -1.82858 86 93 109
-6.37302 0.663602 -1.82246 82 91 107
-6.36458 0.678507 -1.82025 87 95 110
-6.22227 0.962667 -1.8361 77 84 102
-5.96463 1.27813 -1.82559 83 83 101
-5.95622 1.29144 -1.82404 86 87 107
-5.60324 1.89276 -1.84355 98 93 100
-5.59472 1.90542 -1.84275 85 79 94
-5.59121 1.92029 -1.84431 84 79 91
-5.5829 1.94109 -1.84508 82 80 93
-5.56754 1.95063 -1.84115 83 81 94
-4.95032 2.91538 -1.85256 82 81 97
-4.94459 2.93035 -1.85489 75 75 93
-4.9298 2.94763 -1.85487 77 80 95
-4.91245 2.95335 -1.85092 80 82 96
-4.90227 2.96478 -1.8509 81 82 95
-4.88206 2.96805 -1.84539 98 99 111
-4.84508 3.00644 -1.84454 90 88 103
-4.51297 3.56094 -1.8545 90 92 107
-4.4818 3.56101 -1.846 91 90 106
-4.471 3.57246 -1.84674 91 90 106
