-4.52891 -1.68448 -1.79297 70 85 114
-4.5316 -1.66998 -1.7922 70 85 114
-4.8281 -1.37152 -1.82055 76 91 120
-4.84436 -1.35229 -1.82503 76 93 123
-4.91098 -1.06725 -1.78109 78 94 120
-5.04015 -0.926381 -1.79032 77 75 88
-5.2326 -0.686182 -1.80108 90 83 73
-5.67436 -0.0592747 -1.80409 70 82 105
-1.94936 -5.2934 -1.76201 116 112 115
-2.15529 -5.00208 -1.76516 69 79 94
-2.33728 -4.73862 -1.76451 67 77 95
-2.53409 -4.50185 -1.77789 64 74 91
-2.54409 -4.48802 -1.77502 63 75 91
-2.58855 -4.33809 -1.75819 63 75 91
-2.60847 -4.34375 -1.76404 63 74 92
-2.83151 -4.09983 -1.78447 65 77 93
-3.0427 -3.75908 -1.77748 67 78 96
-3.05367 -3.75029 -1.77748 66 77 95
-3.43395 -3.24928 -1.79186 70 81 99
-3.44989 -3.24555 -1.79576 70 81 101
-3.46311 -3.22879 -1.79498 73 84 102
-3.46855 -3.21455 -1.79264 67 80 99
-3.47788 -3.20419 -1.79264 68 83 103
-4.16124 -2.24118 -1.80125 158 172 200
-4.17068 -2.23026 -1.80281 156 173 198
-4.17395 -2.20757 -1.79969 160 173 199
-4.5308 -1.65419 -1.78991 69 84 113
-4.53251 -1.63149 -1.78761 69 84 113
-4.82993 -1.33224 -1.81756 76 93 123
-4.91326 -1.04388 -1.78036 76 93 119
-5.0418 -0.902494 -1.7896 131 125 137
-5.23306 -0.661258 -1.80038 124 121 121
-5.66613 -0.0414458 -1.80145 73 85 109
-2.13512 -4.99393 -1.75973 70 79 96
-2.32628 -4.75201 -1.76731 68 77 92
-2.5062 -4.49748 -1.77143 66 75 92
-2.79957 -4.10324 -1.77849 63 75 93
-2.81845 -4.10631 -1.78372 64 75 93
-3.01739 -3.77209 -1.77518 65 78 95
-3.0295 -3.76487 -1.77594 67 78 96
-3.39514 -3.27961 -1.78874 69 78 95
-3.42658 -3.28154 -1.79887 71 80 97
-3.41545 -3.25031 -1.7864 64 73 90
-4.19622 -2.20367 -1.80748 160 176 202
-4.18778 -2.18292 -1.80047 160 175 201
-4.19222 -2.16923 -1.79969 164 179 202
-4.22435 -2.16213 -1.8106 151 167 192
-4.5472 -1.62136 -1.7922 70 86 115
-4.55317 -1.60806 -1.79297 70 85 116
-4.84038 -1.31937 -1.82055 75 92 122
-4.8294 -1.30044 -1.81457 76 93 123
-4.91202 -1.02779 -1.77889 78 95 122
-4.91072 -1.01172 -1.77743 80 97 124
-5.04927 -0.887795 -1.79175 79 71 84
-5.04018 -0.870089 -1.78744 83 78 87
-5.2417 -0.645667 -1.80318 75 75 78
-5.67104 -0.0236611 -1.80343 75 87 111
-2.31068 -4.75509 -1.76591 69 78 93
-2.49696 -4.5129 -1.77502 64 75 92
-2.55265 -4.34974 -1.75525 64 73 90
-2.57516 -4.36048 -1.7633 65 74 91
-2.78101 -4.11514 -1.77849 61 75 94
-2.98607 -3.7892 -1.77288 64 75 93
-3.0015 -3.78656 -1.77594 66 77 95
-3.35269 -3.32611 -1.78951 69 80 98
-3.3687 -3.32281 -1.79341 69 80 98
-3.38743 -3.31174 -1.79575 67 78 96
-3.39069 -3.29501 -1.79185 69 80 97
-4.21244 -2.13972 -1.80203 157 172 200
-4.23629 -2.13626 -1.8106 156 171 197
-4.22759 -2.10746 -1.80203 161 170 193
-4.23012 -2.09282 -1.80047 153 161 181
-4.56782 -1.5978 -1.79756 69 86 116
-4.56748 -1.57438 -1.7945 70 85 114
-4.82928 -1.27662 -1.81233 75 92 122
-5.03472 -0.853088 -1.78456 87 87 90
-5.24844 -0.629807 -1.80527 81 78 84
-5.65706 -0.00590596 -1.79881 75 87 109
-2.11619 -5.01331 -1.7638 70 79 96
-2.29134 -4.76991 -1.768 70 78 92
-2.48682 -4.52661 -1.77789 63 75 91
-2.54333 -4.36349 -1.75818 65 74 91
-2.76793 -4.12144 -1.77774 62 74 96
-2.97824 -3.80225 -1.77517 66 77 95
-3.3219 -3.36484 -1.79185 72 80 99
-3.32419 -3.34686 -1.78717 73 81 100
-3.35054 -3.34413 -1.79419 73 81 100
-4.23426 -2.07903 -1.79969 157 165 184
-4.24654 -2.0694 -1.8028 154 164 182
-4.2489 -2.04657 -1.79969 150 163 180
-4.56807 -1.55918 -1.79297 70 87 117
-4.56687 -1.54339 -1.79067 70 87 117
-4.84315 -1.26464 -1.81681 75 92 122
-4.84806 -1.25017 -1.81756 77 92 121
-4.92185 -0.990151 -1.78036 79 95 120
-4.92044 -0.974069 -1.77889 81 94 120
-5.04887 -0.831444 -1.78887 157 146 130
-5.24306 -0.604201 -1.80247 66 62 64
-2.09991 -5.0156 -1.76244 71 80 97
-2.27275 -4.766 -1.76381 68 77 92
-2.46852 -4.52351 -1.77358 63 75 91
-2.52623 -4.37915 -1.76037 64 73 89
-2.74927 -4.14666 -1.78222 62 73 91
-2.76432 -4.14362 -1.78446 61 72 92
-2.94671 -3.819 -1.77287 63 76 93
-2.9568 -3.80903 -1.77211 64 75 93
-3.28571 -3.39778 -1.79107 70 81 99
-3.29353 -3.37496 -1.78639 67 78 98
-3.31208 -3.37469 -1.79185 68 79 97
-4.26935 -2.04094 -1.8067 155 168 185
-4.26834 -2.02459 -1.80358 148 161 180
-4.27872 -2.00576 -1.80436 56 65 95
-4.58551 -1.52649 -1.79603 71 87 118
-4.85487 -1.2282 -1.8183 77 92 121
-4.92079 -0.95835 -1.77816 82 95 121
-5.06347 -0.81787 -1.7939 100 75 74
-5.23107 -0.586299 -1.79757 79 70 71
-2.08873 -5.03197 -1.76651 69 80 96
-2.26746 -4.79298 -1.7722 68 75 91
-2.44555 -4.52881 -1.77142 64 76 92
-2.4987 -4.39002 -1.75891 63 75 91
-2.51076 -4.38131 -1.75818 64 73 90
-2.72676 -4.15191 -1.77923 62 73 90
-2.91935 -3.84151 -1.77364 65 76 95
-2.94407 -3.83949 -1.77899 64 77 94
-3.27192 -3.42408 -1.79496 69 81 97
-3.27332 -3.40476 -1.78951 70 81 99
-4.27428 -1.98783 -1.79969 30 39 71
-4.27473 -1.97233 -1.79735 32 38 77
-4.28819 -1.95502 -1.79968 45 58 77
-4.58594 -1.51127 -1.7945 70 87 117
-4.59686 -1.49951 -1.79756 71 88 118
-4.84889 -1.21088 -1.81457 78 93 122
-4.84826 -1.19499 -1.81307 77 92 121
-4.92803 -0.935962 -1.77962 86 96 123
-5.04682 -0.799051 -1.78671 88 67 77
-2.06011 -5.0246 -1.7604 71 81 98
-2.24642 -4.80416 -1.77289 59 63 79
-2.42572 -4.52216 -1.76567 66 76 93
-2.48748 -4.40033 -1.76037 63 75 91
-2.70224 -4.16728 -1.77922 63 74 92
-2.7173 -4.16443 -1.78147 60 72 88
-2.89578 -3.85663 -1.77287 60 72 88
-2.91338 -3.85743 -1.77746 65 77 93
-3.23268 -3.45362 -1.79262 68 80 96
-3.2367 -3.43711 -1.78872 70 79 96
-3.2516 -3.43305 -1.79184 68 79 97
-4.29519 -1.94265 -1.80046 48 58 72
-4.29548 -1.92713 -1.79812 43 55 70
-4.30238 -1.91472 -1.7989 44 52 66
-4.60127 -1.47778 -1.79679 73 88 119
-4.59977 -1.46198 -1.7945 73 90 120
-4.85474 -1.18093 -1.81456 77 92 121
-4.93558 -0.921562 -1.78181 83 95 121
-5.05153 -0.775741 -1.78743 75 60 71
-2.22929 -4.8035 -1.77009 62 68 82
-2.4218 -4.5492 -1.77429 65 74 90
-2.46003 -4.39587 -1.75378 62 73 91
-2.68154 -4.17548 -1.77773 64 75 93
-2.88028 -3.85879 -1.76981 63 74 89
-3.19911 -3.48968 -1.79417 69 80 97
-3.20093 -3.47042 -1.78872 68 80 96
-3.21468 -3.46513 -1.79106 68 80 97
-4.31394 -1.89643 -1.80046 43 52 66
-4.33585 -1.89079 -1.80825 43 52 65
-4.59999 -1.44674 -1.79297 73 89 121
-4.85941 -1.15843 -1.81456 76 91 120
-4.91748 -0.902527 -1.77376 79 92 119
-5.05494 -0.760275 -1.78815 119 105 105
-2.03312 -5.04469 -1.76379 72 80 98
-2.05563 -5.06037 -1.77195 71 80 97
-2.20859 -4.79414 -1.7638 72 77 91
-2.39484 -4.54578 -1.76854 67 76 91
-2.45042 -4.40939 -1.75671 65 74 91
-2.67012 -4.18465 -1.77847 63 75 91
-2.85673 -3.8869 -1.77363 65 76 94
-2.86913 -3.88026 -1.77439 66 78 94
-3.16835 -3.50754 -1.79105 68 79 97
-3.17462 -3.48223 -1.78482 66 77 95
-4.32251 -1.86916 -1.79968 40 47 63
-4.33387 -1.85073 -1.80124 41 48 67
-4.61778 -1.43704 -1.79909 73 89 121
-4.60954 -1.41142 -1.79296 73 88 119
-4.819 -1.13284 -1.79663 76 91 120
-4.94138 -0.891017 -1.78254 81 92 119
-5.05095 -0.74366 -1.78599 86 69 75
-2.19791 -4.80891 -1.76729 79 84 97
-2.3891 -4.5694 -1.77572 65 74 89
-2.43993 -4.42123 -1.7589 62 74 90
-2.64993 -4.20774 -1.7822 64 72 91
-2.65324 -4.18408 -1.77474 63 75 91
-2.84224 -3.89042 -1.77133 66 78 94
-3.14658 -3.52475 -1.79027 68 80 96
-3.15099 -3.50838 -1.78638 69 81 97
-4.34897 -1.84186 -1.80591 55 67 83
-4.34213 -1.82334 -1.80046 51 57 71
-4.34991 -1.80331 -1.80046 63 67 76
-4.6202 -1.39941 -1.79603 72 89 119
-4.62196 -1.38469 -1.79526 73 90 120
-4.87213 -1.13014 -1.81755 77 93 119
-4.85492 -1.10243 -1.80858 77 92 121
-4.93734 -0.866583 -1.77961 79 96 119
-5.06093 -0.721123 -1.78886 86 77 75
-2.0284 -5.08043 -1.77534 72 81 97
-2.36549 -4.55399 -1.76638 66 75 90
-2.42985 -4.45142 -1.76768 62 74 90
-2.81632 -3.91517 -1.77362 63 75 96
-2.8288 -3.90868 -1.77439 62 75 94
-3.10406 -3.54983 -1.78637 68 79 97
-3.11909 -3.5464 -1.78949 68 79 96
-3.12831 -3.53577 -1.78871 67 79 95
-3.69011 -2.78387 -1.80794 68 77 92
-3.6951 -2.77047 -1.80634 68 77 92
-3.71511 -2.74245 -1.80634 67 76 93
-3.72873 -2.73561 -1.80954 67 76 91
-3.72915 -2.71882 -1.80554 67 77 89
-3.74846 -2.70731 -1.80955 65 75 87
-3.75022 -2.6916 -1.80635 67 76 91
-3.76228 -2.68347 -1.80875 66 75 90
-3.76986 -2.67205 -1.80875 65 74 89
-3.7801 -2.65381 -1.80795 66 75 90
-3.78758 -2.62554 -1.80395 68 77 92
-4.3649 -1.79428 -1.80513 90 86 85
-4.35955 -1.77654 -1.80046 74 68 72
-4.62582 -1.36286 -1.79449 73 89 122
-4.85212 -1.08616 -1.80634 78 93 122
-4.94101 -0.851447 -1.78034 78 93 118
-4.94097 -0.835689 -1.77961 78 87 110
-5.06786 -0.706138 -1.79102 86 79 73
-1.99676 -5.06379 -1.76583 71 80 97
-2.17187 -4.80762 -1.7631 65 70 84
-2.34248 -4.55873 -1.76422 66 73 91
-2.40526 -4.43485 -1.75743 62 74 91
-2.61752 -4.22465 -1.78145 65 73 92
-2.63176 -4.22052 -1.78295 64 73 94
-2.78829 -3.92338 -1.76979 66 77 95
-2.80787 -3.9278 -1.77591 64 77 94
-3.0764 -3.57112 -1.78559 69 82 101
-3.09826 -3.5647 -1.78949 65 78 95
-3.57136 -2.9349 -1.80633 67 79 96
-3.58394 -2.92768 -1.80873 65 77 93
-3.59689 -2.91146 -1.80874 69 80 97
-3.59954 -2.89593 -1.80554 63 74 92
-3.61205 -2.88857 -1.80794 65 74 91
-3.62481 -2.87221 -1.80794 66 75 92
-3.63014 -2.85896 -1.80634 63 74 92
-3.63827 -2.84799 -1.80634 60 71 89
-3.65944 -2.83835 -1.81114 74 86 103
-3.6632 -2.82388 -1.80874 64 75 93
-3.67554 -2.8162 -1.81114 64 75 93
-3.68066 -2.80283 -1.80954 71 83 100
-3.7117 -2.76596 -1.81114 68 77 94
-3.79953 -2.65086 -1.81435 65 74 89
-3.80658 -2.61354 -1.80795 68 76 95
-3.81245 -2.60092 -1.80715 64 74 94
-3.81525 -2.5862 -1.80475 44 56 82
-3.83007 -2.5798 -1.80875 109 124 147
-3.84743 -2.56645 -1.81195 133 149 167
-3.84402 -2.54755 -1.80635 134 149 169
-3.84204 -2.52972 -1.80155 138 153 177
-3.85464 -2.51319 -1.80235 138 152 181
-3.87391 -2.50954 -1.80875 149 163 189
-3.87942 -2.49673 -1.80795 152 166 190
-3.88265 -2.47401 -1.80395 159 173 197
-3.89573 -2.46615 -1.80715 156 170 195
-3.89799 -2.45131 -1.80475 155 169 195
-4.36941 -1.76527 -1.80279 53 52 68
-4.3752 -1.7444 -1.80201 45 52 66
-4.63102 -1.34917 -1.79526 73 89 122
-4.6415 -1.33699 -1.79832 72 88 121
-4.87814 -1.07657 -1.81605 77 92 121
-5.05815 -0.688745 -1.7867 86 76 74
-1.98578 -5.08168 -1.77058 70 80 96
-2.16669 -4.83619 -1.77219 72 75 90
-2.33273 -4.57375 -1.76782 66 73 92
-2.39707 -4.45158 -1.76182 62 73 91
-2.59884 -4.22059 -1.77623 62 72 90
-2.7766 -3.94453 -1.77438 66 77 98
-3.05882 -3.59348 -1.78793 73 84 102
-3.06934 -3.58448 -1.78793 72 83 101
-3.50367 -3.02118 -1.80713 70 83 101
-3.50409 -3.00335 -1.80233 68 81 98
-3.52426 -2.99359 -1.80633 69 82 101
-3.52869 -2.97937 -1.80393 68 80 99
-3.53997 -2.97115 -1.80553 71 82 102
-3.55033 -2.95276 -1.80393 70 81 99
-3.55878 -2.94207 -1.80393 69 80 98
-3.90949 -2.44238 -1.80715 155 170 193
-3.91858 -2.42351 -1.80635 156 170 196
-3.91136 -2.40281 -1.79915 156 172 197
-3.93986 -2.40441 -1.81036 158 172 197
-3.94408 -2.38253 -1.80716 159 173 200
-3.94915 -2.36953 -1.80635 158 173 202
-3.94478 -2.35082 -1.80075 162 177 207
-4.37475 -1.72884 -1.79968 42 49 65
-4.38107 -1.71606 -1.80045 39 47 67
-4.64128 -1.3217 -1.79679 71 88 121
-4.8787 -1.05312 -1.81456 76 91 121
-4.94216 -0.812204 -1.77888 86 98 122
-4.94201 -0.79645 -1.77814 90 96 120
-5.06868 -0.674245 -1.7903 87 76 82
-2.15163 -4.84043 -1.77149 84 87 102
-2.31462 -4.56998 -1.7635 65 74 91
-2.38557 -4.4616 -1.76328 62 74 91
-2.5841 -4.23966 -1.77996 62 73 91
-2.76502 -3.95239 -1.77438 65 76 94
-3.03421 -3.61874 -1.78948 69 81 98
-3.0369 -3.59964 -1.78403 69 81 97
-3.44565 -3.06988 -1.80152 69 83 109
-3.45986 -3.0645 -1.80472 76 91 115
-3.4673 -3.05287 -1.80392 75 87 109
-3.48491 -3.04093 -1.80633 72 84 106
-3.49225 -3.02924 -1.80553 75 88 108
-3.96913 -2.34122 -1.80796 161 178 205
-3.97406 -2.32816 -1.80716 164 180 207
-3.98211 -2.31694 -1.80796 163 179 205
-3.98221 -2.30106 -1.80475 163 178 204
-4.39687 -1.69926 -1.80435 47 55 69
-4.39454 -1.683 -1.80123 43 49 66
-4.64663 -1.30029 -1.79679 73 90 120
-4.64985 -1.28601 -1.79679 73 90 120
-4.87573 -1.03683 -1.81232 77 92 123
-4.86545 -1.01898 -1.80709 76 91 121
-4.94179 -0.7807 -1.77741 78 87 111
-5.05803 -0.648769 -1.78526 84 76 72
-1.97059 -5.08707 -1.77058 70 80 95
-2.12624 -4.84061 -1.76799 98 102 114
-2.31153 -4.6003 -1.77356 66 75 90
-2.367 -4.47488 -1.76474 65 73 89
-2.55644 -4.24917 -1.77771 65 76 94
-2.56984 -4.24362 -1.77846 62 74 91
-2.73162 -3.96561 -1.77132 65 78 95
-2.75242 -3.95865 -1.77361 64 75 93
-3.00045 -3.63208 -1.78481 68 80 96
-3.01796 -3.62032 -1.78559 69 80 97
-3.39925 -3.13888 -1.80632 83 98 127
-3.39899 -3.11985 -1.80072 74 89 118
-3.42083 -3.11211 -1.80552 80 94 121
-3.43109 -3.10311 -1.80632 85 99 125
-3.43599 -3.08908 -1.80392 73 88 112
-4.00646 -2.29106 -1.81196 169 183 210
-4.00488 -2.27424 -1.80796 167 181 209
-4.01753 -2.26562 -1.81116 166 180 209
-4.02255 -2.24446 -1.80876 166 182 208
-4.03036 -2.23305 -1.80956 167 183 209
-4.02532 -2.21446 -1.80396 169 183 209
-4.42127 -1.67824 -1.81136 47 53 69
-4.40688 -1.65725 -1.80279 44 49 70
-4.65837 -1.27316 -1.79908 74 91 121
-4.88228 -1.00705 -1.81306 77 92 123
-4.94456 -0.757493 -1.77741 90 91 110
-5.05367 -0.63225 -1.7831 147 132 116
-1.95023 -5.10398 -1.77397 71 80 93
-2.11254 -4.8482 -1.76868 106 110 121
-2.28096 -4.58763 -1.76422 66 73 91
-2.35698 -4.48817 -1.76767 65 73 92
-2.70149 -3.97 -1.76596 65 76 94
-2.72192 -3.97646 -1.77284 65 77 95
-2.98018 -3.65106 -1.78558 66 77 95
-2.99421 -3.64673 -1.78792 67 78 96
-3.34741 -3.17401 -1.79991 72 83 102
-3.35915 -3.16656 -1.80151 71 83 105
-3.37718 -3.15532 -1.80392 78 92 118
-3.37833 -3.13757 -1.79912 73 89 115
-4.03943 -2.20657 -1.80796 168 182 209
-4.02647 -2.17569 -1.79675 165 179 208
-4.03406 -2.16423 -1.79755 168 179 209
-4.02388 -2.14317 -1.78955 168 179 207
-4.41385 -1.63688 -1.80279 38 47 62
-4.42334 -1.62525 -1.80513 31 42 60
-4.65457 -1.24927 -1.79526 74 91 119
-4.84987 -0.976761 -1.79812 76 91 120
-4.94606 -0.742009 -1.77741 84 86 109
-5.06958 -0.618363 -1.78885 88 68 59
-1.93092 -5.09674 -1.76922 71 80 95
-2.09746 -4.85226 -1.76798 106 110 122
-2.26807 -4.59564 -1.76493 64 72 91
-2.34531 -4.49808 -1.76913 64 73 91
-2.53315 -4.28339 -1.78518 63 75 91
-2.53718 -4.25986 -1.77771 63 75 91
-2.94958 -3.66831 -1.78324 67 78 95
-2.97274 -3.6642 -1.78792 66 79 96
-3.31066 -3.22387 -1.80311 63 76 96
-3.31737 -3.21139 -1.80151 68 79 99
-3.32402 -3.19889 -1.79991 62 74 96
-3.34476 -3.19044 -1.80391 65 76 95
-4.04605 -2.13156 -1.79595 169 183 210
-4.07457 -2.13115 -1.80716 168 183 211
-4.05607 -2.10588 -1.79515 166 182 208
-4.06188 -2.08552 -1.79355 169 185 210
-4.41901 -1.60836 -1.80123 35 43 64
-4.43438 -1.59113 -1.80512 36 42 64
-4.66834 -1.23779 -1.79985 74 91 119
-4.66957 -1.22295 -1.79908 74 91 119
-4.8775 -0.967013 -1.80858 76 91 120
-4.94566 -0.726258 -1.77667 82 88 108
-5.06234 -0.593471 -1.78526 92 82 75
-2.25952 -4.61391 -1.76996 65 73 92
-2.32263 -4.50275 -1.76693 65 72 90
-2.51029 -4.27068 -1.77621 63 75 91
-2.68341 -4.00789 -1.77513 62 73 91
-2.68842 -3.98928 -1.76978 64 75 93
-2.9323 -3.69143 -1.78636 66 77 95
-2.94642 -3.68731 -1.7887 66 77 95
-3.26985 -3.25029 -1.79831 67 79 95
-3.28304 -3.24449 -1.80071 67 79 95
-3.29752 -3.23994 -1.80391 65 77 99
-4.06921 -2.07389 -1.79435 171 187 212
-4.07162 -2.05974 -1.79275 171 185 212
-4.08378 -2.05056 -1.79595 172 188 214
-4.44374 -1.57937 -1.80746 37 43 65
-4.44096 -1.56314 -1.80434 36 44 67
-4.66909 -1.20001 -1.79679 74 91 119
-4.87967 -0.951917 -1.80858 73 88 117
-4.9434 -0.710255 -1.77521 80 86 107
-5.06521 -0.577881 -1.78597 92 82 73
-1.91966 -5.11447 -1.77397 72 81 96
-2.07943 -4.87137 -1.77218 102 106 118
-2.23418 -4.61291 -1.76565 65 76 92
-2.31245 -4.51593 -1.76986 67 73 91
-2.50273 -4.28757 -1.78069 62 74 90
-2.67069 -4.01386 -1.77437 63 74 92
-2.91666 -3.70573 -1.78713 62 75 93
-3.20807 -3.27368 -1.7863 68 80 96
-3.2213 -3.26814 -1.7887 65 78 94
-3.25595 -3.28515 -1.8047 67 79 96
-3.26424 -3.26397 -1.80071 67 79 95
-4.08438 -2.02764 -1.79195 169 185 211
-4.10138 -2.0208 -1.79755 169 185 211
-4.10688 -2.00821 -1.79755 170 184 211
-4.44922 -1.54321 -1.80512 42 51 73
-4.67379 -1.18608 -1.79755 73 90 120
-4.95871 -0.688751 -1.78033 80 86 98
-5.08836 -0.564652 -1.7946 91 81 70
-1.89346 -5.11325 -1.77057 72 81 96
-2.06035 -4.86481 -1.76728 100 102 114
-2.2305 -4.64316 -1.77571 63 75 90
-2.29759 -4.51894 -1.76839 65 73 91
-2.48414 -4.29965 -1.78144 61 73 89
-2.65605 -4.01662 -1.77207 65 76 94
-2.89267 -3.71968 -1.78557 66 79 98
-2.90897 -3.71871 -1.78947 66 79 98
-3.16569 -3.29736 -1.7807 67 79 96
-3.17771 -3.29065 -1.7823 68 79 97
-3.18845 -3.28256 -1.7831 68 80 97
-4.12206 -1.99248 -1.80075 172 184 212
-4.15056 -1.99098 -1.81196 174 187 213
-4.1444 -1.97267 -1.80635 172 184 209
-4.45498 -1.5301 -1.8059 44 55 75
-4.45896 -1.51636 -1.8059 51 62 84
-4.66949 -1.1699 -1.79449 73 90 120
-4.69025 -1.15994 -1.80214 74 89 120
-4.95447 -0.672489 -1.77813 76 83 102
-5.0679 -0.538309 -1.78597 142 121 103
-1.87816 -5.11833 -1.77057 70 82 96
-2.04917 -4.87921 -1.77078 96 98 113
-2.2039 -4.61825 -1.76277 66 75 91
-2.27867 -4.53182 -1.76985 66 73 92
-2.45291 -4.30179 -1.77621 67 78 95
-2.46727 -4.29826 -1.7777 63 74 92
-2.62702 -4.03678 -1.77283 62 75 92
-2.6398 -4.03096 -1.7736 64 75 93
-2.86588 -3.74215 -1.78635 64 75 93
-2.87581 -3.73228 -1.78557 66 78 95
-3.13906 -3.33819 -1.78549 71 80 97
-3.14872 -3.32888 -1.7855 67 78 97
-3.16232 -3.3135 -1.7847 70 81 100
-4.14454 -1.94963 -1.80235 179 186 213
-4.1581 -1.94078 -1.80635 176 183 210
-4.45595 -1.50016 -1.80278 49 61 85
-4.47785 -1.48492 -1.80979 53 65 88
-4.67328 -1.13306 -1.79296 72 89 119
-4.95755 -0.657197 -1.77886 85 91 110
-5.0632 -0.521864 -1.78381 87 73 67
-2.03274 -4.87954 -1.76868 93 95 108
-2.20075 -4.65019 -1.77355 66 75 92
-2.26151 -4.52963 -1.76619 67 74 93
-2.61236 -4.03935 -1.77054 60 71 89
-2.84171 -3.75572 -1.78479 72 83 100
-2.85485 -3.75047 -1.78635 67 78 96
-3.14401 -3.36389 -1.79509 72 81 98
-4.16004 -1.92643 -1.80475 168 176 204
-4.16689 -1.9144 -1.80555 158 167 190
-4.1667 -1.89135 -1.80155 158 166 184
-4.47472 -1.46872 -1.80667 54 68 88
-4.67956 -1.11952 -1.79449 75 90 121
-4.95236 -0.632978 -1.77593 89 90 104
-5.06212 -0.505841 -1.78309 75 66 61
-1.8645 -5.12875 -1.77261 72 80 99
-2.00994 -4.88607 -1.76797 107 110 122
-2.17191 -4.64019 -1.76564 66 75 92
-2.2361 -4.50868 -1.75449 67 74 93
-2.4375 -4.32028 -1.77994 62 74 90
-2.57945 -4.05275 -1.76824 60 73 93
-2.59504 -4.05191 -1.7713 62 73 91
-2.82466 -3.76807 -1.78479 67 79 95
-3.11892 -3.40732 -1.80149 67 78 94
-3.12397 -3.39257 -1.79829 67 79 95
-3.13258 -3.38194 -1.79749 70 79 96
-3.55771 -2.7318 -1.79337 71 81 98
-3.56973 -2.72459 -1.79583 68 77 94
-3.57179 -2.70931 -1.79255 69 79 94
-3.60511 -2.7103 -1.80484 69 78 93
-3.59279 -2.68361 -1.79337 68 77 92
-3.609 -2.67961 -1.79829 68 77 92
-3.60797 -2.66202 -1.79338 68 77 92
-3.63121 -2.6547 -1.79993 67 76 91
-3.62862 -2.636 -1.7942 67 76 91
-3.64766 -2.63397 -1.80075 65 75 87
-3.64325 -2.60539 -1.79174 66 76 88
-3.65207 -2.59553 -1.79256 65 75 87
-3.6594 -2.58454 -1.79256 67 77 89
-3.67108 -2.5768 -1.79502 66 73 89
-3.68681 -2.56346 -1.79748 66 76 94
-3.68372 -2.54482 -1.79174 39 52 78
-3.70713 -2.54552 -1.80075 99 115 141
-3.69757 -2.51384 -1.78929 137 151 177
-3.72987 -2.52072 -1.80321 149 161 185
-3.71762 -2.49575 -1.79256 149 160 188
-3.74646 -2.49151 -1.80239 147 161 188
-3.74149 -2.47186 -1.79584 150 164 190
-3.74332 -2.44097 -1.78929 153 168 193
-4.1668 -1.87626 -1.79915 159 168 185
-4.17518 -1.86493 -1.80075 153 161 182
-4.16468 -1.83746 -1.79195 80 87 113
-4.48024 -1.45549 -1.80745 53 64 89
-4.48453 -1.43414 -1.80667 71 86 109
-4.959 -0.618113 -1.77813 85 86 98
-5.07581 -0.491347 -1.78812 91 85 84
-1.99479 -4.88978 -1.76727 112 115 127
-2.16296 -4.65825 -1.77067 65 74 91
-2.2325 -4.53693 -1.764 65 73 92
-2.41031 -4.33039 -1.77844 62 73 91
-2.4231 -4.3237 -1.77844 62 73 90
-2.57211 -4.06798 -1.77206 62 73 93
-2.79933 -3.77983 -1.78245 65 78 95
-2.81665 -3.78083 -1.78713 66 77 95
-3.09251 -3.42887 -1.80069 69 77 96
-3.09767 -3.41417 -1.79749 68 77 94
-3.45935 -2.84763 -1.79009 66 78 96
-3.4661 -2.8361 -1.78927 67 79 97
-3.49072 -2.8401 -1.7991 68 79 97
-3.48945 -2.81255 -1.79091 66 77 94
-3.50023 -2.80449 -1.79255 67 79 95
-3.50961 -2.7952 -1.79337 67 78 95
-3.51758 -2.7847 -1.79337 68 78 95
-3.54667 -2.78294 -1.8032 67 77 94
-3.54055 -2.76067 -1.79501 68 79 95
-3.55404 -2.75471 -1.79828 67 74 90
-3.76042 -2.46888 -1.80239 152 166 193
-3.75398 -2.42401 -1.78929 151 169 194
-3.75472 -2.40858 -1.78602 151 169 195
-3.80536 -2.42676 -1.80976 153 169 195
-4.17799 -1.82832 -1.79595 17 26 59
-4.17448 -1.81179 -1.79195 40 48 77
-4.48472 -1.41914 -1.80511 71 86 109
-4.49359 -1.40699 -1.80745 80 94 118
-4.95638 -0.602133 -1.77666 80 85 97
-2.14565 -4.65549 -1.76708 66 74 95
-2.20312 -4.52565 -1.75521 64 75 93
-2.38507 -4.32865 -1.77321 62 74 90
-2.55464 -4.08034 -1.77282 64 75 93
-2.78526 -3.79657 -1.78479 64 77 93
-3.04767 -3.44938 -1.79429 72 83 101
-3.06191 -3.43447 -1.79349 68 80 97
-3.08374 -3.43938 -1.80149 68 80 97
-3.40475 -2.92284 -1.79254 63 74 92
-3.43197 -2.92991 -1.804 66 79 98
-3.42009 -2.9013 -1.79172 65 78 97
-3.43431 -2.88722 -1.79254 65 76 94
-3.46433 -2.89641 -1.80565 67 78 96
-3.45077 -2.8667 -1.79254 65 78 97
-3.83919 -2.33688 -1.8024 163 177 203
-3.84724 -2.32623 -1.80322 166 177 205
-3.85736 -2.30875 -1.80322 163 177 203
-3.84369 -2.28448 -1.79257 163 179 204
-3.85158 -2.2738 -1.79339 165 181 207
-4.17932 -1.79892 -1.79194 42 52 73
-4.19367 -1.78247 -1.79515 53 59 73
-4.49939 -1.38615 -1.80745 78 92 119
-4.95001 -0.585748 -1.77373 62 69 84
-5.06797 -0.466633 -1.78452 132 133 137
-1.98279 -4.90224 -1.77007 110 112 123
-2.19784 -4.55045 -1.76326 64 75 93
-2.37306 -4.3369 -1.77396 61 73 89
-2.54173 -4.08585 -1.77206 63 76 93
-2.76789 -3.82033 -1.78868 65 76 94
-2.77201 -3.80155 -1.78323 65 77 93
-3.03461 -3.47575 -1.79908 69 80 98
-3.04234 -3.46398 -1.79748 68 81 98
-3.33263 -2.98165 -1.78516 69 80 100
-3.35174 -2.98182 -1.79172 67 78 96
-3.36231 -2.96436 -1.79008 69 80 98
-3.38677 -2.96935 -1.79991 68 79 98
-3.38594 -2.95056 -1.79418 66 77 95
-3.41644 -2.95152 -1.80482 67 78 96
-3.8832 -2.26965 -1.80486 165 182 208
-3.86927 -2.24552 -1.79421 165 182 208
-3.89421 -2.24513 -1.80404 166 183 209
-3.8848 -2.22391 -1.79585 167 183 209
-3.91011 -2.21556 -1.80404 165 180 209
-4.20516 -1.7724 -1.79835 55 54 70
-4.23353 -1.76935 -1.80955 57 54 70
-4.49063 -1.36836 -1.80199 79 93 120
-4.49761 -1.35557 -1.80355 74 89 116
-5.08341 -0.452187 -1.79027 133 135 143
-1.9568 -4.8997 -1.76587 103 105 117
-2.12921 -4.67641 -1.7721 66 73 92
-2.17711 -4.53938 -1.75594 65 75 93
-2.36338 -4.35014 -1.77694 62 74 90
-2.51677 -4.09835 -1.77129 63 74 92
-2.53151 -4.09616 -1.77358 65 76 91
-2.74755 -3.81445 -1.78167 65 77 93
-3.00654 -3.49514 -1.79748 68 80 96
-3.01552 -3.48486 -1.79668 68 79 97
-3.30503 -3.03737 -1.79253 62 75 100
-3.33069 -3.04418 -1.80318 72 86 111
-3.32328 -3.00899 -1.79008 72 87 111
-3.33323 -3.00039 -1.7909 70 83 105
-3.57147 -2.62587 -1.78777 68 78 90
-3.59328 -2.60129 -1.78943 65 74 89
-3.5977 -2.58835 -1.78777 66 75 90
-3.60646 -2.57865 -1.7886 66 75 90
-3.63216 -2.54071 -1.7886 67 76 91
-3.91781 -2.20461 -1.80486 170 183 210
-3.92232 -2.19179 -1.80404 171 182 210
-3.90816 -2.16018 -1.79175 172 183 211
-3.92991 -2.15741 -1.79994 168 184 210
-3.9232 -2.13823 -1.79339 171 187 213
-4.23931 -1.74905 -1.80875 78 77 83
-4.25411 -1.74014 -1.81355 97 89 87
-4.50632 -1.3433 -1.80589 75 92 122
-4.95924 -0.563259 -1.77666 68 73 96
-5.07097 -0.435099 -1.78524 128 133 142
-1.94223 -4.90499 -1.76587 103 107 119
-2.10655 -4.65959 -1.76276 68 78 91
-2.3513 -4.35832 -1.77769 66 75 92
-2.72492 -3.84351 -1.78634 64 75 93
-2.72923 -3.82479 -1.78088 65 76 94
-2.9749 -3.50999 -1.79348 68 79 97
-2.99753 -3.50539 -1.79828 70 80 97
-3.26613 -3.06368 -1.78761 79 95 121
-3.29555 -3.07467 -1.80072 80 94 121
-3.29499 -3.04586 -1.79171 69 83 109
-3.45318 -2.78185 -1.78693 66 78 94
-3.47243 -2.77224 -1.79107 65 77 93
-3.48032 -2.76189 -1.79107 68 78 95
-3.48253 -2.74689 -1.78776 68 79 95
-3.5031 -2.7382 -1.79273 62 73 89
-3.50522 -2.72317 -1.78942 67 75 91
-3.50585 -2.70701 -1.78528 71 78 94
-3.53058 -2.71018 -1.79522 64 74 91
-3.53396 -2.68758 -1.79025 67 79 95
-3.543 -2.67814 -1.79108 62 74 90
-3.5477 -2.66531 -1.78942 69 78 94
-3.57814 -2.66387 -1.80019 66 75 90
-3.5698 -2.64097 -1.79108 67 76 91
-3.59317 -2.61751 -1.79357 67 76 91
-3.6251 -2.56782 -1.79274 65 74 88
-3.63526 -2.55909 -1.7944 66 76 90
-3.65363 -2.53178 -1.7944 40 53 79
-3.65632 -2.51765 -1.79192 147 163 188
-3.67528 -2.51508 -1.79854 141 156 179
-3.67883 -2.49329 -1.7944 147 160 184
-3.67686 -2.476 -1.78943 149 162 188
-3.68979 -2.46909 -1.79275 148 162 189
-3.70121 -2.46109 -1.79523 153 167 193
-3.70443 -2.43927 -1.79109 152 166 193
-3.72031 -2.43423 -1.79606 152 167 193
-3.71654 -2.41594 -1.79027 153 167 194
-3.73616 -2.40519 -1.79524 153 169 195
-3.72922 -2.38493 -1.78778 155 169 195
-3.94196 -2.12572 -1.79831 172 186 212
-3.93508 -2.10659 -1.79175 172 186 213
-3.9552 -2.10262 -1.79912 171 185 212
-3.96098 -2.09059 -1.79912 170 184 210
-4.26381 -1.72908 -1.81595 64 56 67
-4.26259 -1.70592 -1.81195 47 47 59
-4.51181 -1.32239 -1.80588 72 87 118
-4.51513 -1.30843 -1.80588 71 86 116
-4.9546 -0.547113 -1.77446 79 83 108
-5.08142 -0.412106 -1.78883 125 129 145
-2.10669 -4.70189 -1.77785 68 77 94
-2.14245 -4.55244 -1.75521 66 75 92
-2.16451 -4.56711 -1.76399 66 75 92
-2.33153 -4.368 -1.77769 63 74 92
-2.48617 -4.11576 -1.77128 63 75 89
-2.50003 -4.11207 -1.77282 64 76 92
-2.71457 -3.85292 -1.78712 64 77 94
-2.96014 -3.53458 -1.79748 67 78 95
-2.96355 -3.51728 -1.79268 66 77 95
-3.22315 -3.10421 -1.78597 75 91 117
-3.26002 -3.1235 -1.80399 77 93 119
-3.2461 -3.09034 -1.78925 73 89 115
-3.28032 -3.09672 -1.80235 77 93 119
-3.39473 -2.86915 -1.79107 70 83 102
-3.3992 -2.84682 -1.7861 67 78 96
-3.41691 -2.84509 -1.7919 63 74 92
-3.42503 -2.83493 -1.7919 67 78 96
-3.43755 -2.81964 -1.7919 67 78 96
-3.43864 -2.80352 -1.78776 68 79 97
-3.44802 -2.79446 -1.78859 66 77 95
-3.75718 -2.38765 -1.79938 161 173 199
-3.75163 -2.36839 -1.79275 159 173 199
-3.76195 -2.35142 -1.79275 157 173 199
-3.77003 -2.34106 -1.79358 158 174 200
-3.77502 -2.32872 -1.79275 162 176 202
-3.79439 -2.31743 -1.79772 163 177 203
-3.80391 -2.30791 -1.79938 164 178 205
-3.78403 -2.28013 -1.7853 165 179 206
-3.80014 -2.26679 -1.78861 170 181 209
-3.79864 -2.25059 -1.78447 167 181 207
-3.95878 -2.06637 -1.79339 171 183 209
-3.98687 -2.06652 -1.80486 174 187 213
-3.98451 -2.05005 -1.80076 171 183 209
-4.2688 -1.69344 -1.81275 56 60 71
-4.27326 -1.68025 -1.81275 45 51 62
-4.53252 -1.29866 -1.81212 74 89 118
-4.961 -0.532132 -1.77665 99 98 120
-5.07999 -0.396051 -1.78811 108 112 134
-1.93865 -4.94208 -1.77846 106 110 121
-2.07474 -4.68254 -1.76635 67 75 94
-2.13041 -4.56171 -1.75667 66 75 92
-2.31551 -4.36765 -1.7747 63 74 92
-2.4688 -4.11288 -1.76669 62 74 91
-2.69313 -3.8584 -1.784 63 76 93
-2.93278 -3.55475 -1.79667 68 79 97
-2.9487 -3.54181 -1.79668 68 80 96
-3.19338 -3.1587 -1.79334 65 77 100
-3.19873 -3.14529 -1.79088 58 72 98
-3.21406 -3.14246 -1.79498 66 80 105
-3.23564 -3.13611 -1.79989 66 82 109
-3.34301 -2.93646 -1.79272 79 90 108
-3.34604 -2.92164 -1.78941 67 80 99
-3.35438 -2.91172 -1.78941 67 80 99
-3.36136 -2.90056 -1.78858 77 90 109
-3.37554 -2.8868 -1.78941 73 85 107
-3.38243 -2.87558 -1.78858 71 83 105
-3.82044 -2.24852 -1.79276 167 182 207
-4.00297 -2.03699 -1.80568 175 184 213
-3.99886 -2.01968 -1.80076 172 181 210
-4.00277 -2.00665 -1.79994 174 183 212
-4.28111 -1.66838 -1.81435 45 49 61
-4.28125 -1.64591 -1.81114 43 49 61
-4.52896 -1.27503 -1.80822 73 90 118
-5.00326 -0.51274 -1.79276 93 96 111
-5.10636 -0.382245 -1.79817 88 94 115
-1.9155 -4.92252 -1.76866 100 103 114
-2.30412 -4.37737 -1.77619 62 75 91
-2.45369 -4.12965 -1.76975 62 74 90
-2.66546 -3.86605 -1.7801 64 75 93
-2.68272 -3.86771 -1.78478 62 75 92
-2.90645 -3.5646 -1.79267 67 78 95
-2.91794 -3.55753 -1.79347 65 77 94
-3.15099 -3.18068 -1.78678 67 78 96
-3.16881 -3.18079 -1.79252 68 79 99
-3.17675 -3.1701 -1.7917 68 80 102
-3.29708 -2.98304 -1.79106 69 82 102
-3.30767 -2.96591 -1.7894 68 79 97
-3.31615 -2.95612 -1.7894 68 79 96
-3.32194 -2.94383 -1.78775 69 81 97
-4.05831 -2.01272 -1.82369 176 186 213
-4.01678 -1.97612 -1.79994 173 185 211
-4.03028 -1.96802 -1.80404 172 184 208
-4.27872 -1.63007 -1.80794 42 50 63
-4.29329 -1.62072 -1.81274 41 49 62
-4.99846 -0.496508 -1.79056 115 120 126
-1.90088 -4.95328 -1.77775 105 104 118
-2.04296 -4.68323 -1.76204 68 75 94
-2.06604 -4.70213 -1.7721 68 75 94
-2.1175 -4.58929 -1.76472 65 73 92
-2.28578 -4.39019 -1.77768 64 76 92
-2.44068 -4.1348 -1.76898 60 71 89
-2.64693 -3.87595 -1.77932 65 77 94
-2.88664 -3.59453 -1.79747 67 78 98
-2.88932 -3.57586 -1.79187 66 77 95
-3.11456 -3.20886 -1.78432 66 77 93
-3.13848 -3.21596 -1.79415 64 75 93
-3.13674 -3.19455 -1.78678 64 75 94
-3.25654 -3.02528 -1.79022 70 82 106
-3.25609 -3.00679 -1.78443 70 81 103
-3.27598 -2.99867 -1.78857 75 87 107
-3.28851 -2.99276 -1.79106 71 84 103
-4.03725 -1.95655 -1.80486 173 185 211
-4.044 -1.93725 -1.80404 175 184 212
-4.04925 -1.92492 -1.80404 174 185 212
-4.2863 -1.5957 -1.80634 40 48 61
-4.29561 -1.58434 -1.80874 39 47 60
-5.00284 -0.481151 -1.79202 89 92 101
-5.07012 -0.355457 -1.78379 46 50 72
-2.09836 -4.58126 -1.75886 65 72 91
-2.27579 -4.40321 -1.78067 64 76 92
-2.43107 -4.14645 -1.77128 62 74 91
-2.6307 -3.90213 -1.78477 63 74 92
-2.64029 -3.89141 -1.78321 65 76 94
-2.86455 -3.60987 -1.79667 67 78 96
-2.87505 -3.60149 -1.79667 68 79 99
-3.08841 -3.22889 -1.78268 67 76 93
-3.12466 -3.23979 -1.79743 68 77 92
-3.21413 -3.06559 -1.78856 71 86 115
-3.22036 -3.05355 -1.78691 74 89 118
-3.24039 -3.0457 -1.79105 72 87 113
-3.24655 -3.03359 -1.7894 70 84 110
-3.94133 -2.07412 -1.80518 173 183 211
-4.05283 -1.91175 -1.80322 174 186 212
-4.06426 -1.89478 -1.80486 171 183 209
-4.07267 -1.88396 -1.80649 175 184 213
-4.31524 -1.57671 -1.81594 40 48 61
-4.26834 -1.53746 -1.79113 39 47 60
-5.08338 -0.340529 -1.78882 38 39 64
-1.88793 -4.96372 -1.77985 104 105 116
-2.03738 -4.71151 -1.77138 67 76 93
-2.08275 -4.58178 -1.75667 67 74 93
-2.26052 -4.40433 -1.77843 64 76 92
-2.41801 -4.15152 -1.77051 63 74 92
-2.62296 -3.91598 -1.78789 63 74 94
-2.84723 -3.62091 -1.79587 67 79 96
-3.07925 -3.25796 -1.78923 69 78 94
-3.1007 -3.26264 -1.79742 69 78 95
-3.17245 -3.10652 -1.78773 74 90 115
-3.17632 -3.09197 -1.78442 70 86 111
-3.18902 -3.08653 -1.78691 71 88 114
-3.20529 -3.07503 -1.78856 80 95 124
-3.95506 -2.05873 -1.80767 169 184 207
-3.97195 -2.05267 -1.81347 173 188 211
-3.97916 -2.04145 -1.81429 176 188 214
-3.94922 -2.0109 -1.79607 175 185 212
-3.95299 -1.99041 -1.79359 175 184 212
-4.0761 -1.87073 -1.80567 174 187 215
-4.08278 -1.85906 -1.80649 171 184 210
-4.31546 -1.53962 -1.81114 40 48 61
-5.00234 -0.457423 -1.79129 87 90 100
-5.10217 -0.3259 -1.79601 57 57 83
-1.86556 -4.94567 -1.77076 103 105 117
-2.00768 -4.69693 -1.76204 67 76 93
-2.07607 -4.60467 -1.76398 67 76 93
-2.24229 -4.39859 -1.7732 63 75 91
-2.40009 -4.16314 -1.77127 65 73 92
-2.59479 -3.90984 -1.77931 63 76 95
-2.81635 -3.62413 -1.78866 68 80 96
-2.83232 -3.62329 -1.79266 70 82 98
-3.03726 -3.29965 -1.79005 67 79 95
-3.04207 -3.28519 -1.78677 66 78 94
-3.06584 -3.2929 -1.7966 66 78 94
-3.07179 -3.27975 -1.79414 66 78 94
-3.13928 -3.13761 -1.7869 70 85 108
-3.14582 -3.12575 -1.78525 68 82 109
-3.15971 -3.11188 -1.78525 69 83 109
-3.96488 -1.9817 -1.7969 177 184 212
-3.96863 -1.96883 -1.79607 176 187 211
-4.0907 -1.84034 -1.80649 169 180 208
-4.07746 -1.81935 -1.79748 170 181 206
-4.08895 -1.80995 -1.80076 172 177 203
-4.32118 -1.52687 -1.81194 41 48 64
-4.32339 -1.51289 -1.81114 39 48 65
-5.00477 -0.441863 -1.79202 79 84 97
-5.08746 -0.308938 -1.79025 55 58 82
-2.0025 -4.72691 -1.77209 70 77 95
-2.04846 -4.59577 -1.75666 64 73 89
-2.37721 -4.17961 -1.7728 65 74 90
-2.38363 -4.16152 -1.76745 62 73 91
-2.57164 -3.92465 -1.77931 64 75 95
-2.58511 -3.92044 -1.78087 64 77 96
-2.79264 -3.649 -1.79106 66 79 98
-2.81293 -3.65423 -1.79826 69 80 98
-3.00465 -3.31195 -1.78431 71 80 95
-3.02129 -3.31154 -1.78923 70 79 94
-3.11121 -3.15519 -1.78359 65 77 97
-3.124 -3.14016 -1.78276 71 83 106
-3.98845 -1.95642 -1.80187 177 189 212
-3.98723 -1.94106 -1.79856 176 187 212
-3.99412 -1.92973 -1.79939 176 185 213
-4.10327 -1.79422 -1.80404 160 166 189
-4.08813 -1.77264 -1.79421 170 173 193
-4.33137 -1.49341 -1.81194 40 50 62
-4.33174 -1.47881 -1.81034 41 51 62
-5.00898 -0.426436 -1.79348 74 76 91
-1.82665 -4.95271 -1.76866 103 105 118
-1.85173 -4.97984 -1.78125 107 107 119
-1.9797 -4.70768 -1.76203 67 74 92
-2.0342 -4.59956 -1.75593 65 74 91
-2.22672 -4.41794 -1.77767 63 75 91
-2.56123 -3.9484 -1.78554 63 74 92
-2.7873 -3.66457 -1.79506 66 79 98
-2.98939 -3.34508 -1.79086 67 78 96
-3.01364 -3.3432 -1.79741 74 86 102
-3.08488 -3.19361 -1.78772 67 79 95
-3.09048 -3.17066 -1.78193 80 91 111
-3.1132 -3.17631 -1.79104 62 73 95
-4.00073 -1.9107 -1.79856 176 186 213
-4.01407 -1.90247 -1.8027 176 186 212
-4.01591 -1.88868 -1.80104 173 185 211
-4.11781 -1.77134 -1.80649 112 113 141
-4.09531 -1.73912 -1.79175 48 55 77
-4.1066 -1.72952 -1.79503 50 58 71
-4.339 -1.46656 -1.81193 41 51 63
-5.00388 -0.41027 -1.79128 80 85 100
-5.10476 -0.286064 -1.79672 113 117 128
-2.01795 -4.5981 -1.753 66 75 92
-2.19982 -4.42829 -1.77693 63 75 91
-2.21656 -4.43081 -1.78066 63 75 91
-2.34433 -4.19255 -1.77127 66 75 90
-2.35584 -4.18443 -1.7705 66 75 90
-2.54864 -3.95411 -1.78476 64 75 93
-2.76112 -3.68623 -1.79586 65 76 94
-2.76977 -3.67519 -1.79426 64 75 93
-2.97335 -3.36672 -1.79332 67 79 95
-2.96583 -3.33681 -1.78104 69 81 97
-3.04737 -3.20966 -1.7811 64 76 92
-3.06514 -3.21023 -1.78689 65 77 93
-3.07075 -3.19721 -1.78441 66 78 92
-4.02101 -1.87645 -1.80104 171 181 208
-4.02734 -1.85731 -1.80021 173 184 209
-4.03397 -1.8458 -1.80104 174 184 211
-4.12458 -1.72279 -1.80158 51 57 71
-4.11577 -1.70436 -1.79502 49 52 66
-4.36242 -1.45216 -1.81994 41 51 63
-4.36265 -1.4375 -1.81834 40 49 64
-5.01233 -0.387213 -1.79421 88 94 108
-5.08246 -0.268773 -1.78809 129 133 142
-1.81928 -4.98076 -1.77775 100 102 116
-1.96441 -4.73322 -1.76921 67 73 89
-2.33278 -4.20062 -1.77203 65 74 91
-2.53418 -3.95659 -1.78242 65 76 94
-2.7187 -3.67205 -1.77985 67 75 94
-2.75034 -3.69423 -1.79586 64 75 93
-2.93589 -3.37259 -1.78431 69 81 97
-2.96165 -3.38396 -1.79577 71 80 97
-3.01672 -3.24334 -1.78275 65 76 94
-3.02608 -3.23453 -1.78275 66 78 94
-3.04023 -3.23115 -1.78606 66 78 93
-4.03728 -1.83275 -1.80021 174 182 211
-4.03664 -1.79596 -1.79359 176 186 213
-4.13636 -1.69118 -1.80158 45 48 60
-4.13075 -1.67424 -1.79666 46 50 66
-4.35585 -1.42059 -1.81353 41 50 65
-4.36645 -1.40932 -1.81673 41 50 65
-5.01267 -0.371458 -1.7942 110 117 131
-5.09177 -0.25336 -1.79168 129 133 145
-1.94543 -4.72437 -1.76347 69 76 94
-2.00439 -4.62531 -1.76105 68 76 89
-2.184 -4.44747 -1.7814 63 75 91
-2.51711 -3.96901 -1.7832 64 77 94
-2.68625 -3.68406 -1.77585 62 74 90
-2.70631 -3.68988 -1.78305 64 75 92
-2.9151 -3.38818 -1.78349 71 81 97
-2.93965 -3.39829 -1.79413 69 81 97
-2.9892 -3.26107 -1.78026 68 77 93
-3.01409 -3.27025 -1.79103 66 75 92
-4.03481 -1.78067 -1.79027 171 181 206
-4.05896 -1.76957 -1.79856 168 179 199
-4.15368 -1.66935 -1.80567 42 45 62
-4.16574 -1.65234 -1.80813 58 58 70
-4.35999 -1.38515 -1.81113 40 49 64
-1.9356 -4.74192 -1.76849 70 77 95
-1.98679 -4.62025 -1.75666 69 77 90
-2.16941 -4.44995 -1.77991 64 76 91
-2.29896 -4.21151 -1.76973 63 75 91
-2.31137 -4.20519 -1.76973 65 74 91
-2.48909 -3.97527 -1.7793 63 75 91
-2.50265 -3.97137 -1.78086 62 75 92
-2.68062 -3.69941 -1.77985 65 76 94
-2.88774 -3.40639 -1.78185 65 76 94
-2.91444 -3.41958 -1.79413 67 78 96
-2.96509 -3.28271 -1.78026 69 78 95
-2.99156 -3.28359 -1.78854 70 79 94
-4.04868 -1.75061 -1.7911 166 174 193
-4.05501 -1.73897 -1.79193 116 114 142
-4.05795 -1.72588 -1.7911 39 41 77
-4.14647 -1.62987 -1.79666 46 48 61
-4.17103 -1.6254 -1.80649 42 48 60
-4.37048 -1.37381 -1.81433 41 50 65
-4.37393 -1.36025 -1.81433 39 49 61
-5.10137 -0.229895 -1.79527 130 137 149
-1.97055 -4.6186 -1.75373 69 76 92
-2.15974 -4.46439 -1.78364 66 75 92
-2.28576 -4.21611 -1.76897 65 74 91
-2.4827 -3.99201 -1.78398 63 75 91
-2.67007 -3.72015 -1.78465 65 76 94
-2.86357 -3.4287 -1.78266 69 80 98
-2.88672 -3.42633 -1.7884 68 79 97
-2.93994 -3.31262 -1.78274 70 80 96
-2.9612 -3.31804 -1.79102 68 80 96
-2.95441 -3.28992 -1.77943 70 78 96
-4.09033 -1.71797 -1.80353 53 59 73
-4.07143 -1.69558 -1.79193 58 61 73
-4.15751 -1.59806 -1.79666 41 49 60
-4.38824 -1.34256 -1.81833 40 50 63
-5.08261 -0.213027 -1.78808 127 135 146
-1.90804 -4.73196 -1.76131 69 78 92
-1.95562 -4.62038 -1.75226 68 74 90
-2.13528 -4.46279 -1.77916 66 75 92
-2.27254 -4.22067 -1.7682 63 72 90
-2.46189 -3.99773 -1.78164 62 73 91
-2.64426 -3.72939 -1.78145 66 77 97
-2.6521 -3.71716 -1.77905 63 76 95
-2.84467 -3.4467 -1.78348 67 78 98
-2.86239 -3.44863 -1.78921 68 79 97
-2.90969 -3.32679 -1.7786 68 80 96
-2.93087 -3.3324 -1.78688 70 79 96
-4.08933 -1.68876 -1.79855 50 53 62
-4.08297 -1.66446 -1.79193 43 49 61
-4.1888 -1.59608 -1.80976 41 49 62
-4.17262 -1.57521 -1.79993 39 49 62
-4.19371 -1.56903 -1.80812 41 49 62
-4.37229 -1.32314 -1.80952 41 51 63
-4.38085 -1.31114 -1.81192 41 51 63
-5.01205 -0.316175 -1.79347 112 119 134
-1.90396 -4.76711 -1.77352 65 76 91
-2.12137 -4.46682 -1.77841 67 76 91
-2.2503 -4.22323 -1.76514 66 74 95
-2.45269 -4.00956 -1.78397 61 72 90
-2.63648 -3.75461 -1.78865 63 74 96
-2.82884 -3.4804 -1.79085 70 81 99
-2.84005 -3.47366 -1.79167 70 82 98
-2.91493 -3.35358 -1.78936 67 79 95
-4.10082 -1.65749 -1.79855 42 48 64
-4.09675 -1.64154 -1.79441 45 49 61
-4.17982 -1.54185 -1.79829 39 49 59
-4.38616 -1.29073 -1.81192 42 51 66
-5.01959 -0.300813 -1.79639 107 113 130
-1.87983 -4.74205 -1.7613 66 76 89
-1.93533 -4.62992 -1.75299 62 70 83
-2.10951 -4.47596 -1.7799 77 84 98
-2.2402 -4.23437 -1.76743 65 73 94
-2.43732 -4.01004 -1.78086 62 74 90
-2.63846 -3.78219 -1.79904 61 73 95
-2.80743 -3.49523 -1.79002 73 84 102
-2.80574 -3.47092 -1.78102 72 83 101
-2.86898 -3.36867 -1.78108 71 80 97
-2.89578 -3.38169 -1.7935 67 76 93
-2.89076 -3.35486 -1.78273 69 78 95
-4.10106 -1.62901 -1.79441 52 54 66
-4.10787 -1.61019 -1.79441 44 49 64
-4.20769 -1.53811 -1.80976 40 48 61
-4.19632 -1.51939 -1.80239 39 49 61
-4.41576 -1.28473 -1.82393 42 51 68
-1.86745 -4.75235 -1.76346 66 73 89
-1.93106 -4.66129 -1.76397 67 74 91
-2.09759 -4.48507 -1.78139 78 84 98
-2.22772 -4.24044 -1.76743 62 73 93
-2.41994 -4.022 -1.78163 65 74 91
-2.60542 -3.78035 -1.79024 64 75 94
-2.6264 -3.78824 -1.79824 61 74 93
-2.77996 -3.49109 -1.78102 72 84 101
-2.86032 -3.37838 -1.7819 68 79 97
-4.11208 -1.59762 -1.79441 42 48 60
-4.2163 -1.50514 -1.80894 39 48 61
-4.22533 -1.49408 -1.8114 38 48 60
-1.90857 -4.64192 -1.75372 68 75 91
-2.39866 -4.04054 -1.78397 66 75 92
-2.41234 -4.03698 -1.78553 66 75 90
-2.59134 -3.7962 -1.79264 64 75 93
-2.76379 -3.51302 -1.78429 70 81 99
-2.77829 -3.51096 -1.78757 71 80 97
-2.82541 -3.40709 -1.7819 66 79 96
-2.83641 -3.40037 -1.78273 67 80 97
-2.84852 -3.39504 -1.78439 67 80 99
-4.13659 -1.59295 -1.80435 42 48 61
-4.12625 -1.56744 -1.79607 41 49 60
-4.2326 -1.48234 -1.81303 39 49 61
-4.21069 -1.46003 -1.80075 42 52 64
-1.85548 -4.78992 -1.77567 67 73 89
-2.07454 -4.48657 -1.77841 71 78 92
-2.20852 -4.24947 -1.76743 62 73 91
-2.38158 -4.03752 -1.77929 65 75 92
-2.56852 -3.78502 -1.78304 63 75 94
-2.73245 -3.52536 -1.78019 66 77 97
-2.75428 -3.53388 -1.7892 73 84 102
-2.82006 -3.43229 -1.78935 67 80 99
-4.13712 -1.55739 -1.79938 42 48 62
-4.13606 -1.5428 -1.79689 40 48 60
-4.23389 -1.44672 -1.80894 40 47 63
-1.83104 -4.76282 -1.76274 64 73 87
-1.88632 -4.64598 -1.75226 69 78 95
-2.05991 -4.48866 -1.77691 69 76 91
-2.18572 -4.26643 -1.76972 62 74 91
-2.19904 -4.26218 -1.77049 61 74 91
-2.36489 -4.05085 -1.78085 63 74 92
-2.57392 -3.81881 -1.79664 62 75 94
-2.71598 -3.54703 -1.78347 69 80 100
-2.7357 -3.55268 -1.79084 69 80 100
-2.78581 -3.42958 -1.77858 69 80 100
-2.79906 -3.4259 -1.78107 67 80 99
-4.1544 -1.52823 -1.80269 39 49 61
-4.15152 -1.51299 -1.79938 39 46 62
-4.22555 -1.42946 -1.8032 39 46 64
-4.24985 -1.42367 -1.81303 41 48 64
-1.8163 -4.76586 -1.76202 62 70 83
-1.87319 -4.65272 -1.75299 68 77 92
-2.04924 -4.50108 -1.7799 72 79 95
-2.35037 -4.0526 -1.77851 62 73 91
-2.54357 -3.83405 -1.79504 61 74 93
-2.55959 -3.83454 -1.79904 61 74 92
-2.76255 -3.45243 -1.78024 67 78 96
-2.78129 -3.45615 -1.78686 67 78 97
-4.15714 -1.50089 -1.80021 37 46 61
-4.173 -1.49246 -1.806 39 48 65
-4.23329 -1.39634 -1.80238 41 51 63
-4.22993 -1.38097 -1.79911 39 49 61
-1.85882 -4.6559 -1.75225 69 78 93
-2.02619 -4.50231 -1.77691 66 73 90
-2.1679 -4.27863 -1.77125 65 75 92
-2.34171 -4.06578 -1.78163 66 77 95
-2.52755 -3.8335 -1.79103 63 74 92
-2.6814 -3.55437 -1.77691 66 78 94
-2.71444 -3.57978 -1.79493 65 76 96
-2.74711 -3.45302 -1.7761 67 78 96
-4.15173 -1.46353 -1.79275 40 49 64
-1.79512 -4.77477 -1.76273 69 77 91
-2.15231 -4.2777 -1.76819 64 76 92
-2.32319 -4.07565 -1.78163 62 74 90
-2.52486 -3.85484 -1.79823 70 81 99
-2.65802 -3.57805 -1.77937 65 76 96
-2.69348 -3.59532 -1.79493 65 76 94
-2.72364 -3.47557 -1.77775 68 79 97
-2.75317 -3.48292 -1.78852 69 81 97
-4.19494 -1.46467 -1.8118 41 50 62
-4.16606 -1.44045 -1.79606 43 51 63
-1.83951 -4.6685 -1.75445 68 77 92
-2.01932 -4.52507 -1.78437 69 75 92
-2.13969 -4.28348 -1.76819 63 74 91
-2.31276 -4.08547 -1.78318 64 76 92
-2.48678 -3.85703 -1.79023 67 78 96
-2.49995 -3.85305 -1.79183 66 79 96
-2.63406 -3.58864 -1.77691 68 79 97
-2.65865 -3.60237 -1.78837 64 76 94
-2.70441 -3.49259 -1.77858 64 75 93
-2.72306 -3.49666 -1.7852 66 77 95
-4.17542 -1.42245 -1.79772 41 47 62
-1.76505 -4.77876 -1.76058 78 84 100
-1.79072 -4.81157 -1.77566 63 70 86
-1.82453 -4.6698 -1.75298 69 78 95
-2.00589 -4.53044 -1.78437 65 70 89
-2.12704 -4.28922 -1.76818 62 74 90
-2.30065 -4.09196 -1.78318 64 75 91
-2.47826 -3.86885 -1.79263 66 77 94
-2.62787 -3.61519 -1.78509 67 78 96
-2.6866 -3.50119 -1.77692 67 78 96
-4.18764 -1.41256 -1.80186 42 48 62
-4.20675 -1.40491 -1.80931 45 53 66
-1.81014 -4.67282 -1.75225 67 78 94
-1.9796 -4.52271 -1.77765 65 72 90
-2.10979 -4.30286 -1.77048 62 74 91
-2.27959 -4.09666 -1.78084 66 74 93
-2.4599 -3.87784 -1.79183 65 74 91
-2.61926 -3.62575 -1.78673 66 77 95
-2.66929 -3.52096 -1.7794 67 78 96
-2.68372 -3.51928 -1.78271 65 76 94
-4.2125 -1.38554 -1.80931 41 51 64
-4.2039 -1.36865 -1.80351 41 50 65
-1.75721 -4.8048 -1.76919 67 72 88
-1.79746 -4.68108 -1.75371 68 78 94
-1.96305 -4.51921 -1.77391 68 75 93
-2.09207 -4.29658 -1.76512 61 72 90
-2.26825 -4.1047 -1.78162 65 73 92
-2.45035 -3.88801 -1.79343 62 74 90
-2.60098 -3.64526 -1.78919 66 77 95
-2.60372 -3.62555 -1.78264 65 76 94
-2.65138 -3.52936 -1.77774 66 77 95
-4.19697 -1.35237 -1.79854 41 50 65
-4.18824 -1.3356 -1.79274 41 50 65
-2.08722 -4.32092 -1.77353 63 75 91
-2.25528 -4.10938 -1.78084 62 74 90
-2.43621 -3.8902 -1.79103 62 73 91
-2.58453 -3.65636 -1.78918 65 77 93
-2.63795 -3.55495 -1.78354 66 77 95
-2.63903 -3.53391 -1.77609 65 76 94
-1.73584 -4.81343 -1.76991 65 71 87
-1.78196 -4.70577 -1.76103 69 78 93
-1.95712 -4.54535 -1.78287 67 74 92
-2.24467 -4.119 -1.7824 62 74 90
-2.4027 -3.89944 -1.78702 64 75 93
-2.41866 -3.90056 -1.79102 63 74 92
-2.56019 -3.66638 -1.78673 63 74 92
-2.56605 -3.65135 -1.78263 65 77 93
-2.62348 -3.55642 -1.78022 64 76 94
-1.76522 -4.70156 -1.75737 70 77 93
-1.93993 -4.54001 -1.77839 65 72 90
-2.06203 -4.31558 -1.76741 63 75 91
-2.22356 -4.12339 -1.78006 63 75 91
-2.39575 -3.91424 -1.79102 63 74 92
-2.53694 -3.6664 -1.78099 63 76 93
-2.59405 -3.57043 -1.77774 67 79 97
-2.60951 -3.5706 -1.78188 67 79 96
-1.91564 -4.53714 -1.77391 66 75 92
-2.04929 -4.32107 -1.76741 61 72 92
-2.21756 -4.14293 -1.78629 64 74 90
-2.38515 -3.92263 -1.79182 63 74 92
-2.53097 -3.68137 -1.78509 63 76 93
-2.58963 -3.58689 -1.7827 67 78 96
-1.75521 -4.71854 -1.76249 73 83 95
-1.90338 -4.54566 -1.7754 66 74 93
-2.04069 -4.33678 -1.772 61 72 91
-2.19827 -4.13407 -1.77928 63 73 90
-2.36744 -3.93273 -1.79182 63 75 91
-2.52114 -3.69011 -1.7859 65 76 94
-2.55604 -3.59449 -1.7769 65 77 93
-2.57349 -3.59789 -1.7827 67 78 96
-1.72888 -4.70938 -1.7559 72 79 93
-1.89229 -4.55766 -1.77839 65 74 92
-2.01557 -4.33116 -1.76588 61 72 90
-2.18099 -4.14657 -1.78083 64 73 90
-2.35325 -3.93459 -1.78942 63 75 91
-2.5026 -3.69767 -1.78426 64 76 93
-2.54948 -3.60783 -1.78022 66 78 94
-2.00279 -4.33649 -1.76588 63 74 92
-2.16945 -4.15431 -1.78161 63 72 89
-2.34083 -3.93962 -1.78862 64 75 93
-2.47253 -3.69768 -1.77689 65 76 94
-2.49926 -3.71728 -1.79081 65 77 93
-2.53598 -3.61044 -1.77773 64 75 93
-1.71331 -4.70851 -1.7537 72 79 97
-1.86745 -4.55275 -1.77316 65 73 92
-2.15635 -4.15864 -1.78083 64 74 91
-2.31957 -3.94304 -1.78542 64 75 93
-2.48392 -3.74238 -1.79654 65 76 92
-2.50719 -3.62519 -1.77607 69 80 98
-2.5207 -3.6227 -1.77856 66 77 95
-1.69991 -4.7147 -1.75444 71 78 97
-1.85393 -4.55761 -1.77316 65 73 92
-1.97849 -4.35046 -1.76741 64 73 90
-1.99537 -4.35553 -1.772 62 73 91
-2.29897 -3.96092 -1.78781 64 76 92
-2.31747 -3.96737 -1.79421 63 74 92
-2.44588 -3.71663 -1.77771 64 76 92
-2.49949 -3.63688 -1.77855 65 76 94
-2.13591 -4.16422 -1.77927 63 74 92
-2.42497 -3.73196 -1.77853 63 75 91
-2.44231 -3.73616 -1.78426 63 75 91
-2.47737 -3.63813 -1.77359 65 76 94
-1.84389 -4.573 -1.77764 67 74 93
-1.95946 -4.35998 -1.76817 65 74 91
-2.12727 -4.17856 -1.78317 61 74 91
-2.27854 -3.96572 -1.78541 60 71 89
-2.41895 -3.76121 -1.78835 63 75 92
-2.46175 -3.66134 -1.77855 64 76 90
-2.48101 -3.66835 -1.786 64 76 92
-1.81797 -4.56428 -1.77092 68 76 93
-1.95248 -4.38067 -1.77505 64 75 91
-2.1119 -4.17768 -1.78005 62 73 91
-2.26025 -3.98825 -1.79021 68 77 93
-2.27026 -3.97862 -1.78861 63 74 92
-2.39626 -3.74735 -1.7777 63 75 91
-1.80668 -4.57604 -1.7739 67 76 93
-1.93563 -4.37541 -1.77046 65 74 91
-2.1017 -4.18858 -1.78239 60 73 90
-2.24602 -3.98968 -1.78781 67 76 91
-2.37689 -3.76555 -1.78016 62 74 88
-2.39596 -3.77318 -1.78753 63 75 91
-2.42889 -3.66919 -1.77358 68 79 97
-2.45561 -3.68883 -1.78766 64 75 93
-2.07972 -4.19048 -1.77927 64 77 93
-2.42374 -3.68537 -1.77855 64 76 92
-1.79254 -4.57893 -1.77315 65 73 91
-1.91518 -4.38125 -1.76969 63 75 92
-2.06798 -4.1979 -1.78005 64 75 93
-2.21134 -3.99547 -1.78301 64 73 89
-2.23131 -4.00563 -1.79101 65 74 89
-2.3453 -3.77572 -1.77688 63 75 91
-2.36605 -3.78671 -1.78589 63 75 91
-2.4111 -3.68902 -1.77689 62 74 90
-1.78172 -4.59239 -1.77688 67 74 93
-1.89968 -4.37931 -1.76663 63 75 91
-2.05766 -4.20868 -1.78238 62 73 93
-2.20284 -4.00821 -1.78621 63 74 90
-2.34379 -3.79992 -1.78589 63 75 91
-2.38181 -3.70265 -1.77523 62 73 93
-2.39079 -3.69283 -1.77358 64 75 93
-1.88673 -4.38426 -1.76663 62 74 90
-2.31715 -3.79203 -1.77688 63 75 91
-2.37188 -3.71087 -1.77606 63 74 94
-1.75975 -4.5957 -1.77539 67 74 92
-1.87503 -4.39264 -1.76816 62 74 89
-2.03707 -4.21373 -1.78082 62 73 91
-2.18797 -4.02399 -1.7894 63 75 91
-2.31457 -3.81461 -1.78507 64 76 92
-2.36055 -3.73026 -1.78103 64 75 93
-1.74827 -4.6073 -1.77837 68 75 93
-2.02454 -4.21931 -1.78082 63 74 92
-2.17695 -4.03172 -1.7902 62 73 91
-2.29485 -3.80492 -1.77688 63 75 91
-2.34602 -3.73049 -1.77771 66 75 92
-1.72764 -4.58868 -1.76867 67 74 90
-1.85265 -4.39295 -1.7651 62 73 91
-2.01061 -4.22144 -1.77926 63 74 92
-2.16508 -4.03778 -1.7902 62 73 91
-2.2861 -3.83066 -1.78506 63 74 91
-2.33509 -3.73702 -1.77771 64 76 92
-1.84273 -4.40645 -1.76892 62 73 91
-2.00013 -4.23205 -1.7816 66 75 92
-2.15794 -4.05371 -1.795 61 74 91
-2.26393 -3.81595 -1.77442 62 73 91
-2.31646 -3.74355 -1.77605 63 75 92
-1.71046 -4.60771 -1.77389 66 75 90
-1.82971 -4.41121 -1.76892 63 75 92
-1.98288 -4.24536 -1.78393 64 76 92
-2.13179 -4.0461 -1.787 61 74 93
-2.26857 -3.85308 -1.78997 63 74 92
-2.30549 -3.74998 -1.77605 65 76 94
-1.96552 -4.23877 -1.77848 63 74 92
-2.12377 -4.06031 -1.791 60 73 90
-2.2415 -3.82848 -1.77442 62 73 91
-2.28696 -3.76911 -1.77936 61 73 90
-2.29451 -3.75637 -1.77605 63 75 91
-1.6999 -4.62273 -1.77837 67 76 93
-1.80792 -4.41302 -1.76663 64 76 92
-1.95293 -4.24411 -1.77848 63 74 92
-2.1126 -4.06784 -1.7918 61 72 90
-2.23733 -3.86386 -1.78751 61 74 91
-1.68719 -4.6306 -1.77986 67 76 93
-1.79488 -4.41766 -1.76662 67 76 90
-2.09805 -4.08491 -1.7958 64 75 93
-2.2 -3.84678 -1.77278 62 75 94
-2.21699 -3.85209 -1.77851 61 74 91
-2.25288 -3.77361 -1.77356 59 71 90
-2.26479 -3.76897 -1.77439 60 71 91
-1.67292 -4.63308 -1.77912 67 75 94
-1.93556 -4.25721 -1.78081 60 71 89
