-44.5461 16.1822 -0.989831 76 86 98
-44.0487 16.2266 -0.978226 76 86 98
-43.5978 16.2083 -0.967186 76 86 98
-43.1251 16.1785 -0.955528 77 86 101
-42.7013 16.1649 -0.94521 76 85 100
-42.2211 16.2006 -0.934017 78 87 102
-41.7929 16.179 -0.923544 75 84 99
-22.4119 16.0945 -0.580939 89 93 100
-22.2637 16.0868 -0.577334 88 88 96
-22.111 16.0746 -0.573553 90 91 100
-21.9382 16.0979 -0.569945 90 93 99
-21.794 16.0901 -0.566458 88 91 93
-21.6437 16.0766 -0.562736 96 97 108
-21.4686 16.0941 -0.559011 101 104 110
-21.3252 16.0838 -0.555524 97 102 108
-21.1851 16.0753 -0.552155 97 99 108
-21.0454 16.0661 -0.548785 98 100 107
-20.8745 16.082 -0.545178 101 103 112
-20.7383 16.0736 -0.541926 104 106 114
-20.5825 16.048 -0.53791 100 105 114
-20.4293 16.0748 -0.53495 104 105 114
-20.2986 16.068 -0.531875 110 109 122
-20.1619 16.0554 -0.528565 107 110 119
-19.6081 16.0399 -0.515909 105 106 113
-19.4596 16.0629 -0.513067 104 104 111
-19.3351 16.0551 -0.510169 111 112 119
-19.2034 16.04 -0.506976 109 113 118
-19.0571 16.0616 -0.504193 94 100 104
-18.9363 16.0544 -0.501412 98 101 103
-18.8141 16.0453 -0.498573 93 94 93
-18.67 16.0657 -0.495848 89 89 92
-18.5411 16.0484 -0.492715 91 88 94
-18.4241 16.0413 -0.490052 80 79 82
-18.2763 16.055 -0.487151 78 73 80
-18.1598 16.0467 -0.484488 87 86 87
-18.0493 16.0432 -0.482061 92 88 89
-17.9274 16.0282 -0.479163 92 91 89
-17.7878 16.0455 -0.476556 87 82 88
-17.6794 16.0417 -0.474187 85 78 85
-13.6323 16.6181 -0.408055 89 68 59
-13.4449 16.5305 -0.402686 82 73 64
-12.063 16.225 -0.371838 90 80 74
-12.0002 16.2425 -0.371234 80 69 61
-11.9351 16.2564 -0.370513 92 83 76
-11.8313 16.2668 -0.369082 98 90 71
-11.7816 16.3036 -0.369182 90 81 65
-13.9875 21.8629 -0.449239 83 73 80
-13.9592 21.9738 -0.451324 83 74 79
-13.297 21.7786 -0.438467 91 84 66
-12.311 21.2618 -0.414633 95 87 69
-12.2868 21.38 -0.417025 88 78 59
-10.21 20.2092 -0.366457 114 98 82
-10.0788 20.0881 -0.362228 108 91 73
-8.90582 19.5939 -0.338688 102 99 91
-8.86393 19.6703 -0.340105 108 105 96
-8.45688 19.2634 -0.326547 112 98 78
-8.38059 19.2471 -0.325451 108 99 78
-8.28056 19.2586 -0.32481 114 98 82
-8.25106 19.3672 -0.32715 117 101 86
-51.9537 11.3882 -1.13771 91 70 84
-49.4455 11.5432 -1.07559 125 101 124
-51.6885 16.1856 -1.16399 90 89 97
-51.055 16.2416 -1.14889 86 85 96
-50.455 16.2173 -1.13398 84 86 98
-49.888 16.2002 -1.11995 96 106 119
-49.6025 16.3587 -1.11428 115 128 144
-48.7208 16.227 -1.09164 89 103 121
-29.5882 11.4535 -0.697593 77 86 101
-26.4144 16.1246 -0.678099 75 83 96
-26.1985 16.0973 -0.672316 77 86 100
-25.9794 16.1217 -0.667296 75 86 99
-25.7927 16.1104 -0.662514 75 85 95
-25.6029 16.0958 -0.657614 81 84 97
-25.4218 16.0858 -0.653008 77 76 86
-25.2057 16.1057 -0.648047 81 82 90
-25.0468 16.108 -0.644207 77 84 95
-24.8501 16.0835 -0.639012 76 85 98
-24.6746 16.1265 -0.635464 76 84 94
-24.4753 16.0974 -0.630152 76 80 93
-24.3174 16.0959 -0.626312 77 81 92
-24.1019 16.1065 -0.621292 76 80 89
-23.9445 16.1029 -0.617452 78 80 92
-23.7793 16.0928 -0.613317 80 83 95
-23.5713 16.104 -0.608532 78 81 90
-23.4164 16.0988 -0.604751 81 83 92
-23.2602 16.0916 -0.60091 77 81 90
-23.0736 16.0611 -0.595952 79 82 91
-22.9088 16.0982 -0.592698 77 80 92
-22.7598 16.0931 -0.589093 77 82 94
-22.5839 16.0668 -0.584487 81 84 94
-14.7321 17.5611 -0.449738 173 112 89
-14.6385 17.5544 -0.447899 175 110 88
-13.5996 17.7781 -0.435093 90 78 78
-11.6867 17.2143 -0.390299 81 73 69
-11.583 17.2277 -0.389043 93 83 71
-11.5088 17.3529 -0.391064 83 73 71
-11.1354 17.1564 -0.380494 83 78 74
-10.7557 17.0588 -0.372433 81 76 78
-10.7695 17.275 -0.378165 95 83 75
-10.7057 17.2894 -0.377619 98 85 77
-10.5997 17.2264 -0.374489 96 89 71
-10.0601 17.1339 -0.364569 99 87 72
-11.1885 21.7341 -0.412568 99 89 80
-8.2492 16.3471 -0.320601 112 96 78
-8.18436 16.34 -0.319645 106 89 71
-8.10257 16.3639 -0.31933 97 83 70
-9.58881 21.1117 -0.381397 103 100 90
-9.27964 21.2124 -0.380845 108 96 78
-8.47252 20.1626 -0.348264 104 91 76
-59.4049 11.724 -1.32759 76 84 95
-54.4115 11.5022 -1.20028 111 86 107
-60.2594 15.2161 -1.36952 97 100 110
-59.8216 15.398 -1.35978 81 87 100
-59.8031 15.5901 -1.3606 78 82 94
-59.8264 15.7936 -1.36255 83 87 97
-59.793 16.0811 -1.36369 87 85 96
-59.8146 16.2852 -1.36564 86 86 96
-59.8141 16.9814 -1.37057 98 105 108
-59.8288 17.1855 -1.37242 88 93 99
-59.814 17.3813 -1.3735 85 86 96
-59.8024 17.8797 -1.37694 93 93 100
-59.7586 18.0677 -1.3773 75 74 80
-59.7751 18.3754 -1.38007 94 95 100
-59.7982 18.5851 -1.38228 92 91 99
-30.4687 16.1068 -0.780442 76 86 98
-30.1999 16.137 -0.773951 77 87 99
-29.9655 16.1249 -0.767756 78 88 100
-29.7262 16.1086 -0.761383 77 86 101
-29.4742 16.1421 -0.755422 80 89 102
-29.2219 16.1147 -0.748579 81 88 104
-29.0114 16.1101 -0.743149 78 85 100
-28.7571 16.1363 -0.73707 75 83 99
-28.5404 16.1248 -0.731404 76 85 100
-28.3276 16.1142 -0.725856 75 86 100
-28.1014 16.0942 -0.719837 77 86 100
-27.8691 16.1262 -0.714465 78 87 98
-27.6658 16.1169 -0.709211 75 84 95
-27.4544 16.1013 -0.703663 72 82 94
-27.2078 16.119 -0.697761 74 82 95
-16.1024 18.9035 -0.505693 75 48 58
-14.7204 18.8075 -0.478888 82 72 63
-14.5437 19.0026 -0.480531 75 65 63
-10.5889 17.4025 -0.37887 89 79 68
-10.4606 17.2965 -0.374331 89 76 68
-10.278 17.6909 -0.382045 100 91 78
-8.06351 16.417 -0.32031 110 93 80
-4.85792 10.5596 -0.216336 106 100 90
-54.7176 0.98247 -1.17528 164 171 196
-54.9269 1.15475 -1.1808 185 192 207
-64.5818 11.5293 -1.45782 78 90 106
-67.0597 15.2156 -1.53999 118 92 111
-66.0405 15.3021 -1.51489 108 78 102
-63.9029 15.2138 -1.46071 82 58 80
-63.1479 15.3398 -1.44257 119 77 103
-34.547 11.4357 -0.834171 58 70 87
-34.4724 11.5269 -0.832986 84 100 116
-34.6997 16.1744 -0.892043 77 86 101
-34.4002 16.1582 -0.883905 78 85 101
-33.4721 16.1465 -0.859253 79 85 99
-33.1744 16.123 -0.851114 80 86 97
-32.8626 16.1528 -0.843328 83 83 97
-32.5908 16.1383 -0.836014 80 77 83
-32.3265 16.126 -0.828935 88 91 100
-32.0249 16.1539 -0.821443 79 85 100
-31.7649 16.14 -0.814483 78 84 98
-31.5036 16.1237 -0.807463 78 86 99
-31.2297 16.1596 -0.800854 78 85 100
-30.9604 16.1351 -0.79354 75 84 99
-30.7231 16.1265 -0.787285 76 87 102
-17.8238 19.8962 -0.560344 95 92 89
-17.8077 20.0053 -0.5625 88 78 83
-17.702 20.0064 -0.560541 91 82 86
-17.6725 20.1645 -0.563573 95 89 92
-17.3188 19.8592 -0.550034 96 88 89
-17.391 20.0778 -0.556364 90 82 84
-17.6979 20.6582 -0.575325 102 67 65
-17.7649 20.8774 -0.581595 114 77 82
-16.5676 19.8142 -0.535215 174 105 84
-16.3513 20.1205 -0.538483 95 87 83
-15.7906 19.829 -0.52173 91 84 78
-15.7651 19.9264 -0.523591 88 76 74
-15.6246 19.9317 -0.521275 78 71 62
-15.2166 19.6286 -0.507016 77 67 63
-15.3159 19.9007 -0.515223 78 70 68
-15.1348 20.114 -0.517275 75 69 60
-14.9916 20.1103 -0.514782 72 65 59
-14.1372 20.0681 -0.499751 83 70 61
-12.6137 19.0712 -0.451103 83 73 72
-12.3728 19.0091 -0.445892 82 78 75
-10.2381 17.9617 -0.388578 94 81 64
-7.93404 17.1672 -0.339202 107 96 92
-7.88729 17.209 -0.339829 105 98 87
-4.83643 10.607 -0.217747 106 99 89
-4.80941 10.6393 -0.218559 111 102 98
-7.78173 17.3436 -0.342369 109 99 93
-7.65343 17.1721 -0.336309 118 108 98
-4.73819 10.598 -0.216219 109 97 88
-4.7149 10.6414 -0.217481 110 93 82
-6.4139 16.3725 -0.301912 110 95 73
-6.32922 16.3763 -0.301245 116 103 87
-8.23743 21.505 -0.378697 118 107 89
-39.5569 11.4362 -0.97465 87 89 100
-39.4617 11.6041 -0.97341 89 88 97
-39.6044 16.2241 -1.02424 84 86 98
-39.2163 16.2005 -1.01345 77 84 99
-38.838 16.1786 -1.00295 76 83 99
-38.4693 16.1586 -0.992756 74 81 97
-38.0684 16.1909 -0.982321 76 84 99
-37.7172 16.1732 -0.972651 80 90 102
-37.3683 16.1543 -0.963041 78 87 100
-37.0073 16.1953 -0.953842 82 92 104
-36.6739 16.1785 -0.944703 81 91 104
-36.3374 16.1581 -0.935445 79 88 103
-35.9814 16.1928 -0.926365 77 84 100
-35.6621 16.1756 -0.917637 79 87 100
-35.3487 16.1592 -0.909086 77 84 100
-35.005 16.1914 -0.900359 76 85 100
-17.6602 21.0173 -0.582907 176 107 88
-14.0485 20.07 -0.49838 84 74 64
-13.9327 20.0984 -0.497239 90 80 68
-13.8399 20.0927 -0.495634 87 77 66
-13.7208 20.0444 -0.492559 77 67 64
-13.6223 20.0982 -0.492358 71 62 60
-13.5897 20.1883 -0.4941 94 84 76
-12.9353 20.1099 -0.482165 78 70 74
-12.6725 19.9498 -0.474198 68 62 64
-12.535 19.9292 -0.471648 70 61 61
-12.5286 20.0657 -0.475034 88 78 74
-11.4899 19.3597 -0.442064 92 77 70
-11.3241 19.2686 -0.437401 93 82 70
-11.485 19.7252 -0.451471 88 78 68
-10.7398 19.4893 -0.435297 92 82 70
-10.62 19.4008 -0.431404 95 81 75
-10.3339 19.1989 -0.42238 98 85 80
-10.2103 19.0959 -0.418076 93 80 73
-10.1169 19.133 -0.417875 100 86 79
-10.0702 19.1919 -0.418853 96 82 72
-7.67522 17.3963 -0.342685 109 92 83
-7.64163 17.56 -0.346825 108 94 82
-7.59661 17.6104 -0.347746 112 96 83
-44.3713 10.9106 -1.10717 115 78 103
-40.8707 11.2223 -1.01001 95 94 102
-44.8287 16.2178 -1.16718 77 87 99
-44.3805 16.2051 -1.15468 76 86 98
-43.8569 16.2375 -1.1406 76 86 98
-43.406 16.2172 -1.12798 77 86 101
-42.9613 16.1965 -1.11555 81 90 105
-42.5189 16.1738 -1.10317 74 83 98
-42.0666 16.2185 -1.09126 77 86 101
-41.6458 16.1982 -1.07953 77 86 101
-40.3724 16.1884 -1.04469 77 86 101
-39.9981 16.176 -1.03438 73 76 90
-14.4317 11.3148 -0.450417 83 91 109
-14.3439 11.3118 -0.447849 77 84 102
-11.1216 19.8669 -0.450252 83 71 59
-11.1485 20.1588 -0.458267 92 83 70
-10.8311 20.075 -0.451921 88 74 72
-10.5005 20.2866 -0.45334 84 72 62
-10.1406 20.0892 -0.44365 99 89 74
-10.0167 19.9823 -0.439288 102 90 76
-8.99726 19.0544 -0.402345 113 96 78
-8.87163 18.92 -0.39728 111 94 78
-8.86229 19.0701 -0.40125 109 90 79
-8.55323 19.0863 -0.398292 113 100 93
-49.4167 11.6305 -1.2566 95 75 95
-44.483 10.7225 -1.10899 88 74 89
-50.8107 16.2637 -1.33395 90 92 99
-50.2165 16.2388 -1.31709 82 91 101
-49.7062 16.2384 -1.30283 80 90 101
-49.1623 16.2233 -1.28751 78 87 101
-46.8553 16.2432 -1.22352 69 73 85
-46.3504 16.2229 -1.20931 87 91 103
-45.8442 16.1989 -1.19505 78 85 101
-45.3281 16.2465 -1.18126 77 87 100
-10.5205 20.5012 -0.459306 104 92 83
-10.2834 20.2356 -0.449303 98 85 73
-9.97216 20.1392 -0.442958 96 78 65
-54.4114 11.6104 -1.39985 77 70 86
-49.4655 11.4821 -1.25696 79 70 86
-51.4673 16.2179 -1.35191 93 92 97
-9.35615 20.4772 -0.444993 94 81 75
-8.42622 20.0691 -0.42391 109 95 85
-8.357 20.1767 -0.426171 103 95 93
-59.4651 11.6684 -1.54591 77 83 95
-59.9514 15.2624 -1.584 70 77 93
-59.8028 15.5185 -1.5817 85 88 105
-59.7916 15.7126 -1.58287 96 100 111
-59.8105 15.9152 -1.58499 74 78 89
-59.7842 16.2046 -1.58652 90 89 96
-59.7958 16.406 -1.58846 90 87 98
-59.7726 17.0959 -1.59345 82 84 95
-59.8098 17.3067 -1.59627 90 88 98
-59.7856 18.0019 -1.60155 78 75 84
-59.7814 18.2022 -1.60319 96 95 98
-59.7609 18.4986 -1.60525 92 90 95
-59.7569 18.6999 -1.60695 94 92 97
-19.3535 11.3299 -0.600086 74 84 96
-19.2682 11.3558 -0.597894 77 87 99
-8.00457 20.5172 -0.43214 104 86 70
-7.90198 20.5342 -0.431644 113 97 82
-64.5437 11.6594 -1.69279 87 96 111
-4.83736 10.5572 -0.261731 100 90 92
-4.7903 10.5311 -0.260056 111 102 99
-4.7661 10.6257 -0.263448 112 102 88
-16.2302 15.3051 -0.602862 83 85 100
-16.1436 15.3136 -0.600818 89 91 106
-16.0211 15.2844 -0.59682 87 89 104
-15.9481 15.3539 -0.596801 84 90 104
-16.0369 15.5444 -0.604299 88 94 108
-16.0009 15.6053 -0.605035 85 89 102
-14.7916 15.416 -0.569105 109 135 96
-14.5828 15.3249 -0.561348 122 139 121
-14.505 15.3336 -0.55968 122 136 119
-14.4442 15.3617 -0.558988 139 145 134
-14.38 15.4344 -0.559494 123 133 86
-14.3204 15.4635 -0.558878 46 44 38
-14.2864 15.5229 -0.559763 83 80 90
-4.72422 10.6144 -0.262437 117 108 103
-24.5156 11.3454 -0.770371 78 87 102
-24.3933 11.376 -0.76675 78 87 102
-14.4003 11.2544 -0.518805 84 93 110
-14.3312 11.3032 -0.517958 80 92 108
-20.2473 16.0388 -0.732555 85 96 113
-20.1048 16.0209 -0.72803 82 91 108
-19.6947 16.0271 -0.71648 78 86 105
-19.5624 16.0141 -0.712406 83 92 109
-19.4052 16.029 -0.708329 80 89 106
-19.2958 16.0343 -0.705382 83 92 109
-19.1553 16.0112 -0.700857 80 89 106
-19.0063 16.0299 -0.697155 79 86 102
-18.8827 16.0199 -0.693457 79 87 101
-18.7637 16.0133 -0.689984 77 85 101
-18.6155 16.0294 -0.686283 77 89 101
-18.4926 16.0174 -0.682584 77 85 96
-18.367 16.0021 -0.678736 98 100 108
-18.2475 15.9916 -0.675188 74 69 77
-18.1104 16.0139 -0.672013 81 87 99
-17.9972 16.0076 -0.668766 77 89 101
-17.877 15.9938 -0.665143 77 85 98
-17.7491 16.022 -0.662418 78 86 99
-17.6279 16.0055 -0.65872 79 85 99
-17.517 15.9982 -0.655548 78 84 98
-17.3826 16.0172 -0.652448 84 92 103
-17.2664 16.003 -0.648975 82 88 100
-17.1589 15.9967 -0.645954 87 91 103
-17.0027 15.9906 -0.641651 84 86 101
-15.9948 15.7475 -0.608773 84 90 102
-16.1325 15.9951 -0.619126 80 87 100
-16.0339 15.9906 -0.61648 83 89 102
-15.909 16.0073 -0.613756 83 86 101
-15.8068 15.9973 -0.610885 84 86 101
-15.7034 15.9854 -0.607939 83 88 101
-15.5818 16.0029 -0.605364 82 89 96
-15.4735 15.9839 -0.602118 94 98 106
-15.3853 15.9868 -0.599998 85 106 87
-14.5567 15.9963 -0.57995 78 78 86
-14.4609 15.9843 -0.577305 79 79 86
-14.3705 15.9781 -0.57496 80 80 89
-14.2501 15.9858 -0.572311 79 79 91
-14.165 15.9848 -0.570267 83 83 93
-14.0776 15.9804 -0.568072 82 82 92
-13.9879 15.9724 -0.565728 82 80 92
-13.8707 15.9808 -0.563229 82 78 90
-13.7838 15.9751 -0.561034 78 69 78
-13.6959 15.9673 -0.558765 126 88 89
-13.583 15.9786 -0.556491 168 105 87
-13.4978 15.9732 -0.554372 176 105 81
-13.4164 15.9721 -0.552478 151 76 53
-13.304 15.9817 -0.550205 176 105 85
-13.2229 15.9797 -0.548311 167 107 86
-13.1336 15.9663 -0.545891 172 113 98
-13.0241 15.9774 -0.543768 87 76 86
-12.9364 15.9646 -0.541424 84 78 88
-12.8606 15.9675 -0.53983 84 76 89
-12.7791 15.9621 -0.537861 82 76 90
-12.6656 15.9646 -0.535438 82 80 91
-12.5844 15.9583 -0.533469 81 78 89
-12.5034 15.9517 -0.5315 81 78 87
-12.402 15.9688 -0.529827 83 80 87
-12.3167 15.9548 -0.527559 82 79 88
-12.2987 16.0372 -0.529719 82 81 89
-12.0297 16.0261 -0.523659 82 79 86
-11.8166 15.9827 -0.51784 82 81 90
-11.7226 15.9511 -0.514896 82 81 89
-11.6453 15.944 -0.513077 83 82 90
-11.5409 15.9496 -0.511104 82 80 90
-11.4661 15.9451 -0.509436 83 82 90
-24.422 16.0744 -0.858214 76 85 100
-24.2496 16.0625 -0.852635 76 86 98
-24.0524 16.0855 -0.847054 74 86 98
-23.879 16.0704 -0.841401 75 85 97
-23.7206 16.0648 -0.836424 76 86 98
-23.5381 16.0409 -0.830319 81 89 102
-23.3616 16.073 -0.82564 78 86 102
-23.1991 16.061 -0.820438 80 89 103
-23.0402 16.0506 -0.815386 80 89 103
-22.8484 16.0673 -0.809955 80 90 102
-22.7029 16.0645 -0.805505 81 91 104
-22.5368 16.0454 -0.800077 82 91 106
-22.3587 16.0681 -0.795248 79 88 104
-22.1981 16.0506 -0.790045 79 89 105
-22.0536 16.0445 -0.785595 82 91 106
-21.8685 16.0577 -0.78039 80 89 106
-21.7371 16.0596 -0.776541 78 87 104
-21.5777 16.0386 -0.771339 79 88 105
-21.4343 16.0292 -0.766888 82 91 108
-21.2722 16.0555 -0.762736 79 91 106
-21.1309 16.0456 -0.758361 81 90 107
-20.9836 16.03 -0.753685 83 92 109
-20.8191 16.0507 -0.749382 81 90 105
-20.6709 16.0321 -0.744631 86 95 111
-20.5414 16.0281 -0.740782 82 94 110
-20.3778 16.0457 -0.736479 81 93 109
-12.2753 16.1667 -0.533227 84 83 89
-12.1911 16.1535 -0.531033 84 82 89
-11.9632 16.0918 -0.524314 82 80 91
-11.3924 15.942 -0.507843 81 82 87
-11.295 15.9562 -0.506321 79 80 84
-11.2195 15.949 -0.504577 79 79 88
-11.1431 15.9398 -0.502759 79 81 88
-11.0428 15.9475 -0.501012 83 84 88
-10.9772 15.9546 -0.499944 85 86 90
-10.9023 15.9461 -0.498201 87 86 94
-10.8045 15.9558 -0.496604 91 88 97
-10.7258 15.9397 -0.49456 82 77 84
-10.6543 15.9353 -0.493042 83 76 83
-10.5882 15.9392 -0.4919 87 80 87
-10.4849 15.9369 -0.489852 80 75 80
-10.4189 15.9401 -0.48871 81 79 82
-10.3469 15.9327 -0.487117 81 79 82
-10.2501 15.9393 -0.485519 85 84 89
-10.1834 15.94 -0.484302 86 85 90
-10.1119 15.9316 -0.482709 85 84 90
-10.0165 15.9387 -0.481187 87 86 91
-9.94426 15.9279 -0.479519 86 86 88
-9.87511 15.9221 -0.478077 86 86 88
-9.78484 15.9366 -0.47693 86 88 94
-9.71686 15.9319 -0.475562 85 87 92
-9.64994 15.9287 -0.47427 87 87 94
-9.58219 15.9235 -0.472902 83 81 89
-29.5433 11.4506 -0.944982 78 87 104
-28.2488 16.0806 -0.97956 76 85 100
-28.0384 16.0698 -0.972552 76 86 99
-27.8202 16.1099 -0.966295 76 85 100
-27.5832 16.0799 -0.958085 75 84 99
-27.3874 16.0736 -0.951679 75 85 97
-27.1634 16.1049 -0.945121 77 86 100
-26.3444 16.0934 -0.918819 78 88 100
-26.1405 16.0736 -0.911961 78 85 101
-25.9487 16.0603 -0.905631 75 82 98
-25.7338 16.0855 -0.899373 78 88 100
-25.5377 16.0665 -0.892817 84 88 100
-25.3485 16.0509 -0.886562 78 77 86
-25.1512 16.0829 -0.881056 78 82 94
-24.9892 16.0829 -0.876004 75 84 99
-24.8076 16.0685 -0.87005 76 85 100
-24.6045 16.0921 -0.864243 76 85 100
-9.49321 15.9382 -0.47183 88 87 85
-9.42568 15.9324 -0.470463 87 85 86
-9.35734 15.9245 -0.46902 84 82 85
-9.26682 15.9345 -0.467798 89 87 92
-9.20055 15.9295 -0.466506 91 89 94
-9.13616 15.9279 -0.465364 89 88 93
-9.04683 15.9385 -0.464217 91 89 93
-8.97999 15.9309 -0.462849 90 89 94
-8.91152 15.9195 -0.461332 90 89 95
-8.82077 15.9253 -0.460035 91 90 95
-8.76037 15.9294 -0.459193 93 91 96
-8.70085 15.9352 -0.458426 91 89 95
-8.63713 15.9317 -0.457284 91 89 95
-8.54677 15.936 -0.455987 92 93 98
-8.48243 15.9301 -0.45477 91 90 96
-8.41652 15.9203 -0.453403 93 92 98
-31.9495 16.1265 -1.10205 78 88 100
-31.6953 16.1154 -1.09339 76 86 98
-31.431 16.0973 -1.08428 78 87 102
-31.1863 16.088 -1.07599 79 88 103
-30.8993 16.1144 -1.06695 76 86 99
-30.6677 16.1087 -1.05919 78 87 100
-30.4032 16.0834 -1.05 75 84 99
-30.1419 16.1174 -1.04202 78 88 100
-29.8835 16.0917 -1.03305 78 87 102
-29.6586 16.0832 -1.02552 77 86 101
-29.3828 16.1028 -1.01686 80 89 104
-29.1724 16.0993 -1.00992 79 88 103
-28.9486 16.0867 -1.00239 78 87 103
-28.7015 16.1169 -0.994929 74 83 100
-28.4921 16.1095 -0.987996 78 87 102
-19.3392 11.3347 -0.686749 75 84 99
-19.2556 11.3614 -0.684404 77 87 99
-8.32901 15.9289 -0.452331 91 90 94
-8.26581 15.924 -0.451189 91 92 94
-8.21082 15.9371 -0.450797 90 90 95
-8.12111 15.9391 -0.4495 96 96 99
-8.05419 15.9243 -0.447983 96 94 100
-7.99218 15.9203 -0.446916 96 93 102
-7.90524 15.9266 -0.445844 95 91 95
-7.8473 15.9312 -0.445152 97 93 96
-7.78401 15.9227 -0.443935 94 94 102
-7.72085 15.9139 -0.442718 96 98 106
-7.63806 15.9281 -0.442021 99 99 104
-7.57209 15.9114 -0.440504 93 93 98
-7.51525 15.9166 -0.439888 96 95 101
-34.4611 11.4185 -1.11811 75 87 102
-34.5072 11.5515 -1.12142 76 86 98
-35.8785 16.1552 -1.23519 76 85 100
-35.5419 16.1296 -1.2233 77 86 101
-35.2219 16.1098 -1.21208 77 86 101
-34.9186 16.0958 -1.20154 78 87 102
-34.603 16.1386 -1.19152 77 86 101
-33.6771 16.1334 -1.16012 77 86 101
-33.3868 16.1152 -1.15003 77 90 98
-33.0933 16.0936 -1.13978 79 86 102
-32.807 16.1362 -1.1309 75 75 84
-32.5179 16.1127 -1.1208 75 73 85
-32.2576 16.1022 -1.11192 79 85 97
-14.4985 14.2572 -0.608925 86 92 109
-7.42896 15.9205 -0.438816 97 93 99
-7.37219 15.9253 -0.438199 100 95 101
-7.30967 15.915 -0.436982 97 95 101
-7.22652 15.9252 -0.43621 102 100 105
-7.16705 15.9219 -0.435293 101 96 101
-7.10909 15.922 -0.434527 97 90 97
-7.02542 15.9294 -0.43368 103 96 101
-6.96481 15.9216 -0.432613 102 96 100
-6.90705 15.921 -0.431846 98 92 96
-6.85001 15.9222 -0.431154 96 94 97
-39.8796 16.1347 -1.37282 71 72 92
-39.4445 16.1648 -1.35814 82 86 97
-39.0885 16.1545 -1.34564 76 85 100
-38.7091 16.132 -1.33217 75 84 99
-38.3485 16.1151 -1.31944 76 85 100
-37.9649 16.1546 -1.3068 77 86 101
-37.6072 16.1339 -1.29415 79 88 103
-37.259 16.115 -1.28187 82 91 106
-36.8969 16.1551 -1.27005 83 92 109
-36.5569 16.135 -1.25808 83 92 109
-36.2302 16.1189 -1.24664 83 92 108
-24.4944 11.361 -0.875148 78 87 102
-16.3046 15.4011 -0.69542 86 91 103
-16.1691 15.3595 -0.69024 83 88 102
-16.066 15.3503 -0.686975 85 91 105
-15.9927 15.42 -0.686956 83 91 104
-16.0025 15.5286 -0.690523 83 89 105
-16.009 15.6345 -0.693922 85 90 106
-15.9998 15.774 -0.697901 85 92 110
-14.7843 15.4254 -0.653108 130 140 140
-14.5601 15.3158 -0.64351 139 156 149
-14.4824 15.3243 -0.641662 147 159 152
-14.4373 15.3705 -0.641896 163 168 143
-14.4117 15.4889 -0.644958 92 86 72
-14.321 15.4814 -0.642278 66 59 73
-14.2766 15.5287 -0.642595 63 60 75
-6.45111 15.919 -0.426094 102 98 99
-6.36819 15.9231 -0.425247 99 97 99
-6.30731 15.9091 -0.424031 102 98 99
-6.25148 15.9101 -0.423414 101 96 97
-6.17853 15.9435 -0.423767 100 98 95
-40.8712 11.0957 -1.34516 96 95 100
-40.9295 11.2466 -1.34885 96 95 104
-39.5547 11.4443 -1.30121 88 88 93
-44.6908 16.1714 -1.54203 79 88 103
-44.2192 16.1498 -1.52509 78 87 102
-43.7332 16.1197 -1.50756 78 87 102
-43.2636 16.1684 -1.49168 79 88 103
-42.8161 16.1464 -1.47564 80 89 104
-42.3729 16.1231 -1.45976 76 85 102
-41.9197 16.167 -1.44448 80 89 104
-41.498 16.146 -1.42943 78 87 101
-40.279 16.1576 -1.38705 77 87 99
-21.5595 16.0558 -0.8768 79 88 105
-21.4176 16.0473 -0.871951 78 90 106
-21.2415 16.062 -0.8666 77 89 105
-21.1018 16.053 -0.861834 79 88 105
-20.9546 16.037 -0.856652 81 90 107
-20.7918 16.0585 -0.851968 81 90 105
-20.6529 16.0472 -0.847203 80 92 106
-20.5127 16.0338 -0.842354 82 91 108
-20.3628 16.0627 -0.838336 85 94 109
-20.2201 16.0451 -0.833321 80 92 108
-20.0853 16.0333 -0.828722 81 93 109
-19.6754 16.0386 -0.815924 79 88 105
-19.5371 16.02 -0.811076 82 93 111
-19.3905 16.0437 -0.807141 82 94 110
-19.2617 16.0315 -0.802792 84 93 110
-19.1421 16.0267 -0.798944 78 87 104
-18.9902 16.0425 -0.794676 80 89 104
-18.8652 16.0309 -0.790494 80 90 102
-18.7448 16.0227 -0.786563 79 88 103
-18.5922 16.0344 -0.782211 79 88 99
-18.4796 16.0316 -0.778696 85 88 100
-18.3599 16.0215 -0.774765 80 75 84
-18.2391 16.0094 -0.77075 71 68 76
-18.0904 16.0204 -0.766565 81 89 102
-17.983 16.0194 -0.7633 80 84 98
-17.8614 16.0039 -0.759202 80 86 100
-17.7335 16.0319 -0.756184 79 88 101
-17.6139 16.0165 -0.752169 78 89 101
-17.4987 16.0048 -0.748405 81 88 104
-17.3658 16.0249 -0.745053 84 91 107
-17.2511 16.0119 -0.741288 81 87 103
-17.1465 16.0082 -0.738107 86 92 105
-17.0379 15.9998 -0.734675 84 90 102
-16.0207 15.9986 -0.705366 85 91 107
-15.8905 16.0091 -0.702015 83 88 102
-15.791 16.0019 -0.699 84 87 102
-15.6958 15.9987 -0.696235 85 89 101
-15.5886 15.9816 -0.692721 83 91 104
-15.4673 15.9983 -0.689869 88 92 104
-15.3686 15.9891 -0.686855 107 115 122
-14.5446 16.0017 -0.664894 75 70 70
-14.4438 15.9834 -0.661629 79 79 91
-14.356 15.9801 -0.659198 79 78 92
-14.2646 15.9718 -0.656517 80 81 93
-14.1596 15.9973 -0.654582 83 83 95
-14.0622 15.9803 -0.651484 82 81 94
-13.9738 15.9737 -0.64897 82 80 93
-13.8642 15.9914 -0.646701 89 83 94
-13.7687 15.9745 -0.643687 112 86 91
-13.6895 15.9776 -0.641756 102 55 59
-13.5742 15.9856 -0.639071 179 104 83
-13.483 15.9721 -0.636306 160 82 59
-13.403 15.9725 -0.634292 170 85 62
-13.2919 15.9835 -0.631857 161 89 70
-13.2109 15.9814 -0.629759 161 97 77
-13.1264 15.9742 -0.627411 165 109 91
-13.0362 15.9586 -0.624647 88 58 59
-12.9282 15.9707 -0.622378 84 77 86
-12.849 15.9687 -0.620364 83 77 89
-12.7664 15.9615 -0.6181 81 75 89
-12.6542 15.9655 -0.615498 84 78 88
-12.5789 15.9672 -0.613733 84 79 86
-12.4968 15.9588 -0.611469 83 80 87
-12.3966 15.9775 -0.6097 83 80 89
-12.3125 15.965 -0.607269 81 80 88
-12.2899 16.041 -0.609334 82 81 89
-12.0409 15.9491 -0.600306 81 80 88
-11.9866 15.9781 -0.60004 80 78 91
-11.7156 15.9557 -0.592993 82 81 89
-6.11372 15.9155 -0.422026 101 97 93
-44.3923 10.7045 -1.46969 71 72 85
-44.3001 10.8972 -1.46811 78 87 102
-49.6372 16.2166 -1.71843 82 90 103
-48.9301 16.1465 -1.69232 77 89 101
-46.6887 16.1874 -1.613 76 75 89
-46.1773 16.1645 -1.59456 89 89 101
-45.6778 16.1427 -1.57657 78 85 101
-45.1929 16.2013 -1.56017 77 86 101
-25.5212 16.0949 -1.01151 80 83 95
-25.3371 16.0821 -1.00483 76 74 81
-25.1297 16.1069 -0.998228 78 83 96
-24.9462 16.0918 -0.991545 76 85 101
-24.7598 16.0735 -0.984695 76 85 100
-24.56 16.0987 -0.978427 76 85 100
-24.3857 16.0862 -0.972161 76 85 100
-24.2117 16.0727 -0.965896 75 84 99
-24.0381 16.0582 -0.95963 74 82 97
-23.8461 16.0829 -0.953695 76 83 99
-23.6812 16.0722 -0.947846 76 83 99
-23.5231 16.0653 -0.94233 79 86 102
-23.3222 16.0793 -0.935895 80 87 103
-23.1647 16.0704 -0.93038 80 89 104
-23.0026 16.0572 -0.924614 81 90 105
-22.8141 16.0757 -0.918762 80 89 104
-22.6686 16.0725 -0.91383 82 91 106
-22.4978 16.0493 -0.907565 81 90 105
-22.3261 16.0764 -0.902546 80 89 106
-22.1814 16.0706 -0.897614 81 90 106
-22.0211 16.0518 -0.891849 84 91 107
-21.8754 16.0433 -0.886833 83 92 109
-21.7 16.0624 -0.881565 79 88 105
-12.2618 16.164 -0.612892 83 82 90
-11.9422 16.0219 -0.600522 81 80 90
-11.8161 15.9974 -0.596756 81 81 89
-11.6373 15.9468 -0.590896 82 80 91
-11.5385 15.9607 -0.589127 81 81 93
-11.4637 15.9561 -0.587279 82 80 93
-11.3848 15.9445 -0.585098 83 81 93
-11.2874 15.9586 -0.583413 85 83 93
-11.2099 15.948 -0.581315 84 83 91
-11.1431 15.954 -0.58005 82 80 93
-11.0398 15.9565 -0.577865 85 83 96
-10.969 15.955 -0.576267 85 86 98
-10.8942 15.9464 -0.574336 86 86 95
-10.8236 15.9443 -0.572738 90 89 97
-10.7251 15.9519 -0.570886 82 78 84
-10.6537 15.9474 -0.569205 81 77 80
-10.5825 15.9426 -0.567524 72 66 70
-10.4824 15.9453 -0.565506 82 77 80
-10.4134 15.9434 -0.563991 81 76 80
-10.3466 15.9446 -0.562643 73 68 77
-10.2479 15.9476 -0.560708 85 84 94
-10.1822 15.95 -0.559443 85 83 94
-10.1127 15.945 -0.557845 84 83 90
-10.0144 15.9468 -0.55591 85 86 91
-49.363 11.458 -1.6586 83 85 98
-49.3455 11.6137 -1.65935 80 87 98
-51.7613 16.1377 -1.79361 124 110 102
-51.3113 16.1675 -1.77781 112 99 93
-50.6941 16.2259 -1.75636 100 91 92
-50.0916 16.1984 -1.73446 84 89 100
-29.4809 11.3607 -1.06511 79 88 105
-29.5034 11.4733 -1.06777 78 88 101
-29.1346 16.1244 -1.14022 78 87 102
-28.909 16.1101 -1.13179 79 88 103
-28.6889 16.0975 -1.1236 74 83 98
-28.4405 16.1244 -1.11525 77 86 101
-28.216 16.1059 -1.10682 78 87 102
-27.9987 16.0904 -1.09872 77 86 101
-27.7719 16.1246 -1.09136 75 84 99
-27.5622 16.1105 -1.0836 76 85 100
-27.3579 16.0985 -1.07608 78 88 100
-27.1168 16.1185 -1.06798 77 86 101
-26.492 16.1173 -1.04593 78 88 100
-26.2929 16.1012 -1.03858 77 87 99
-26.1075 16.0927 -1.0319 77 86 101
-25.9157 16.0788 -1.02488 77 86 101
-25.704 16.1056 -1.01811 77 86 101
-9.94909 15.9482 -0.554645 85 84 93
-9.87807 15.9389 -0.552881 86 85 93
-9.81004 15.9345 -0.551366 86 83 90
-9.72084 15.9504 -0.55018 84 83 88
-9.65303 15.9454 -0.548666 85 84 88
-9.58532 15.9402 -0.547151 85 84 87
-9.48808 15.9389 -0.545216 85 84 90
-9.42798 15.9472 -0.544367 84 83 89
-9.35789 15.9358 -0.542603 89 88 93
-9.27194 15.9546 -0.541666 88 86 90
-9.20034 15.9389 -0.539736 89 87 89
-9.13692 15.9391 -0.538555 88 88 90
-9.04234 15.9388 -0.536786 88 87 91
-8.97914 15.9384 -0.535605 89 89 91
-8.91512 15.9359 -0.53434 88 88 90
-52.2322 11.1301 -1.76129 78 82 97
-51.7292 11.1866 -1.74323 76 80 92
-51.6287 11.4137 -1.74143 89 95 107
-59.8204 15.2205 -2.07594 72 80 92
-59.7398 15.4943 -2.07563 83 89 102
-59.7383 15.6909 -2.07751 83 84 96
-59.7401 15.8887 -2.07954 85 82 96
-59.7121 16.1774 -2.08142 95 94 99
-58.5356 16.7277 -2.04446 90 90 88
-58.2203 16.8301 -2.03415 85 77 74
-57.2449 17.214 -2.00314 79 75 76
-56.9539 17.3164 -1.9938 127 113 108
-56.5784 17.4861 -1.98221 130 116 107
-32.7383 16.1561 -1.2728 76 74 85
-32.4634 16.139 -1.26228 81 84 97
-32.1659 16.1082 -1.25068 79 87 100
-31.9113 16.0981 -1.24108 76 85 100
-31.6389 16.138 -1.23181 74 86 98
-31.3586 16.1105 -1.22096 79 88 104
-31.114 16.1003 -1.21178 74 81 99
-30.8585 16.143 -1.20326 78 87 102
-30.6093 16.1269 -1.19382 78 87 102
-30.3605 16.1094 -1.18439 76 85 100
-30.0817 16.1328 -1.1747 77 86 101
-29.8563 16.1249 -1.16635 77 86 101
-29.6018 16.0989 -1.15659 76 85 100
-29.3537 16.1335 -1.14832 78 87 102
-14.417 11.2463 -0.638439 82 93 108
-14.3612 11.2707 -0.637163 81 90 106
-8.85121 15.9332 -0.533075 89 88 93
-8.75978 15.9368 -0.531556 89 88 94
-8.69948 15.9407 -0.530624 90 87 94
-8.63329 15.9318 -0.52911 89 87 92
-8.54642 15.9432 -0.528007 91 86 97
-8.47966 15.9319 -0.52641 90 86 94
-8.418 15.9312 -0.525312 92 87 94
-8.33057 15.9397 -0.524125 91 90 91
-8.26663 15.933 -0.522778 90 88 90
-8.202 15.9242 -0.521347 91 89 92
-8.11647 15.9352 -0.520327 91 90 95
-8.05604 15.935 -0.519312 92 92 93
-59.3398 11.6341 -2.02759 76 80 91
-59.2828 11.8125 -2.02683 79 78 89
-67.4091 15.209 -2.35384 76 78 91
-66.4673 15.2085 -2.31923 84 87 102
-63.4808 15.2357 -2.20992 70 69 85
-34.5277 11.4936 -1.26426 78 88 100
-34.3777 11.5582 -1.25925 79 91 102
-36.4442 16.1474 -1.41169 84 93 108
-36.1373 16.1391 -1.39992 84 93 108
-35.7783 16.1707 -1.3869 78 88 100
-35.4758 16.1601 -1.3753 77 86 101
-35.1288 16.1262 -1.36161 78 87 102
-34.8632 16.1294 -1.35168 77 86 103
-34.5008 16.1483 -1.33841 79 88 103
-33.5909 16.1475 -1.30436 78 88 100
-33.313 16.1346 -1.29375 79 88 101
-33.0105 16.1074 -1.28199 78 86 99
-7.99331 15.9291 -0.518048 93 93 92
-7.93149 15.9248 -0.516866 93 93 92
-7.8478 15.9381 -0.516013 97 93 98
-7.78463 15.9296 -0.514665 96 92 98
-7.72537 15.93 -0.513734 96 91 98
-7.6366 15.9294 -0.512298 96 94 98
-7.57897 15.933 -0.511532 94 92 95
-7.52436 15.9439 -0.5111 95 90 94
-7.43075 15.9292 -0.509082 96 92 96
-7.37549 15.9377 -0.508566 93 91 92
-7.3109 15.9218 -0.506969 95 93 96
-4.87565 10.6691 -0.34441 94 92 95
-4.80245 10.5695 -0.338674 96 94 97
-4.77163 10.5904 -0.339146 98 93 97
-64.4444 11.4215 -2.21518 93 95 102
-64.435 11.625 -2.21624 97 98 107
-68.4243 12.9056 -2.37316 84 86 91
-68.3476 13.1097 -2.37181 85 86 96
-40.1415 16.1738 -1.55347 84 89 105
-39.7402 16.1485 -1.53761 71 69 82
-39.3854 16.1404 -1.52385 84 87 96
-38.9617 16.1705 -1.50808 76 86 98
-38.6244 16.1647 -1.49506 77 87 99
-38.2234 16.129 -1.47912 77 87 99
-37.8616 16.1766 -1.4661 78 87 102
-37.522 16.1626 -1.45292 76 85 100
-37.1464 16.1302 -1.43806 82 91 106
-36.7933 16.1729 -1.42538 84 93 108
-7.22641 15.9283 -0.505949 94 92 96
-7.16775 15.9268 -0.505018 98 93 97
-7.11475 15.94 -0.504751 97 94 98
-7.05134 15.925 -0.503238 95 93 96
-6.97126 15.9414 -0.502717 96 94 97
-6.90743 15.924 -0.50112 96 94 97
-6.84981 15.9232 -0.500272 96 94 97
-53.4832 1.05446 -1.76181 156 173 181
-40.9337 11.1827 -1.51544 89 85 92
-40.8362 11.2895 -1.51277 83 81 85
-39.4834 11.3578 -1.45938 106 104 100
-39.4506 11.4788 -1.45954 122 117 109
-44.9901 16.2121 -1.74236 76 85 100
-44.5065 16.1872 -1.72309 78 87 102
-44.0385 16.165 -1.70449 79 88 103
-43.586 16.1457 -1.68655 75 84 99
-43.1124 16.1909 -1.66878 78 87 102
-42.6685 16.1685 -1.65117 77 86 101
-42.2863 16.1677 -1.63632 79 88 103
-41.8051 16.1988 -1.61813 77 86 102
-19.3152 11.2858 -0.831705 76 85 100
-19.2671 11.3349 -0.831013 78 87 102
-6.45221 15.9218 -0.494755 99 95 95
-6.36755 15.9202 -0.493569 100 99 95
-6.31236 15.9232 -0.49297 101 98 93
-6.25293 15.9128 -0.49179 102 98 95
-6.19904 15.9193 -0.491357 100 97 93
-44.3897 10.783 -1.65048 79 77 89
-49.3739 16.2257 -1.91504 79 88 103
-47.0785 16.1745 -1.82378 80 86 100
-46.524 16.2185 -1.80259 76 76 88
-46.003 16.1901 -1.78174 81 86 98
-45.5014 16.1655 -1.76172 77 87 99
-15.6855 13.8666 -0.770192 89 92 105
-15.5104 13.7858 -0.761335 83 86 103
-14.934 14.1383 -0.753714 85 93 104
-14.9414 14.2358 -0.757392 82 89 99
-14.6943 14.2025 -0.747934 86 90 102
-14.5913 14.1838 -0.743839 85 88 103
-14.4922 14.213 -0.741586 89 93 105
-6.11537 15.9183 -0.490254 103 98 98
-49.3908 11.5585 -1.86104 83 81 89
-54.1294 16.1843 -2.10347 68 66 68
-53.4256 16.1476 -2.07495 84 79 83
-52.7664 16.1205 -2.04834 120 113 107
-52.096 16.1734 -2.02232 120 115 111
-51.6548 16.2073 -2.00521 118 113 113
-51.0526 16.1858 -1.98102 119 113 115
-50.4283 16.1533 -1.95583 112 114 118
-49.8096 16.2033 -1.93198 79 90 107
-14.9327 14.3622 -0.761551 86 90 102
-13.2576 14.4624 -0.711119 148 147 145
-54.3745 11.5315 -2.0636 106 106 106
-52.0475 11.1913 -1.96562 106 105 105
-51.7115 11.2832 -1.95277 88 88 95
-51.6901 11.5282 -1.95419 77 84 94
-57.361 13.2019 -2.20085 96 93 99
-56.7454 13.7022 -2.18083 75 74 83
-56.5641 14.3044 -2.17974 82 84 95
-56.2788 14.4149 -2.1694 85 83 89
-56.1286 14.6521 -2.1659 86 86 90
-55.8697 14.7668 -2.15672 91 87 92
-55.8243 14.9386 -2.1568 97 90 95
-55.7026 15.1814 -2.15463 112 103 105
-55.1696 15.8573 -2.1411 93 92 90
-24.456 11.2949 -1.05069 78 87 104
-24.4197 11.3676 -1.05069 79 88 105
-16.3983 15.4018 -0.847513 85 92 106
-16.1868 15.3316 -0.837874 84 92 103
-14.9284 15.5438 -0.803927 132 148 144
-14.6286 15.3017 -0.785453 122 145 125
-14.5464 15.3541 -0.784753 90 104 97
-14.4637 15.4556 -0.785887 22 28 33
-14.3666 15.4904 -0.784119 119 122 130
-14.3712 15.5956 -0.788183 134 133 142
-58.9749 10.3675 -2.24238 110 111 113
-58.7175 10.5075 -2.23287 115 115 117
-58.4637 10.6466 -2.22353 111 110 115
-58.3083 10.8959 -2.21912 120 118 120
-58.2672 11.0737 -2.21887 113 111 114
-58.2314 11.2526 -2.21887 114 114 112
-58.2283 11.4381 -2.22028 122 120 121
-58.089 11.6888 -2.2167 71 69 71
-57.9575 11.8474 -2.2127 125 120 116
-57.9271 12.027 -2.21303 117 114 113
-57.436 13.0335 -2.20227 65 62 71
-22.7516 16.0744 -1.10234 83 92 107
-22.6109 16.0747 -1.09688 83 92 108
-22.4403 16.0513 -1.08957 81 90 107
-22.3049 16.0536 -1.08441 81 90 105
-22.1097 16.0612 -1.0771 81 90 105
-21.9685 16.057 -1.07154 82 91 106
-21.837 16.0593 -1.06657 81 90 107
-21.6553 16.0734 -1.06004 78 87 104
-21.5039 16.058 -1.05381 80 89 104
-21.3683 16.0543 -1.04854 79 89 104
-21.1876 16.065 -1.04201 80 89 106
-21.0324 16.0433 -1.03548 75 83 101
-20.9039 16.0423 -1.03061 82 91 108
-20.7426 16.0649 -1.02525 84 92 111
-14.4469 11.2714 -0.724931 86 94 113
-20.6129 16.061 -1.02027 84 92 111
-14.3895 11.2945 -0.723421 82 91 109
-20.4743 16.0489 -1.01472 86 95 112
-20.3359 16.036 -1.00916 85 94 111
-14.3549 11.3732 -0.724797 83 92 109
-20.1787 16.0573 -1.00399 84 93 108
-19.7334 16.0343 -0.986838 85 94 111
-19.634 16.0503 -0.983713 86 95 112
-19.5093 16.0434 -0.978935 83 95 111
-19.3506 16.0565 -0.973571 83 95 111
-19.2234 16.0455 -0.968599 81 90 107
-19.1023 16.0392 -0.964016 81 89 104
-18.9518 16.0561 -0.959138 80 87 102
-18.8312 16.0484 -0.954555 78 88 100
-18.702 16.0321 -0.949388 80 87 103
-18.5745 16.0164 -0.944319 75 83 96
-18.431 16.0353 -0.93983 81 75 90
-18.3274 16.04 -0.936316 77 71 83
-18.1992 16.021 -0.93115 85 84 96
-18.039 16.0208 -0.925494 83 86 103
-17.6894 16.0387 -0.91388 81 90 103
-17.5769 16.0302 -0.909685 79 88 101
-17.4603 16.017 -0.9052 82 88 103
-17.3202 16.0298 -0.900808 80 88 101
-17.2155 16.0266 -0.8971 82 90 103
-17.0996 16.0115 -0.892614 86 92 106
-16.0739 16.0064 -0.857966 83 93 105
-15.9713 15.9972 -0.854258 85 91 105
-15.8797 15.9993 -0.851327 87 93 107
-15.7524 16.0119 -0.847616 83 89 104
-15.6531 16.0041 -0.844102 86 92 108
-15.558 16.0003 -0.84088 84 91 105
-15.4234 16.002 -0.836585 70 79 92
-14.4 15.9854 -0.803673 81 81 93
-14.3198 15.9912 -0.801423 83 82 97
-14.2334 15.9889 -0.798687 81 82 95
-14.1132 15.9957 -0.795267 82 84 97
-14.0271 15.9925 -0.79253 82 84 97
-13.9412 15.989 -0.789794 84 83 97
-13.8278 16.0017 -0.78686 89 79 86
-13.7434 15.9988 -0.784221 90 60 62
-13.6542 15.9893 -0.781193 121 77 73
-13.5438 16.0034 -0.778453 111 44 35
-13.4575 15.9961 -0.77562 149 86 76
-13.3688 15.9853 -0.772593 163 96 62
-13.284 15.9788 -0.769857 153 87 68
-13.1755 15.9924 -0.767214 152 103 90
-13.097 15.993 -0.764964 95 64 58
-13.0019 15.9709 -0.761354 86 71 79
-12.8998 15.9909 -0.759196 86 65 72
-12.8193 15.9871 -0.756752 85 74 85
-12.7332 15.975 -0.753822 80 76 90
-12.6337 15.9966 -0.751859 82 77 91
-12.5456 15.9804 -0.748734 82 78 91
-12.4646 15.9735 -0.746193 80 80 90
-12.3667 15.9953 -0.744327 82 80 93
-63.8617 9.83389 -2.43981 87 94 104
-64.1884 10.0881 -2.45499 91 95 108
-63.7558 10.2199 -2.43806 94 101 111
-62.5944 10.326 -2.39096 101 107 116
-61.251 10.2927 -2.33543 106 110 116
-59.9536 10.2589 -2.28181 118 121 126
-26.4378 16.0704 -1.24973 78 87 104
-26.2203 16.0979 -1.24155 78 87 102
-26.0317 16.0871 -1.23356 77 86 101
-25.8333 16.0687 -1.22499 77 86 101
-25.6218 16.0951 -1.2171 80 86 102
-25.4557 16.0953 -1.21038 70 68 82
-25.2618 16.0757 -1.202 70 70 77
-25.0446 16.0935 -1.19372 83 89 103
-24.8926 16.0995 -1.18778 78 84 100
-24.6881 16.0687 -1.17872 77 86 101
-24.4999 16.1016 -1.1721 77 86 101
-24.3077 16.0763 -1.16372 76 85 100
-24.1633 16.0832 -1.15817 78 88 100
-23.9685 16.0537 -1.1496 76 85 100
-23.7798 16.0805 -1.14287 76 86 98
-23.6053 16.0626 -1.13547 83 93 107
-23.4618 16.066 -1.12991 81 90 105
-23.2724 16.088 -1.12309 82 91 106
-23.0988 16.0672 -1.11569 81 90 105
-22.9465 16.0609 -1.10955 84 93 108
-12.2905 15.9942 -0.742174 81 79 92
-12.2961 16.111 -0.747013 82 80 93
-12.2017 16.0832 -0.743306 82 80 91
-12.1227 16.1316 -0.74309 83 81 94
-12.0667 16.1591 -0.742685 82 80 93
-11.9574 16.1069 -0.737619 82 80 93
-11.7559 15.9694 -0.726626 83 83 93
-11.6753 15.9575 -0.723987 83 83 93
-11.6155 15.9769 -0.723194 82 80 93
-11.5036 15.9705 -0.719968 83 81 94
-11.4309 15.9692 -0.71801 82 82 91
-11.3595 15.9693 -0.716148 84 84 92
-11.2588 15.9781 -0.713894 83 83 91
-11.1802 15.9657 -0.711353 83 83 93
-11.0975 15.9461 -0.708423 86 86 94
-11.035 15.9585 -0.707339 85 86 92
-10.937 15.9689 -0.705279 85 85 95
-10.8621 15.9602 -0.703029 86 88 100
-10.7905 15.9563 -0.70107 96 94 105
-64.6366 9.75231 -2.47124 101 108 118
-29.4497 11.3896 -1.27463 78 87 102
-29.9964 16.1269 -1.39969 76 85 100
-29.7573 16.111 -1.38917 77 86 101
-29.5169 16.0927 -1.37856 77 86 101
-29.2856 16.078 -1.36843 79 88 103
-29.0414 16.1127 -1.35899 82 91 108
-28.8091 16.0941 -1.34877 78 87 102
-28.5978 16.0864 -1.33971 79 88 103
-28.3547 16.1159 -1.33026 79 88 103
-28.1337 16.0994 -1.32062 79 88 103
-27.92 16.0857 -1.31137 78 87 102
-27.6797 16.1113 -1.30203 77 86 103
-27.4736 16.0991 -1.29316 80 88 106
-27.2677 16.0858 -1.2843 80 89 106
-10.6949 15.9687 -0.699204 75 67 72
-10.6225 15.9625 -0.697149 77 69 69
-10.5603 15.9731 -0.696064 65 60 57
-10.456 15.9687 -0.693324 71 66 65
-10.387 15.9666 -0.69156 79 73 73
-10.3121 15.9539 -0.689214 78 75 82
-10.2163 15.962 -0.687251 86 82 96
-10.1545 15.9711 -0.686166 86 83 94
-10.082 15.9609 -0.684014 85 83 94
-10.0097 15.9504 -0.681861 85 83 94
-9.92113 15.969 -0.680578 86 87 92
-9.84907 15.9578 -0.678425 85 86 91
-9.77718 15.9463 -0.676273 85 84 92
-9.6898 15.9655 -0.675087 86 84 89
-9.60975 15.9375 -0.672061 85 84 89
-4.88139 10.6228 -0.397011 96 91 95
-4.85956 10.6703 -0.399026 95 91 96
-4.78515 10.5649 -0.392394 94 92 95
-4.76648 10.6216 -0.394943 96 94 95
-4.72565 10.6688 -0.396635 96 94 95
-53.403 0.916565 -1.96955 157 157 168
-62.8753 6.23486 -2.37908 100 107 123
-33.2558 16.1465 -1.54015 74 86 100
-32.9322 16.1084 -1.52526 74 77 90
-32.6247 16.1387 -1.51261 80 79 90
-32.3482 16.1203 -1.50025 81 85 97
-32.0987 16.1143 -1.48935 78 87 102
-31.8195 16.0911 -1.47679 82 89 105
-31.5385 16.1259 -1.4655 77 87 101
-31.2883 16.1142 -1.4545 82 91 106
-31.028 16.0955 -1.44291 78 87 104
-30.7464 16.1234 -1.43152 78 87 102
-30.5097 16.1138 -1.4212 77 86 101
-30.2576 16.0941 -1.41001 77 86 101
-19.3489 11.2796 -0.93684 77 86 102
-19.2914 11.3624 -0.936613 80 88 106
-9.55045 15.948 -0.67117 86 82 88
-9.46144 15.9625 -0.66979 84 81 90
-9.38659 15.9423 -0.667249 86 83 92
-9.32198 15.9413 -0.665777 87 85 90
-9.2396 15.9671 -0.665075 86 84 89
-9.17153 15.9584 -0.663215 86 83 91
-9.10627 15.9549 -0.661645 86 83 93
-9.04198 15.9529 -0.660172 88 83 90
-8.94656 15.9503 -0.658015 88 85 92
-8.88251 15.9477 -0.656543 87 86 93
-8.82113 15.9503 -0.655361 88 86 93
-60.7406 1.70343 -2.27689 156 163 178
-60.8089 1.98599 -2.28016 111 116 126
-60.7314 2.54409 -2.27794 127 125 135
-60.8694 2.83125 -2.2843 84 95 111
-34.4907 11.5206 -1.50668 101 107 119
-36.6672 16.155 -1.69004 82 91 106
-36.3347 16.1367 -1.67495 83 92 107
-36.0099 16.1199 -1.66026 78 87 102
-35.7001 16.108 -1.64634 77 87 99
-35.3527 16.1418 -1.63174 75 83 98
-35.0293 16.119 -1.61705 80 87 103
-34.719 16.1002 -1.60303 63 70 86
-33.8282 16.1154 -1.56439 78 87 102
-33.4961 16.1408 -1.55047 77 85 100
-15.9379 13.8968 -0.878762 97 91 105
-15.7793 13.8775 -0.8719 68 65 75
-15.663 13.8538 -0.866538 89 92 105
-15.5484 13.831 -0.861283 81 87 101
-15.508 13.9233 -0.863191 83 89 105
-15.1168 13.9322 -0.848692 81 88 104
-15.0302 13.9331 -0.845469 85 93 107
-14.9227 13.9122 -0.840642 88 96 109
-14.8103 13.9293 -0.837096 83 90 103
-14.713 13.9172 -0.833017 87 95 108
-14.6298 13.9192 -0.830009 83 91 104
-14.5468 13.9647 -0.828707 89 94 106
-14.4445 13.9455 -0.824201 94 94 104
-14.3685 13.9534 -0.821728 104 99 103
-14.3426 14.0589 -0.824918 106 101 95
-14.2109 14.0062 -0.818059 103 96 99
-14.2093 14.0939 -0.821466 85 90 99
-14.1695 14.1405 -0.821879 88 90 103
-14.1742 14.2812 -0.827635 86 89 104
-13.2442 14.2653 -0.794328 134 140 153
-8.73216 15.9591 -0.653883 87 84 93
-8.66838 15.9557 -0.652411 87 84 93
-8.60637 15.9557 -0.651132 89 86 93
-8.5118 15.9507 -0.648975 88 85 92
-8.44751 15.9446 -0.647406 89 87 92
-8.39158 15.9565 -0.646807 88 87 92
-8.30154 15.9594 -0.645135 89 87 93
-8.23754 15.9526 -0.643566 90 88 93
-8.17847 15.9564 -0.642578 90 88 93
-8.11067 15.94 -0.640524 90 88 93
-40.4013 16.1764 -1.85722 79 89 100
-39.9924 16.1502 -1.83834 80 83 100
-39.6172 16.1354 -1.82121 75 73 84
-39.2389 16.117 -1.80389 84 89 102
-38.843 16.1584 -1.78696 74 86 100
-38.473 16.1381 -1.77003 75 87 101
-38.1016 16.1149 -1.753 74 86 100
-37.7292 16.1572 -1.73724 79 87 105
-37.3753 16.1364 -1.72108 83 92 108
-37.0437 16.1234 -1.7061 79 89 104
-14.1965 14.3974 -0.833074 81 88 105
-14.1544 14.4425 -0.83338 65 72 90
-14.3511 14.8037 -0.854853 68 66 87
-13.2561 14.3719 -0.799125 121 130 148
-8.0259 15.9524 -0.639434 95 92 99
-7.9639 15.9482 -0.638059 95 92 99
-7.90042 15.9401 -0.636489 94 92 95
-7.81356 15.9459 -0.635109 92 90 93
-7.75646 15.9519 -0.634316 94 90 96
-7.69253 15.9412 -0.632649 92 89 96
-7.60445 15.9422 -0.631075 91 90 95
-7.55049 15.955 -0.63067 93 91 96
-40.9677 11.0955 -1.80154 92 93 98
-40.9511 11.2254 -1.80251 93 93 99
-39.5013 11.4015 -1.73713 87 88 96
-43.948 15.3295 -2.0034 77 73 83
-43.7621 15.4137 -1.9963 100 103 112
-43.6697 15.5313 -1.99405 104 108 119
-43.7098 15.6975 -1.99871 102 102 115
-43.6459 15.9014 -1.99929 95 99 109
-43.5671 16.0237 -1.99782 92 96 107
-43.1954 16.0338 -1.98108 83 88 100
-42.719 16.076 -1.96016 78 84 96
-42.2887 16.0576 -1.94031 79 84 95
-41.883 16.0463 -1.92173 83 89 101
-41.4675 16.1016 -1.90393 80 86 99
-24.6061 11.3935 -1.18595 82 90 105
-24.4567 11.4109 -1.1792 74 81 97
-17.4723 16.048 -1.01813 80 89 104
-17.3631 16.0411 -1.01373 81 90 105
-15.0425 15.6859 -0.914824 45 40 58
-14.6958 15.3894 -0.890643 36 29 48
-14.5532 15.3726 -0.884956 44 34 51
-14.4846 15.3917 -0.883337 44 39 56
-14.4043 15.3968 -0.880755 46 47 68
-7.48764 15.9453 -0.6291 92 90 93
-7.40279 15.9527 -0.627914 92 90 93
-7.34308 15.9499 -0.626733 93 91 92
-7.28057 15.9395 -0.625163 96 91 95
-7.22177 15.9381 -0.624079 94 91 94
-7.13936 15.9497 -0.623184 96 94 96
-7.08069 15.9479 -0.6221 96 94 95
-7.01932 15.9384 -0.620628 97 94 95
-45.8512 12.9152 -2.05496 113 117 120
-45.7337 13.1086 -2.05214 87 88 94
-45.541 13.5828 -2.04988 92 95 104
-45.5165 13.7276 -2.05085 73 73 82
-45.3659 13.8329 -2.0454 91 91 95
-45.2444 14.0228 -2.04257 86 89 96
-45.2488 14.1767 -2.04509 88 93 101
-44.9341 14.2269 -2.03128 87 93 99
-44.8866 14.3633 -2.03117 86 90 97
-44.7308 14.5394 -2.02669 84 87 92
-44.5898 14.6438 -2.02182 77 80 85
-44.4692 14.7545 -2.01802 75 79 89
-43.9846 15.1157 -2.00156 85 87 98
-23.4557 16.0938 -1.26431 80 89 106
-23.2695 16.1177 -1.25702 81 90 107
-23.0832 16.0871 -1.24802 82 91 108
-22.9422 16.0888 -1.24201 80 92 108
-22.7633 16.114 -1.23515 84 96 112
-22.5877 16.0875 -1.22679 82 91 106
-22.4617 16.0975 -1.22175 81 90 107
-22.3105 16.0875 -1.21499 81 90 105
-22.1201 16.0985 -1.20727 81 90 105
-21.9742 16.0903 -1.20084 83 92 108
-21.8348 16.0863 -1.19483 78 89 105
-21.6517 16.0988 -1.18754 78 87 103
-21.5082 16.0894 -1.18121 80 89 104
-21.3618 16.0767 -1.17467 79 88 105
-21.1982 16.1009 -1.16866 78 89 105
-21.054 16.0878 -1.16223 78 87 104
-20.9223 16.084 -1.15665 81 90 107
-20.7786 16.0695 -1.15022 82 91 106
-20.6207 16.0935 -1.14453 81 90 107
-20.4775 16.0773 -1.1381 81 90 107
-20.3438 16.068 -1.1323 78 87 104
-20.1851 16.0879 -1.12651 78 88 105
-19.6287 16.0695 -1.10334 78 86 105
-19.507 16.0651 -1.0983 82 91 108
-19.3529 16.0818 -1.09271 79 88 105
-19.2257 16.0706 -1.08724 82 89 106
-19.1077 16.0668 -1.08242 81 88 104
-18.9766 16.0504 -1.07662 80 87 103
-18.8309 16.0703 -1.07158 79 85 102
-18.7135 16.0645 -1.06675 82 88 102
-18.592 16.0541 -1.0616 84 89 101
-18.447 16.0715 -1.05655 92 86 98
-18.3303 16.0638 -1.05172 80 75 82
-17.5888 16.0614 -1.02307 82 91 106
-14.6141 16.102 -0.916932 79 72 80
-14.4284 16.0323 -0.907717 76 71 74
-14.3368 16.0242 -0.904279 75 68 75
-14.2517 16.0235 -0.901376 74 68 75
-14.1377 16.038 -0.898148 77 75 87
-14.0467 16.0285 -0.89471 84 79 93
-13.9545 16.0171 -0.891166 85 83 94
-13.8424 16.0314 -0.888045 97 77 79
-13.7568 16.0269 -0.885035 83 51 50
-13.6702 16.0204 -0.881918 134 83 78
-13.5825 16.012 -0.878695 181 107 88
-13.4734 16.0272 -0.875787 138 72 57
-13.3848 16.0163 -0.872457 179 113 87
-13.3013 16.0114 -0.869554 124 75 64
-13.188 16.0186 -0.866219 117 89 83
-13.1071 16.016 -0.86353 81 68 73
-13.0216 16.0066 -0.860414 69 66 71
-12.9171 16.0234 -0.857827 80 77 86
-12.8355 16.018 -0.855031 80 77 87
-12.7505 16.0074 -0.851915 80 77 87
-6.93778 15.9508 -0.619829 94 92 95
-6.87525 15.937 -0.618163 98 93 97
-47.4354 10.7395 -2.10247 97 94 109
-47.3309 10.8679 -2.09896 91 89 100
-47.2648 11.005 -2.09741 94 94 103
-47.2137 11.2218 -2.0975 98 104 110
-47.1039 11.3478 -2.0938 65 65 76
-44.4193 10.827 -1.96066 99 96 108
-46.677 11.7734 -2.07882 120 125 133
-46.6564 11.9205 -2.07969 94 97 104
-46.5452 12.1196 -2.07697 98 99 103
-46.5254 12.2668 -2.07793 102 103 108
-46.4129 12.3887 -2.07423 105 104 109
-26.4455 16.1142 -1.39712 78 90 106
-26.2045 16.1261 -1.38662 75 86 103
-26.0343 16.1268 -1.37901 77 84 103
-25.8194 16.097 -1.36851 78 87 102
-25.6295 16.1374 -1.36122 82 85 102
-25.4204 16.1083 -1.35104 76 74 87
-25.2614 16.1116 -1.34407 75 75 87
-25.0343 16.1223 -1.33432 80 88 101
-24.8676 16.1179 -1.32681 77 86 101
-24.6912 16.1058 -1.31867 78 87 103
-24.5021 16.0836 -1.30966 78 87 102
-24.3191 16.1184 -1.30269 76 85 100
-24.1518 16.109 -1.29508 79 88 103
-23.9816 16.0964 -1.28726 78 87 102
-23.7605 16.0996 -1.27772 78 87 102
-23.612 16.1 -1.27128 79 88 105
-12.6452 16.0209 -0.849222 83 77 89
-12.5676 16.0193 -0.846746 82 79 90
-12.482 16.0059 -0.843523 82 81 89
-12.4023 16.0003 -0.840834 82 80 91
-12.3078 16.0266 -0.839103 82 80 92
-12.3086 16.137 -0.844003 83 83 95
-12.2986 16.2328 -0.847941 81 81 93
-12.1788 16.222 -0.843858 81 81 93
-12.0981 16.2133 -0.841062 83 83 95
-12.0065 16.1876 -0.837198 82 82 94
-11.7833 16.0167 -0.822962 84 82 94
-11.7081 16.0131 -0.820594 84 82 95
-11.6287 16.0025 -0.817798 84 82 95
-11.5264 16.0111 -0.815212 83 83 95
-11.4527 16.0082 -0.812951 83 83 95
-11.3738 15.9965 -0.810155 84 84 96
-11.3036 15.9979 -0.808215 84 84 96
-11.203 16.0064 -0.805736 83 82 96
-6.46179 16.0608 -0.617256 100 94 96
-6.35919 15.9219 -0.609286 100 94 96
-6.28198 15.9425 -0.60907 100 94 96
-6.22368 15.9358 -0.607889 100 96 95
-6.1691 15.9403 -0.60729 100 96 94
-50.0225 10.2168 -2.21995 91 97 108
-49.1507 10.1913 -2.17813 93 99 111
-48.3162 10.2456 -2.13894 96 100 111
-47.7553 10.2765 -2.11259 97 101 110
-47.6112 10.3975 -2.10704 100 103 114
-47.5435 10.6115 -2.10617 112 113 125
-29.5826 11.4816 -1.43121 105 107 119
-30.2053 16.1127 -1.56986 79 88 105
-29.9564 16.1515 -1.55925 77 86 101
-29.7175 16.1349 -1.54768 78 87 102
-29.4841 16.1199 -1.53643 78 87 102
-29.2564 16.1066 -1.5255 80 89 105
-28.9968 16.1315 -1.51414 77 86 102
-28.7818 16.1224 -1.50396 74 83 98
-28.562 16.1091 -1.49346 81 89 104
-28.3139 16.1349 -1.48275 80 89 104
-28.1 16.1218 -1.47257 79 88 103
-27.9035 16.1179 -1.46346 77 86 101
-27.6649 16.144 -1.45328 78 87 102
-27.4504 16.1261 -1.44299 79 88 103
-27.2853 16.1375 -1.43581 80 89 104
-11.1266 15.997 -0.803154 83 82 96
-11.0504 15.9873 -0.800572 83 85 98
-10.9545 16.0012 -0.798521 88 87 101
-10.8807 15.9941 -0.796153 88 88 100
-10.8091 15.9902 -0.793998 82 80 93
-10.7165 16.0079 -0.792267 78 72 75
-10.6411 15.9964 -0.789686 74 66 63
-10.5718 15.995 -0.787746 79 71 68
-10.4776 16.0079 -0.785801 76 68 67
-10.4016 15.9938 -0.783112 73 65 68
-10.3337 15.9931 -0.781279 87 88 93
-10.2649 15.9905 -0.779339 85 87 96
-10.1633 15.9878 -0.776539 84 82 95
-6.08411 15.9352 -0.605813 101 96 93
