-5.68793 -0.505204 -1.81146 62 76 102
-5.81023 -0.293906 -1.80336 64 78 104
-5.89321 -0.188279 -1.80648 72 87 110
-2.09122 -5.48228 -1.75862 87 104 134
-2.21061 -5.31481 -1.75814 86 103 133
-2.33848 -5.12432 -1.75806 101 115 142
-2.57764 -4.78511 -1.76004 86 105 138
-2.76495 -4.45564 -1.7493 90 108 144
-2.77148 -4.43632 -1.74439 90 109 142
-2.99138 -4.10779 -1.74425 79 95 128
-3.00864 -4.10686 -1.74785 77 98 129
-3.108 -3.95009 -1.74809 78 93 124
-3.45067 -3.51577 -1.76135 67 81 107
-3.45586 -3.50014 -1.75834 68 82 108
-3.47225 -3.49681 -1.76207 65 80 105
-4.50885 -2.20465 -1.80929 68 82 108
-4.50993 -2.1884 -1.80703 73 87 113
-4.51095 -2.17215 -1.80477 76 88 112
-4.51199 -2.1474 -1.80101 68 81 106
-4.78038 -1.73914 -1.79481 67 82 108
-4.78142 -1.72309 -1.79333 66 82 108
-4.93486 -1.52683 -1.79755 74 86 112
-5.21036 -1.22845 -1.8214 67 79 103
-5.68748 -0.478372 -1.81077 66 81 104
-5.80837 -0.275617 -1.80269 70 84 110
-5.87964 -0.1693 -1.80202 72 87 112
-2.18702 -5.32544 -1.75877 89 106 137
-2.32677 -5.13938 -1.76137 101 115 142
-2.55424 -4.79267 -1.75868 88 107 140
-2.74997 -4.46034 -1.74791 88 106 142
-2.97535 -4.1375 -1.75003 82 98 131
-2.97212 -4.10552 -1.73922 80 96 129
-3.0707 -3.94861 -1.73857 77 94 124
-3.08108 -3.93816 -1.73783 78 95 125
-3.41313 -3.54962 -1.76063 67 81 107
-3.42219 -3.53822 -1.75987 68 82 108
-3.42872 -3.52403 -1.75761 69 82 108
-4.52782 -2.13857 -1.80548 68 82 107
-4.53531 -2.12558 -1.80621 66 80 106
-4.53778 -2.11012 -1.8047 65 81 106
-4.78507 -1.69963 -1.79184 67 83 109
-4.78774 -1.68419 -1.79109 69 81 109
-4.95535 -1.50839 -1.80329 72 86 112
-4.94852 -1.48972 -1.79895 74 88 114
-5.21148 -1.21172 -1.82068 66 79 104
-5.66553 -0.458851 -1.80282 72 84 108
-5.81777 -0.257894 -1.80589 74 87 113
-5.92119 -0.142185 -1.81594 70 82 108
-2.07793 -5.49686 -1.76179 83 102 132
-2.30187 -5.12111 -1.75211 101 115 142
-2.5424 -4.805 -1.76072 89 108 141
-2.72798 -4.46892 -1.74651 86 104 137
-2.94751 -4.13627 -1.74355 82 98 131
-3.03819 -3.96628 -1.73639 76 93 124
-3.05082 -3.95895 -1.73711 77 93 126
-3.37401 -3.58162 -1.75916 67 82 111
-3.37831 -3.56475 -1.75541 68 82 109
-3.40332 -3.57155 -1.76438 69 83 109
-4.5535 -2.09256 -1.80767 65 81 106
-4.55249 -2.07547 -1.80466 65 81 106
-4.56651 -2.06554 -1.80838 66 80 106
-4.79912 -1.67179 -1.794 69 83 109
-4.80252 -1.64828 -1.79251 67 81 107
-4.96479 -1.47823 -1.80396 74 88 115
-4.97083 -1.45516 -1.80394 74 88 115
-5.21808 -1.18763 -1.82136 70 82 106
-5.21907 -1.17088 -1.82063 60 74 100
-5.67924 -0.442097 -1.80742 70 82 108
-5.81049 -0.23023 -1.80329 77 89 113
-5.92263 -0.123465 -1.81655 76 88 114
-2.05813 -5.49163 -1.75798 77 96 128
-2.15346 -5.33168 -1.75683 92 107 136
-2.17299 -5.33663 -1.76071 88 105 135
-2.2773 -5.12686 -1.75078 98 114 140
-2.52889 -4.8139 -1.76141 89 108 141
-2.7148 -4.47675 -1.74651 83 102 135
-2.92113 -4.15006 -1.74213 82 101 133
-2.94542 -4.16044 -1.75076 82 101 133
-3.00772 -3.9867 -1.73567 77 93 125
-3.02986 -3.97962 -1.7386 77 94 124
-3.33456 -3.61313 -1.75769 70 85 112
-3.34867 -3.6076 -1.75992 70 85 114
-3.35794 -3.59639 -1.75916 67 82 111
-4.56358 -2.03913 -1.80313 68 82 108
-4.56741 -2.02442 -1.80236 64 80 105
-4.58132 -2.01434 -1.80608 66 82 108
-4.8015 -1.6316 -1.7903 69 83 109
-4.81629 -1.62026 -1.79467 70 84 110
-4.97094 -1.43869 -1.80248 74 88 115
-4.96922 -1.4217 -1.8003 77 91 118
-5.22001 -1.15413 -1.81991 62 76 102
-5.68724 -0.424859 -1.81004 63 77 102
-5.81032 -0.212031 -1.80327 70 83 109
-5.86715 -0.103978 -1.79815 73 85 109
-2.03504 -5.50526 -1.75987 87 104 135
-2.26413 -5.13825 -1.75276 97 113 139
-2.5054 -4.8212 -1.76005 89 108 141
-2.71803 -4.51393 -1.75913 84 103 136
-2.89108 -4.17257 -1.74286 84 101 137
-2.9143 -4.18156 -1.75077 82 101 134
-2.98549 -4.00558 -1.73642 77 96 128
-2.99822 -3.99844 -1.73714 77 93 125
-3.30778 -3.63737 -1.7577 68 85 115
-3.32763 -3.6271 -1.75994 73 88 117
-4.58485 -1.99104 -1.80382 67 81 107
-4.59698 -1.98007 -1.80679 68 82 108
-4.85218 -1.61586 -1.80784 70 84 111
-4.97858 -1.39964 -1.80172 77 91 118
-5.22085 -1.12881 -1.81849 64 78 104
-5.81386 -0.193974 -1.80453 67 81 107
-2.01872 -5.51068 -1.75987 90 107 137
-2.13216 -5.3492 -1.76005 92 108 134
-2.24755 -5.14079 -1.75143 96 111 140
-2.49184 -4.82998 -1.76073 89 108 141
-2.66719 -4.50216 -1.74583 87 103 138
-2.68949 -4.51087 -1.75283 84 103 136
-2.88767 -4.19511 -1.74934 87 106 139
-2.98332 -4.02795 -1.74302 79 98 130
-3.27248 -3.6738 -1.75923 76 93 123
-3.28774 -3.65803 -1.75847 74 91 121
-3.30073 -3.65128 -1.75996 73 90 120
-3.87172 -2.87481 -1.7755 69 80 100
-3.89972 -2.86061 -1.7816 67 78 96
-3.90342 -2.8456 -1.77929 66 78 94
-3.91888 -2.8303 -1.78081 66 75 90
-3.91948 -2.81305 -1.77696 66 75 92
-3.93635 -2.80792 -1.78154 68 78 94
-3.95656 -2.77841 -1.78152 67 75 91
-4.59724 -1.96375 -1.80453 67 81 107
-4.62456 -1.95944 -1.81423 67 81 107
-4.85531 -1.59212 -1.80635 70 84 111
-4.86822 -1.57991 -1.80999 70 84 111
-4.98746 -1.38575 -1.80386 76 90 117
-4.98198 -1.36774 -1.80024 76 91 120
-5.23447 -1.11474 -1.82266 64 79 102
-5.22424 -1.09569 -1.81774 73 85 109
-5.68642 -0.398042 -1.80936 70 85 108
-5.68488 -0.380126 -1.80867 66 80 104
-5.89893 -0.0763714 -1.80889 70 82 106
-2.11444 -5.34947 -1.75811 91 106 135
-2.47746 -4.83701 -1.76074 89 108 141
-2.6566 -4.51472 -1.74793 90 106 140
-2.85595 -4.1869 -1.73999 86 104 140
-2.94402 -4.03559 -1.73643 80 96 130
-2.95053 -4.0194 -1.73276 79 97 130
-3.24986 -3.69135 -1.7585 79 96 126
-3.25826 -3.67899 -1.75699 80 97 127
-3.71308 -3.04702 -1.76648 65 80 103
-3.72794 -3.03166 -1.76723 62 76 102
-3.75351 -3.0349 -1.77642 62 76 102
-3.74944 -3.01304 -1.76951 64 78 104
-3.77409 -3.00575 -1.77563 66 78 102
-3.76416 -2.97921 -1.76565 66 78 102
-3.80259 -2.99264 -1.78173 67 79 101
-3.79253 -2.96612 -1.77175 66 79 98
-3.81279 -2.95497 -1.77558 69 80 98
-3.81831 -2.94129 -1.77403 66 77 95
-3.83388 -2.93567 -1.77785 68 79 97
-3.84248 -2.91507 -1.77554 68 79 97
-3.8493 -2.90246 -1.77476 66 79 98
-3.86044 -2.89324 -1.77628 66 79 98
-3.90184 -2.88012 -1.78698 70 78 97
-3.96803 -2.80444 -1.79149 64 76 92
-3.97788 -2.7763 -1.7884 68 75 92
-3.98405 -2.7541 -1.78532 69 78 94
-3.99934 -2.74751 -1.78914 63 75 91
-3.99202 -2.72485 -1.78146 66 76 88
-4.01329 -2.72243 -1.78834 72 82 94
-4.03279 -2.70963 -1.79216 71 77 90
-4.01916 -2.68282 -1.78142 69 74 85
-4.03736 -2.67806 -1.78676 66 73 80
-4.04296 -2.65571 -1.78369 75 81 85
-4.05043 -2.64356 -1.78367 80 84 88
-4.06705 -2.63755 -1.78825 78 80 84
-4.08011 -2.62022 -1.78901 68 73 81
-4.08438 -2.60591 -1.78746 78 84 94
-4.09168 -2.59362 -1.78744 76 81 92
-4.09895 -2.58131 -1.78743 72 79 89
-4.62269 -1.93377 -1.80972 69 81 107
-4.62789 -1.91963 -1.8097 69 82 108
-4.63643 -1.90694 -1.81118 67 78 103
-4.86342 -1.56198 -1.80631 70 84 111
-4.98539 -1.35229 -1.80022 77 94 123
-5.2358 -1.07259 -1.82052 66 78 102
-5.67952 -0.361996 -1.80667 65 78 104
-5.82139 -0.166901 -1.80709 64 78 104
-5.91912 -0.0577905 -1.81584 71 85 111
-2.09733 -5.35147 -1.75681 89 104 133
-2.23482 -5.17801 -1.762 97 112 141
-2.46307 -4.84399 -1.76074 91 110 142
-2.63531 -4.52444 -1.74723 89 108 141
-2.83804 -4.21438 -1.74504 86 104 140
-2.8592 -4.22053 -1.75151 87 105 143
-2.93015 -4.041 -1.73497 80 99 131
-3.21162 -3.72422 -1.75852 79 94 125
-3.22937 -3.72359 -1.763 79 96 126
-3.23559 -3.70839 -1.76 79 96 126
-3.63596 -3.12922 -1.7635 61 77 103
-3.65943 -3.12168 -1.76885 62 76 103
-3.66146 -3.10469 -1.76501 61 77 103
-3.68141 -3.10363 -1.77112 62 76 102
-3.68195 -3.08539 -1.76651 63 77 103
-3.7123 -3.08355 -1.7757 63 77 103
-3.70156 -3.05561 -1.76496 65 77 103
-4.12575 -2.57278 -1.79507 78 84 94
-4.13139 -2.55936 -1.79429 81 85 96
-4.13698 -2.54592 -1.79351 81 85 96
-4.13557 -2.51935 -1.78737 77 84 94
-4.1614 -2.51861 -1.79654 79 83 95
-4.15429 -2.49731 -1.78963 76 85 98
-4.17776 -2.48622 -1.79575 75 84 99
-4.64109 -1.8842 -1.80967 67 77 102
-4.64613 -1.87 -1.80965 50 61 84
-4.86628 -1.53821 -1.80482 70 86 112
-4.83294 -1.51152 -1.78942 69 85 111
-4.84209 -1.49815 -1.7916 69 86 112
-5.00161 -1.33207 -1.80451 79 96 124
-4.99054 -1.31264 -1.79874 72 89 119
-5.23642 -1.0558 -1.8198 66 79 102
-5.81158 -0.148376 -1.80384 72 84 110
-5.90893 -0.0390115 -1.81265 69 83 109
-2.08485 -5.3678 -1.76068 90 105 134
-2.22011 -5.18575 -1.76266 97 112 141
-2.44101 -4.85438 -1.76074 90 109 139
-2.60772 -4.53778 -1.74654 88 107 140
-2.6202 -4.52866 -1.74584 88 107 140
-2.83139 -4.23208 -1.74937 88 106 142
-2.90324 -4.06666 -1.73718 80 99 131
-2.91922 -4.06445 -1.74011 80 99 131
-3.19962 -3.73207 -1.75778 77 92 123
-3.56611 -3.19866 -1.7605 63 79 105
-3.59915 -3.20052 -1.77122 67 80 106
-3.59074 -3.17353 -1.76124 67 79 105
-3.60798 -3.17043 -1.76583 63 77 103
-3.62202 -3.15441 -1.76582 62 78 103
-3.63652 -3.14866 -1.76887 61 77 102
-4.17995 -2.47073 -1.79343 84 91 109
-4.18682 -2.45811 -1.79342 80 85 105
-4.1905 -2.44357 -1.79187 71 76 98
-4.21857 -2.43495 -1.80028 64 72 90
-4.20465 -2.41001 -1.7903 60 67 93
-4.23366 -2.41037 -1.80101 62 74 98
-4.65454 -1.8572 -1.81112 72 82 94
-4.67609 -1.84144 -1.81709 80 85 97
-4.84642 -1.47505 -1.79084 71 86 113
-5.00636 -1.30054 -1.80375 73 90 120
-5.24434 -1.04044 -1.82187 69 84 107
-5.67653 -0.33512 -1.80532 71 83 107
-5.81871 -0.130365 -1.8064 68 82 108
-2.20471 -5.19167 -1.76266 95 110 139
-2.43035 -4.86983 -1.76414 89 105 138
-2.58999 -4.53693 -1.74305 89 108 141
-2.80447 -4.26028 -1.75297 91 107 141
-2.7998 -4.22341 -1.74001 88 106 140
-2.87 -4.08279 -1.73499 82 101 134
-2.88932 -4.07191 -1.73572 78 97 130
-3.15866 -3.7614 -1.75631 75 92 120
-3.17416 -3.75811 -1.75929 76 91 120
-3.1851 -3.74889 -1.75928 77 92 121
-3.52002 -3.24181 -1.75824 62 78 104
-3.55037 -3.24161 -1.76743 61 78 104
-3.54499 -3.21708 -1.75899 61 78 104
-3.56894 -3.22062 -1.76741 63 79 105
-4.22492 -2.38006 -1.7918 82 93 117
-4.24914 -2.3774 -1.80021 86 96 120
-4.23969 -2.3554 -1.79254 81 89 116
-4.26918 -2.34704 -1.80171 79 88 113
-4.2531 -2.32149 -1.79097 78 85 107
-4.6707 -1.82293 -1.81258 82 90 101
-4.66866 -1.80585 -1.80957 89 96 109
-4.67516 -1.79223 -1.8103 78 89 108
-4.88572 -1.47064 -1.80547 73 87 114
-4.88585 -1.45441 -1.80399 73 87 115
-5.00616 -1.27581 -1.80157 73 88 119
-5.24279 -1.01472 -1.81975 60 74 100
-5.68044 -0.317537 -1.80662 64 78 101
-5.80121 -0.11172 -1.80057 72 84 108
-2.05755 -5.36701 -1.75744 89 104 134
-2.17732 -5.18982 -1.75868 95 110 139
-2.41433 -4.87322 -1.76279 89 105 138
-2.5755 -4.55959 -1.74795 87 105 141
-2.77958 -4.2474 -1.74362 86 105 138
-2.87121 -4.11129 -1.74453 85 104 137
-3.12959 -3.78268 -1.75557 75 92 122
-3.14173 -3.77509 -1.75631 75 92 122
-3.47861 -3.28943 -1.75905 64 79 104
-3.50378 -3.29481 -1.76824 65 79 105
-3.50658 -3.26766 -1.76133 64 80 105
-3.52388 -3.26508 -1.76592 62 78 103
-4.27728 -2.31848 -1.79938 90 99 122
-4.27272 -2.29104 -1.79247 75 84 110
-4.27741 -2.27722 -1.79169 64 71 102
-4.28531 -2.26514 -1.79244 36 46 82
-4.28666 -2.24953 -1.79012 25 40 77
-4.68616 -1.77209 -1.81177 67 81 107
-4.69775 -1.76042 -1.81474 66 82 108
-4.86277 -1.43141 -1.79298 73 87 116
-5.0129 -1.26121 -1.80299 75 92 120
-5.01236 -1.24472 -1.80153 70 87 115
-5.223 -0.994168 -1.81133 68 80 102
-5.23441 -0.979454 -1.81481 65 77 101
-5.6843 -0.29993 -1.80792 68 83 106
-2.04382 -5.37963 -1.76002 89 105 133
-2.16256 -5.19738 -1.75934 98 112 139
-2.38765 -4.87302 -1.7587 91 107 140
-2.55948 -4.56192 -1.74585 85 103 139
-2.7641 -4.26572 -1.7465 85 104 136
-2.83613 -4.11052 -1.73648 83 101 137
-2.84713 -4.10079 -1.73574 85 104 137
-3.12188 -3.79617 -1.75782 75 92 122
-3.43136 -3.33112 -1.75679 67 81 107
-3.45127 -3.33161 -1.76291 65 79 105
-3.45828 -3.31883 -1.76137 66 80 107
-3.47043 -3.30094 -1.75983 65 81 107
-4.31428 -2.23957 -1.79853 19 33 69
-4.31391 -2.22304 -1.79545 41 54 86
-4.32655 -2.21338 -1.7985 36 51 77
-4.70758 -1.74802 -1.81697 66 83 109
-4.85426 -1.40463 -1.7871 73 88 117
-4.8649 -1.39157 -1.79001 73 88 117
-5.0173 -1.22137 -1.8015 72 87 114
-5.23291 -0.962363 -1.81339 63 78 101
-5.68101 -0.273058 -1.80657 71 83 109
-5.81026 -0.0846208 -1.80377 72 84 108
-2.02553 -5.37777 -1.75744 87 104 132
-2.15028 -5.21198 -1.76264 97 111 138
-2.36007 -4.8898 -1.76007 89 108 141
-2.37906 -4.89351 -1.76415 89 106 139
-2.54772 -4.57252 -1.74726 84 103 137
-2.74076 -4.28468 -1.74795 89 108 140
-2.75806 -4.2849 -1.75155 84 101 134
-2.81468 -4.11798 -1.73428 84 102 138
-3.0803 -3.82454 -1.75635 76 93 123
-3.09584 -3.82161 -1.75933 76 93 123
-3.10919 -3.81563 -1.76082 76 93 123
-3.38611 -3.37473 -1.75606 63 79 104
-3.40476 -3.37417 -1.76142 64 80 105
-3.41192 -3.36151 -1.75987 64 78 104
-3.43071 -3.35047 -1.76217 65 79 105
-4.32458 -2.18774 -1.79312 42 59 86
-4.33715 -2.17799 -1.79616 45 61 87
-4.35955 -2.17321 -1.80381 45 60 83
-4.3557 -2.14671 -1.79766 47 59 81
-4.70798 -1.72372 -1.81396 67 84 110
-4.70731 -1.70731 -1.81169 69 84 111
-4.72219 -1.69676 -1.81616 65 82 108
-4.91308 -1.38898 -1.8083 74 89 118
-5.01845 -1.20534 -1.80076 77 93 119
-5.24389 -0.939001 -1.81616 65 79 103
-5.6885 -0.255566 -1.80919 67 81 107
-5.81151 -0.0664332 -1.80439 69 83 108
-2.53125 -4.59169 -1.75076 85 104 137
-2.72596 -4.30447 -1.75155 84 103 135
-2.78957 -4.13247 -1.73356 84 102 137
-2.81252 -4.14175 -1.74162 86 104 140
-3.08327 -3.85291 -1.76608 76 93 123
-3.3514 -3.40921 -1.75609 67 81 107
-3.36124 -3.3994 -1.75608 66 80 106
-3.37861 -3.39765 -1.76067 64 76 102
-4.36652 -2.13595 -1.79994 45 55 79
-4.36572 -2.11941 -1.79686 47 57 77
-4.37646 -2.10859 -1.79914 44 54 73
-4.71885 -1.67117 -1.81165 68 82 109
-4.91151 -1.36408 -1.80535 74 89 118
-4.90053 -1.3449 -1.79947 75 90 119
-5.04306 -1.19508 -1.80937 78 94 120
-5.0278 -1.17503 -1.80216 71 85 112
-5.23486 -0.92064 -1.81194 65 77 101
-5.68651 -0.237672 -1.8085 69 82 107
-5.80704 -0.0481574 -1.80307 72 87 110
-2.00214 -5.38931 -1.75871 89 105 132
-2.09697 -5.18517 -1.74742 87 102 131
-2.12602 -5.21872 -1.76197 91 106 135
-2.34216 -4.91007 -1.76415 90 109 141
-2.49996 -4.59763 -1.74727 86 105 138
-2.51266 -4.58884 -1.74656 86 105 138
-2.70776 -4.30247 -1.74724 84 101 133
-2.78857 -4.17284 -1.74676 87 106 139
-3.02931 -3.86416 -1.75637 75 91 122
-3.04383 -3.85995 -1.75861 74 90 120
-3.05509 -3.85116 -1.7586 75 92 121
-3.30887 -3.43505 -1.75152 64 80 106
-3.3275 -3.43495 -1.75687 66 82 108
-3.33616 -3.42386 -1.7561 68 84 110
-4.37885 -2.0854 -1.79606 48 57 77
-4.38617 -2.07289 -1.79681 45 56 75
-4.38846 -2.05796 -1.79526 42 53 70
-4.72843 -1.6586 -1.81388 68 83 109
-4.73449 -1.64471 -1.81461 68 83 109
-4.73878 -1.63017 -1.81459 68 83 109
-4.92358 -1.33495 -1.8075 73 90 120
-5.02337 -1.14944 -1.79854 71 85 109
-5.24239 -0.905128 -1.81402 66 78 101
-5.65999 -0.21895 -1.79924 69 81 105
-1.98551 -5.39273 -1.75806 90 105 134
-2.32391 -4.90794 -1.76075 88 107 139
-2.47501 -4.59982 -1.74376 82 101 134
-2.67961 -4.31292 -1.74509 83 102 134
-2.70233 -4.32318 -1.753 86 103 133
-2.74865 -4.16335 -1.73504 85 104 136
-2.76374 -4.16023 -1.73723 87 106 139
-3.0119 -3.87719 -1.75638 77 94 124
-3.28598 -3.46183 -1.75307 69 86 112
-3.31498 -3.46255 -1.76149 67 83 109
-4.39225 -2.03557 -1.79294 38 49 71
-4.42116 -2.03318 -1.80365 41 53 73
-4.41494 -2.01427 -1.79827 58 70 91
-4.74205 -1.6071 -1.81307 68 83 112
-4.92352 -1.31054 -1.80528 73 90 120
-5.05149 -1.13977 -1.80859 68 82 109
-5.23648 -0.878919 -1.8105 69 81 99
-5.8055 -0.00262225 -1.80303 68 83 109
-2.08952 -5.21385 -1.75601 90 105 134
-2.31431 -4.92657 -1.76552 89 108 140
-2.46637 -4.6169 -1.74797 82 101 134
-2.67264 -4.34718 -1.75517 85 104 134
-2.73281 -4.17985 -1.73724 85 104 136
-2.98812 -3.89292 -1.75564 76 91 122
-3.01223 -3.90256 -1.76461 77 92 123
-3.25636 -3.5021 -1.75692 73 88 117
-3.26953 -3.48508 -1.75539 70 87 115
-3.29429 -3.49215 -1.76457 69 86 114
-4.42352 -1.99411 -1.79825 58 69 89
-4.43394 -1.98294 -1.80053 60 71 91
-4.43423 -1.96716 -1.79821 55 67 90
-4.75321 -1.59497 -1.81604 68 83 111
-4.74333 -1.57552 -1.81004 69 85 111
-4.92312 -1.29428 -1.8038 74 91 121
-4.93527 -1.28126 -1.80744 74 91 121
-5.07233 -1.12825 -1.81575 66 82 108
-5.04403 -1.09721 -1.80279 56 71 97
-5.24018 -0.862763 -1.81117 74 80 96
-5.23275 -0.844847 -1.80765 62 71 81
-5.66385 -0.19245 -1.80053 70 82 107
-2.06981 -5.20685 -1.75138 88 105 134
-2.29893 -4.93127 -1.76484 88 107 139
-2.45192 -4.62217 -1.74728 84 103 135
-2.64818 -4.33348 -1.74582 85 103 135
-2.73105 -4.20516 -1.74531 84 103 134
-2.97372 -3.91033 -1.75789 77 94 122
-3.21427 -3.52801 -1.75312 73 89 115
-3.23722 -3.52237 -1.75771 73 89 115
-3.23774 -3.50177 -1.75157 73 89 115
-4.45302 -1.95969 -1.80432 59 74 97
-4.45289 -1.93559 -1.80048 50 64 90
-4.76036 -1.55724 -1.81451 67 84 110
-4.92397 -1.26224 -1.80156 75 92 122
-5.05386 -1.08315 -1.80564 59 75 101
-5.68616 -0.175291 -1.80843 68 80 105
-2.04441 -5.20961 -1.74938 92 109 139
-2.27362 -4.93388 -1.76211 90 109 141
-2.43664 -4.62571 -1.74588 86 105 137
-2.61307 -4.3472 -1.74366 83 102 134
-2.64781 -4.36393 -1.7559 85 104 136
-2.68659 -4.20209 -1.73505 83 102 133
-2.71018 -4.19856 -1.73872 90 107 137
-2.94869 -3.92425 -1.75641 78 95 125
-2.97166 -3.93263 -1.76463 78 95 125
-3.19376 -3.5466 -1.75313 73 88 117
-3.21356 -3.5486 -1.75926 72 89 116
-4.46824 -1.92647 -1.80505 52 65 91
-4.45986 -1.90696 -1.79891 46 60 86
-4.7907 -1.55148 -1.8257 67 84 110
-4.77184 -1.52913 -1.81596 67 82 111
-4.94157 -1.24237 -1.80666 74 91 121
-4.94457 -1.22697 -1.80664 74 91 121
-5.05273 -1.06663 -1.80418 63 79 105
-5.24134 -0.82102 -1.80973 72 60 75
-5.2171 -0.800695 -1.79991 74 67 78
-2.03012 -5.21853 -1.7507 90 107 137
-2.25474 -4.92973 -1.75803 91 110 142
-2.42534 -4.65626 -1.75428 81 99 131
-2.61334 -4.37928 -1.75447 85 104 136
-2.67897 -4.21774 -1.73872 83 102 132
-2.92358 -3.95142 -1.75941 76 95 125
-2.931 -3.93688 -1.75641 77 95 125
-3.16752 -3.56964 -1.75315 73 88 117
-3.19294 -3.56719 -1.75927 74 89 118
-4.49339 -1.89748 -1.81038 46 61 87
-4.47806 -1.8751 -1.80117 53 67 90
-4.48818 -1.86359 -1.80345 54 64 89
-4.79751 -1.51347 -1.82417 69 84 113
-4.80666 -1.50043 -1.82639 69 85 111
-4.9457 -1.21113 -1.80589 76 91 120
-5.05502 -1.04267 -1.80344 63 79 105
-5.1965 -0.781063 -1.79149 93 85 83
-2.00995 -5.2095 -1.74541 93 110 140
-2.24697 -4.95344 -1.76484 92 111 141
-2.40681 -4.65293 -1.75008 83 99 132
-2.59518 -4.37676 -1.75015 87 104 139
-2.6533 -4.23128 -1.738 83 102 134
-2.66567 -4.22373 -1.738 81 102 133
-2.9014 -3.96962 -1.76017 79 96 126
-2.90687 -3.95203 -1.75567 82 99 129
-3.1491 -3.59079 -1.7547 74 89 118
-3.16654 -3.59022 -1.75929 75 90 119
-4.48922 -1.84021 -1.80037 63 73 90
-4.50094 -1.82932 -1.80341 58 66 81
-4.79638 -1.4811 -1.82039 69 85 111
-4.77012 -1.45679 -1.80765 70 86 112
-4.94321 -1.18629 -1.80294 75 90 119
-4.92433 -1.16582 -1.79413 76 91 120
-5.05922 -1.02732 -1.80414 71 86 111
-5.05973 -1.0112 -1.8034 73 85 108
-5.24621 -0.771566 -1.80966 106 96 76
-5.69506 -0.13089 -1.81169 76 89 111
-5.63425 -0.112105 -1.79054 71 87 112
-2.22438 -4.96275 -1.76484 92 109 139
-2.40176 -4.67834 -1.7578 86 103 136
-2.57017 -4.3778 -1.74583 84 103 135
-2.63242 -4.2393 -1.73653 86 103 133
-2.88047 -3.97735 -1.75793 79 96 126
-3.12124 -3.634 -1.76085 74 89 118
-3.11558 -3.60481 -1.75011 74 89 118
-3.13764 -3.61016 -1.75777 74 89 118
-3.62638 -2.95917 -1.77515 67 79 103
-3.66757 -2.9486 -1.78605 75 86 105
-3.6648 -2.92805 -1.77979 79 90 108
-3.69853 -2.93836 -1.79382 74 85 103
-3.69179 -2.90515 -1.78288 70 83 102
-3.71852 -2.90931 -1.79301 69 82 101
-3.70694 -2.88173 -1.78207 70 82 104
-3.73971 -2.88125 -1.79298 68 81 100
-3.73649 -2.86071 -1.78672 70 82 98
-3.7504 -2.85407 -1.78983 70 82 98
-3.75712 -2.84161 -1.78903 67 78 96
-3.77258 -2.82688 -1.79058 69 81 99
-3.78064 -2.8155 -1.79056 69 80 98
-3.79303 -2.80749 -1.79289 68 79 97
-3.79671 -2.78354 -1.78819 67 79 97
-3.82506 -2.78778 -1.7991 68 81 100
-3.81546 -2.76281 -1.78972 70 81 103
-3.82475 -2.74328 -1.78815 67 78 96
-3.83842 -2.73615 -1.79125 66 77 97
-3.84916 -2.72674 -1.79279 66 79 98
-3.84951 -2.70961 -1.78888 66 79 96
-3.86443 -2.69431 -1.79042 67 78 96
-3.87803 -2.68696 -1.79353 65 76 94
-3.88266 -2.67305 -1.79195 67 78 96
-3.89593 -2.65648 -1.79271 64 77 96
-3.90646 -2.64682 -1.79426 65 78 97
-3.92146 -2.6403 -1.79814 66 79 98
-3.92555 -2.61717 -1.79423 67 80 99
-3.939 -2.60948 -1.79733 69 80 100
-3.9388 -2.59229 -1.79341 66 79 98
-3.96431 -2.59285 -1.80276 65 80 101
-3.95898 -2.56341 -1.79416 54 70 96
-3.983 -2.56273 -1.80272 43 58 90
-3.97493 -2.54037 -1.79491 57 72 107
-4.51265 -1.81838 -1.80646 76 82 97
-4.53117 -1.81014 -1.81257 85 91 103
-4.77783 -1.43532 -1.80838 71 86 115
-4.95784 -1.15755 -1.80656 77 92 123
-5.05472 -0.993962 -1.8005 66 73 94
-5.23963 -0.745541 -1.80614 116 105 65
-1.99325 -5.23884 -1.75333 96 112 145
-2.2123 -4.97591 -1.76756 93 110 140
-2.38528 -4.69862 -1.762 85 104 136
-2.54084 -4.38559 -1.74296 86 105 137
-2.56405 -4.39828 -1.7516 80 99 129
-2.62547 -4.25645 -1.74094 84 101 131
-2.86411 -4.00464 -1.76318 79 98 130
-2.86879 -3.98555 -1.75793 79 96 127
-3.08861 -3.64917 -1.75703 76 92 118
-3.09577 -3.63589 -1.75472 76 91 120
-3.56926 -3.03833 -1.77758 63 77 103
-3.59922 -3.03701 -1.78693 62 76 102
-3.59009 -3.01029 -1.77677 71 83 108
-3.60976 -3.00928 -1.783 70 80 105
-3.61207 -2.98331 -1.77674 69 81 103
-3.6248 -2.97609 -1.77907 67 79 102
-3.64602 -2.95788 -1.78138 66 80 99
-4.00449 -2.53448 -1.80425 123 145 169
-3.99472 -2.51116 -1.79565 131 150 180
-4.01102 -2.50507 -1.80032 132 151 183
-4.01892 -2.48477 -1.79874 134 150 184
-4.03208 -2.47654 -1.80184 134 153 185
-4.03438 -2.4613 -1.79948 130 149 179
-4.04595 -2.45198 -1.80181 134 153 185
-4.04889 -2.42861 -1.79789 135 154 187
-4.52163 -1.78253 -1.80489 59 71 92
-4.51948 -1.76599 -1.8018 63 79 105
-4.52757 -1.75353 -1.80332 64 81 109
-4.79032 -1.42335 -1.8121 72 87 116
-4.79035 -1.40752 -1.81058 71 86 115
-4.95328 -1.13231 -1.80287 76 91 120
-5.08224 -0.975092 -1.80983 81 84 103
-5.24479 -0.729557 -1.80752 115 102 60
-5.64126 -0.0945213 -1.79315 69 84 109
-1.97654 -5.24043 -1.752 97 113 146
-2.18872 -4.95923 -1.75872 92 109 139
-2.37296 -4.70871 -1.7634 85 104 136
-2.60754 -4.25415 -1.73654 79 98 130
-2.83909 -4.00588 -1.75794 81 97 130
-3.0689 -3.64641 -1.75091 77 92 119
-3.50051 -3.09705 -1.77142 64 78 104
-3.53092 -3.10672 -1.78389 63 77 103
-3.52237 -3.07984 -1.77373 63 77 103
-3.54069 -3.07805 -1.77918 61 77 102
-3.55032 -3.0584 -1.77683 64 78 104
-3.57002 -3.05768 -1.78305 66 78 104
-4.07129 -2.42603 -1.80567 140 160 193
-4.05932 -2.402 -1.7963 139 159 191
-4.09021 -2.39596 -1.80642 143 162 192
-4.08275 -2.37488 -1.79938 142 161 191
-4.09726 -2.3672 -1.80326 141 162 193
-4.10444 -2.34657 -1.80169 144 165 196
-4.53664 -1.73344 -1.80407 66 85 111
-4.53603 -1.71759 -1.80175 67 84 110
-4.78896 -1.38325 -1.80757 73 88 117
-4.79421 -1.36903 -1.8083 73 88 117
-4.95412 -1.11646 -1.80212 77 92 122
-5.06246 -0.954968 -1.80118 78 80 95
-5.25174 -0.713784 -1.80959 101 91 55
-5.67846 -0.0682565 -1.80633 67 82 105
-1.96099 -5.24555 -1.752 96 112 145
-2.15414 -4.93664 -1.74646 95 112 142
-2.35593 -4.70855 -1.7606 85 104 136
-2.51046 -4.40835 -1.74513 85 102 132
-2.52433 -4.40293 -1.74584 85 102 132
-2.5875 -4.26355 -1.73581 77 96 128
-2.81555 -4.02197 -1.75795 82 101 133
-2.82535 -4.01081 -1.75645 81 97 130
-3.03794 -3.68595 -1.75552 74 91 119
-3.04414 -3.67133 -1.75245 75 90 119
-3.06722 -3.67863 -1.76087 75 90 119
-3.4454 -3.15923 -1.77148 64 78 105
-3.46772 -3.16179 -1.77927 65 81 107
-3.46857 -3.13346 -1.77146 61 78 104
-3.47628 -3.12182 -1.77066 62 79 105
-3.50929 -3.13428 -1.78469 63 77 104
-4.11889 -2.33876 -1.80557 144 164 196
-4.11432 -2.31965 -1.80009 142 161 194
-4.11759 -2.30524 -1.79851 145 161 194
-4.1308 -2.28823 -1.80005 147 164 194
-4.14036 -2.27746 -1.8016 147 163 192
-4.54744 -1.70634 -1.80479 69 83 112
-4.81362 -1.35896 -1.81501 73 88 118
-4.96216 -1.10219 -1.80429 76 91 122
-4.97379 -1.08866 -1.80793 76 91 122
-5.05726 -0.937795 -1.79828 68 70 84
-5.23931 -0.687122 -1.80397 93 83 58
-2.13876 -4.94081 -1.74578 94 111 141
-2.33614 -4.72183 -1.762 85 104 136
-2.50992 -4.44041 -1.75593 84 101 131
-2.57588 -4.27247 -1.73655 81 100 132
-2.79447 -4.0292 -1.75571 79 98 130
-3.01172 -3.70915 -1.7563 76 91 120
-3.02608 -3.6932 -1.75477 75 90 119
-3.40223 -3.20383 -1.77075 65 79 105
-3.43231 -3.21453 -1.78322 63 80 106
-3.42725 -3.19001 -1.77463 65 79 105
-3.44674 -3.17983 -1.77774 65 81 107
-4.14827 -2.26574 -1.80236 151 166 196
-4.16933 -2.25307 -1.8078 147 162 192
-4.15953 -2.23133 -1.79998 150 167 195
-4.16248 -2.21684 -1.7984 147 164 192
-4.55631 -1.68612 -1.80554 67 83 109
-4.57458 -1.67732 -1.81165 68 84 110
-4.56855 -1.6595 -1.80703 69 83 111
-4.84046 -1.34288 -1.82396 72 89 119
-4.97434 -1.06461 -1.80645 76 91 120
-5.06808 -0.915542 -1.80113 105 103 112
-5.05724 -0.897388 -1.79608 86 85 101
-5.23686 -0.670175 -1.80255 94 86 58
-5.68908 -0.0504842 -1.81027 71 86 109
-1.94721 -5.28551 -1.76388 98 115 147
-2.12534 -4.9502 -1.74715 95 112 142
-2.32673 -4.73861 -1.76621 87 106 136
-2.48603 -4.42573 -1.74657 84 102 132
-2.54585 -4.29379 -1.73802 83 100 132
-2.57493 -4.30091 -1.74608 82 101 133
-2.77465 -4.05132 -1.75871 81 100 132
-2.79331 -4.05449 -1.76395 80 99 131
-2.98678 -3.72193 -1.75402 76 91 119
-2.98988 -3.70298 -1.74864 75 92 119
-3.3559 -3.2451 -1.76846 63 80 106
-3.37811 -3.24832 -1.77625 63 79 105
-3.38108 -3.23168 -1.77234 64 79 105
-3.41363 -3.23491 -1.78325 67 79 105
-4.19144 -2.2084 -1.80775 144 163 193
-4.1927 -2.19295 -1.80539 146 166 195
-4.20199 -2.18188 -1.80693 150 165 194
-4.20494 -2.15912 -1.80379 148 163 189
-4.5694 -1.64426 -1.80548 68 83 110
-4.84737 -1.32898 -1.82543 72 89 119
-4.85243 -1.31453 -1.82616 72 89 119
-4.93675 -1.0408 -1.79031 76 92 120
-5.06284 -0.882298 -1.79749 77 73 92
-5.24179 -0.654136 -1.80393 98 86 61
-5.66573 -0.0326037 -1.80233 71 83 107
-1.93536 -5.30314 -1.7685 99 116 146
-2.30893 -4.73654 -1.76271 86 105 137
-2.4766 -4.45792 -1.75593 82 101 133
-2.54114 -4.31567 -1.74462 82 101 133
-2.75986 -4.05441 -1.75647 80 99 131
-2.96461 -3.72729 -1.75019 76 91 120
-3.32233 -3.2798 -1.7685 61 78 104
-3.33818 -3.2766 -1.77239 62 78 105
-3.35912 -3.27865 -1.7794 64 79 108
-4.20277 -2.14194 -1.79987 151 165 191
-4.21355 -2.13166 -1.8022 150 167 191
-4.24223 -2.13073 -1.81309 151 168 193
-4.57277 -1.62203 -1.80393 68 83 112
-4.58045 -1.60926 -1.80544 67 82 111
-4.57764 -1.59279 -1.80236 68 83 112
-4.84699 -1.28912 -1.82165 73 90 120
-4.94274 -1.02613 -1.79176 76 91 120
-5.0624 -0.857984 -1.79603 100 98 103
-5.25508 -0.630661 -1.8081 103 91 69
-5.67624 -0.0147958 -1.80626 72 84 108
-2.11372 -4.9889 -1.75871 95 112 142
-2.28598 -4.74274 -1.7613 85 104 136
-2.45526 -4.44807 -1.74873 84 103 135
-2.52674 -4.31953 -1.74316 82 101 133
-2.74822 -4.07723 -1.76171 79 98 130
-2.9461 -3.74869 -1.7525 76 91 120
-2.96463 -3.75069 -1.75786 75 91 120
-3.29714 -3.32357 -1.774 70 86 112
-3.29549 -3.30164 -1.76696 68 84 110
-3.31764 -3.30531 -1.77475 67 84 110
-4.2351 -2.10278 -1.80528 146 163 188
-4.25232 -2.0957 -1.81072 147 163 187
-4.24166 -2.07432 -1.8029 143 157 184
-4.58948 -1.57356 -1.80464 68 83 112
-4.85016 -1.27417 -1.82163 72 89 119
-4.85865 -1.26065 -1.82386 72 89 119
-4.94117 -1.00189 -1.78954 75 92 122
-4.94704 -0.987164 -1.79098 78 93 124
-5.05686 -0.840935 -1.79314 100 87 85
-5.24502 -0.612867 -1.80388 99 92 73
-2.10013 -4.99822 -1.76008 96 113 143
-2.26974 -4.74395 -1.75921 85 104 136
-2.4502 -4.47172 -1.75594 85 104 137
-2.51058 -4.32005 -1.74023 84 103 135
-2.71669 -4.07994 -1.75574 79 98 130
-2.7315 -4.07702 -1.75798 79 98 130
-2.91508 -3.76514 -1.75021 77 94 122
-2.9368 -3.7718 -1.75787 75 92 122
-3.25408 -3.348 -1.76857 71 82 110
-3.27742 -3.35335 -1.77714 68 84 110
-3.27223 -3.32732 -1.76776 70 86 111
-4.27033 -2.06477 -1.81224 144 158 183
-4.2628 -2.0451 -1.80598 138 154 179
-4.27497 -2.03531 -1.80908 147 163 189
-4.59527 -1.5601 -1.80539 68 83 112
-4.59928 -1.54602 -1.80537 68 83 112
-4.87067 -1.24805 -1.82757 73 90 120
-4.94011 -0.969957 -1.7873 79 93 122
-5.06047 -0.825485 -1.79383 85 75 85
-2.08142 -4.99336 -1.75599 94 111 141
-2.26084 -4.7623 -1.76411 85 104 136
-2.42508 -4.47186 -1.75162 85 104 136
-2.49196 -4.33223 -1.74096 83 102 134
-2.70107 -4.09621 -1.75798 81 99 131
-2.89838 -3.78927 -1.75406 78 94 120
-2.91156 -3.784 -1.75558 78 93 122
-3.23043 -3.37335 -1.76937 70 84 110
-3.25908 -3.37406 -1.77794 73 87 113
-4.26886 -2.00836 -1.80205 129 143 167
-4.3008 -2.00815 -1.81451 56 72 101
-4.2814 -1.98296 -1.80279 23 34 72
-4.59865 -1.52253 -1.80228 68 83 112
-4.6078 -1.51017 -1.80456 69 84 113
-4.84517 -1.21752 -1.81484 73 90 120
-4.83733 -1.19979 -1.81034 74 91 121
-4.94739 -0.947485 -1.78874 81 94 124
-5.06033 -0.809401 -1.79309 78 70 84
-2.06589 -4.99727 -1.75531 91 109 141
-2.24456 -4.7634 -1.76201 85 104 136
-2.41344 -4.48198 -1.75306 84 103 135
-2.46652 -4.34613 -1.74097 83 102 134
-2.48609 -4.3524 -1.74683 83 102 134
-2.67697 -4.11137 -1.75799 79 98 130
-2.69368 -4.11183 -1.76173 80 99 131
-2.86395 -3.80071 -1.74947 79 96 126
-2.88136 -3.80164 -1.75406 76 93 123
-3.18192 -3.4118 -1.76708 71 87 113
-3.20513 -3.41768 -1.77565 71 86 112
-3.20345 -3.38408 -1.76471 74 88 115
-3.23036 -3.39392 -1.77563 71 85 111
-4.3117 -1.98175 -1.81447 19 34 73
-4.2969 -1.95089 -1.80353 44 56 81
-4.3205 -1.9463 -1.81209 43 55 72
-4.61692 -1.49776 -1.80684 69 83 112
-4.61899 -1.48303 -1.80605 69 84 113
-4.87791 -1.19447 -1.82601 74 89 118
-4.98233 -0.93808 -1.8019 82 93 122
-5.05954 -0.785136 -1.79163 75 69 82
-2.0369 -4.98797 -1.7485 94 110 143
-2.39227 -4.47181 -1.74586 84 103 135
-2.44776 -4.35811 -1.7417 82 101 134
-2.66114 -4.12747 -1.76024 81 100 132
-2.85704 -3.81494 -1.75254 79 95 125
-3.1482 -3.42534 -1.76163 76 92 118
-3.18396 -3.43515 -1.77489 71 88 114
-4.31077 -1.92606 -1.80505 41 54 69
-4.33573 -1.91389 -1.81283 42 53 70
-4.32415 -1.89294 -1.80501 42 51 69
-4.62506 -1.46177 -1.80603 70 85 116
-4.86646 -1.16783 -1.81926 73 88 119
-4.97705 -0.921183 -1.79895 77 93 119
-4.93698 -0.89815 -1.78209 78 94 122
-5.06664 -0.770234 -1.79377 76 73 80
-2.22299 -4.77272 -1.76201 86 105 137
-2.37901 -4.49699 -1.75234 82 101 133
-2.43162 -4.3583 -1.73877 84 103 135
-2.64444 -4.12688 -1.7565 81 100 132
-2.83388 -3.84281 -1.75638 75 90 119
-2.84509 -3.83473 -1.75637 80 95 124
-3.13408 -3.45088 -1.76556 74 88 117
-3.15365 -3.45289 -1.77179 74 90 116
-4.33932 -1.88421 -1.80967 42 51 66
-4.34735 -1.86421 -1.80966 39 50 67
-4.63053 -1.44813 -1.80678 71 86 115
-4.62891 -1.43228 -1.80446 71 86 115
-4.88542 -1.1568 -1.82597 75 90 119
-5.06817 -0.754428 -1.79375 73 73 78
-2.0294 -5.0148 -1.75667 98 114 147
-2.20957 -4.7806 -1.76271 87 104 137
-2.36103 -4.49343 -1.74802 86 102 135
-2.42132 -4.37005 -1.74097 85 104 136
-2.62104 -4.14328 -1.75726 84 100 133
-2.63413 -4.13752 -1.758 80 99 131
-2.81546 -3.8401 -1.75102 75 92 122
-3.10607 -3.47101 -1.76402 71 88 114
-3.13935 -3.47848 -1.77571 73 87 116
-4.37254 -1.85979 -1.81899 33 46 64
-4.35733 -1.83748 -1.80962 63 75 92
-4.62061 -1.40664 -1.79832 69 86 116
-4.88096 -1.13995 -1.82296 74 89 118
-4.94941 -0.876573 -1.78573 81 96 122
-4.94759 -0.860473 -1.78424 79 97 121
-5.06895 -0.730432 -1.793 76 76 78
-2.01321 -5.01676 -1.75531 100 116 149
-2.19471 -4.78497 -1.76201 87 103 136
-2.33438 -4.50647 -1.74803 85 104 135
-2.3485 -4.50167 -1.74875 83 102 134
-2.40161 -4.38014 -1.74097 83 102 134
-2.60411 -4.15752 -1.75875 81 100 132
-2.80126 -3.85666 -1.75332 81 98 128
-3.0816 -3.51709 -1.77185 72 87 116
-3.08459 -3.48778 -1.76326 72 88 114
-3.11228 -3.50005 -1.77495 71 88 116
-3.60729 -2.76852 -1.77633 68 80 102
-3.63156 -2.75347 -1.78111 66 78 100
-3.64221 -2.73588 -1.78029 69 81 105
-3.64557 -2.72152 -1.77787 64 76 100
-3.65761 -2.71384 -1.78026 66 78 102
-3.66965 -2.70609 -1.78265 65 77 100
-3.68151 -2.68943 -1.78264 62 77 98
-3.68469 -2.675 -1.78022 66 78 100
-3.69811 -2.66821 -1.78341 68 79 99
-3.70536 -2.64815 -1.78099 66 79 98
-3.7128 -2.63692 -1.78097 65 77 99
-3.72764 -2.63104 -1.78496 65 77 99
-3.742 -2.59956 -1.78253 70 82 104
-4.36563 -1.82555 -1.81116 44 52 72
-4.3683 -1.80324 -1.8088 79 88 93
-4.37651 -1.79125 -1.81034 86 87 91
-4.64004 -1.39727 -1.80519 70 87 117
-4.64178 -1.38249 -1.8044 71 88 118
-4.88542 -1.11733 -1.82294 74 91 121
-4.88443 -1.10138 -1.82142 72 89 119
-4.95122 -0.845299 -1.78495 81 94 119
-5.07221 -0.714886 -1.7937 79 76 73
-1.99032 -5.02492 -1.7553 96 112 145
-2.1639 -4.7715 -1.7529 86 105 138
-2.38956 -4.38848 -1.74171 84 103 135
-2.59188 -4.1648 -1.75876 82 100 132
-2.77464 -3.8663 -1.75026 79 96 126
-2.79811 -3.87693 -1.75946 80 97 127
-3.06673 -3.54232 -1.77577 74 89 118
-3.05977 -3.51177 -1.76406 70 85 114
-3.51773 -2.89533 -1.77887 67 82 105
-3.52317 -2.88238 -1.77726 67 82 105
-3.53135 -2.87178 -1.77724 67 79 103
-3.55104 -2.86168 -1.78124 69 81 103
-3.55635 -2.84865 -1.77962 67 79 101
-3.563 -2.83677 -1.7788 74 86 108
-3.57104 -2.82603 -1.77879 67 79 100
-3.58205 -2.80872 -1.77797 68 80 104
-3.59 -2.79792 -1.77796 66 78 102
-3.59505 -2.7848 -1.77634 67 78 102
-3.62808 -2.76781 -1.78352 67 79 101
-3.74957 -2.62155 -1.79056 63 77 103
-3.75678 -2.59349 -1.78652 70 83 102
-3.75955 -2.57893 -1.7841 67 82 103
-3.7693 -2.56076 -1.78328 49 65 97
-3.78402 -2.55452 -1.78727 72 90 126
-3.79569 -2.54614 -1.78966 125 144 177
-3.80376 -2.52677 -1.78804 133 153 180
-3.81083 -2.51521 -1.78803 128 147 177
-3.8209 -2.50567 -1.78961 133 151 184
-3.82266 -2.48215 -1.78479 134 152 185
-3.83571 -2.47456 -1.78798 136 155 187
-3.84414 -2.46389 -1.78877 135 155 187
-3.84793 -2.45019 -1.78715 141 160 193
-3.85397 -2.42963 -1.78473 139 159 193
-3.85763 -2.41592 -1.78311 143 164 200
-4.38468 -1.77922 -1.81188 64 62 77
-4.64383 -1.36006 -1.80285 71 88 118
-4.88699 -1.08629 -1.8214 75 92 122
-4.94877 -0.821173 -1.78273 83 98 120
-5.06987 -0.698524 -1.79224 82 77 71
-2.14698 -4.77051 -1.7501 85 104 136
-2.29603 -4.51229 -1.74371 83 100 130
-2.31544 -4.51954 -1.74947 86 105 135
-2.37423 -4.3901 -1.73951 84 103 135
-2.58758 -4.1867 -1.76549 81 98 128
-2.7714 -3.88652 -1.7564 78 95 125
-3.03237 -3.55457 -1.77033 75 91 117
-3.03477 -3.53555 -1.76486 75 91 117
-3.44443 -2.97407 -1.77576 66 80 106
-3.44194 -2.95399 -1.76934 65 79 105
-3.46272 -2.95458 -1.77654 63 77 103
-3.46562 -2.93935 -1.77332 66 80 106
-3.49102 -2.93455 -1.78052 66 81 104
-3.48413 -2.91088 -1.77169 67 82 105
-3.49796 -2.90518 -1.77488 66 81 104
-3.87053 -2.4081 -1.7863 146 168 205
-3.88409 -2.39235 -1.78788 144 167 201
-3.89695 -2.38438 -1.79107 145 168 202
-3.90511 -2.37347 -1.79185 144 167 201
-3.91385 -2.35464 -1.79104 148 168 203
-3.91723 -2.34079 -1.78942 152 168 201
-4.3939 -1.75968 -1.81264 46 49 68
-4.39519 -1.74476 -1.81106 40 49 66
-4.40152 -1.73193 -1.81182 36 47 65
-4.64898 -1.34631 -1.8036 70 87 117
-4.65588 -1.33304 -1.80511 70 87 117
-4.88772 -1.07077 -1.82063 75 92 122
-4.96144 -0.80743 -1.7871 86 100 125
-5.07408 -0.675044 -1.79294 88 82 69
-1.97593 -5.03209 -1.75599 91 110 142
-2.13494 -4.78163 -1.7522 85 104 136
-2.36374 -4.4017 -1.74171 84 103 135
-2.56339 -4.18772 -1.761 84 101 131
-2.7425 -3.90601 -1.75641 78 95 125
-2.7569 -3.90291 -1.7587 79 96 126
-3.01493 -3.57664 -1.77269 75 90 119
-3.01065 -3.54892 -1.76254 75 91 119
-3.37397 -3.03682 -1.77023 67 84 110
-3.38131 -3.02548 -1.76942 67 81 107
-3.3886 -3.01411 -1.7686 66 80 105
-3.40327 -3.00011 -1.76939 64 78 104
-3.41453 -2.99238 -1.77098 63 77 104
-3.42307 -2.98214 -1.77097 64 78 104
-3.92214 -2.32789 -1.7886 154 171 204
-3.9333 -2.31874 -1.79099 150 169 202
-3.94332 -2.30072 -1.79097 152 171 204
-3.93705 -2.28124 -1.78455 149 168 201
-3.95917 -2.27846 -1.79254 152 171 203
-4.41053 -1.71229 -1.81258 42 49 67
-4.42532 -1.70281 -1.81724 46 53 75
-4.65207 -1.31672 -1.80203 71 88 118
-4.89908 -1.04971 -1.8236 74 91 121
-4.89967 -1.03417 -1.82283 74 91 121
-4.95023 -0.789907 -1.78196 79 93 118
-5.06609 -0.657944 -1.78932 87 81 69
-1.95796 -5.02851 -1.75258 93 112 144
-2.12285 -4.81478 -1.76201 87 106 138
-2.29163 -4.53911 -1.75235 83 100 130
-2.3455 -4.41485 -1.74318 85 104 136
-2.53869 -4.20196 -1.76101 85 104 136
-2.54931 -4.19159 -1.75951 84 101 131
-2.70659 -3.91431 -1.75105 80 96 129
-2.72713 -3.9075 -1.75335 79 96 126
-2.97151 -3.57663 -1.76101 74 91 119
-2.99541 -3.58546 -1.77036 75 90 119
-3.33191 -3.0894 -1.77188 68 82 108
-3.33632 -3.06559 -1.76626 68 82 109
-3.34906 -3.05941 -1.76865 67 83 109
-3.35648 -3.04813 -1.76784 65 81 107
-3.9801 -2.26672 -1.79813 155 171 204
-3.96728 -2.24361 -1.7885 156 172 205
-3.99096 -2.24146 -1.79729 153 172 202
-3.99584 -2.22044 -1.79487 156 175 205
-3.99713 -2.20553 -1.79245 156 172 205
-4.42299 -1.68647 -1.8141 37 47 70
-4.4497 -1.68159 -1.82422 47 59 75
-4.66269 -1.29675 -1.8043 70 87 117
-4.66232 -1.28143 -1.80275 72 89 119
-4.86763 -1.01155 -1.80861 74 91 121
-4.95116 -0.766385 -1.7812 78 90 111
-5.0728 -0.642863 -1.79146 89 80 70
-1.93269 -5.02926 -1.74986 91 110 142
-2.10858 -4.8206 -1.76201 85 104 136
-2.26954 -4.54514 -1.75091 84 100 128
-2.33014 -4.4163 -1.74098 80 99 131
-2.69806 -3.92662 -1.75335 76 95 125
-2.94593 -3.59971 -1.7618 74 91 116
-2.97771 -3.60732 -1.77272 74 91 117
-3.28482 -3.12736 -1.76792 68 82 108
-3.29869 -3.11266 -1.76791 68 82 108
-3.30628 -3.10153 -1.7671 68 82 108
-3.31515 -3.09166 -1.76709 70 84 110
-4.008 -2.19597 -1.79484 151 172 203
-4.01241 -2.18282 -1.79402 148 171 202
-4.01696 -2.16175 -1.7916 154 170 203
-4.42932 -1.65039 -1.81172 36 48 69
-4.4388 -1.63871 -1.81404 33 45 69
-4.66545 -1.26709 -1.80273 69 88 120
-4.86242 -0.987038 -1.80485 74 91 121
-4.95266 -0.750881 -1.78118 80 92 117
-5.07305 -0.61886 -1.79072 95 89 65
-1.92229 -5.04876 -1.7553 92 111 143
-2.09498 -4.82811 -1.76271 85 104 136
-2.25093 -4.53938 -1.74587 85 105 132
-2.31636 -4.42105 -1.74025 78 97 129
-2.50388 -4.21296 -1.75802 85 104 136
-2.51626 -4.20597 -1.75802 87 106 139
-2.68754 -3.93577 -1.75412 75 94 124
-2.92372 -3.61536 -1.76104 73 90 116
-2.94859 -3.62601 -1.77118 74 91 117
-3.24243 -3.16975 -1.76717 71 86 109
-3.25152 -3.1601 -1.76716 70 85 108
-3.26554 -3.14556 -1.76715 71 86 109
-3.26936 -3.13065 -1.76393 69 84 107
-4.02933 -2.15294 -1.79479 151 170 203
-4.03844 -2.14233 -1.79637 152 172 204
-4.04601 -2.1229 -1.79555 153 172 204
-4.0583 -2.11391 -1.79874 155 173 205
-4.46373 -1.63288 -1.82338 34 46 68
-4.65801 -1.24223 -1.79735 69 88 120
-4.67711 -1.23214 -1.80422 68 87 119
-4.86282 -0.971617 -1.80408 74 91 121
-4.95596 -0.735636 -1.78189 77 89 110
-5.06857 -0.602322 -1.78854 88 83 61
-1.89866 -5.02708 -1.74509 92 111 143
-2.08134 -4.83559 -1.76341 87 106 138
-2.24476 -4.56272 -1.75307 86 105 136
-2.2972 -4.4323 -1.74098 83 102 134
-2.49401 -4.22485 -1.76027 88 104 136
-2.66498 -3.96561 -1.75949 81 98 128
-2.66788 -3.94392 -1.75259 81 98 128
-2.90867 -3.65294 -1.76964 76 91 119
-2.9237 -3.65039 -1.77275 75 92 120
-3.2074 -3.20064 -1.7656 71 85 111
-3.21532 -3.18979 -1.76479 69 83 109
-3.24226 -3.18857 -1.77279 70 84 111
-4.05269 -2.09553 -1.79311 153 172 204
-4.06818 -2.08025 -1.7963 159 176 206
-4.08037 -2.07111 -1.79949 158 175 203
-4.07293 -2.05194 -1.79306 157 176 206
-4.4723 -1.61287 -1.82414 30 41 63
-4.46788 -1.59588 -1.82022 28 40 64
-4.6783 -1.21728 -1.80344 70 86 119
-4.89222 -0.962161 -1.81527 72 89 119
-4.95184 -0.719336 -1.77967 81 93 111
-5.09916 -0.590089 -1.80002 89 84 59
-1.88591 -5.03932 -1.74781 92 111 143
-2.22043 -4.56334 -1.74947 84 103 136
-2.28261 -4.43525 -1.73952 83 102 134
-2.48072 -4.23011 -1.75952 85 104 136
-2.64192 -3.9541 -1.7503 81 96 127
-2.88291 -3.66383 -1.76654 76 91 120
-2.8904 -3.65095 -1.76419 77 92 121
-3.17207 -3.23109 -1.76403 69 85 110
-3.18264 -3.21296 -1.76162 71 85 111
-3.20197 -3.21413 -1.76802 71 85 111
-4.07359 -2.03697 -1.79064 161 177 206
-4.09541 -2.02475 -1.79703 156 173 201
-4.09432 -2.00893 -1.79381 160 175 204
-4.47377 -1.58274 -1.82098 30 42 65
-4.46826 -1.55764 -1.8155 37 49 74
-4.68133 -1.19523 -1.80265 69 88 119
-4.88311 -0.936896 -1.81002 72 89 119
-4.95796 -0.696564 -1.78112 79 91 107
-5.08161 -0.571963 -1.79281 102 95 73
-2.05677 -4.83709 -1.76061 90 107 137
-2.2019 -4.55737 -1.74443 85 104 136
-2.27187 -4.4466 -1.74172 84 103 135
-2.46577 -4.24867 -1.76326 85 104 136
-2.63698 -3.97258 -1.75567 82 97 128
-2.85887 -3.66587 -1.76109 77 92 121
-3.13272 -3.25704 -1.76006 71 87 113
-3.14346 -3.23906 -1.75765 72 86 112
-3.16026 -3.23779 -1.76244 71 85 111
-4.10796 -2.00039 -1.7978 160 177 207
-4.12474 -1.98546 -1.80178 158 175 205
-4.4671 -1.542 -1.81314 35 47 71
-4.47455 -1.52944 -1.81468 44 56 82
-4.68779 -1.18171 -1.80416 69 88 120
-4.69061 -1.16728 -1.80414 68 87 119
-4.96293 -0.681516 -1.78256 76 85 102
-5.11118 -0.551298 -1.80357 92 84 71
-1.86291 -5.04686 -1.74781 92 111 143
-2.04441 -4.84795 -1.76271 83 102 134
-2.19477 -4.5789 -1.75091 87 103 136
-2.25486 -4.46271 -1.74465 80 99 131
-2.44909 -4.2472 -1.75952 87 103 135
-2.60743 -3.99095 -1.75567 80 99 131
-2.6125 -3.97251 -1.7503 82 99 129
-2.84262 -3.68995 -1.765 77 92 121
-2.85875 -3.6892 -1.7689 76 91 120
-3.10173 -3.29201 -1.76169 72 88 113
-3.11513 -3.27687 -1.76088 71 87 112
-3.12703 -3.27035 -1.76247 71 85 112
-4.12679 -1.97119 -1.80016 159 176 206
-4.11887 -1.95219 -1.79374 161 178 206
-4.13547 -1.9371 -1.79772 153 169 194
-4.48546 -1.51807 -1.81778 38 50 76
-4.48479 -1.49489 -1.81464 49 61 87
-4.69517 -1.15328 -1.80489 69 88 120
-4.96232 -0.665723 -1.78181 82 91 107
-5.07682 -0.53143 -1.78989 88 84 80
-1.84674 -5.04824 -1.74645 93 112 144
-2.02811 -4.84824 -1.76061 85 104 136
-2.17698 -4.57454 -1.7466 87 103 136
-2.23795 -4.46042 -1.74098 81 100 132
-2.4374 -4.25563 -1.76027 85 103 135
-2.59293 -3.99344 -1.75338 80 99 131
-2.82068 -3.69473 -1.76111 76 93 119
-3.07313 -3.31935 -1.76173 71 87 113
-3.08147 -3.3089 -1.76091 73 87 114
-3.09345 -3.30252 -1.76251 76 90 116
-4.14398 -1.92594 -1.79931 150 165 192
-4.1425 -1.91011 -1.79608 150 157 188
-4.15727 -1.89404 -1.79927 147 158 184
-4.49559 -1.48343 -1.81774 48 61 85
-4.68713 -1.12856 -1.79951 71 88 118
-4.95713 -0.641469 -1.77886 87 93 107
-5.07389 -0.51516 -1.78843 77 76 74
-2.15828 -4.58861 -1.74875 91 107 140
-2.22632 -4.46994 -1.74245 81 100 133
-2.41733 -4.26404 -1.75952 83 102 134
-2.57587 -4.00586 -1.75414 82 98 131
-2.80416 -3.71862 -1.76503 75 90 119
-2.8203 -3.71805 -1.76892 76 92 119
-3.04746 -3.34052 -1.76094 73 87 114
-3.0571 -3.33153 -1.76093 72 89 115
-3.56007 -2.67179 -1.78005 66 78 102
-3.58897 -2.66936 -1.78988 63 78 101
-3.59936 -2.66086 -1.7915 62 77 100
-3.59107 -2.63771 -1.78247 65 77 101
-3.64056 -2.6176 -1.79555 67 79 103
-3.62758 -2.59124 -1.78405 66 78 100
-3.65205 -2.58474 -1.79142 66 78 100
-3.66225 -2.57595 -1.79304 66 78 100
-3.66948 -2.56494 -1.79303 68 80 104
-4.15233 -1.8767 -1.79445 146 158 182
-4.144 -1.85789 -1.78802 143 155 179
-4.16736 -1.85336 -1.79681 150 162 186
-4.48372 -1.46422 -1.8107 48 63 86
-4.49849 -1.44636 -1.81458 61 75 99
-4.73471 -1.12475 -1.81863 71 88 118
-4.95641 -0.625703 -1.7781 88 94 103
-5.08838 -0.492694 -1.79344 84 85 92
-2.00484 -4.85296 -1.7592 85 104 136
-2.14674 -4.59968 -1.75091 90 106 139
-2.21392 -4.47773 -1.74319 81 99 135
-2.39217 -4.27731 -1.75953 87 106 138
-2.41207 -4.28569 -1.76626 86 107 138
-2.55786 -4.0298 -1.75875 79 98 130
-2.57794 -4.03706 -1.76564 82 98 130
-2.78254 -3.74798 -1.76972 76 93 123
-2.78216 -3.72315 -1.76113 73 88 119
-3.02521 -3.36566 -1.76257 71 88 114
-3.04257 -3.35504 -1.76416 71 87 113
-3.4647 -2.82275 -1.78677 68 80 105
-3.46996 -2.81002 -1.78512 68 80 104
-3.48069 -2.80205 -1.78675 67 79 103
-3.48866 -2.79166 -1.78673 66 81 104
-3.50513 -2.77955 -1.78918 64 79 102
-3.51301 -2.76908 -1.78917 65 80 103
-3.51387 -2.75273 -1.78505 65 80 102
-3.52036 -2.73231 -1.78176 66 78 102
-3.55064 -2.74031 -1.79487 64 76 100
-3.54852 -2.72161 -1.78911 70 82 104
-3.56615 -2.71025 -1.79238 65 79 102
-3.56955 -2.69614 -1.78991 65 79 102
-3.62011 -2.64371 -1.79475 68 80 103
-3.63604 -2.63073 -1.7972 66 78 100
-3.68954 -2.55485 -1.79793 58 75 105
-3.69083 -2.53945 -1.79464 88 108 140
-3.69942 -2.52941 -1.79544 137 156 185
-3.70207 -2.51508 -1.79297 130 148 180
-3.71009 -2.49623 -1.79132 130 149 182
-3.71856 -2.48611 -1.79212 134 152 182
-3.72999 -2.47805 -1.79456 141 160 193
-3.73782 -2.45909 -1.79291 145 164 205
-3.74318 -2.44678 -1.79207 144 164 201
-3.74099 -2.4293 -1.78714 146 166 200
-3.76364 -2.42056 -1.79368 145 165 200
-3.74772 -2.3939 -1.78137 143 165 202
-3.77406 -2.39579 -1.79201 145 166 203
-4.17686 -1.83485 -1.7976 47 53 86
-4.18509 -1.82345 -1.79918 28 38 73
-4.49868 -1.43131 -1.813 63 78 101
-4.50932 -1.41969 -1.8161 72 86 111
-4.95931 -0.610379 -1.77881 83 89 101
-5.08532 -0.476412 -1.79198 105 107 119
-1.993 -4.86543 -1.76201 87 106 136
-2.13036 -4.59858 -1.74803 86 105 135
-2.19002 -4.47826 -1.73952 86 105 137
-2.53426 -4.03079 -1.75415 80 99 131
-2.76332 -3.74378 -1.76349 76 93 121
-3.00334 -3.38059 -1.76098 70 87 113
-3.00718 -3.36475 -1.75697 72 88 114
-3.40276 -2.89063 -1.78439 67 84 110
-3.41504 -2.88418 -1.78684 66 82 108
-3.4246 -2.87523 -1.78764 68 82 109
-3.43459 -2.85749 -1.78599 64 78 105
-3.44408 -2.84847 -1.7868 69 83 109
-3.45491 -2.84061 -1.78842 61 76 99
-3.78896 -2.33438 -1.78375 146 166 201
-3.82516 -2.33396 -1.79767 148 168 203
-3.83316 -2.32337 -1.79848 148 168 201
-3.84269 -2.31373 -1.8001 149 169 202
-3.82647 -2.27979 -1.78615 150 169 202
-3.83741 -2.2711 -1.78859 151 170 202
-4.19331 -1.81202 -1.80076 35 49 83
-4.20431 -1.79408 -1.80234 63 74 92
-4.52565 -1.40216 -1.82076 73 87 113
-4.96677 -0.587672 -1.78099 65 66 78
-5.08963 -0.460861 -1.79339 114 115 132
-1.97922 -4.87258 -1.76271 91 107 140
-2.17903 -4.48935 -1.74172 86 105 137
-2.37282 -4.28716 -1.75952 87 103 138
-2.53057 -4.05233 -1.76105 79 98 130
-2.7323 -3.75902 -1.76116 78 93 122
-2.7615 -3.76555 -1.77052 79 94 123
-2.97088 -3.41412 -1.76261 74 88 115
-2.97489 -3.39833 -1.7586 72 88 114
-2.98823 -3.3938 -1.76099 73 89 115
-3.34204 -2.95946 -1.78364 74 86 109
-3.35048 -2.94954 -1.78363 73 88 111
-3.37018 -2.94083 -1.78772 70 85 108
-3.36924 -2.92212 -1.78197 76 90 116
-3.3789 -2.91335 -1.78277 67 83 109
-3.39125 -2.907 -1.78522 65 81 107
-3.84989 -2.26332 -1.79186 155 171 204
-3.87478 -2.26312 -1.80168 152 171 203
-3.87989 -2.24266 -1.7992 155 174 206
-3.88453 -2.22995 -1.79837 153 172 204
-4.20737 -1.7804 -1.80152 45 52 69
-4.21716 -1.76956 -1.80391 48 56 75
-4.51867 -1.38482 -1.81606 75 89 115
-4.9585 -0.571074 -1.7773 62 65 83
-2.11015 -4.60896 -1.74875 84 101 131
-2.16728 -4.4987 -1.74318 86 105 137
-2.34672 -4.29846 -1.75878 85 104 137
-2.36414 -4.30204 -1.76327 86 102 136
-2.51777 -4.05773 -1.76029 82 101 133
-2.73233 -3.78385 -1.76976 75 92 122
-2.94336 -3.43297 -1.76103 73 88 116
-2.96099 -3.42283 -1.76263 73 88 115
-3.30318 -3.00374 -1.78369 71 84 108
-3.30524 -2.98759 -1.77958 70 85 108
-3.32296 -2.98666 -1.78531 69 84 107
-3.33091 -2.96683 -1.78201 73 85 107
-3.8938 -2.22005 -1.79999 152 171 203
-3.90809 -2.20512 -1.80243 155 172 202
-3.90945 -2.19048 -1.79996 155 172 202
-3.91389 -2.1777 -1.79912 153 172 204
-3.92645 -2.1617 -1.80074 154 173 205
-4.21951 -1.74794 -1.80149 56 62 74
-4.2275 -1.73632 -1.80307 90 91 95
-4.54323 -1.37748 -1.8254 76 91 116
-4.52035 -1.35523 -1.81368 74 90 115
-4.96124 -0.555713 -1.77802 63 68 89
-5.08347 -0.436299 -1.7905 122 127 142
-1.95897 -4.88587 -1.7648 88 107 139
-2.09981 -4.62337 -1.75235 85 103 134
-2.14482 -4.50238 -1.74098 86 105 137
-2.33403 -4.30488 -1.75878 84 103 136
-2.49873 -4.05177 -1.75416 80 99 131
-2.71719 -3.78554 -1.76664 75 92 122
-2.92345 -3.45016 -1.76105 74 88 117
-2.92538 -3.43158 -1.75543 75 88 117
-3.26372 -3.04741 -1.78374 69 84 107
-3.26857 -3.03389 -1.78126 69 84 108
-3.27339 -3.02036 -1.77879 69 83 109
-3.28721 -3.0158 -1.78206 69 84 107
-3.44297 -2.7445 -1.77458 67 80 104
-3.47046 -2.74187 -1.78369 68 80 106
-3.46978 -2.72461 -1.7787 66 78 104
-3.49158 -2.72577 -1.78698 65 77 101
-3.47808 -2.6982 -1.77453 66 78 102
-3.50697 -2.6963 -1.78447 64 76 99
-3.49892 -2.67338 -1.77533 62 75 99
-3.5093 -2.6652 -1.77698 65 79 104
-3.52386 -2.65174 -1.77862 63 78 101
-3.54711 -2.65351 -1.78773 68 81 104
-3.5402 -2.63179 -1.77943 65 80 103
-3.56761 -2.62809 -1.78854 68 80 102
-3.56343 -2.60861 -1.78189 72 84 105
-3.5722 -2.59905 -1.7827 68 80 100
-3.58097 -2.58947 -1.78352 70 82 103
-3.59667 -2.57664 -1.78599 72 83 105
-3.59804 -2.56156 -1.78266 73 85 107
-3.6111 -2.55509 -1.78596 69 81 105
-3.62962 -2.54421 -1.7901 65 79 103
-3.61906 -2.52055 -1.78013 66 83 111
-3.63795 -2.51819 -1.78675 57 76 109
