-9.86679 10.6396 -1.92692 108 109 114
-9.83489 10.6696 -1.92746 117 117 125
-9.77496 10.6989 -1.92528 122 122 127
-9.7404 10.7255 -1.92522 110 108 108
-9.70332 10.7489 -1.92457 101 98 98
-8.69116 12.405 -1.9254 103 97 90
-8.65334 12.4316 -1.92594 108 102 94
-8.60939 12.448 -1.92472 107 100 90
-7.0922 11.1788 -1.65125 94 93 99
-8.10156 13.3774 -1.93075 87 88 92
-8.04294 13.4201 -1.93237 89 88 94
-7.25208 14.7386 -1.9348 71 70 75
-7.20192 14.7502 -1.9337 71 67 74
-7.15102 14.7597 -1.93233 73 70 78
-6.66616 15.2309 -1.90303 73 72 82
-6.61002 15.2274 -1.90015 74 74 81
-6.55396 15.2238 -1.89727 77 80 87
-16.3476 0.683034 -1.93971 90 101 119
-16.3414 0.753073 -1.93924 89 101 117
-16.3342 0.799611 -1.93854 90 102 118
-15.615 1.52386 -1.91738 83 91 109
-15.6074 1.56813 -1.91697 82 90 109
-15.6113 1.61375 -1.91833 87 95 114
-14.7638 3.21854 -1.94965 89 96 113
-14.7623 3.26267 -1.95104 84 91 107
-14.7684 3.30873 -1.95364 83 92 107
-14.7384 3.36806 -1.95137 84 93 108
-14.7441 3.41419 -1.95397 81 90 105
-9.65162 10.7885 -1.92448 88 87 86
-9.61797 10.8163 -1.92472 95 91 90
-9.58425 10.844 -1.92496 97 93 92
-9.52852 10.8783 -1.92398 99 94 90
-8.54485 12.4739 -1.92318 111 104 96
-8.50479 12.4967 -1.92313 113 106 98
-8.46366 12.5177 -1.92279 115 107 98
-8.4254 12.5436 -1.92333 114 105 97
-8.00255 13.4467 -1.93318 90 89 95
-7.95851 13.4661 -1.93285 90 89 94
-7.89322 13.4958 -1.9325 91 89 96
-6.476 15.2339 -1.89514 74 72 83
-6.42008 15.2298 -1.89227 71 71 81
-16.3421 0.542215 -1.9381 95 106 124
-16.3296 0.588577 -1.93654 92 104 122
-16.3466 0.636096 -1.93927 93 106 125
-15.6178 1.36644 -1.91544 87 96 117
-15.6322 1.41294 -1.91828 87 95 114
-15.6111 1.45584 -1.91579 87 96 112
-14.7777 3.00045 -1.94418 89 97 116
-14.7702 3.06495 -1.94522 86 93 111
-14.75 3.10452 -1.9436 84 93 108
-14.7605 3.15125 -1.9468 84 91 108
-13.271 6.05122 -2.00214 87 96 111
-13.2634 6.09485 -2.00427 88 95 111
-13.2302 6.14892 -2.00349 88 94 110
-13.2082 6.18517 -2.00308 86 93 109
-13.2053 6.23152 -2.00616 87 94 110
-13.2005 6.27698 -2.00892 85 94 109
-13.1648 6.32978 -2.00783 85 94 109
-13.1561 6.37336 -2.00996 85 94 109
-13.1335 6.40936 -2.00955 85 94 107
-13.1195 6.47423 -2.01258 86 91 109
-13.1035 6.51395 -2.01344 85 91 108
-13.0873 6.55365 -2.0143 85 92 107
-13.0554 6.60874 -2.01416 84 91 107
-13.0475 6.65324 -2.01661 85 92 108
-13.0291 6.69183 -2.01715 82 91 106
-13 6.74865 -2.01765 82 89 105
-12.9881 6.79112 -2.01946 82 89 105
-12.9778 6.83461 -2.02158 83 90 106
-12.9605 6.87405 -2.02245 81 88 104
-12.9305 6.9306 -2.02294 82 88 104
-12.9112 6.96892 -2.02349 85 88 103
-12.8985 7.0113 -2.0253 85 88 103
-12.8696 7.06865 -2.02611 85 88 105
-12.8532 7.1089 -2.02729 83 89 105
-12.835 7.14808 -2.02815 82 89 105
-12.8087 7.20729 -2.0296 82 90 103
-12.7818 7.24107 -2.02888 83 93 105
-12.7648 7.28115 -2.03006 81 91 101
-12.7411 7.34229 -2.03215 82 88 102
-12.7254 7.38338 -2.03364 83 89 103
-12.7046 7.42119 -2.03419 81 87 101
-12.6854 7.46004 -2.03505 81 86 102
-12.6493 7.5133 -2.03492 83 86 103
-12.6362 7.55643 -2.03705 82 85 102
-12.6067 7.58848 -2.03601 80 86 100
-12.5814 7.64918 -2.0381 80 86 100
-12.5645 7.68999 -2.0396 80 86 102
-12.5395 7.72515 -2.03951 78 84 100
-12.5134 7.78567 -2.0416 77 85 98
-12.4833 7.81726 -2.04057 79 85 101
-12.4659 7.85788 -2.04206 78 84 100
-12.4483 7.89847 -2.04356 78 84 100
-12.4133 7.95296 -2.04407 77 84 98
-12.3986 7.99577 -2.0462 77 85 98
-12.3742 8.03159 -2.04643 77 84 97
-12.3433 8.08929 -2.04789 76 83 99
-12.3234 8.12848 -2.04907 77 84 100
-12.3032 8.16763 -2.05025 77 83 99
-12.2638 8.21914 -2.05013 77 85 98
-9.4898 10.8994 -1.92303 102 94 91
-9.46055 10.9331 -1.92446 99 89 87
-9.40563 10.9684 -1.92378 96 88 86
-9.3749 11.0002 -1.92492 94 85 83
-8.36733 12.5807 -1.92384 113 104 96
-8.32595 12.6012 -1.9235 112 101 96
-8.28069 12.6147 -1.92199 105 94 92
-7.85427 13.5255 -1.93387 90 87 94
-7.81348 13.5515 -1.93468 88 86 92
-7.77085 13.5739 -1.93492 88 85 92
-6.3604 15.2143 -1.88783 72 75 82
-6.30656 15.2155 -1.88573 79 79 87
-16.3162 0.377772 -1.93368 94 105 124
-16.3319 0.424911 -1.93612 97 106 123
-16.3316 0.471672 -1.93628 97 109 125
-15.6541 1.2123 -1.91883 92 101 118
-15.6553 1.25745 -1.91959 92 101 119
-15.6249 1.29966 -1.91562 89 100 118
-14.7681 2.75673 -1.93485 90 99 116
-14.7701 2.80095 -1.93655 88 97 114
-14.779 2.86859 -1.93999 90 99 116
-14.7556 2.90748 -1.93778 89 100 118
-14.7686 2.95434 -1.94128 88 99 117
-13.48 5.40525 -1.98749 87 94 110
-13.4747 5.44889 -1.98962 88 96 109
-13.4674 5.49173 -1.99142 88 95 111
-13.437 5.54688 -1.99064 87 96 111
-13.4187 5.58467 -1.99055 88 97 112
-13.4163 5.62998 -1.99331 88 95 111
-13.3995 5.66856 -1.99353 87 94 110
-13.3772 5.72763 -1.99434 87 94 110
-13.3583 5.76524 -1.99424 88 95 111
-13.3534 5.80974 -1.99669 87 94 110
-13.3304 5.86865 -1.99749 87 94 110
-13.3146 5.90789 -1.99803 88 95 111
-13.3075 5.95152 -2.00016 85 94 109
-13.289 6.01297 -2.00192 87 94 110
-12.2434 8.25816 -2.05131 77 85 97
-12.2305 8.30314 -2.05408 78 84 96
-12.1936 8.35673 -2.05459 79 83 96
-12.1587 8.38469 -2.05292 80 84 97
-12.1438 8.42835 -2.05537 80 83 98
-12.1227 8.46711 -2.05656 80 83 98
-12.0803 8.51656 -2.05612 77 83 97
-12.0588 8.55517 -2.0573 76 82 96
-12.0371 8.59375 -2.05849 77 83 97
-12.0049 8.65151 -2.06027 76 82 94
-11.9829 8.68996 -2.06145 76 82 94
-11.9608 8.72837 -2.06264 78 80 93
-11.9248 8.78336 -2.06378 79 81 96
-9.34524 11.0336 -1.92635 95 85 81
-9.30961 11.0589 -1.9263 96 86 80
-9.26571 11.1095 -1.9286 88 80 76
-9.2241 11.1265 -1.92706 76 70 75
-8.22889 12.6632 -1.92455 108 100 97
-8.18161 12.6729 -1.92246 103 97 97
-7.70421 13.6009 -1.93429 84 83 89
-7.66482 13.6301 -1.93566 88 87 95
-5.81575 11.5372 -1.55654 88 83 86
-6.86188 14.8543 -1.92998 68 66 79
-6.81853 14.8831 -1.93156 73 71 82
-6.23258 15.2356 -1.88517 70 71 76
-6.1782 15.2344 -1.88281 72 73 78
-6.12385 15.2331 -1.88045 72 71 79
-16.3007 0.260803 -1.93113 95 107 126
-16.3049 0.307519 -1.93186 92 103 123
-15.6613 1.05546 -1.91807 94 105 125
-15.659 1.10024 -1.91824 99 110 128
-15.6487 1.14438 -1.91723 93 104 122
-14.7646 2.55984 -1.92842 89 101 117
-14.7731 2.605 -1.93102 86 97 115
-14.7736 2.64871 -1.93242 88 96 117
-14.7756 2.71453 -1.93466 88 99 117
-13.6027 4.93559 -1.97592 89 96 112
-13.6045 4.98138 -1.97899 87 96 113
-13.5916 5.02119 -1.97953 90 99 116
-13.576 5.08238 -1.98097 87 96 111
-13.5665 5.12367 -1.98214 87 96 111
-13.5621 5.16729 -1.98427 88 95 111
-13.5541 5.20937 -1.98576 88 95 111
-13.5159 5.26104 -1.98339 87 94 112
-13.5039 5.30146 -1.98424 86 93 109
-13.5026 5.34666 -1.987 87 94 112
-11.8993 8.8191 -2.06434 76 82 94
-11.8783 8.85858 -2.06584 77 81 93
-11.8356 8.90814 -2.06572 77 81 93
-11.8142 8.94749 -2.06722 78 82 94
-11.7807 8.97649 -2.0662 78 82 94
-11.768 9.02348 -2.0696 78 82 94
-11.7334 9.08034 -2.07138 79 78 92
-11.6981 9.10774 -2.07004 80 78 92
-11.6774 9.1481 -2.07186 81 80 94
-11.6319 9.19542 -2.07143 77 81 93
-11.6051 9.23037 -2.07198 80 79 93
-9.19162 11.1563 -1.9279 68 66 69
-9.13916 11.1951 -1.92811 74 67 75
-9.10078 11.2165 -1.92746 83 76 84
-9.0657 11.2427 -1.92771 73 67 73
-8.14186 12.6964 -1.92271 105 94 92
-8.07274 12.713 -1.92 97 88 89
-7.62361 13.6556 -1.93647 88 85 92
-7.55579 13.6801 -1.93556 88 87 93
-7.51025 13.6963 -1.93496 85 83 90
-5.77135 11.5863 -1.56073 86 87 89
-5.71381 11.549 -1.5528 88 88 89
-5.68235 11.5778 -1.55503 91 88 90
-6.74816 14.9113 -1.93177 72 72 80
-6.70386 14.9379 -1.93307 71 71 79
-6.04619 15.2411 -1.87833 69 67 78
-15.6787 0.944382 -1.91956 88 98 116
-15.6595 1.01039 -1.9173 88 99 117
-14.7751 2.40998 -1.9258 88 96 117
-14.7783 2.4539 -1.9275 89 97 116
-14.7852 2.4986 -1.92979 88 100 116
-13.6847 4.54464 -1.96542 89 98 113
-13.6787 4.58665 -1.96691 88 97 112
-13.6764 4.65215 -1.97026 90 99 114
-13.6517 4.6871 -1.96857 89 96 112
-13.6526 4.73198 -1.97133 88 95 111
-13.6293 4.78961 -1.97118 89 96 112
-13.6336 4.83601 -1.97457 88 97 114
-13.6211 4.87587 -1.97511 89 98 115
-11.5796 9.26657 -2.07286 79 80 95
-11.5422 9.32142 -2.07432 81 80 94
-11.5207 9.36148 -2.07614 80 81 93
-11.4876 9.39075 -2.07544 78 80 91
-11.4424 9.43852 -2.07532 79 80 92
-11.4132 9.47159 -2.07556 79 79 93
-11.3869 9.5073 -2.07644 80 80 93
-11.3547 9.53749 -2.07605 84 82 94
-9.00832 11.2744 -1.92673 86 85 84
-8.97641 11.3052 -1.92787 93 93 91
-8.9366 11.3245 -1.92693 94 96 95
-7.88532 12.801 -1.91863 89 86 93
-7.45973 13.7016 -1.93266 89 89 93
-7.39177 13.7253 -1.93175 86 86 89
-6.652 14.944 -1.93144 71 70 79
-6.57666 14.9583 -1.92978 74 74 85
-5.99018 15.2336 -1.8752 80 79 87
-5.93246 15.2203 -1.87129 68 69 75
-15.6849 0.787589 -1.9191 93 103 120
-15.6881 0.855118 -1.9201 90 101 119
-15.6844 0.899824 -1.91998 86 97 115
-14.7685 2.21457 -1.91967 87 98 115
-14.7743 2.25862 -1.92167 85 96 114
-14.7682 2.30073 -1.92186 91 102 120
-14.7872 2.34726 -1.92597 89 101 117
-13.7431 4.21489 -1.95638 91 97 111
-13.7308 4.25424 -1.95659 90 96 112
-13.721 4.31615 -1.95835 90 97 113
-13.7251 4.36143 -1.96143 92 99 115
-13.7123 4.40074 -1.96164 91 98 114
-13.7073 4.46474 -1.96435 91 100 115
-13.6979 4.50539 -1.96521 88 97 112
-11.3187 9.59422 -2.07815 81 81 91
-11.2891 9.62694 -2.07839 84 84 94
-11.2566 9.65682 -2.07801 86 85 96
-11.2087 9.70212 -2.07758 88 86 97
-11.1858 9.74146 -2.0794 81 79 92
-11.1529 9.77101 -2.07902 70 68 81
-11.1114 9.82283 -2.08017 72 70 83
-8.87668 11.3523 -1.92535 93 93 94
-8.84446 11.3828 -1.9265 94 95 95
-8.80227 11.3983 -1.92496 88 88 88
-8.77202 11.4318 -1.9267 91 91 91
-7.85504 12.8429 -1.9221 88 85 90
-7.80754 12.8513 -1.92001 91 88 89
-7.74517 12.8802 -1.91965 92 90 95
-7.34614 13.741 -1.93115 87 86 92
-7.29483 13.7439 -1.92858 88 87 93
-6.5248 14.9639 -1.92815 71 71 83
-6.47233 14.9675 -1.92625 73 71 84
-6.42637 14.9896 -1.92703 73 73 85
-5.8562 15.2311 -1.86969 78 79 83
-5.80104 15.2248 -1.86681 74 74 76
-5.74824 15.226 -1.86498 74 74 75
-15.6893 0.698077 -1.91905 90 102 119
-15.698 0.743424 -1.92071 93 105 121
-14.772 2.00052 -1.91511 88 100 119
-14.7752 2.06525 -1.91705 89 97 116
-14.7697 2.10733 -1.91724 91 99 117
-14.768 2.15002 -1.91803 90 99 117
-13.8058 3.97577 -1.95381 98 102 119
-13.7992 4.03839 -1.95588 91 100 115
-13.7613 4.06916 -1.95164 92 101 116
-13.7588 4.11168 -1.95345 91 99 114
-13.7534 4.17487 -1.95584 95 105 117
-11.0811 9.85494 -2.08042 68 65 76
-11.0465 9.88273 -2.07971 72 69 78
-11.0044 9.93412 -2.08087 65 65 73
-10.9765 9.96876 -2.08175 69 72 81
-10.9497 10.0047 -2.08294 65 68 77
-10.9147 10.0321 -2.08224 84 87 96
-10.8719 10.083 -2.0834 81 85 94
-8.72144 11.4737 -1.92781 93 90 95
-8.67153 11.4772 -1.92418 92 90 94
-8.63345 11.4987 -1.92384 91 90 94
-7.7047 12.9023 -1.91991 91 88 94
-7.66242 12.9208 -1.91957 91 91 93
-7.23068 13.7759 -1.92908 89 86 94
-7.18729 13.7965 -1.92933 90 88 92
-7.13754 13.8024 -1.92732 103 104 100
-6.34904 14.9972 -1.92457 75 73 86
-5.67263 15.2378 -1.86364 74 71 72
-15.7007 0.541634 -1.91978 92 105 124
-15.6901 0.586029 -1.91847 92 103 121
-15.6992 0.631282 -1.92012 92 103 121
-14.7645 1.84991 -1.91068 93 100 117
-14.7371 1.90997 -1.9078 88 100 116
-14.7224 1.95047 -1.90648 91 98 117
-13.8536 3.71126 -1.94843 82 91 108
-13.8485 3.75258 -1.9496 81 90 105
-13.849 3.79566 -1.95172 79 84 103
-13.8339 3.85534 -1.9522 82 86 104
-13.8228 3.8949 -1.95242 75 78 95
-13.8172 3.93624 -1.95359 80 86 102
-10.842 10.1158 -2.08396 83 87 98
-10.8012 10.137 -2.082 84 88 99
-10.7324 10.1599 -2.07716 85 90 99
-10.717 10.2083 -2.0812 84 87 97
-10.6787 10.232 -2.07987 89 90 102
-10.611 10.2555 -2.07534 93 96 103
-10.5476 10.2509 -2.06801 93 94 103
-10.4816 10.2431 -2.06005 92 92 104
-8.5846 11.5434 -1.92555 91 89 94
-8.5442 11.5613 -1.92461 96 94 99
-8.50693 11.5842 -1.92456 104 102 106
-8.4461 11.6098 -1.92299 112 109 116
-7.59105 12.9313 -1.91629 94 94 97
-7.5366 12.9246 -1.91186 94 92 98
-7.50713 12.9692 -1.91592 95 90 97
-7.09249 13.8191 -1.927 108 101 95
-7.03102 13.8575 -1.92863 95 85 84
-6.3036 15.0208 -1.92561 74 72 85
-6.24859 15.0162 -1.92265 73 73 83
-5.61823 15.2328 -1.86103 73 69 73
-15.6963 0.429456 -1.9186 89 102 121
-15.696 0.474242 -1.91878 91 103 122
-14.7614 1.65806 -1.90636 88 95 112
-14.7683 1.72262 -1.9086 83 89 103
-14.7599 1.76409 -1.90819 78 84 98
-14.7515 1.80553 -1.90778 106 112 127
-13.8878 3.42339 -1.94088 82 89 105
-13.8989 3.46891 -1.94459 82 89 107
-13.889 3.5086 -1.94481 82 89 105
-13.8829 3.57056 -1.94656 86 93 111
-13.8689 3.60912 -1.94614 84 91 110
-13.8566 3.64818 -1.94604 84 93 108
-10.4063 10.2566 -2.05363 89 92 100
-10.3458 10.254 -2.04693 93 93 101
-10.2868 10.2526 -2.04055 89 92 101
-10.2214 10.2435 -2.03259 90 93 102
-10.1452 10.254 -2.02586 90 93 102
-10.0826 10.2472 -2.01854 88 91 100
-10.0265 10.2476 -2.01279 83 83 93
-9.95317 10.2599 -2.0067 77 80 89
-9.8897 10.2507 -1.99906 86 86 95
-8.40555 11.6273 -1.92205 103 100 107
-8.37321 11.6581 -1.92349 95 92 99
-8.31213 11.6831 -1.92193 93 91 96
-7.45867 13.0271 -1.92053 92 90 95
-7.40759 13.0269 -1.91728 91 89 94
-6.98656 13.8756 -1.9286 91 87 93
-6.93902 13.8864 -1.92744 87 88 94
-6.18002 15.0492 -1.92394 67 70 79
-6.12818 15.0535 -1.92231 74 77 86
-6.07513 15.0539 -1.92015 73 76 85
-15.6593 0.271978 -1.91251 94 107 126
-15.6827 0.339541 -1.91618 95 106 124
-15.6985 0.38473 -1.91873 92 105 124
-14.7831 1.57576 -1.90809 81 89 109
-14.7851 1.61847 -1.90919 80 88 109
-13.9174 3.24144 -1.93785 87 94 110
-13.9025 3.27963 -1.93711 90 98 114
-13.9065 3.32289 -1.93955 83 92 109
-13.8994 3.38424 -1.94098 82 91 106
-12.5878 6.23267 -2.01672 84 91 107
-12.5625 6.3349 -2.02148 84 91 107
-12.5451 6.3719 -2.02206 87 93 109
-12.5276 6.40885 -2.02263 86 90 107
-12.5118 6.47013 -2.02548 84 92 108
-12.4889 6.50402 -2.02507 83 90 106
-12.4828 6.54784 -2.02796 83 92 107
-12.4442 6.59599 -2.02651 84 91 107
-12.4293 6.63473 -2.02775 84 90 106
-12.4244 6.67955 -2.03098 85 88 107
-12.4076 6.71725 -2.03189 84 90 106
-12.3582 6.75877 -2.02844 81 91 103
-12.3578 6.80667 -2.03266 82 90 103
-12.3405 6.84422 -2.03357 82 90 103
-12.309 6.89681 -2.03378 82 89 105
-12.2897 6.93319 -2.03435 81 89 103
-12.2637 6.96529 -2.03361 80 91 103
-12.2448 7.02609 -2.03646 80 91 103
-12.2235 7.06124 -2.03671 82 90 103
-12.2153 7.10497 -2.03961 82 87 103
-12.1808 7.15593 -2.03948 84 87 102
-12.1574 7.18982 -2.0394 81 87 103
-12.1503 7.2346 -2.04263 83 89 103
-12.1234 7.2662 -2.04188 82 88 102
-12.0898 7.31785 -2.04209 81 87 103
-12.0659 7.35146 -2.04201 81 83 100
-12.0435 7.38612 -2.04226 82 83 101
-9.83393 10.2502 -1.99332 84 84 95
-9.75337 10.2522 -1.98533 96 96 105
-9.70404 10.2589 -1.98117 100 100 109
-9.64234 10.25 -1.97385 106 108 113
-9.56837 10.2584 -1.96744 109 109 114
-9.5094 10.2519 -1.96075 103 102 110
-9.45668 10.253 -1.95564 96 95 103
-9.40039 10.2491 -1.94959 96 95 101
-8.2714 11.7001 -1.92099 99 96 102
-8.22861 11.7136 -1.91945 98 96 101
-8.19489 11.7423 -1.9206 97 96 101
-7.36746 13.0497 -1.91783 91 90 95
-7.30007 13.0677 -1.91601 88 86 95
-7.26471 13.101 -1.91831 92 90 98
-6.86814 13.9021 -1.92569 89 88 94
-6.82577 13.9253 -1.9265 84 82 87
-5.99907 15.0635 -1.91823 71 74 83
-14.8141 1.43071 -1.9103 85 94 111
-14.8047 1.47213 -1.90958 85 97 111
-14.7972 1.51374 -1.90917 86 97 113
-13.923 2.99164 -1.92892 87 99 115
-13.9299 3.03509 -1.93168 88 100 116
-13.9165 3.0944 -1.93185 88 100 116
-13.9193 3.13699 -1.93397 90 99 116
-13.9257 3.18062 -1.93673 89 98 115
-12.8936 5.5029 -2.00554 87 94 112
-12.8807 5.5415 -2.00645 87 94 112
-12.843 5.5903 -2.00432 88 95 112
-12.8581 5.64269 -2.01054 88 95 111
-12.8342 5.676 -2.00945 87 95 108
-12.7925 5.70042 -2.00504 89 96 110
-12.7682 5.75577 -2.00556 88 93 111
-12.7861 5.8102 -2.01245 88 94 110
-12.7441 5.83422 -2.00804 87 97 109
-12.7156 5.88758 -2.0079 86 96 108
-12.7312 5.94134 -2.01445 86 93 109
-12.7116 5.97689 -2.01436 88 95 111
-12.6842 6.03103 -2.01456 86 94 107
-12.6747 6.07203 -2.01646 84 94 106
-12.6461 6.10272 -2.01471 85 95 107
-12.6364 6.14367 -2.01661 84 93 108
-12.6306 6.20986 -2.02113 84 91 109
-12.5965 6.28415 -2.02228 84 91 107
-12.0449 7.46223 -2.04976 82 85 100
-12.0141 7.49118 -2.04835 80 85 100
-11.988 7.52342 -2.04793 81 86 100
-11.966 7.58365 -2.05079 80 86 100
-11.9381 7.61459 -2.05005 81 86 103
-11.9197 7.65236 -2.05129 80 83 100
-11.881 7.70082 -2.05084 81 84 99
-11.8607 7.7373 -2.05175 81 84 99
-11.8292 7.76552 -2.05035 82 85 100
-11.8133 7.80541 -2.05226 79 82 98
-11.7866 7.86283 -2.05445 78 84 98
-11.7688 7.90147 -2.05603 79 82 97
-11.74 7.93172 -2.05529 81 84 101
-11.7172 7.99253 -2.05848 75 82 98
-11.6834 8.01898 -2.05675 76 83 99
-11.6744 8.06469 -2.06031 76 82 98
-11.6339 8.11196 -2.05986 80 83 100
-11.606 8.14296 -2.05945 76 82 96
-11.5872 8.18125 -2.06103 77 83 95
-9.32808 10.2576 -1.9435 95 96 101
-9.272 10.2532 -1.93745 95 96 101
-9.21842 10.2516 -1.93203 94 93 99
-9.15121 10.2653 -1.92721 98 97 102
-9.10019 10.2664 -1.92242 95 94 99
-9.05161 10.2704 -1.91826 94 93 99
-8.13851 11.7749 -1.92053 97 95 106
-8.09757 11.7914 -1.91959 101 99 109
-8.06254 11.818 -1.92044 97 96 103
-7.24807 11.0934 -1.7654 96 94 99
-7.22022 13.1145 -1.9174 91 90 95
-7.16155 13.1515 -1.9188 92 91 97
-5.79135 11.5541 -1.62204 89 86 95
-5.74055 11.5334 -1.61645 87 87 95
-5.95266 15.0842 -1.91901 74 77 84
-5.90203 15.0915 -1.91791 75 78 85
-14.8709 1.28784 -1.91673 91 98 117
-14.8679 1.33006 -1.91691 93 102 119
-14.8726 1.37307 -1.91831 90 99 116
-13.9155 2.76168 -1.91931 88 100 117
-13.9193 2.80392 -1.92144 91 100 117
-13.9192 2.84532 -1.92292 92 101 116
-13.9286 2.889 -1.926 89 98 115
-13.9216 2.94966 -1.92712 87 98 116
-13.0277 4.94739 -1.98725 89 96 112
-13.0323 5.01447 -1.99242 87 96 111
-13.0066 5.047 -1.99067 86 95 110
-13.0061 5.09048 -1.99357 87 96 111
-13.0036 5.13321 -1.99613 86 95 112
-12.9803 5.18855 -1.99632 88 95 113
-12.9882 5.23618 -2.00088 86 93 110
-12.9744 5.27413 -2.00145 86 93 111
-12.9307 5.32029 -1.99799 89 94 112
-12.9381 5.36805 -2.00255 86 96 108
-12.9292 5.4084 -2.00411 87 94 112
-12.9081 5.46512 -2.00497 86 93 111
-11.5882 8.23554 -2.06692 77 83 97
-11.5362 8.27372 -2.06415 77 80 95
-11.5078 8.3044 -2.06374 77 80 95
-11.4854 8.33999 -2.06466 78 81 96
-11.4587 8.39894 -2.06752 78 81 96
-11.4375 8.43568 -2.06877 78 81 96
-11.4131 8.46984 -2.06936 78 81 96
-11.3632 8.5095 -2.06725 77 80 97
-11.3505 8.55369 -2.07049 78 81 96
-11.3242 8.58633 -2.07075 78 82 94
-8.9999 10.3037 -1.91755 98 97 102
-8.95607 10.3136 -1.91465 97 96 101
-8.91341 10.3249 -1.91208 94 93 98
-8.86265 10.3591 -1.91168 94 94 96
-8.00286 11.8448 -1.91948 103 101 105
-7.96664 11.8694 -1.92003 101 99 103
-7.91966 11.875 -1.9173 102 99 104
-7.19536 11.0808 -1.76 97 95 98
-7.15492 11.0908 -1.75847 98 97 102
-7.10161 11.1185 -1.75841 94 92 97
-7.12818 13.1899 -1.92198 86 85 93
-7.09464 13.2282 -1.92516 89 88 94
-5.70698 11.5567 -1.61789 89 88 96
-5.67896 11.5947 -1.62166 87 84 91
-6.55712 14.0265 -1.92601 86 86 88
-5.82886 15.1098 -1.91733 72 70 81
-5.78969 15.1546 -1.92158 72 73 78
-14.8849 1.14049 -1.91682 97 104 122
-14.8784 1.18238 -1.91641 91 100 117
-14.8718 1.22425 -1.91599 88 97 114
-13.9279 2.5586 -1.91442 88 100 114
-13.9283 2.62026 -1.9165 85 97 113
-13.923 2.6603 -1.91703 90 102 118
-13.9311 2.70329 -1.91979 85 97 114
-13.1239 4.59939 -1.97979 90 96 112
-13.103 4.63393 -1.9787 90 96 112
-13.0894 4.67131 -1.97894 89 96 114
-13.0901 4.73581 -1.98312 89 98 113
-13.0743 4.77243 -1.98302 89 96 112
-13.0475 4.80449 -1.98093 89 96 112
-13.0639 4.8759 -1.9881 90 97 115
-13.044 4.91091 -1.98734 87 94 113
-11.2902 8.63968 -2.07229 77 80 93
-11.2502 8.66049 -2.06957 77 81 93
-11.2414 8.70845 -2.0738 77 81 93
-11.2102 8.73687 -2.07306 77 81 93
-11.1798 8.79373 -2.0756 77 81 93
-11.163 8.8351 -2.07817 77 81 93
-11.1285 8.86061 -2.07678 79 80 93
-11.0566 8.88004 -2.07004 79 81 93
-11.0336 8.91583 -2.07129 78 80 93
-11.0018 8.94355 -2.07056 78 80 94
-8.83037 10.3845 -1.91194 98 98 100
-8.78878 10.3969 -1.90968 93 91 95
-8.75407 10.4188 -1.90931 92 91 90
-8.70404 10.4539 -1.90923 113 110 106
-7.85977 11.9011 -1.91634 98 94 103
-7.82526 11.9288 -1.91749 97 94 101
-7.78778 11.9511 -1.91775 98 96 101
-7.04981 13.2411 -1.92425 91 90 96
-6.97473 13.2412 -1.9198 88 87 94
-6.93459 13.2646 -1.92065 88 87 93
-6.50652 14.0285 -1.92373 89 88 93
-6.4636 14.0505 -1.92454 85 86 90
-5.74233 15.1728 -1.92209 76 75 80
-5.69095 15.1775 -1.92074 73 73 75
-14.8952 1.03529 -1.91711 89 97 116
-14.9031 1.09953 -1.91905 95 104 121
-13.9307 2.41587 -1.91033 90 99 114
-13.9319 2.47739 -1.9124 88 99 114
-13.9425 2.52055 -1.91548 87 99 113
-13.1636 4.1711 -1.96052 90 100 112
-13.1385 4.20394 -1.95842 89 99 111
-13.1455 4.26912 -1.96327 88 100 112
-13.1552 4.3147 -1.9675 89 97 110
-13.1481 4.35423 -1.96873 88 94 109
-13.1561 4.42047 -1.97391 88 95 111
-13.1358 4.45517 -1.97281 89 96 112
-13.1172 4.49051 -1.97205 89 98 113
-13.1242 4.53572 -1.97595 93 102 117
-10.9688 8.99836 -2.07277 78 80 93
-10.9439 9.0326 -2.07369 79 80 93
-10.9118 9.06001 -2.07296 80 79 93
-10.8766 9.11316 -2.07483 80 80 93
-10.8471 9.14307 -2.07476 78 80 92
-10.809 9.16468 -2.07271 78 80 91
-10.7934 9.20811 -2.07595 82 85 94
-8.66803 10.4739 -1.90855 105 100 104
-8.62519 10.4841 -1.90598 117 112 113
-8.58158 10.5284 -1.90779 119 109 113
-8.54872 10.5529 -1.90806 95 85 89
-6.88739 13.2715 -1.91886 99 99 99
-6.80178 13.2452 -1.91032 108 105 98
-6.41924 14.0688 -1.9248 87 86 92
-6.35674 14.1062 -1.92672 85 84 90
-5.61191 15.1758 -1.91749 72 71 75
-5.55843 15.1725 -1.91506 77 78 72
-14.9182 0.888546 -1.91902 93 104 122
-14.9052 0.951221 -1.91764 89 98 115
-14.9071 0.993765 -1.91843 88 96 115
-13.9476 2.23563 -1.90762 89 97 116
-13.9264 2.29269 -1.90587 88 96 115
-13.9396 2.33592 -1.90927 88 97 114
-13.9449 2.37776 -1.91139 90 99 114
-13.2121 3.95912 -1.95639 80 86 102
-13.2286 4.00618 -1.96162 88 94 110
-13.2337 4.04957 -1.96485 98 104 118
-13.2052 4.08145 -1.96209 94 100 114
-13.1757 4.13359 -1.96028 91 99 112
-10.7505 9.25394 -2.07617 84 84 95
-10.7177 9.2807 -2.07544 92 91 102
-10.6946 9.31706 -2.07703 80 80 90
-10.6734 9.38477 -2.08255 76 76 89
-10.6555 9.42666 -2.08546 80 81 96
-10.6291 9.46011 -2.08638 80 81 94
-8.51354 10.574 -1.90769 106 101 101
-8.46168 10.6064 -1.9073 110 104 101
-8.42525 10.6256 -1.90662 123 115 112
-8.39097 10.648 -1.90657 127 123 120
-7.55203 12.0637 -1.916 100 98 103
-6.75549 13.2535 -1.90882 102 93 88
-6.69566 13.2287 -1.90206 90 84 87
-6.31352 14.1278 -1.92754 86 85 93
-6.27157 14.1531 -1.92892 86 84 95
-14.9292 0.804447 -1.91985 86 98 114
-14.9139 0.845897 -1.91793 87 99 114
-13.9386 2.05158 -1.90109 92 100 119
-13.9409 2.09245 -1.90258 89 98 115
-13.9398 2.15298 -1.90401 89 97 116
-13.9379 2.19324 -1.90486 89 97 116
-13.2687 3.8331 -1.95873 86 92 108
-13.2558 3.87022 -1.95863 78 83 103
-13.252 3.9104 -1.9602 75 80 99
-10.5836 9.5038 -2.08628 80 79 93
-10.5597 9.53989 -2.08786 79 81 94
-10.5028 9.54187 -2.08151 80 80 90
-10.4569 9.58498 -2.08141 84 84 94
-10.4285 9.61647 -2.082 83 80 89
-10.3961 9.64357 -2.08161 80 79 87
-10.3851 9.69358 -2.0865 81 80 88
-8.33985 10.6814 -1.9065 100 97 101
-8.30539 10.7036 -1.90645 96 95 98
-8.26656 10.719 -1.90514 95 95 97
-7.51226 12.0817 -1.91567 99 97 102
-7.47152 12.0978 -1.91503 99 97 102
-7.40987 12.12 -1.91378 94 91 97
-6.63762 13.2671 -1.90406 91 88 96
-6.59137 13.2749 -1.90256 94 93 98
-6.55609 13.31 -1.90546 89 88 93
-6.19993 14.1655 -1.92718 88 85 94
-6.15319 14.1774 -1.92659 86 87 92
-14.9616 0.657783 -1.92358 90 101 120
-14.9428 0.699261 -1.92104 93 104 124
-14.9318 0.741053 -1.91972 93 101 124
-13.9103 1.90599 -1.89286 86 98 115
-13.9093 1.94603 -1.89371 92 100 118
-13.903 2.00533 -1.89419 87 95 114
-10.3277 9.72459 -2.08375 82 81 91
-10.2976 9.75427 -2.08402 79 77 84
-10.2634 9.7795 -2.08329 82 81 87
-10.2203 9.82589 -2.08419 88 89 93
-10.1792 9.84354 -2.08181 88 88 92
-10.1474 9.87132 -2.08174 71 70 74
-8.2245 10.7293 -1.90288 96 97 99
-8.17512 10.7653 -1.90344 100 98 102
-8.13827 10.7836 -1.90276 98 97 99
-8.1035 10.8051 -1.90272 97 97 101
-7.37442 12.1464 -1.91493 95 94 99
-7.34595 12.1869 -1.91847 95 92 96
-6.0993 14.1686 -1.92289 87 88 92
-6.03155 14.1915 -1.92284 86 87 92
-14.9523 0.551445 -1.92145 94 104 122
-14.9487 0.614802 -1.92128 91 102 120
-13.957 1.73221 -1.8962 82 87 102
-13.9507 1.77147 -1.8961 87 86 104
-13.95 1.81157 -1.89694 78 81 98
-13.9483 1.87161 -1.89806 86 98 114
-10.0999 9.91279 -2.08164 83 81 87
-10.0548 9.92554 -2.07827 65 64 76
-10.0357 9.96775 -2.08152 73 74 87
-9.9878 10.0087 -2.08142 83 86 95
-9.9593 10.0404 -2.08235 82 85 92
-8.05373 10.8405 -1.90328 98 96 99
-8.01358 10.8534 -1.90165 100 98 101
-7.98272 10.8813 -1.90287 100 97 104
-7.28572 12.212 -1.91781 96 93 96
-7.23415 12.2062 -1.9136 111 108 106
-7.19049 12.2161 -1.91207 110 102 99
-5.98286 14.1972 -1.92141 88 87 93
-5.94175 14.2252 -1.92336 87 86 91
-14.9513 0.46675 -1.92078 96 107 128
-14.9686 0.509701 -1.92368 94 103 121
-13.9837 1.63556 -1.89838 85 93 107
-13.973 1.69429 -1.8979 86 94 107
-12.0152 5.68176 -1.98887 87 95 108
-11.9927 5.73452 -1.98978 89 99 109
-11.9703 5.76587 -1.989 84 97 106
-11.9582 5.80286 -1.99031 87 96 109
-11.9316 5.85351 -1.99053 87 94 110
-11.9089 5.88463 -1.98975 87 94 110
-11.8964 5.92151 -1.99106 85 92 107
-11.8871 5.96032 -1.99307 85 93 106
-11.8615 6.01165 -1.99364 84 92 107
-11.835 6.04054 -1.99216 85 92 108
-11.8338 6.08425 -1.99591 87 91 108
-11.8042 6.13338 -1.99578 85 91 107
-11.7924 6.17109 -1.99744 82 89 105
-11.7806 6.2088 -1.9991 84 94 106
-11.7588 6.26279 -2.00071 83 94 104
-11.7332 6.29225 -1.99959 82 92 104
-11.7226 6.3309 -2.00159 83 91 104
-11.7052 6.36541 -2.00221 83 91 104
-11.6826 6.41917 -2.00382 82 92 104
-11.6515 6.44518 -2.00165 83 91 106
-11.6238 6.47317 -2.00018 82 89 104
-11.6139 6.53516 -2.00458 82 91 103
-11.6007 6.5726 -2.00624 81 93 105
-11.5627 6.59392 -2.00268 82 91 103
-11.5488 6.65371 -2.00639 80 88 103
-11.5385 6.69322 -2.00874 83 89 102
-11.5018 6.71526 -2.00553 82 88 103
-11.4872 6.77497 -2.00924 82 88 104
-11.4813 6.81773 -2.01264 82 88 102
-11.4444 6.83944 -2.00943 83 89 103
-11.4366 6.88105 -2.01248 83 87 104
-11.4145 6.93623 -2.0148 82 86 103
-11.3741 6.95532 -2.01089 82 88 104
-11.3691 6.99915 -2.01464 82 87 103
-11.3352 7.04616 -2.01452 83 86 103
-11.3138 7.07855 -2.01479 83 85 101
-11.2842 7.10514 -2.01332 83 86 101
-11.2498 7.15176 -2.01321 83 86 102
-11.2344 7.18856 -2.01487 82 85 103
-11.2141 7.22184 -2.01549 82 85 101
-9.92686 10.0675 -2.08229 84 85 96
-9.89303 10.093 -2.0819 82 85 95
-9.80922 10.157 -2.08108 83 84 94
-9.78144 10.1897 -2.08234 84 84 94
-7.93049 10.9128 -1.9028 100 99 105
-7.89428 10.932 -1.90244 101 99 105
-7.85295 10.9426 -1.90051 99 97 103
-7.1362 12.2529 -1.9135 98 94 92
-7.09418 12.2661 -1.91257 104 98 96
-6.29367 13.3914 -1.90263 90 90 92
-6.24794 13.3999 -1.90143 91 89 94
-5.86753 14.2286 -1.92049 87 86 93
-14.9385 0.318466 -1.91816 98 109 128
-14.9484 0.360952 -1.91986 97 109 130
-14.9522 0.403339 -1.92065 91 103 125
-14.0172 1.49943 -1.90099 86 95 111
-14.0052 1.55808 -1.90019 85 94 111
-13.9857 1.5957 -1.89785 83 89 105
-12.2304 5.06681 -1.97362 85 94 111
-12.2065 5.09739 -1.97214 88 96 114
-12.218 5.14488 -1.97763 86 93 111
-12.2034 5.2009 -1.97959 87 94 112
-12.165 5.2244 -1.97532 86 95 110
-12.1759 5.27208 -1.98081 86 95 110
-12.1413 5.31836 -1.97893 88 95 111
-12.1536 5.36708 -1.98477 86 93 109
-12.1289 5.39725 -1.98329 86 92 108
-12.1233 5.43716 -1.98564 86 92 108
-12.1212 5.50025 -1.99039 86 95 110
-12.0961 5.53025 -1.98891 86 95 110
-12.0743 5.56198 -1.98812 88 95 111
-12.0611 5.61957 -1.99078 85 92 108
-12.0425 5.65302 -1.9907 86 95 110
-11.1918 7.27754 -2.01815 82 85 100
-11.1775 7.31544 -2.02017 82 84 99
-11.1583 7.34977 -2.02113 81 81 99
-11.1485 7.39119 -2.02419 83 84 102
-11.1221 7.44438 -2.02616 81 84 99
-11.1025 7.47859 -2.02713 82 85 100
-11.0766 7.50793 -2.0267 80 84 96
-11.0433 7.55603 -2.02728 79 85 99
-11.028 7.59371 -2.0293 80 83 98
-10.9925 7.61546 -2.02679 80 83 98
-10.9664 7.66937 -2.02911 78 81 98
-10.9491 7.70568 -2.03077 80 82 97
-10.9301 7.74072 -2.03209 80 82 97
-10.9003 7.79196 -2.03372 78 84 98
-9.73245 10.2295 -2.08225 83 86 96
-9.68565 10.2391 -2.07855 82 81 95
-9.63139 10.2394 -2.07287 84 83 97
-9.55368 10.2432 -2.06518 84 87 99
-9.50332 10.2475 -2.06049 86 88 100
-9.44686 10.2439 -2.05415 90 92 101
-7.7954 10.965 -1.89886 99 98 103
-7.76806 10.9991 -1.90134 100 100 102
-7.72663 11.0093 -1.8994 99 97 100
-7.05468 12.2845 -1.91254 106 100 98
-6.99154 12.3028 -1.91099 113 106 100
-6.95528 12.3281 -1.91214 114 107 97
-6.22209 13.4619 -1.90871 92 90 95
-5.82069 14.2394 -1.9199 87 88 92
-5.77503 14.2538 -1.91987 87 88 92
-14.0809 1.42665 -1.90981 86 93 109
-14.0657 1.46511 -1.90811 85 93 109
-12.3559 4.58647 -1.95909 88 95 111
-12.346 4.64337 -1.9614 90 95 113
-12.3323 4.67844 -1.96165 90 95 114
-12.3294 4.7182 -1.96401 89 96 114
-12.3134 4.77274 -1.96527 89 96 112
-12.3047 4.81014 -1.96657 86 95 110
-12.2779 4.83948 -1.96439 88 95 113
-12.2833 4.88331 -1.96849 87 94 113
-12.2665 4.93774 -1.96975 88 95 113
-12.2412 4.96767 -1.96791 88 94 110
-12.2479 5.01246 -1.97236 89 96 112
-10.881 7.8269 -2.03504 79 82 97
-10.8586 7.85929 -2.03566 79 83 95
-10.8194 7.87773 -2.03246 79 82 97
-10.7859 7.92603 -2.03339 78 79 97
-10.7571 7.95306 -2.03262 78 79 97
-10.7432 7.99278 -2.03533 78 80 95
-10.7046 8.03692 -2.03522 77 80 95
-10.677 8.06496 -2.0348 78 81 96
-10.6508 8.09421 -2.03473 78 81 96
-10.622 8.14705 -2.03706 77 80 95
-10.5926 8.17351 -2.03629 78 81 96
-9.37685 10.2558 -2.04844 87 89 99
-9.32062 10.2517 -2.04211 86 89 99
-9.26568 10.2488 -2.0361 89 92 102
-9.21084 10.2457 -2.03009 87 91 102
-9.134 10.2468 -2.0224 90 94 103
-9.08655 10.2526 -2.01838 88 91 100
-7.68519 11.0193 -1.89747 96 94 97
-7.63723 11.058 -1.89898 100 99 105
-7.60061 11.0763 -1.89862 100 97 104
-6.90976 12.3334 -1.91002 109 102 95
-6.87005 12.3512 -1.90999 113 105 95
-6.15503 13.4779 -1.90749 89 88 93
-6.10172 13.4655 -1.90308 89 88 94
-6.06251 13.4919 -1.9048 89 88 94
-5.70389 14.2658 -1.91842 86 86 88
-5.65695 14.2761 -1.91783 88 87 92
-14.1043 1.28845 -1.91115 91 100 117
-14.1052 1.32878 -1.912 89 98 113
-14.1021 1.36869 -1.91221 91 98 114
-12.4366 4.25553 -1.95014 92 95 111
-12.426 4.29153 -1.95074 93 96 111
-12.4121 4.34623 -1.952 92 95 110
-12.4049 4.38365 -1.95331 89 95 111
-12.3975 4.42108 -1.95461 90 96 111
-12.3809 4.45478 -1.95417 88 96 109
-12.3735 4.5124 -1.95683 88 95 111
-12.3657 4.54982 -1.95813 88 95 111
-10.5631 8.19987 -2.03553 80 79 95
-10.535 8.22745 -2.03511 80 81 96
-10.4967 8.27196 -2.03535 78 82 94
-10.4873 8.31658 -2.03945 76 82 94
-10.4661 8.35058 -2.04077 76 82 94
-10.4129 8.3814 -2.03754 77 81 93
-10.4115 8.43402 -2.04373 77 82 94
-10.3827 8.46111 -2.04331 76 82 94
-9.0332 10.2502 -2.01271 95 94 102
-8.96857 10.266 -2.00833 84 84 92
-8.90714 10.2521 -2.00034 84 84 92
-8.85524 10.2506 -1.995 81 82 90
-8.78851 10.2622 -1.98996 86 87 97
-8.73215 10.2538 -1.9833 94 95 104
-7.56491 11.0961 -1.89858 103 101 106
-7.50781 11.1188 -1.89725 100 99 104
-6.81163 12.3795 -1.91023 114 108 96
-6.77826 12.4115 -1.91258 115 108 97
-6.00393 13.5313 -1.90739 89 87 98
-5.6059 14.273 -1.91527 88 87 91
-5.56187 14.2924 -1.91609 88 87 91
-14.1105 1.14849 -1.90993 96 104 123
-14.1 1.18763 -1.90887 90 99 116
-14.1052 1.24834 -1.91062 92 101 118
-12.5015 3.96151 -1.9425 73 83 95
-12.5122 4.00502 -1.94694 77 87 99
-12.471 4.02961 -1.94161 86 94 107
-12.4787 4.09191 -1.94671 100 108 121
-12.4649 4.12659 -1.94662 95 103 116
-12.4566 4.16334 -1.94757 92 98 112
-12.4415 4.21738 -1.94848 93 96 113
-10.3362 8.49818 -2.04182 76 83 93
-10.3158 8.53318 -2.04349 77 83 94
-10.2979 8.57086 -2.04585 78 82 94
-10.2481 8.60474 -2.04367 80 79 93
-10.2371 8.64917 -2.04777 80 80 93
-10.2006 8.6688 -2.04562 79 81 94
-10.1739 8.69797 -2.0459 78 82 94
-8.68284 10.2548 -1.97862 87 90 99
-8.60372 10.2478 -1.96995 110 110 117
-8.55462 10.2482 -1.96527 113 113 120
-8.49988 10.2403 -1.95894 110 110 116
-8.45663 10.2484 -1.95592 103 102 108
-7.47294 11.1401 -1.89753 99 98 104
-7.43705 11.1596 -1.89749 99 96 105
-7.32209 11.076 -1.87693 102 99 110
-7.27888 11.0812 -1.87437 99 98 106
-6.73668 12.4252 -1.91195 110 103 97
-6.67949 12.4565 -1.91279 117 108 99
-5.95857 13.5407 -1.90648 87 84 97
-5.92482 13.5835 -1.91084 88 87 93
-5.49067 14.3033 -1.91464 88 88 90
-5.45105 14.3376 -1.91772 86 81 87
-14.1247 1.0495 -1.91084 88 99 117
-14.109 1.10823 -1.90909 92 100 119
-12.5723 3.7109 -1.93965 79 86 104
-12.5653 3.74776 -1.94061 80 89 104
-12.5597 3.80465 -1.94291 82 87 106
-12.5469 3.83957 -1.94282 82 87 106
-12.5339 3.87446 -1.94273 81 86 105
-12.5413 3.91656 -1.94647 81 88 104
-10.139 8.74645 -2.04753 78 82 94
-10.1176 8.78102 -2.04921 77 81 93
-10.0988 8.81835 -2.05157 79 81 94
-10.0549 8.85813 -2.05112 81 80 94
-10.018 8.87701 -2.04898 81 80 94
-9.98237 8.89717 -2.04718 82 81 95
-8.38149 10.2448 -1.94824 105 104 109
-8.33271 10.2443 -1.94357 99 98 103
-8.28625 10.2468 -1.93955 96 95 101
-8.22149 10.2569 -1.93485 93 92 100
-7.24502 11.1035 -1.87496 102 101 109
-7.17786 11.1055 -1.87016 100 99 105
-7.13747 11.1153 -1.86855 101 100 106
-6.63464 12.4628 -1.91097 112 104 94
-6.58745 12.4634 -1.90826 109 104 89
-6.52459 12.4813 -1.90701 105 101 93
-5.84754 11.5555 -1.73943 103 98 95
-5.85926 13.6037 -1.9105 86 85 90
-5.81184 13.607 -1.90872 87 86 91
-5.40619 14.3547 -1.91826 75 70 74
-14.1302 0.909707 -1.90995 90 98 118
-14.1308 0.969808 -1.91074 94 101 117
-14.121 1.00909 -1.90968 90 98 116
-12.6313 3.49624 -1.93777 82 88 104
-12.6327 3.55493 -1.94112 84 91 107
-12.6037 3.58461 -1.93789 87 94 110
-12.6234 3.63008 -1.94373 86 95 110
-12.5866 3.67652 -1.9401 89 96 112
-9.94498 8.9435 -2.04847 80 80 93
-9.91192 8.96623 -2.04736 81 79 92
-9.88287 8.99313 -2.0473 80 80 92
-9.83823 9.03188 -2.04685 78 82 92
-9.81166 9.06143 -2.04748 78 82 94
-9.78631 9.09236 -2.04846 79 80 93
-8.17733 10.2622 -1.9315 97 97 103
-8.12554 10.256 -1.92584 100 97 104
-8.07079 10.2798 -1.92411 103 100 106
-8.01698 10.2698 -1.91779 100 98 104
-7.98381 10.2909 -1.91774 100 96 103
-7.08518 11.1023 -1.86284 101 101 104
-7.0603 11.1416 -1.86658 104 103 108
-6.48055 12.4888 -1.90549 103 99 94
-6.44266 12.5107 -1.90635 108 103 99
-5.76135 11.5 -1.72687 104 100 93
-5.72353 11.5124 -1.72655 103 98 96
-5.77006 13.627 -1.90957 90 87 93
-5.7239 13.6337 -1.90838 89 88 93
-5.33921 14.38 -1.91907 71 69 70
-5.28875 14.3778 -1.91679 73 73 72
-14.1388 0.790238 -1.90996 86 97 117
-14.1394 0.830289 -1.91049 89 100 120
-14.1398 0.870353 -1.91102 90 101 118
-13.4394 1.8474 -1.90789 71 76 95
-13.4355 1.90466 -1.90874 88 95 111
-12.6434 3.28728 -1.92886 86 93 109
-12.6642 3.33205 -1.9347 84 93 108
-12.6626 3.38948 -1.93736 79 88 104
-12.6491 3.42412 -1.93691 80 88 105
-12.6487 3.46282 -1.93891 82 89 106
-9.75688 9.11888 -2.0484 82 82 94
-9.71564 9.1614 -2.049 84 84 96
-9.68861 9.19062 -2.04963 80 80 92
-9.6536 9.21098 -2.04818 82 82 94
-9.61451 9.25599 -2.04948 81 80 94
-7.91721 10.2959 -1.91238 95 92 101
-7.88927 10.3249 -1.91399 96 93 102
-7.8432 10.3257 -1.90998 96 95 103
-7.0438 11.2408 -1.87945 101 101 103
-7.06399 11.3697 -1.89927 101 101 105
-6.38419 12.5389 -1.9069 101 94 87
-6.34307 12.5532 -1.90657 113 106 98
-5.69647 11.5523 -1.73069 90 86 83
-5.65811 13.6529 -1.90804 90 90 92
-5.61311 13.6631 -1.90743 90 89 92
-5.24912 14.4134 -1.92016 91 91 89
-14.1483 0.690862 -1.91055 92 100 120
-14.1531 0.731142 -1.91172 93 103 120
-13.4616 1.81215 -1.91066 79 84 100
-12.6715 3.06568 -1.92279 85 94 109
-12.6731 3.12332 -1.92579 85 93 113
-12.6927 3.16719 -1.93129 82 93 111
-12.6516 3.19378 -1.9256 86 96 113
-12.6715 3.25707 -1.9321 83 91 107
-9.57672 9.27314 -2.04734 84 81 92
-9.56102 9.31526 -2.05109 82 80 91
-9.52398 9.36286 -2.05308 82 80 93
-9.49884 9.39453 -2.05441 84 82 95
-9.47103 9.42315 -2.05505 81 79 92
-7.81616 10.3562 -1.91192 100 99 107
-7.75382 10.3669 -1.90789 97 96 101
-7.73078 10.4039 -1.91114 95 95 97
-7.02736 11.3879 -1.89924 102 101 106
-6.97452 11.4186 -1.89981 101 100 105
-6.2967 12.5546 -1.90416 116 109 97
-5.6772 11.6675 -1.74584 95 89 84
-5.56512 13.6636 -1.90536 87 85 90
-14.1433 0.590731 -1.90891 86 97 117
-14.1553 0.651258 -1.9113 93 101 122
-13.4758 1.64076 -1.90879 79 84 103
-12.6603 2.85415 -1.91108 89 98 114
-12.6771 2.8963 -1.91588 86 95 111
-12.669 2.93205 -1.91613 89 98 115
-12.6618 2.98692 -1.91739 83 90 109
-12.6724 3.02782 -1.92114 88 97 112
-9.43209 9.46892 -2.05669 89 87 98
-9.404 9.49736 -2.05733 84 83 93
-9.37456 9.52421 -2.05761 82 82 92
-9.3526 9.56003 -2.05999 82 81 88
-7.68991 10.4124 -1.90879 95 93 99
-7.63884 10.4408 -1.90839 103 100 107
-7.60206 10.4556 -1.90736 104 101 107
-6.93511 11.4312 -1.89883 100 102 107
-6.89741 11.4473 -1.89848 100 101 106
-5.50038 13.6859 -1.90561 87 86 92
-5.45416 13.6918 -1.90442 88 88 94
-14.1564 0.511478 -1.91041 90 103 122
-14.1617 0.551663 -1.91157 94 105 125
-13.5227 1.47368 -1.91293 83 92 107
-13.5035 1.50978 -1.91049 87 99 113
-12.6513 2.62693 -1.89977 89 96 114
-12.6666 2.68661 -1.90487 89 96 114
-12.6649 2.7237 -1.90617 91 100 117
-12.6573 2.75937 -1.90643 88 98 116
-12.6815 2.82183 -1.91328 90 98 117
-9.30286 9.59323 -2.05885 90 90 100
-9.2731 9.61978 -2.05914 81 81 91
-9.24948 9.65387 -2.06117 80 79 88
-9.1981 9.68502 -2.05969 82 79 90
-9.16311 9.70514 -2.05859 81 78 88
-7.56931 10.4771 -1.90764 102 100 105
-7.51694 10.5033 -1.90692 99 97 102
-7.48806 10.5313 -1.90853 103 103 105
-6.83994 11.4685 -1.89747 101 100 106
-6.79958 11.4789 -1.89617 104 103 108
-6.76091 11.4927 -1.89551 104 103 109
-5.40563 13.6899 -1.90206 87 86 94
-5.34417 13.7228 -1.90406 89 87 98
-14.15 0.37161 -1.90856 94 105 123
-14.144 0.411274 -1.90781 102 113 131
-14.1477 0.451278 -1.90866 90 101 119
-13.5114 1.33804 -1.90828 88 95 113
-13.52 1.37735 -1.91052 83 92 107
-13.5011 1.41354 -1.90807 88 95 111
-12.6811 2.46629 -1.89845 90 99 114
-12.6859 2.50456 -1.90081 87 99 113
-12.6692 2.55655 -1.89996 90 99 114
-12.6718 2.59445 -1.90196 88 97 112
-9.13296 9.73128 -2.05889 87 85 90
-9.08985 9.77264 -2.05984 105 103 105
-9.06315 9.8032 -2.06117 101 97 97
-9.03148 9.8275 -2.06112 88 87 83
-7.45805 10.5576 -1.90981 100 99 104
-7.40038 10.5747 -1.90743 103 100 107
-7.36131 10.5853 -1.90573 102 100 107
-6.70243 11.5115 -1.89419 100 99 105
-6.67122 11.5411 -1.89636 104 103 108
-6.00733 12.6468 -1.90126 100 95 89
-5.97153 12.6748 -1.90332 90 86 87
-5.2906 13.7035 -1.89907 85 84 92
-5.25111 13.7315 -1.90139 88 87 93
-14.1523 0.272056 -1.90851 95 106 124
-14.1446 0.311693 -1.90744 95 106 126
-13.5224 1.28179 -1.90911 89 97 116
-12.7047 2.30461 -1.89644 87 94 112
-12.6908 2.33869 -1.89529 90 97 115
-12.6904 2.39407 -1.89725 89 98 113
-12.7011 2.43355 -1.90065 89 98 113
-11.1021 5.7478 -1.98695 85 91 107
-11.0707 5.81288 -1.98828 86 92 108
-11.0356 5.85449 -1.98669 89 95 109
-11.0213 5.88791 -1.98772 86 92 108
-11.0119 5.92437 -1.98987 86 92 106
-10.988 5.97288 -1.99086 85 91 105
-10.9666 6.00205 -1.99042 87 90 105
-10.9551 6.03743 -1.99219 84 90 106
-10.9269 6.06229 -1.99028 85 91 107
-10.9122 6.11683 -1.99349 84 90 105
-10.8854 6.14257 -1.99194 86 92 106
-10.8767 6.17994 -1.99445 84 90 104
-10.8416 6.22151 -1.99324 84 90 106
-10.8293 6.25669 -1.99501 86 89 106
-10.8202 6.29403 -1.99752 83 90 103
-8.97702 9.85443 -2.05895 98 96 97
-8.94759 9.88159 -2.05959 77 75 81
-8.92045 9.91178 -2.06092 75 75 86
-8.89081 9.93878 -2.06156 81 81 91
-7.33204 10.613 -1.90735 104 102 107
-7.29582 10.6285 -1.90665 101 99 104
-6.63737 11.5652 -1.89759 104 104 106
-6.58193 11.5905 -1.89754 101 101 103
-5.90938 12.6934 -1.90268 99 93 94
-5.87331 12.7211 -1.90474 97 96 94
-5.18492 13.7485 -1.90106 81 76 82
-14.1476 0.192304 -1.90746 94 105 123
-14.152 0.232207 -1.90831 97 108 126
-12.7087 2.17631 -1.89258 86 94 113
-12.7087 2.21317 -1.89388 91 99 118
-12.6954 2.26573 -1.89339 90 97 114
-11.4338 4.93303 -1.96777 85 95 108
-11.413 4.98207 -1.96839 86 96 108
-11.4087 5.01968 -1.9709 85 95 107
-11.4008 5.05556 -1.97267 86 95 110
-11.3892 5.08967 -1.9737 86 95 110
-11.3712 5.14035 -1.97506 85 94 109
-11.3541 5.17171 -1.97498 86 95 110
-11.3421 5.20574 -1.97601 84 91 107
-11.327 5.25812 -1.97811 84 92 109
-11.3234 5.29671 -1.98099 85 92 109
-11.3041 5.327 -1.98055 85 92 109
-11.2849 5.37746 -1.98191 85 93 108
-11.2722 5.41138 -1.98294 84 91 107
-11.2559 5.44339 -1.98323 85 91 107
-11.2412 5.49657 -1.98571 83 92 105
-11.2196 5.52563 -1.98489 85 92 108
-11.2081 5.5604 -1.98629 83 90 106
-11.1846 5.58836 -1.98511 87 95 109
-11.1674 5.64041 -1.98721 86 93 109
-11.1436 5.66821 -1.98603 85 92 108
-11.1232 5.6979 -1.98559 87 93 109
-11.0949 5.78537 -1.98946 84 91 107
-10.7944 6.34185 -1.99852 84 90 104
-10.7947 6.38576 -2.00325 83 91 104
-10.7736 6.4154 -2.00318 82 88 104
-10.7505 6.46529 -2.00492 82 89 105
-10.7211 6.48921 -2.003 82 89 105
-10.7046 6.52199 -2.00404 81 87 103
-10.6896 6.55586 -2.00544 82 88 104
-10.6577 6.59982 -2.00534 81 87 101
-10.6424 6.6336 -2.00675 84 87 104
-10.6206 6.66277 -2.00668 85 86 104
-10.5882 6.70642 -2.00657 83 88 104
-10.582 6.747 -2.01019 82 88 102
-10.5567 6.77367 -2.00939 81 89 102
-10.5364 6.82638 -2.01223 81 87 101
-10.5014 6.84584 -2.00921 80 86 102
-10.4695 6.86752 -2.00693 82 85 102
-10.4487 6.91996 -2.00978 80 88 101
-10.4166 6.94141 -2.0075 80 86 100
-10.4032 6.97708 -2.00965 81 87 101
-10.3834 7.00793 -2.01032 80 88 99
-10.354 7.05412 -2.01132 82 85 100
-8.84898 9.98226 -2.06321 89 90 94
-8.81321 10.0012 -2.06212 94 95 100
-8.79851 10.0484 -2.06727 77 76 83
-7.24478 10.6568 -1.90658 100 99 104
-7.22095 10.6944 -1.91017 101 100 106
-7.17495 10.6924 -1.90617 103 98 105
-6.54297 11.6037 -1.89687 102 102 104
-6.5129 11.6365 -1.89968 101 100 105
-6.47867 11.6602 -1.90091 100 100 103
-5.83239 12.7357 -1.90471 92 92 91
-5.14246 13.7666 -1.90191 70 67 73
-5.09565 13.7694 -1.90043 73 71 73
-12.7166 2.01258 -1.88847 92 101 118
-12.7191 2.04969 -1.89012 86 95 111
-12.7156 2.08576 -1.89072 86 93 111
-12.7145 2.14061 -1.89233 87 96 113
-11.5781 4.47348 -1.95516 89 95 111
-11.5613 4.50465 -1.95471 88 95 111
-11.5534 4.53975 -1.95611 88 95 113
-11.5328 4.58838 -1.95636 90 100 112
-11.5317 4.62671 -1.95923 88 96 109
-11.5145 4.65771 -1.95879 91 98 113
-11.5114 4.69525 -1.96129 89 97 110
-11.4864 4.74205 -1.9608 87 92 111
-11.4883 4.78213 -1.96442 86 94 110
-11.4688 4.81214 -1.9636 88 96 110
-11.4593 4.8664 -1.96644 86 93 109
-11.4466 4.89973 -1.9671 86 93 109
-10.334 7.08485 -2.01199 82 85 100
-10.3246 7.12406 -2.01525 82 84 99
-10.2808 7.15901 -2.01293 80 86 100
-10.2635 7.19202 -2.01434 79 85 99
-10.2308 7.21263 -2.01206 80 86 100
-10.1927 7.25202 -2.01123 82 85 100
-10.1826 7.29106 -2.01448 82 84 99
-10.1618 7.32135 -2.01515 81 83 98
-10.1383 7.37298 -2.01801 81 84 99
-10.1187 7.40442 -2.01905 80 83 98
-10.0945 7.43202 -2.01898 80 83 98
-8.74442 10.0757 -2.06545 83 84 89
-8.72117 10.1117 -2.06817 91 91 99
-8.6839 10.1286 -2.06673 89 90 92
-8.60769 10.1249 -2.05833 89 89 97
-7.12741 10.727 -1.90743 103 101 106
-7.08807 10.7367 -1.90574 100 98 101
-7.0506 10.7498 -1.90471 99 99 101
-6.44111 11.7263 -1.9081 102 100 106
-5.76531 12.7406 -1.90198 92 88 92
-5.723 12.7512 -1.90136 94 89 94
-5.03035 13.7895 -1.90069 83 83 88
-12.6941 1.88084 -1.88041 84 87 104
-12.695 1.91743 -1.88171 88 97 112
-12.7179 1.97619 -1.88752 90 99 116
-11.648 4.10328 -1.93973 90 98 111
-11.6796 4.15378 -1.9489 93 99 114
-11.6475 4.17864 -1.94512 90 96 110
-11.6504 4.23659 -1.9498 92 95 110
-11.6452 4.27252 -1.95157 89 96 110
-11.6308 4.30468 -1.95149 90 98 111
-11.6113 4.3536 -1.95174 89 96 111
-11.5895 4.38256 -1.95018 90 96 112
-11.573 4.41377 -1.94973 90 96 112
-10.0732 7.46208 -2.01966 80 83 98
-10.037 7.50324 -2.01956 80 83 98
-10.0154 7.53315 -2.02023 80 84 96
-9.99821 7.56688 -2.02202 80 84 96
-9.96151 7.60769 -2.02192 81 83 96
-9.93961 7.63741 -2.02259 80 82 97
-9.91905 7.66838 -2.02364 80 82 97
-9.87749 7.70489 -2.02244 79 81 96
-9.85524 7.73439 -2.02311 79 81 96
-8.57272 10.1446 -2.05758 87 88 94
-8.54679 10.177 -2.05961 92 92 95
-8.48323 10.1901 -2.05502 94 94 95
-8.45147 10.2142 -2.05532 94 93 96
-6.99619 10.7717 -1.90366 103 102 106
-6.97344 10.8123 -1.90791 101 100 105
-6.44613 11.8402 -1.92509 104 103 105
-5.67869 12.756 -1.89985 94 90 94
-5.61754 12.7769 -1.8998 95 92 92
-12.7186 1.75763 -1.8811 80 87 103
-12.7219 1.79453 -1.88275 80 87 103
-12.7144 1.84785 -1.88296 78 84 100
-11.7484 3.87984 -1.94178 76 81 100
-11.7426 3.91507 -1.94318 82 85 104
-11.7232 3.96371 -1.94306 91 93 106
-11.7208 4.00034 -1.9452 92 96 108
-11.7018 4.03057 -1.944 92 98 112
-11.6562 4.06892 -1.9387 91 99 113
-9.84161 7.77176 -2.026 78 81 96
-9.80973 7.81718 -2.02738 79 81 96
-9.77701 7.83716 -2.02548 79 81 96
-9.74998 7.86239 -2.02505 76 78 92
-9.72433 7.88886 -2.02499 73 75 88
-9.68898 7.93112 -2.02563 69 71 84
-9.66452 7.95876 -2.02594 66 65 82
-8.40504 10.2172 -2.05111 92 93 96
-8.36204 10.2249 -2.04794 94 95 97
-8.30407 10.2451 -2.04509 89 92 99
-8.25666 10.2458 -2.04053 87 87 97
-6.92384 10.8022 -1.9026 99 98 103
-6.87198 10.8288 -1.90253 104 101 108
-6.44813 11.9488 -1.94113 102 102 104
-5.57706 12.7926 -1.90008 95 95 96
-5.53145 12.7932 -1.89797 99 98 103
-12.732 1.63273 -1.88004 90 97 113
-12.7299 1.66867 -1.88065 86 93 109
-12.7152 1.72078 -1.87945 82 91 108
-11.8107 3.64256 -1.93718 84 92 106
-11.7964 3.67454 -1.93673 82 89 105
-11.7929 3.72871 -1.93957 81 89 104
-11.771 3.75795 -1.93763 80 87 102
-11.7748 3.79652 -1.94088 76 83 99
-11.7596 3.84667 -1.9415 80 87 103
-9.63713 7.98361 -2.02551 79 78 86
-9.59707 8.02142 -2.02505 93 90 99
-9.57794 8.05427 -2.02683 80 78 89
-9.55869 8.08709 -2.02862 65 64 80
-9.51117 8.11761 -2.02632 75 76 96
-9.49584 8.15444 -2.02921 77 78 95
-9.46509 8.17597 -2.02804 78 84 98
-8.20823 10.2448 -2.03563 89 88 96
-8.13832 10.2461 -2.02896 89 87 98
-8.09223 10.2478 -2.02475 87 85 96
-8.04944 10.2543 -2.02158 93 93 105
-6.84246 10.8569 -1.90448 106 103 110
-6.79843 10.8568 -1.90114 99 98 103
-6.7652 10.8777 -1.90177 99 96 103
-6.43675 12.0802 -1.95967 101 101 103
-6.44189 12.2 -1.97761 102 100 105
-5.49218 12.8124 -1.89884 92 91 93
-5.43138 12.8344 -1.89909 98 96 97
-12.7343 1.50646 -1.87724 82 91 108
-12.7481 1.54455 -1.88064 80 86 103
-12.7379 1.59736 -1.88014 86 93 109
-11.8693 3.40528 -1.93296 80 89 104
-11.8653 3.45876 -1.93542 81 90 107
-11.8498 3.49031 -1.9346 80 87 105
-11.8434 3.52494 -1.93562 83 88 107
-11.8388 3.57846 -1.93809 83 90 106
-11.8137 3.60669 -1.93542 82 89 105
-9.42138 8.21017 -2.02685 79 82 97
-9.3891 8.23004 -2.02532 79 83 95
-9.37052 8.26384 -2.02747 81 81 94
-9.35457 8.30043 -2.03036 78 80 93
-9.32259 8.34679 -2.03248 78 80 94
-7.97876 10.2531 -2.01457 92 91 101
-7.92859 10.2476 -2.00898 92 92 99
-7.88173 10.2468 -2.00443 90 90 95
-7.81988 10.2578 -2.00019 81 81 87
-6.71474 10.907 -1.90237 102 101 106
-6.6769 10.9188 -1.90134 100 100 104
-6.63469 10.9216 -1.89867 103 103 106
-6.41799 12.2527 -1.98388 102 100 103
-6.35476 12.2661 -1.98193 102 102 97
-5.38887 12.8439 -1.89848 95 93 95
-5.3451 12.8495 -1.89726 91 90 96
-12.7433 1.43545 -1.87708 82 92 109
-12.7242 1.46901 -1.87453 85 94 111
-11.8991 3.21453 -1.92713 87 94 110
-11.8937 3.24915 -1.92815 85 94 110
-11.9013 3.28787 -1.93177 85 91 107
-11.8736 3.33363 -1.92942 89 96 112
-11.879 3.37184 -1.93267 84 93 108
-9.3022 8.37906 -2.03427 78 81 94
-9.27492 8.40417 -2.03421 77 82 93
-9.23292 8.44026 -2.03376 80 81 95
-9.20678 8.46659 -2.03407 73 74 89
-9.1819 8.49429 -2.03475 68 67 82
-7.76999 10.2516 -1.9946 85 84 92
-7.71917 10.2436 -1.98866 77 76 84
-7.6799 10.2537 -1.98654 76 74 85
-7.61521 10.2585 -1.98127 86 86 98
-6.57965 10.9416 -1.89762 100 98 104
-6.54521 10.96 -1.89792 101 100 108
-6.30929 12.2675 -1.97938 102 103 98
-6.26164 12.2633 -1.97588 100 99 97
-5.91757 11.7969 -1.88628 102 103 108
-5.77368 11.5416 -1.83993 100 101 105
-5.71549 11.5555 -1.83862 100 101 104
-5.28591 12.8764 -1.89841 92 90 89
-12.782 1.38628 -1.88283 87 94 111
-11.9046 2.96435 -1.91439 89 96 112
-11.9038 2.99993 -1.91615 89 98 113
-11.9056 3.05416 -1.91936 92 99 115
-11.9082 3.09092 -1.92187 87 94 112
-11.9051 3.12605 -1.92326 86 93 112
-11.9 3.16064 -1.92429 89 96 114
-9.15148 8.54293 -2.03761 64 69 82
-9.12897 8.57338 -2.03903 69 72 86
-9.09844 8.59506 -2.03824 88 92 103
-9.05294 8.62739 -2.03705 116 118 127
-9.03404 8.66198 -2.03958 114 115 120
-7.56879 10.2565 -1.97672 83 83 93
-7.51835 10.2476 -1.97078 89 89 97
-7.45599 10.2549 -1.96621 107 107 116
-7.41083 10.254 -1.96201 115 114 120
-6.52184 11.0014 -1.9025 102 101 111
-6.19551 12.2686 -1.97268 102 101 107
