-5.61982 3.78436 -1.84518 73 76 93
-5.60572 3.79661 -1.84451 73 76 93
-5.57861 3.80921 -1.84054 72 75 92
-5.5784 3.83398 -1.8465 75 78 95
-5.37012 4.33308 -1.8727 85 93 106
-5.34625 4.34949 -1.8714 89 92 107
-5.33821 4.3691 -1.87463 86 87 105
-5.31592 4.37348 -1.87074 88 91 108
-5.15388 4.66872 -1.87659 87 90 107
-5.13485 4.67662 -1.87468 86 89 106
-5.1194 4.68883 -1.87467 86 89 104
-4.90372 5.15748 -1.89598 82 88 104
-4.88773 5.17049 -1.89659 81 88 104
-4.67321 5.53451 -1.90286 83 93 105
-4.65299 5.54214 -1.90165 82 91 106
-4.3994 5.96502 -1.90744 77 83 98
-4.07537 6.49888 -1.91527 82 92 104
-3.90037 6.81464 -1.92385 82 90 103
-3.87594 6.8177 -1.9222 81 91 103
-3.67527 7.1489 -1.92517 79 89 101
-3.64947 7.14943 -1.92303 81 89 102
-3.48055 7.52324 -1.9404 83 89 103
-3.23886 7.89883 -1.94528 82 90 103
-2.97611 8.41401 -1.9657 84 91 105
-7.97889 0.244403 -1.84133 80 91 112
-7.70825 0.625881 -1.83939 78 86 104
-7.69872 0.655022 -1.83761 84 92 111
-7.48265 0.881621 -1.82605 76 86 102
-7.49779 0.903355 -1.83223 88 97 114
-7.13896 1.32223 -1.81686 85 90 109
-7.15426 1.34517 -1.82386 79 86 104
-7.1747 1.37913 -1.83341 73 81 99
-7.17139 1.39785 -1.83406 84 91 107
-7.025 1.55617 -1.82819 145 140 144
-7.02472 1.57531 -1.83013 143 139 140
-7.01095 1.60023 -1.82821 142 140 142
-7.01417 1.62041 -1.83145 142 140 141
-6.68972 1.97251 -1.81636 79 81 92
-6.67389 1.9858 -1.81305 85 87 99
-6.69848 2.01457 -1.82498 80 79 93
-6.65479 2.02656 -1.81241 80 81 94
-6.67389 2.05345 -1.82235 82 81 95
-5.59062 3.8702 -1.85842 72 75 92
-5.56742 3.88649 -1.85643 71 74 91
-5.56269 3.90752 -1.8604 71 72 90
-5.30213 4.40074 -1.87462 90 93 108
-5.28492 4.41053 -1.87332 92 95 110
-5.27276 4.42586 -1.87461 89 93 105
-5.10991 4.70832 -1.87784 84 90 106
-5.08344 4.72209 -1.87593 83 90 106
-5.06906 4.73562 -1.87656 84 90 106
-4.8684 5.1788 -1.89534 82 89 105
-4.84196 5.19425 -1.89472 83 89 105
-4.62504 5.55672 -1.90103 85 93 106
-4.37979 5.9751 -1.90743 77 83 96
-4.36107 5.98682 -1.908 101 107 121
-4.04999 6.52634 -1.91973 85 92 105
-4.02489 6.52638 -1.91692 82 90 103
-3.85151 6.82068 -1.92055 80 91 103
-3.62557 7.15534 -1.92248 83 91 104
-3.4442 7.5341 -1.94038 83 91 104
-3.21368 7.90728 -1.94576 85 89 104
-2.94822 8.41791 -1.9652 83 91 103
-7.98008 0.203084 -1.84071 84 95 115
-7.96709 0.223369 -1.83725 84 95 115
-7.70045 0.584899 -1.83515 83 91 110
-7.70153 0.605087 -1.83637 89 97 114
-7.49886 0.854626 -1.82973 76 85 102
-7.16554 1.28014 -1.82192 80 84 104
-7.1919 1.31511 -1.83337 87 94 112
-7.02411 1.47003 -1.81909 83 91 107
-7.01865 1.48765 -1.8191 73 79 98
-7.01258 1.51454 -1.81976 81 81 100
-7.069 1.54883 -1.84176 150 144 154
-6.72588 1.91863 -1.82097 116 102 88
-6.72432 1.93734 -1.82296 80 81 82
-6.70375 1.95849 -1.819 80 80 92
-5.551 3.92213 -1.86106 75 74 92
-5.54061 3.93801 -1.86238 71 74 91
-5.52671 3.96308 -1.86503 67 70 87
-5.50118 3.96461 -1.85907 73 74 92
-5.25927 4.43975 -1.87525 90 94 106
-5.23498 4.4556 -1.87396 91 93 106
-5.22141 4.46939 -1.8746 89 92 109
-5.05934 4.75503 -1.87973 85 91 105
-5.03153 4.76705 -1.87718 84 90 106
-4.82151 5.20084 -1.89285 82 90 103
-4.80966 5.21988 -1.89593 83 89 103
-4.60776 5.56907 -1.90163 85 91 107
-4.58746 5.57648 -1.90041 85 91 107
-4.32749 5.9933 -1.90508 110 114 126
-4.31046 6.00825 -1.90681 113 115 127
-4.0058 6.54046 -1.91858 83 89 105
-3.82121 6.84023 -1.92272 81 91 103
-3.59161 7.16862 -1.923 81 89 102
-3.42135 7.54678 -1.94191 83 91 104
-3.18366 7.89693 -1.94126 83 89 103
-7.98152 0.182452 -1.8407 84 95 115
-7.70651 0.535349 -1.83512 85 93 112
-7.70397 0.555172 -1.83513 79 87 106
-7.50851 0.787601 -1.82907 82 90 108
-7.5058 0.816472 -1.82971 79 88 105
-7.51176 0.836807 -1.83281 89 98 115
-7.17507 1.24365 -1.8219 85 92 111
-7.16108 1.25985 -1.81873 85 91 111
-7.03346 1.42499 -1.81777 79 85 99
-7.0332 1.45332 -1.82038 72 81 94
-6.74018 1.85674 -1.81763 163 127 91
-6.75481 1.88111 -1.82558 161 123 87
-6.74155 1.90507 -1.82427 163 131 101
-5.49607 3.98558 -1.86304 71 70 88
-5.47783 4.00658 -1.8637 77 78 96
-5.45499 4.01046 -1.85906 73 72 90
-5.44293 4.02479 -1.85972 72 70 91
-5.39635 4.01773 -1.84647 72 71 89
-5.38694 4.03455 -1.84845 74 75 93
-5.37744 4.05135 -1.85044 69 71 86
-5.20527 4.48031 -1.87395 88 91 108
-5.18082 4.49589 -1.87265 86 92 106
-5.17205 4.51523 -1.87588 85 91 105
-5.0158 4.77895 -1.87718 85 88 105
-5.00586 4.79826 -1.88035 86 87 105
-4.77984 5.23035 -1.89345 81 91 103
-4.77105 5.25402 -1.89839 80 92 104
-4.55937 5.59074 -1.8998 84 91 107
-4.54487 5.60782 -1.9022 83 91 104
-4.28807 6.01298 -1.90506 114 114 125
-3.9712 6.54645 -1.91633 83 89 103
-3.79814 6.84662 -1.92215 82 92 104
-3.56766 7.17435 -1.92245 81 91 103
-3.40177 7.57047 -1.94652 80 88 101
-3.14844 7.91776 -1.94422 81 91 103
-7.98698 0.151576 -1.84183 82 93 111
-7.72418 0.51682 -1.83991 86 95 112
-7.52069 0.750075 -1.8309 90 99 116
-7.51745 0.769196 -1.83091 85 94 111
-7.18254 1.19719 -1.8206 87 93 109
-7.18165 1.21625 -1.82188 87 94 110
-7.05862 1.36485 -1.82032 78 85 104
-7.0513 1.39143 -1.82034 89 97 110
-7.04423 1.40868 -1.8197 84 92 105
-6.76842 1.73344 -1.81161 77 80 93
-6.76833 1.7617 -1.81494 114 97 89
-6.76196 1.77857 -1.81495 157 125 99
-6.75554 1.79541 -1.81495 154 119 91
-6.75084 1.81285 -1.81562 152 115 79
-6.7628 1.84552 -1.82358 151 117 82
-5.36257 4.06279 -1.84977 67 66 82
-5.34395 4.08322 -1.85043 86 88 103
-5.32901 4.09455 -1.84976 74 77 92
-5.31402 4.10583 -1.8491 73 77 89
-5.15331 4.52313 -1.87393 86 92 108
-5.12869 4.53845 -1.87263 86 92 106
-5.11603 4.55338 -1.87392 88 91 108
-4.97907 4.81148 -1.87844 83 89 105
-4.95974 4.81872 -1.87652 82 89 105
-4.95765 4.84845 -1.88415 83 89 105
-4.75152 5.26193 -1.89714 83 90 106
-4.73091 5.2682 -1.89528 83 90 106
-4.52449 5.61503 -1.90098 86 92 106
-4.50986 5.63203 -1.90338 86 92 104
-4.25884 6.02758 -1.90504 112 112 124
-4.23644 6.03213 -1.90329 110 110 122
-3.95054 6.55684 -1.91687 85 91 105
-3.92765 6.56185 -1.91574 84 90 104
-3.7764 6.85652 -1.92268 81 88 104
-3.5395 7.1672 -1.91819 81 91 103
-3.37161 7.559 -1.94136 83 89 103
-3.12552 7.93532 -1.94719 81 89 102
-7.96845 0.110011 -1.83542 86 98 114
-7.99209 0.130987 -1.84298 87 98 115
-7.72022 0.466364 -1.83687 91 100 117
-7.71333 0.495838 -1.83569 83 91 110
-7.51556 0.720306 -1.82779 82 90 109
-7.2287 1.16817 -1.83328 78 85 101
-7.19821 1.18121 -1.8244 81 88 104
-7.06635 1.30993 -1.81771 75 80 99
-7.06505 1.32852 -1.81901 83 88 108
-7.06738 1.34798 -1.82161 87 93 115
-6.79794 1.72412 -1.82021 84 85 104
-5.29909 4.13012 -1.85174 93 95 108
-5.2788 4.13585 -1.84843 92 96 108
-5.10576 4.57118 -1.8765 87 90 107
-5.09057 4.58317 -1.8765 85 91 107
-4.92496 4.85388 -1.87905 84 90 104
-4.9101 4.86696 -1.87968 84 90 106
-4.70516 5.28459 -1.89527 83 89 105
-4.69392 5.30498 -1.89897 83 89 105
-4.48347 5.64922 -1.90397 85 93 106
-4.45636 5.64465 -1.89854 84 92 105
-4.2201 6.04854 -1.9056 114 112 123
-3.90766 6.57388 -1.91684 83 89 103
-3.74112 6.86317 -1.92103 80 90 102
-3.71933 6.8729 -1.92156 77 87 99
-3.51911 7.18375 -1.92082 80 89 103
-3.33186 7.55825 -1.93825 83 91 104
-3.09467 7.9209 -1.9417 83 89 103
-7.7133 0.42581 -1.83323 83 94 112
-7.71869 0.446212 -1.83565 83 94 111
-7.52166 0.682078 -1.82776 89 96 115
-7.52052 0.701404 -1.82839 84 92 111
-7.23557 1.12137 -1.83198 80 87 103
-7.23494 1.14053 -1.83326 88 95 111
-7.08364 1.26674 -1.81962 91 92 112
-7.07511 1.28371 -1.81834 80 84 101
-6.8268 1.64817 -1.82083 143 141 142
-6.82797 1.66746 -1.82349 144 145 149
-6.80393 1.67882 -1.81688 124 131 140
-5.29743 4.1825 -1.86498 92 96 108
-5.25497 4.17796 -1.85372 93 97 109
-5.23846 4.18761 -1.85239 91 93 108
-5.23219 4.20826 -1.85636 89 93 105
-5.20922 4.21091 -1.85172 88 94 106
-5.06569 4.59817 -1.8752 85 93 108
-5.0516 4.6115 -1.87584 85 91 105
-5.03748 4.62479 -1.87648 84 90 105
-4.89745 4.88305 -1.88158 83 90 106
-4.88138 4.89454 -1.88157 81 88 104
-4.85424 4.90712 -1.87966 83 89 105
-4.67635 5.31581 -1.89896 82 89 105
-4.6442 5.32238 -1.89524 83 89 105
-4.44156 5.66149 -1.90094 85 95 107
-4.19851 6.05467 -1.90443 112 112 120
-4.16994 6.07057 -1.90499 112 110 121
-3.87728 6.59005 -1.91795 84 90 104
-3.69617 6.87897 -1.921 80 87 102
-3.48849 7.20755 -1.92452 82 88 104
-3.31313 7.58543 -1.94389 83 91 104
-7.71795 0.396178 -1.83381 87 98 120
-7.53795 0.635201 -1.83081 81 89 108
-7.53593 0.66414 -1.83145 86 96 114
-7.24248 1.05541 -1.8294 82 89 108
-7.24393 1.0749 -1.83132 84 91 110
-7.24732 1.10436 -1.83451 80 91 107
-7.09322 1.22183 -1.81894 80 87 105
-7.09028 1.24934 -1.82026 82 83 104
-6.84737 1.56972 -1.81881 140 137 142
-6.85063 1.5895 -1.82213 144 142 145
-6.84118 1.60552 -1.82081 142 140 143
-6.8335 1.62205 -1.82016 143 138 142
-5.19238 4.23347 -1.8537 90 93 108
-5.18207 4.24988 -1.85568 90 93 108
-5.01602 4.64392 -1.87712 85 93 106
-5.00177 4.65711 -1.87776 84 92 105
-4.98512 4.66732 -1.87711 85 91 105
-4.8403 4.92154 -1.88092 83 91 104
-4.82522 4.93439 -1.88155 83 93 105
-4.6276 5.33466 -1.89585 82 89 105
-4.613 5.3501 -1.8977 82 89 105
-4.41593 5.68004 -1.90213 82 92 104
-4.39632 5.68847 -1.90152 80 89 104
-4.15255 6.0851 -1.90672 114 114 126
-3.85433 6.59482 -1.91681 84 90 104
-3.66411 6.89426 -1.92207 81 89 104
-3.46097 7.20194 -1.92079 83 91 104
-3.43808 7.21094 -1.9213 82 90 103
-3.28471 7.57919 -1.94027 82 90 103
-3.05876 7.93948 -1.94416 84 91 103
-7.73911 0.357505 -1.83919 79 87 108
-7.72571 0.376689 -1.8356 82 92 113
-7.53509 0.615483 -1.82895 79 88 105
-7.25031 1.03762 -1.83066 82 89 107
-7.11435 1.16049 -1.82085 84 91 107
-7.11171 1.18805 -1.82216 84 89 106
-7.10341 1.20515 -1.82087 81 88 104
-6.84677 1.50417 -1.8115 84 84 102
-6.85388 1.52486 -1.81614 88 84 97
-6.11848 2.65688 -1.82673 76 78 91
-6.10067 2.69723 -1.82878 78 81 98
-6.07171 2.70121 -1.8206 80 83 100
-6.06209 2.78701 -1.83425 80 83 98
-6.04484 2.82804 -1.83698 76 82 96
-6.0093 2.87894 -1.83631 73 81 94
-6.00098 2.89467 -1.83699 74 82 95
-5.17171 4.26627 -1.85767 91 95 107
-5.14326 4.27607 -1.85369 88 94 108
-5.14403 4.30504 -1.86163 89 92 107
-5.11973 4.30582 -1.85633 89 92 109
-4.95993 4.68179 -1.87581 85 88 103
-4.94554 4.69482 -1.87645 86 89 106
-4.80789 4.96051 -1.88536 82 90 105
-4.78056 4.95632 -1.87899 83 90 106
-4.58888 5.36918 -1.89892 83 89 105
-4.57111 5.37969 -1.89891 82 89 105
-4.373 5.69018 -1.8985 82 91 106
-4.13004 6.08929 -1.90497 112 112 122
-3.8342 6.60666 -1.91792 83 91 104
-3.63896 6.89473 -1.91987 80 89 104
-3.24967 7.59472 -1.94179 83 89 105
-3.03564 7.9568 -1.94712 83 91 104
-7.71683 0.326259 -1.83135 82 90 110
-7.54213 0.548242 -1.82828 84 93 111
-7.54898 0.568249 -1.83138 82 91 106
-7.55861 0.598268 -1.83572 78 87 103
-7.26175 0.991736 -1.83126 80 92 108
-7.25594 1.00991 -1.83064 82 94 110
-7.1238 1.10609 -1.81952 74 81 97
-7.1102 1.1222 -1.8163 77 85 100
-7.12437 1.14369 -1.82278 79 88 103
-6.89639 1.47132 -1.82471 88 94 107
-6.86549 1.48153 -1.81545 87 91 107
-6.92431 1.5639 -1.84394 148 143 150
-6.23919 2.4229 -1.82258 84 75 85
-6.19828 2.43188 -1.811 84 84 104
-6.20152 2.45302 -1.81578 81 84 103
-6.22116 2.50223 -1.83078 132 128 142
-6.17171 2.50646 -1.81579 128 122 132
-6.193 2.53715 -1.82806 126 121 128
-6.19083 2.55589 -1.83079 123 118 124
-6.16957 2.57443 -1.82739 127 122 129
-6.15894 2.58877 -1.82671 127 122 128
-6.14995 2.60395 -1.82671 126 123 130
-6.14007 2.62846 -1.82808 137 137 145
-6.13753 2.64717 -1.83081 123 125 135
-6.11583 2.67557 -1.82945 76 79 94
-6.095 2.73463 -1.83424 80 83 98
-6.09423 2.76458 -1.8397 80 83 98
-6.08468 2.77958 -1.8397 81 84 97
-6.05939 2.81601 -1.83903 75 81 95
-6.0383 2.84482 -1.83835 75 82 96
-6.03331 2.86255 -1.84039 77 81 95
-5.9958 2.91234 -1.83904 77 83 95
-5.99074 2.94035 -1.84313 72 78 94
-5.97267 2.95007 -1.83972 74 80 94
-5.96888 2.96871 -1.84245 73 79 93
-5.95082 2.98864 -1.84109 75 81 95
-5.9453 3.00626 -1.84314 72 78 92
-5.9334 3.01981 -1.84246 71 79 92
-5.92304 3.03434 -1.84246 71 81 93
-5.9047 3.05402 -1.8411 74 80 94
-5.90206 3.07364 -1.84451 71 76 90
-5.89779 3.09225 -1.84723 73 79 93
-5.86518 3.10235 -1.83974 76 79 94
-5.8732 3.12931 -1.84792 77 79 94
-5.85165 3.13627 -1.84315 74 76 91
-5.83904 3.15982 -1.84451 73 76 93
-5.84212 3.18371 -1.85065 72 78 92
-5.82202 3.19153 -1.84656 80 83 98
-5.77733 3.18199 -1.83156 81 84 100
-5.77213 3.21068 -1.83633 77 80 97
-5.77645 3.23565 -1.84315 86 90 102
-5.73798 3.22999 -1.83088 72 75 92
-5.72488 3.25311 -1.83224 69 72 91
-5.7244 3.27478 -1.83702 71 74 93
-5.71776 3.29204 -1.83906 72 74 90
-5.69984 3.31175 -1.83838 93 95 110
-5.10112 4.32665 -1.85765 88 91 108
-5.09166 4.34429 -1.86029 85 88 105
-4.92996 4.70634 -1.87644 86 89 106
-4.91898 4.72376 -1.87902 86 89 106
-4.76754 4.9721 -1.88089 84 92 105
-4.7434 4.98873 -1.88089 85 91 107
-4.5523 5.38854 -1.89828 81 89 102
-4.34719 5.70844 -1.89969 83 91 104
-4.33116 5.72335 -1.90149 86 91 106
-4.10212 6.10662 -1.90612 111 113 125
-4.07711 6.10546 -1.90262 107 111 122
-3.80223 6.61893 -1.9179 85 93 106
-3.77992 6.62525 -1.91733 82 88 102
-3.61896 6.9096 -1.92204 80 87 103
-3.5938 6.90992 -1.91984 81 88 104
-3.40832 7.23809 -1.92605 83 90 105
-3.22753 7.61057 -1.94435 83 90 104
-3.00892 7.95899 -1.94611 82 90 103
-2.9783 7.94414 -1.94062 81 89 102
-7.71854 0.286479 -1.83072 86 95 113
-7.74149 0.307616 -1.83855 91 100 120
-7.54843 0.529381 -1.8295 78 89 109
-7.26763 0.954398 -1.83061 89 97 114
-7.27499 0.974811 -1.83443 83 92 110
-7.13026 1.06063 -1.8182 81 88 107
-7.12049 1.07751 -1.81627 80 89 107
-6.89845 1.42528 -1.82071 77 82 102
-6.89634 1.4526 -1.82271 82 88 104
-6.30105 2.29719 -1.82119 153 119 82
-6.29977 2.31593 -1.82392 155 122 89
-6.28286 2.33691 -1.82188 151 120 86
-6.28313 2.35645 -1.82529 146 116 82
-6.27147 2.37038 -1.82393 143 110 77
-6.25602 2.392 -1.82258 148 121 95
-6.24763 2.40746 -1.82258 125 107 93
-6.23487 2.48936 -1.83282 76 77 96
-5.7051 3.33796 -1.84588 85 88 103
-5.67275 3.33601 -1.83633 73 76 91
-5.66587 3.35318 -1.83838 92 94 109
-5.6447 3.37035 -1.83633 84 85 103
-5.63917 3.38862 -1.83906 70 71 89
-5.63061 3.40458 -1.84042 85 86 104
-5.60332 3.41692 -1.83565 88 91 108
-5.59907 3.43629 -1.83906 83 86 103
-5.58592 3.44867 -1.83837 75 78 95
-5.08214 4.36192 -1.86294 87 93 107
-5.06149 4.36666 -1.85962 87 93 107
-4.8947 4.7394 -1.87837 86 89 108
-4.88358 4.75675 -1.88095 84 89 108
-4.8655 4.76507 -1.87965 84 89 108
-4.73131 5.00597 -1.88342 84 90 106
-4.71162 5.01229 -1.8815 83 91 104
-4.69727 5.02635 -1.88277 82 92 104
-4.52597 5.40413 -1.89827 82 89 105
-4.51008 5.4177 -1.8995 80 87 103
-4.31506 5.73821 -1.90328 89 92 107
-4.29172 5.73961 -1.90026 87 93 107
-4.05953 6.11975 -1.90435 104 107 117
-3.76035 6.63866 -1.91899 82 90 103
-3.38084 7.2322 -1.92232 83 90 104
-3.35672 7.23727 -1.92178 86 92 106
-3.19867 7.60217 -1.94021 83 91 106
-7.73165 0.267165 -1.83431 87 95 114
-7.54842 0.480975 -1.82762 72 84 106
-7.54982 0.500448 -1.82886 86 96 116
-7.28768 0.890687 -1.8331 78 86 105
-7.28778 0.909851 -1.83439 84 91 110
-7.2822 0.92812 -1.83376 86 93 110
-7.14193 1.01612 -1.81882 81 89 110
-7.16973 1.049 -1.83047 81 87 107
-6.89763 1.3693 -1.81473 79 87 100
-6.90345 1.38935 -1.81871 85 93 106
-6.91102 1.40994 -1.82335 81 87 104
-6.34936 2.2133 -1.82321 79 83 98
-6.35013 2.23281 -1.82662 80 85 101
-6.34225 2.24854 -1.82662 76 70 79
-6.32562 2.26979 -1.82459 135 116 101
-6.3125 2.28313 -1.82255 146 116 89
-5.56291 3.46422 -1.83565 71 73 88
-5.56283 3.48709 -1.8411 65 67 82
-5.54225 3.49343 -1.83701 82 85 100
-5.53767 3.51274 -1.84041 73 76 91
-5.51006 3.52442 -1.83564 79 82 97
-5.51257 3.54969 -1.84246 91 93 108
-5.04743 4.39301 -1.86359 86 92 106
-5.02675 4.3976 -1.86027 86 92 107
-5.0206 4.41943 -1.8649 87 90 107
-4.83876 4.77744 -1.8777 84 90 106
-4.81838 4.78258 -1.8751 83 90 106
-4.68139 5.05518 -1.88785 81 88 104
-4.65312 5.04877 -1.88084 82 90 105
-4.49215 5.42797 -1.89949 81 87 103
-4.47126 5.43332 -1.89763 82 87 106
-4.26383 5.75416 -1.90025 85 93 106
-4.24226 5.75874 -1.89843 86 91 107
-4.03469 6.14369 -1.90782 96 97 109
-4.0121 6.14747 -1.90606 83 82 97
-3.72621 6.64522 -1.91729 84 90 104
-3.56406 6.93202 -1.92309 81 91 103
-3.54013 6.93579 -1.92199 81 90 103
-3.16396 7.61918 -1.94225 82 89 105
-2.94213 7.96222 -1.94308 83 91 102
-7.73524 0.217461 -1.83427 101 109 129
-7.7432 0.237739 -1.83729 93 101 124
-7.55298 0.4426 -1.82759 84 95 113
-7.57154 0.463275 -1.83439 84 95 114
-7.26766 0.821041 -1.82226 86 94 113
-7.28886 0.862256 -1.83181 87 96 113
-7.14799 0.979892 -1.81815 84 94 110
-7.14593 0.998168 -1.8188 79 91 106
-6.94776 1.3169 -1.82661 85 93 109
-6.93181 1.33158 -1.82264 82 87 105
-6.92678 1.34891 -1.82265 85 91 107
-6.40602 2.0572 -1.8177 82 88 103
-6.37456 2.07254 -1.80953 78 80 96
-6.37759 2.09261 -1.81363 80 81 99
-6.36322 2.10554 -1.8109 85 89 106
-6.38516 2.1336 -1.8225 72 80 93
-6.38284 2.161 -1.82592 78 85 100
-6.37692 2.17756 -1.8266 79 81 98
-6.37093 2.19412 -1.82729 77 76 96
-5.50055 3.56298 -1.84246 80 77 96
-5.47997 3.58043 -1.84109 81 78 99
-5.46354 3.58998 -1.83904 79 81 96
-5.45282 3.60434 -1.83972 78 81 96
-5.43776 3.62645 -1.84109 78 80 95
-5.42548 3.63952 -1.84108 76 75 91
-4.99415 4.43118 -1.86225 87 92 108
-4.97943 4.44281 -1.86224 86 93 109
-4.97303 4.46459 -1.86687 86 93 109
-4.80816 4.80129 -1.87833 84 92 105
-4.79252 4.82856 -1.88285 82 92 104
-4.64284 5.06895 -1.88465 82 92 104
-4.45153 5.45996 -1.90194 83 90 106
-4.43347 5.47006 -1.90193 85 92 107
-4.23129 5.7835 -1.90384 86 91 107
-3.98951 6.15118 -1.90431 84 86 99
-3.70049 6.64232 -1.91392 84 90 104
-3.6788 6.65011 -1.9139 83 91 104
-3.51558 6.93766 -1.92033 80 87 103
-3.32394 7.25488 -1.92388 85 91 105
-3.29763 7.25238 -1.92121 84 92 105
-3.13964 7.62734 -1.94274 82 90 105
-2.91838 7.97733 -1.94555 83 89 103
-7.73292 0.197438 -1.83306 89 98 117
-7.56532 0.41441 -1.83065 91 100 119
-7.26662 0.792493 -1.82033 80 88 107
-7.29798 0.844501 -1.83371 90 97 113
-7.15905 0.935247 -1.81876 79 85 103
-7.15188 0.961922 -1.81814 84 91 109
-6.95149 1.253 -1.82194 88 92 112
-6.93388 1.26738 -1.81731 82 90 107
-6.95288 1.29038 -1.82593 80 89 106
-6.42573 1.9621 -1.81017 80 77 94
-6.42746 1.98141 -1.81359 80 79 93
-6.41338 1.99464 -1.81086 81 80 95
-6.40656 2.01986 -1.81224 78 80 93
-6.42201 2.04476 -1.8211 79 82 94
-5.41883 3.65749 -1.84381 78 77 95
-5.39082 3.66831 -1.83904 71 72 90
-5.39104 3.69245 -1.84517 71 72 90
-5.37017 3.69789 -1.84108 73 76 93
-5.35906 3.71201 -1.84175 71 72 92
-4.95356 4.48485 -1.86819 85 93 106
-4.94222 4.50076 -1.87017 84 92 105
-4.77317 4.83504 -1.8809 82 89 105
-4.75713 4.84604 -1.8809 81 90 105
-4.73995 4.85545 -1.88024 82 89 105
-4.61929 5.0866 -1.88528 80 90 102
-4.60779 5.10515 -1.88845 82 92 104
-4.41346 5.47684 -1.90068 87 93 107
-4.1962 5.78425 -1.89901 87 95 106
-3.97651 6.17566 -1.90953 79 85 98
-3.66299 6.67405 -1.91893 81 88 104
-3.4856 6.95945 -1.92359 82 90 103
-3.2756 7.26459 -1.92278 85 91 105
-3.11186 7.62236 -1.93964 83 92 107
-2.88669 7.95649 -1.93857 84 90 104
-7.74795 0.168033 -1.83724 90 98 119
-7.5638 0.375619 -1.82877 82 94 110
-7.55985 0.39472 -1.82817 73 84 102
-7.28815 0.757468 -1.82539 80 88 106
-7.2793 0.775265 -1.8235 83 91 110
-7.16278 0.917249 -1.81875 80 85 104
-6.9628 1.20949 -1.82191 74 79 97
-6.9599 1.23645 -1.82325 85 91 109
-6.47043 1.89529 -1.8156 160 131 105
-6.47945 1.9172 -1.82174 106 91 76
-6.46376 1.93003 -1.81834 69 68 69
-6.45157 1.9441 -1.8163 77 79 89
-5.29267 3.772 -1.8397 72 74 89
-5.28406 3.78848 -1.84174 70 72 87
-4.92845 4.5137 -1.87083 86 93 109
-4.91111 4.52219 -1.86949 87 92 111
-4.88433 4.53333 -1.86684 81 86 105
-4.86115 4.53426 -1.8622 84 90 106
-4.71732 4.87331 -1.88088 83 89 106
-4.58582 5.10785 -1.88526 81 90 104
-4.56516 5.13001 -1.8878 83 91 106
-4.38957 5.49673 -1.90253 82 90 105
-4.36569 5.49677 -1.89881 83 90 106
-4.18328 5.80554 -1.90321 89 93 108
-4.15992 5.80644 -1.90019 87 92 109
-3.94811 6.19233 -1.91067 82 86 100
-3.92386 6.19233 -1.90775 87 93 108
-3.62876 6.68014 -1.91723 81 91 104
-3.46101 6.96114 -1.92194 82 92 102
-3.24983 7.26378 -1.92064 85 91 107
-3.0885 7.63409 -1.94116 81 91 103
-2.85684 8.00442 -1.94898 82 92 102
-7.74294 0.128002 -1.8348 81 91 112
-7.55687 0.327001 -1.82503 82 90 109
-7.56445 0.346687 -1.82813 83 92 109
-7.31386 0.741819 -1.833 89 98 113
-7.17689 0.85445 -1.81936 79 88 105
-7.16961 0.871935 -1.81807 81 89 108
-7.2057 0.905213 -1.83232 80 87 106
-6.98666 1.17781 -1.82718 81 88 106
-6.98395 1.1957 -1.82786 78 85 101
-6.50057 1.8414 -1.8183 156 122 89
-6.49391 1.85755 -1.81831 155 122 91
-6.4978 1.8775 -1.8224 150 116 87
-5.38375 3.77035 -1.86289 74 77 92
-5.36826 3.78074 -1.86153 73 76 91
-5.34582 3.78472 -1.85675 72 76 88
-5.2699 3.79981 -1.84106 71 72 90
-5.25107 3.81865 -1.84105 69 72 89
-4.8542 4.55589 -1.86683 87 90 107
-4.82964 4.5697 -1.8655 87 90 109
-4.70556 4.8903 -1.88346 84 89 106
-4.68935 4.90109 -1.88345 83 89 105
-4.54011 5.12777 -1.8827 82 92 104
-4.52429 5.13978 -1.88333 81 88 104
-4.3466 5.50497 -1.89818 84 90 106
-4.13172 5.8204 -1.90018 84 93 106
-3.90433 6.20272 -1.90832 85 92 108
-3.6076 6.68952 -1.91777 80 90 102
-3.43526 6.95909 -1.91919 80 90 102
-3.21476 7.27352 -1.92062 84 91 107
-3.0521 7.64503 -1.94165 81 88 104
-2.82486 7.98145 -1.94151 81 91 102
-7.75193 0.0983007 -1.83718 86 97 116
-7.56049 0.28861 -1.825 79 87 106
-7.57767 0.308681 -1.83119 90 98 118
-7.30986 0.693822 -1.82915 84 93 110
-7.30682 0.712445 -1.82917 87 96 112
-7.18225 0.836666 -1.81999 88 97 114
-6.98445 1.13136 -1.82252 84 93 110
-6.97268 1.14727 -1.81989 75 86 104
-6.5128 1.71726 -1.80599 87 89 103
-6.51365 1.7358 -1.80872 94 95 108
-6.49665 1.74841 -1.80463 85 74 77
-6.51238 1.78107 -1.81419 156 125 95
-6.51124 1.79909 -1.81624 155 124 90
-6.51003 1.81713 -1.81829 153 120 85
-5.27759 3.86874 -1.86083 66 69 86
-5.25643 3.87354 -1.85673 75 78 95
-5.25417 3.89652 -1.86218 74 77 94
-4.82364 4.5928 -1.87079 85 91 107
-4.80383 4.59793 -1.86813 86 92 108
-4.66432 4.91564 -1.8828 83 90 106
-4.64803 4.9263 -1.88279 84 90 106
-4.63062 4.93537 -1.88213 83 90 106
-4.5145 5.16133 -1.88777 81 88 105
-4.48143 5.16399 -1.88267 83 89 106
-4.32627 5.53119 -1.90249 84 90 106
-4.30425 5.5343 -1.90001 85 91 107
-4.11175 5.82793 -1.89956 84 94 106
-4.09516 5.84222 -1.90136 85 95 107
-3.875 6.21733 -1.90889 85 93 106
-3.58639 6.69884 -1.91832 81 91 103
-3.40447 6.97873 -1.9219 82 88 102
-3.19157 7.28178 -1.92113 85 91 105
-3.02486 7.64162 -1.93906 82 90 103
-2.80052 7.99434 -1.94348 82 92 102
-7.57021 0.260101 -1.82745 84 91 110
-7.32617 0.648307 -1.8323 83 95 111
-7.31846 0.675862 -1.83105 87 95 113
-7.18609 0.77245 -1.81736 91 103 119
-7.20714 0.793745 -1.82578 88 97 114
-7.19631 0.810852 -1.8232 86 94 113
-6.9837 1.08541 -1.81852 86 93 109
-6.99434 1.11501 -1.8245 80 89 104
-6.55535 1.66728 -1.81414 138 144 150
-6.5403 1.68073 -1.81074 56 64 74
-6.54219 1.7086 -1.81484 81 85 102
-5.2228 3.90351 -1.85604 89 92 107
-5.21233 3.91857 -1.8574 73 76 93
-5.20715 3.93889 -1.86149 72 73 91
-5.18502 3.95482 -1.86012 74 76 91
-4.78137 4.6145 -1.86813 87 90 107
-4.76945 4.63001 -1.87011 88 91 108
-4.60012 4.94184 -1.87824 83 90 106
-4.46747 5.17904 -1.88457 82 88 104
-4.45544 5.19728 -1.88774 83 89 105
-4.28876 5.54893 -1.90185 85 91 107
-4.26857 5.55522 -1.90061 85 91 107
-4.06846 5.8593 -1.90255 84 94 106
-3.85229 6.22057 -1.90713 87 93 107
-3.83341 6.23251 -1.90828 84 92 105
-3.5521 6.70456 -1.91662 80 90 102
-3.38105 6.98382 -1.92134 82 88 102
-3.16888 7.29183 -1.92218 83 90 104
-2.99906 7.64374 -1.93802 84 92 103
-7.57374 0.24094 -1.82805 90 98 117
-7.29866 0.588544 -1.82019 72 80 99
-7.32988 0.610749 -1.83164 86 94 113
-7.33842 0.630671 -1.83546 86 94 113
-7.19739 0.727731 -1.81862 75 84 101
-7.20432 0.756284 -1.82252 82 93 111
-7.02207 1.03787 -1.82776 87 96 111
-6.99945 1.05187 -1.82115 78 86 105
-7.00639 1.07157 -1.82513 80 87 105
-6.56996 1.62644 -1.81412 140 138 139
-6.56318 1.65152 -1.81482 138 138 140
-5.86976 2.69707 -1.82317 73 79 93
-5.8546 2.71759 -1.82247 75 81 95
-5.16772 3.96316 -1.85807 72 74 89
-5.15306 3.9741 -1.85739 74 77 92
-5.13605 3.99511 -1.85875 72 75 92
-5.11606 4.00057 -1.85533 68 71 88
-4.75297 4.63946 -1.86944 87 90 107
-4.73199 4.64279 -1.86612 87 90 107
-4.59224 4.96482 -1.88341 81 88 104
-4.57685 4.97683 -1.88405 83 90 106
-4.42531 5.20443 -1.88455 83 90 106
-4.4092 5.21611 -1.88518 82 89 104
-4.24144 5.56953 -1.9006 85 91 107
-4.04922 5.86835 -1.90254 84 91 107
-4.02831 5.8739 -1.90132 84 90 107
-3.80617 6.25207 -1.91059 84 92 107
-3.52897 6.70828 -1.91548 82 92 104
-3.35589 6.98333 -1.91914 83 91 104
-7.57341 0.221641 -1.82742 95 103 124
-7.20541 0.691751 -1.81924 86 95 112
-7.21175 0.710972 -1.82249 75 84 102
-7.01684 0.991168 -1.82243 76 85 103
-7.01658 1.00942 -1.82377 76 84 102
-6.58369 1.51309 -1.80521 96 88 104
-6.59006 1.56909 -1.8141 135 132 134
-6.59254 1.59693 -1.8182 144 139 145
-6.58846 1.6139 -1.81889 140 138 140
-5.99205 2.5412 -1.83156 126 122 128
-5.98411 2.56595 -1.83367 126 122 134
-5.98011 2.58336 -1.83578 126 123 132
-5.963 2.59343 -1.83227 125 123 128
-5.94991 2.61532 -1.83228 124 122 127
-5.94411 2.63175 -1.83368 122 124 123
-5.93661 2.64724 -1.83438 123 124 128
-5.92583 2.66083 -1.83368 115 118 129
-5.91566 2.68447 -1.83509 65 70 85
-5.88678 2.75714 -1.84072 81 84 99
-5.87567 2.77055 -1.84002 78 80 98
-5.85222 2.78617 -1.83581 76 81 95
-5.84738 2.80342 -1.83792 77 85 98
-5.83773 2.81769 -1.83792 76 79 94
-5.82646 2.83094 -1.83722 77 79 94
-5.81699 2.85526 -1.83933 80 83 98
-5.8056 2.86843 -1.83863 77 80 95
-5.80832 2.89071 -1.84424 76 80 92
-5.7954 2.91296 -1.84495 75 81 95
-5.77446 2.91988 -1.84004 80 81 96
-5.76758 2.93601 -1.84144 77 74 91
-5.756 2.95914 -1.84285 73 75 90
-5.735 2.96582 -1.83793 75 77 92
-5.73568 2.98712 -1.84285 77 79 94
-5.72391 3.00001 -1.84215 75 76 94
-5.71045 3.02193 -1.84285 75 78 95
-5.69859 3.03473 -1.84215 75 78 95
-5.68054 3.0432 -1.83864 75 78 95
-5.11437 4.02482 -1.86147 67 70 87
-5.09695 4.03288 -1.85942 68 71 88
-4.7171 4.66968 -1.87075 87 90 107
-4.6994 4.67743 -1.86941 88 91 108
-4.67949 4.68207 -1.86676 86 89 106
-4.5494 4.98771 -1.8821 82 89 105
-4.53601 5.00275 -1.88403 81 88 104
-4.39305 5.22775 -1.8858 81 88 104
-4.22396 5.58067 -1.9012 85 91 107
-4.2019 5.5834 -1.89872 83 90 106
-4.00903 5.88282 -1.90131 84 90 108
-3.78192 6.25156 -1.90767 85 93 106
-3.50768 6.71737 -1.91603 84 90 104
-3.32317 6.99713 -1.92021 83 91 104
-3.13219 7.29563 -1.92056 83 93 105
-2.96305 7.65615 -1.93902 86 94 105
-7.57475 0.173511 -1.82676 82 93 112
-7.57712 0.192844 -1.82801 87 100 117
-7.34624 0.546062 -1.83413 82 90 109
-7.3418 0.564595 -1.83351 83 91 110
-7.20293 0.64544 -1.81598 79 91 107
-7.21318 0.664992 -1.82051 85 97 111
-7.0298 0.947869 -1.82373 80 88 107
-7.0189 0.973266 -1.82176 86 94 113
-6.61591 1.5404 -1.81954 154 146 158
-6.60661 1.55583 -1.81818 142 135 140
-6.09384 2.35382 -1.83011 147 114 75
-6.08561 2.3688 -1.83011 149 114 78
-6.07358 2.39123 -1.83012 148 115 83
-6.06022 2.4036 -1.82802 147 124 101
-6.05184 2.41849 -1.82802 107 93 79
-6.03296 2.4373 -1.82522 84 81 94
-6.03574 2.47741 -1.83365 82 85 99
-6.02051 2.48871 -1.83084 74 74 88
-6.01614 2.5153 -1.83436 127 125 136
-6.05175 2.55424 -1.85331 126 121 128
-5.67756 3.0725 -1.84426 72 75 91
-5.66555 3.08519 -1.84356 73 74 92
-5.65502 3.09893 -1.84355 74 75 93
-5.6441 3.12277 -1.84566 73 79 95
-5.63497 3.13755 -1.84636 73 79 93
-5.62275 3.1501 -1.84566 77 81 95
-5.61051 3.1626 -1.84496 77 80 95
-5.59926 3.18631 -1.84707 74 77 93
-5.58991 3.20098 -1.84777 69 72 87
-5.57752 3.21337 -1.84706 70 76 90
-5.55558 3.22904 -1.84426 70 73 90
-5.52975 3.23107 -1.83724 70 76 92
-5.08349 4.05775 -1.86282 70 73 90
-5.06856 4.06842 -1.86214 70 73 90
-5.05619 4.08176 -1.86281 73 76 93
-5.00273 4.06398 -1.84508 73 74 94
-4.99545 4.08264 -1.84848 70 68 89
-4.97411 4.08612 -1.84439 77 80 97
-4.6654 4.71033 -1.87205 84 90 106
-4.64651 4.71637 -1.87005 82 89 105
-4.5236 5.01935 -1.88661 82 89 105
-4.50493 5.02643 -1.88531 83 89 105
-4.36772 5.24268 -1.88579 81 89 102
-4.35147 5.25419 -1.88642 82 90 103
-4.17374 5.59573 -1.89809 83 93 105
-4.15794 5.61003 -1.89993 84 93 106
-3.98128 5.89781 -1.9019 85 91 108
-3.76512 6.26859 -1.91056 85 93 106
-3.47336 6.72271 -1.91433 81 90 103
-3.30196 7.00931 -1.92183 83 89 105
-3.11038 7.30922 -1.92267 85 92 105
-2.9408 7.67308 -1.94209 83 91 105
-7.57232 0.154198 -1.82551 84 95 113
-7.33555 0.526108 -1.82967 87 96 113
-7.21329 0.628122 -1.81855 80 89 106
-7.03173 0.911712 -1.82172 87 94 112
-7.04287 0.931846 -1.82703 85 93 111
-6.64235 1.46654 -1.82018 86 92 108
-6.65133 1.4871 -1.82564 84 89 108
-6.64038 1.50216 -1.8236 84 87 106
-6.13627 2.15817 -1.81041 87 89 104
-6.14224 2.1795 -1.81603 82 85 100
-6.13281 2.20295 -1.81674 80 82 97
-6.12842 2.21963 -1.81815 81 81 94
-6.11891 2.23391 -1.81745 78 77 91
-6.13284 2.26857 -1.82799 126 104 94
-6.11684 2.29874 -1.82799 147 112 81
-6.11382 2.31625 -1.8301 147 111 77
-6.10204 2.33881 -1.83011 149 110 75
-5.54688 3.26613 -1.85057 69 79 91
-5.52917 3.28506 -1.84987 63 72 87
-5.52536 3.30418 -1.85338 69 76 92
-5.47744 3.28851 -1.83583 69 76 92
-5.47653 3.30985 -1.84074 66 72 86
-5.45313 3.34626 -1.84285 64 70 84
-5.44033 3.3582 -1.84215 69 75 89
-5.41931 3.37423 -1.84004 65 71 85
-4.95899 4.10919 -1.84711 67 73 87
-4.95528 4.13196 -1.85256 90 96 108
-4.62764 4.72234 -1.86806 82 89 105
-4.61107 4.74738 -1.87203 84 90 106
-4.47833 5.03852 -1.88401 83 89 105
-4.4596 5.04545 -1.8827 81 88 104
-4.34096 5.27544 -1.89086 82 88 104
-4.316 5.27219 -1.88576 81 88 104
-4.13852 5.61757 -1.8993 85 92 108
-3.96193 5.90659 -1.90188 88 91 110
-3.93933 5.9084 -1.89946 87 91 109
-3.7325 6.27552 -1.9088 84 91 107
-3.45384 6.73709 -1.91655 83 91 103
-3.43064 6.7405 -1.91542 82 90 103
-3.27625 7.00672 -1.91908 84 92 105
-3.08706 7.31717 -1.92318 83 91 104
-2.91671 7.68245 -1.9431 81 90 104
-7.58329 0.125521 -1.82857 85 97 113
-7.30377 0.457431 -1.81628 87 99 115
-7.35058 0.480175 -1.83281 84 92 111
-7.34822 0.498902 -1.83282 79 88 106
-7.22347 0.583142 -1.81981 87 96 113
-7.22265 0.601482 -1.82047 90 99 116
-7.03477 0.866785 -1.8197 82 91 108
-7.04607 0.886808 -1.82501 74 83 100
-6.66611 1.4099 -1.8222 82 91 106
-6.6572 1.42557 -1.82084 75 84 101
-6.64823 1.44119 -1.81949 74 79 94
-6.20294 2.05854 -1.8167 79 82 98
-6.19923 2.08445 -1.81951 76 81 94
-6.18156 2.09523 -1.81531 79 82 96
-6.19638 2.12028 -1.82443 78 81 95
-6.19741 2.13936 -1.82794 79 82 97
-6.18135 2.15997 -1.82585 79 81 96
-6.20239 2.321 -1.86027 150 117 92
-5.48487 3.34952 -1.85268 68 72 87
-5.40931 3.38844 -1.84074 70 72 87
-5.40215 3.40501 -1.84284 74 75 93
-5.38382 3.42323 -1.84214 80 83 98
-5.36203 3.45023 -1.84284 81 84 101
-4.95525 4.15894 -1.86006 94 96 109
-4.92125 4.14821 -1.84914 98 100 114
-4.90077 4.16551 -1.84914 91 92 110
-4.88308 4.17276 -1.84709 91 93 108
-4.59534 4.75786 -1.87202 85 91 107
-4.58067 4.76984 -1.87267 85 91 107
-4.44597 5.06028 -1.88463 82 92 104
-4.42026 5.07368 -1.88398 82 89 105
-4.28856 5.2835 -1.88448 82 89 105
-4.10934 5.62792 -1.89806 88 91 108
-3.91145 5.92309 -1.90005 83 88 105
-3.71046 6.28005 -1.90763 85 92 108
-3.69058 6.28982 -1.90819 84 91 107
-3.411 6.75476 -1.91764 81 88 104
-3.25444 7.01693 -1.92016 82 92 104
-3.05078 7.32245 -1.9221 83 91 104
-2.87658 7.67757 -1.93947 81 91 103
-7.35581 0.433334 -1.83277 97 105 124
-6.68018 1.35071 -1.8208 86 93 109
-6.68234 1.36921 -1.82354 81 87 102
-6.66991 1.38401 -1.82082 87 94 108
-6.25054 1.97762 -1.82018 79 77 94
-6.22793 1.98663 -1.81387 79 81 94
-6.22083 2.002 -1.81387 80 82 94
-6.23638 2.03588 -1.82441 78 80 93
-6.21882 2.04689 -1.8202 76 79 94
-5.39366 3.45425 -1.85267 78 84 98
-5.37166 3.48132 -1.85337 82 83 101
-5.33458 3.48349 -1.84354 86 87 105
-5.34539 3.51589 -1.85477 76 82 96
-5.30957 3.50775 -1.84283 73 79 93
-5.29498 3.52924 -1.84424 68 71 86
-4.89259 4.21101 -1.86004 91 94 109
-4.85583 4.20975 -1.85117 89 92 107
-4.567 4.78334 -1.87399 84 91 107
-4.53942 4.79261 -1.87133 84 92 105
-4.40749 5.09002 -1.88656 82 90 105
-4.39366 5.10473 -1.88849 83 91 104
-4.27876 5.30627 -1.88956 82 89 105
-4.25855 5.31096 -1.88764 83 89 105
-4.09599 5.64712 -1.90175 86 92 107
-4.0782 5.65784 -1.90236 87 93 107
-3.89596 5.94032 -1.90305 79 85 103
-3.66853 6.29421 -1.90702 85 92 108
-3.3772 6.76146 -1.9165 82 89 105
-3.22095 7.02844 -1.92068 81 88 104
-3.02787 7.33208 -1.92314 84 92 105
-2.85456 7.69615 -1.94305 83 93 105
-7.31862 0.374152 -1.81812 76 87 106
-7.30902 0.392236 -1.8156 77 88 108
-7.35985 0.414726 -1.83339 89 97 117
-6.69048 1.30856 -1.8201 82 89 105
-6.68888 1.33493 -1.82216 76 83 99
-6.28827 1.91068 -1.82296 150 128 111
-6.28141 1.92621 -1.82296 72 66 63
-6.2641 1.95584 -1.82157 78 81 93
-5.30963 3.56551 -1.85757 69 72 87
-5.27109 3.5545 -1.84423 68 74 90
-5.2521 3.57209 -1.84353 72 75 90
-5.23312 3.57832 -1.84002 72 75 92
-5.23208 3.60088 -1.84563 66 69 86
-5.1952 3.62559 -1.84211 78 79 97
-4.84417 4.22394 -1.85252 89 92 107
-4.82879 4.23382 -1.85184 89 92 107
-4.52357 4.80287 -1.87132 84 90 106
-4.51291 4.82092 -1.87463 84 90 106
-4.36378 5.11145 -1.88524 82 89 105
-4.23935 5.33681 -1.89208 82 89 105
-4.21721 5.33807 -1.88889 80 87 103
-4.05607 5.66005 -1.89987 85 92 106
-3.87646 5.94884 -1.90304 77 82 100
-3.84604 5.95803 -1.90182 83 87 99
-3.6394 6.30955 -1.90816 84 91 107
-3.35281 6.76097 -1.91424 81 87 103
-3.19742 7.03296 -1.92012 84 92 105
-3.0012 7.32672 -1.91994 84 90 104
-2.82741 7.69209 -1.94046 86 94 105
-6.69664 1.27428 -1.81872 81 88 104
-6.70818 1.2949 -1.82486 82 89 105
-6.31318 1.85681 -1.82364 156 122 84
-6.30824 1.87309 -1.82435 156 122 93
-6.29977 1.88801 -1.82365 155 123 95
-5.24057 3.63234 -1.85615 69 70 88
-5.18571 3.64049 -1.84352 77 79 94
-5.1608 3.67638 -1.84632 73 76 93
-5.143 3.68346 -1.84351 73 76 91
-4.81155 4.255 -1.85388 90 96 110
-4.80578 4.27625 -1.85864 87 90 105
-4.48938 4.83618 -1.87462 83 91 105
-4.47029 4.84157 -1.87262 82 90 105
-4.3449 5.11799 -1.88394 82 89 105
-4.32995 5.13092 -1.88522 82 89 105
-4.20156 5.35081 -1.89015 81 90 105
-4.02848 5.67339 -1.89986 84 92 105
-4.01228 5.68732 -1.9017 85 92 108
-3.82729 5.96814 -1.90241 86 90 101
-3.6173 6.31378 -1.90699 86 92 107
-3.33188 6.77136 -1.91535 81 91 103
-3.17495 7.04109 -1.92065 83 91 104
-2.9672 7.34094 -1.92151 85 91 105
-2.80694 7.71808 -1.9461 85 91 105
-7.30973 0.30811 -1.81299 90 101 121
-7.31735 0.327255 -1.81618 82 93 114
-7.34573 0.347761 -1.82636 85 96 116
-6.72017 1.21736 -1.82142 68 72 90
-6.71182 1.2333 -1.82006 76 79 96
-6.71256 1.25131 -1.82211 86 92 108
-6.32071 1.73392 -1.80886 80 86 100
-6.31793 1.7508 -1.81027 91 82 87
-6.32698 1.79881 -1.82011 150 121 90
-6.32574 1.81641 -1.82222 153 121 82
-6.32269 1.83336 -1.82363 153 119 82
-5.20204 3.67974 -1.85825 65 70 89
-5.14002 3.70473 -1.84842 70 76 90
-5.10918 3.73512 -1.84841 78 84 98
-5.09126 3.74197 -1.8456 80 83 98
-4.79868 4.29609 -1.86273 88 90 105
-4.7811 4.31717 -1.86477 89 92 107
-4.4553 4.8532 -1.87328 84 91 107
-4.312 5.13897 -1.88457 81 89 103
-4.28982 5.15823 -1.8865 82 90 103
-4.17017 5.35492 -1.88633 82 91 106
-4.1526 5.36421 -1.88632 81 89 105
-3.99098 5.691 -1.89984 85 92 108
-3.80542 5.97122 -1.90059 87 94 104
-3.5994 6.32861 -1.9093 86 92 106
-3.30253 6.79234 -1.91869 82 92 104
-3.13873 7.043 -1.91845 84 90 104
-2.94464 7.3522 -1.92308 84 92 105
-6.73209 1.1578 -1.82002 77 86 101
-6.72758 1.1746 -1.82003 80 89 104
-6.71752 1.19018 -1.81799 71 80 97
-6.35787 1.68457 -1.81515 63 71 81
-6.34109 1.72324 -1.81447 84 87 101
-6.40483 1.8001 -1.84746 154 128 111
-5.82719 2.44216 -1.81323 76 78 95
-5.82029 2.45711 -1.81395 79 80 96
-5.81496 2.47294 -1.81539 71 68 83
-5.68714 2.68369 -1.81759 78 81 99
-5.67308 2.69443 -1.81543 77 78 96
-5.64689 2.72646 -1.81399 82 83 98
-5.65165 2.74894 -1.82048 78 80 95
-5.64249 2.77227 -1.82265 76 79 94
-5.63133 2.7848 -1.82193 76 82 96
-5.61545 2.79426 -1.81904 78 84 96
-5.60917 2.81952 -1.82265 75 79 94
-5.58541 2.82376 -1.81616 77 80 97
-5.14051 3.74124 -1.85824 68 74 88
-5.0688 3.75606 -1.84349 70 72 87
-5.05616 3.76804 -1.84349 70 72 87
-5.05139 3.78793 -1.8477 70 69 85
-4.76785 4.32974 -1.86545 90 93 108
-4.74621 4.33212 -1.86135 90 93 108
-4.73052 4.34168 -1.86066 90 93 108
-4.70679 4.3552 -1.85929 91 93 108
-4.43367 4.87136 -1.87459 84 90 106
-4.41451 4.87655 -1.8726 84 90 106
-4.27375 5.16939 -1.88714 81 88 104
-4.25282 5.17237 -1.88454 82 88 104
-4.1287 5.36181 -1.88186 83 90 106
-3.96405 5.70576 -1.90044 83 90 106
-3.94604 5.7161 -1.90105 85 92 108
-3.78961 5.9882 -1.90358 98 106 117
-3.56593 6.33295 -1.90696 85 93 106
-3.27868 6.79343 -1.91699 82 92 104
-3.11723 7.05466 -1.92006 84 90 104
-2.91981 7.35404 -1.922 83 92 104
-2.76601 7.70888 -1.94145 83 90 106
-7.33229 0.243818 -1.81866 80 86 108
-7.3193 0.261914 -1.81486 83 91 112
-7.3479 0.282087 -1.82503 82 90 111
-6.74085 1.11537 -1.81931 80 85 104
-6.74021 1.14175 -1.82138 85 94 109
-6.38856 1.65049 -1.82145 139 138 137
-6.38169 1.67482 -1.82216 144 147 152
-5.89986 2.35066 -1.81969 149 116 78
-5.90321 2.3709 -1.82474 147 114 81
-5.88661 2.38091 -1.82114 147 113 84
-5.88107 2.40572 -1.82403 129 109 93
-5.87405 2.43941 -1.82836 79 81 91
-5.81973 2.52249 -1.82694 126 122 130
-5.81092 2.53654 -1.82694 124 119 124
-5.79234 2.54507 -1.82261 126 121 125
-5.79562 2.57526 -1.82983 124 122 128
-5.77858 2.5846 -1.82622 124 122 128
-5.77925 2.60414 -1.83055 120 119 124
-5.76447 2.62409 -1.82984 122 121 124
-5.75534 2.63799 -1.82984 125 125 128
-5.74937 2.65376 -1.83128 119 122 130
-5.7264 2.66877 -1.82696 93 98 110
-5.72032 2.68448 -1.8284 70 76 89
-5.68479 2.73057 -1.82697 78 83 98
-5.59277 2.84843 -1.82409 76 76 94
-5.58139 2.86079 -1.82337 79 82 99
-5.57008 2.88289 -1.82482 74 76 91
-5.55554 2.89309 -1.82265 73 75 90
-5.55327 2.91162 -1.82626 77 78 96
-5.53709 2.93047 -1.82554 73 78 93
-5.51935 2.93839 -1.82193 72 78 92
-5.50924 2.95157 -1.82193 72 73 91
-5.50203 2.97664 -1.82554 74 77 94
-5.48877 2.98762 -1.8241 74 77 94
-5.4876 3.0072 -1.82842 73 76 93
-5.46062 3.00833 -1.82049 74 77 94
-5.45006 3.03111 -1.82266 77 79 94
-5.45019 3.05178 -1.8277 82 85 98
-5.04261 3.80384 -1.8498 72 69 88
-5.01336 3.81098 -1.84418 72 73 91
-5.00315 3.82547 -1.84558 68 69 87
-4.9916 3.83859 -1.84628 74 73 89
-4.69456 4.36903 -1.86065 88 93 107
-4.6811 4.38137 -1.86132 88 94 108
-4.40952 4.90391 -1.87987 84 90 104
-4.38524 4.90106 -1.87457 85 91 107
-4.22948 5.18976 -1.88582 81 91 103
-4.11258 5.39388 -1.88884 83 89 105
-4.09044 5.39464 -1.88565 84 90 106
-3.92717 5.72468 -1.90103 84 91 107
-3.76132 6.00223 -1.90417 111 115 129
-3.73865 6.00333 -1.90175 116 120 131
-3.54996 6.35301 -1.91101 83 94 106
-3.5244 6.34801 -1.90693 86 94 107
-3.2543 6.7926 -1.91474 83 90 106
-3.09978 7.08109 -1.92605 83 90 103
-2.89675 7.3633 -1.92304 84 92 104
-2.73773 7.69887 -1.93732 83 90 106
-6.76231 1.08423 -1.82407 77 82 101
-6.74149 1.0978 -1.81794 79 84 103
-6.42181 1.58136 -1.82422 139 135 139
-6.41064 1.59556 -1.82213 140 135 140
-6.3987 1.61822 -1.82074 137 137 139
-6.40166 1.637 -1.82425 139 137 139
-5.99358 2.10539 -1.80666 79 83 96
-5.98872 2.13909 -1.81099 76 79 94
-5.96164 2.17143 -1.8074 77 79 92
-5.95463 2.2043 -1.81101 83 82 100
-5.945 2.22674 -1.81174 81 80 87
-5.95391 2.24925 -1.81895 76 66 71
-5.93257 2.25716 -1.81318 139 119 101
-5.93606 2.28611 -1.81968 149 117 83
-5.92299 2.29801 -1.81752 149 117 81
-5.92824 2.31903 -1.82329 151 115 83
-5.92304 2.34393 -1.82618 151 116 76
-5.85783 2.52465 -1.83991 133 131 141
-5.44272 3.06696 -1.82914 76 79 94
-5.43933 3.09527 -1.83491 71 74 91
-5.44066 3.11715 -1.84068 77 81 93
-5.40913 3.11442 -1.83059 83 87 99
-5.40543 3.14272 -1.83636 75 78 92
-5.37099 3.13745 -1.82482 76 79 94
-4.99208 3.87646 -1.8568 86 90 102
-4.97906 3.88821 -1.8568 89 93 105
-4.65953 4.39759 -1.86132 90 93 110
-4.64945 4.41427 -1.86404 88 91 108
-4.35935 4.91255 -1.87323 83 90 106
-4.3481 4.93027 -1.87653 82 90 105
-4.21234 5.19912 -1.88581 80 89 104
-4.19986 5.21663 -1.88904 83 89 105
-4.07807 5.41373 -1.88945 83 90 106
-4.0489 5.40096 -1.88118 83 92 107
-3.90251 5.74431 -1.90349 85 92 108
-3.72265 6.02015 -1.90475 113 118 126
-3.49627 6.3663 -1.90924 85 93 106
-3.22256 6.80591 -1.91584 82 89 105
-3.05994 7.06965 -1.92003 82 89 103
-2.71503 7.71519 -1.94038 84 91 107
-7.3622 0.198183 -1.82751 86 94 113
-7.3645 0.217073 -1.82879 86 94 115
-6.76867 1.04128 -1.82268 84 90 106
-6.74242 1.05393 -1.81451 77 82 101
-6.41128 1.48124 -1.80805 81 90 105
-6.41473 1.49982 -1.81156 80 83 103
-6.4038 1.51406 -1.80947 77 74 89
-6.42223 1.56375 -1.82211 141 136 138
-6.04147 2.03754 -1.81168 77 80 93
-6.0185 2.07195 -1.80953 75 81 94
-6.02985 2.09487 -1.81746 78 82 97
-6.00646 2.12915 -1.81531 79 81 97
-6.00481 2.17338 -1.82253 79 82 97
-5.98935 2.20252 -1.82254 74 76 95
-5.39274 3.17521 -1.84068 81 83 98
-5.37452 3.18231 -1.83707 76 77 93
-5.34393 3.18996 -1.82986 70 71 89
-5.35205 3.21761 -1.83923 78 80 97
-5.31624 3.21063 -1.82698 79 80 98
-5.29548 3.26862 -1.83562 74 77 94
-5.26617 3.27678 -1.82914 77 80 97
-4.9673 3.90128 -1.85749 80 82 97
-4.94806 3.91877 -1.85749 70 72 87
-4.9349 3.93039 -1.85749 70 73 90
-4.63355 4.42352 -1.86335 89 92 109
-4.61063 4.43804 -1.86266 86 92 108
-4.32585 4.93034 -1.87255 82 89 104
-4.30576 4.95118 -1.87519 82 91 104
-4.17161 5.22558 -1.88708 85 90 106
-4.03669 5.4412 -1.89134 82 90 103
-3.87788 5.74073 -1.89916 84 92 106
-3.86295 5.75771 -1.90223 83 92 107
-3.69272 6.03036 -1.90413 111 113 123
-3.47275 6.36648 -1.9069 82 92 104
-3.20034 6.81226 -1.91582 83 92 105
-3.03782 7.07923 -1.9211 84 90 104
-2.85991 7.3658 -1.92143 82 91 106
-6.77836 0.998981 -1.82265 86 93 111
-6.76721 1.02334 -1.82063 80 89 105
-6.44956 1.44879 -1.81785 75 81 97
-6.45133 1.46689 -1.82066 81 88 102
-6.47617 1.5628 -1.84105 150 139 146
-6.08375 1.94024 -1.81021 87 84 100
-6.08197 1.95716 -1.81238 93 91 105
-6.05083 1.96199 -1.80229 80 78 91
-6.06302 1.99339 -1.81167 79 76 95
-6.06104 2.0103 -1.81383 81 80 94
-6.06584 2.03015 -1.81888 77 79 94
-6.04805 2.067 -1.8189 82 88 102
-5.33366 3.25628 -1.84356 81 84 99
-5.31529 3.26307 -1.83995 80 83 100
-5.27369 3.30462 -1.83851 71 72 90
-5.26387 3.31827 -1.83922 71 74 91
-5.25399 3.3319 -1.83994 88 91 106
-4.92554 3.94609 -1.85959 71 74 93
-4.91609 3.96177 -1.86169 73 74 92
-4.89657 3.97904 -1.86169 74 73 91
-4.87445 3.9808 -1.85677 72 71 87
-4.59465 4.44717 -1.86197 86 95 107
-4.58319 4.46222 -1.86401 85 95 107
-4.56829 4.47275 -1.864 86 93 107
-4.29429 4.96879 -1.87849 81 91 104
-4.27494 4.97348 -1.8765 82 91 107
-4.15343 5.23312 -1.88643 86 90 106
-4.13799 5.24555 -1.88771 84 89 105
-4.01021 5.43326 -1.88497 81 91 103
-3.9924 5.44207 -1.88496 81 90 105
-3.83917 5.7557 -1.89851 84 94 106
-3.66715 6.02418 -1.8993 110 112 123
-3.64882 6.03553 -1.90049 107 108 119
-3.45123 6.37196 -1.9063 84 93 108
-3.17439 6.80565 -1.91188 83 92 107
-3.01565 7.08875 -1.92217 82 91 106
-2.83676 7.37489 -1.92247 81 91 102
-2.81067 7.37075 -1.9198 82 94 106
-6.78081 0.94656 -1.81922 89 98 115
-6.7936 0.966386 -1.82536 78 86 104
-6.78416 0.982371 -1.82333 82 90 108
-6.46243 1.40876 -1.81783 79 85 100
-6.4621 1.43485 -1.82065 82 88 104
-6.12641 1.89581 -1.81812 156 126 105
-6.10922 1.90661 -1.8138 140 123 109
-6.09198 1.91732 -1.80948 67 58 55
-5.75195 2.40697 -1.81148 74 69 72
-5.74139 2.42866 -1.81222 83 81 95
-5.73091 2.45997 -1.81516 72 76 88
-5.70397 2.47237 -1.80856 86 84 98
-5.68573 2.48053 -1.80416 139 136 146
-5.68032 2.49607 -1.80563 126 124 128
-5.69015 2.5297 -1.81591 124 122 125
-5.68458 2.54527 -1.81738 123 121 127
-5.67895 2.56085 -1.81885 123 121 127
-5.6637 2.57068 -1.81591 123 123 126
-5.65712 2.59494 -1.81886 123 121 126
-5.64656 2.60757 -1.81812 122 120 125
-5.64229 2.62405 -1.82033 127 126 132
-5.62437 2.64142 -1.81813 114 117 128
-5.62784 2.6628 -1.824 73 78 91
-5.60607 2.66839 -1.81813 71 76 91
-5.58954 2.68655 -1.81667 76 83 98
-5.55692 2.70425 -1.81006 75 78 94
-5.54605 2.71654 -1.80933 77 81 93
-5.54018 2.74152 -1.813 78 82 94
-5.52144 2.74863 -1.8086 76 82 94
-5.51508 2.76387 -1.81007 75 81 97
-5.50122 2.78362 -1.81007 78 81 96
-5.49319 2.7978 -1.8108 78 80 95
-5.49433 2.81823 -1.81594 78 77 95
-5.49553 2.84842 -1.82329 78 79 97
-5.46286 2.84567 -1.81228 76 78 94
-5.45463 2.85976 -1.81301 71 77 92
-5.44786 2.87489 -1.81448 70 76 92
-5.44257 2.90079 -1.81889 74 79 95
-5.42055 2.90512 -1.81301 75 79 94
-5.41512 2.92127 -1.81521 75 78 93
-5.24592 3.3577 -1.84427 80 81 99
-5.23167 3.36768 -1.84282 70 71 89
-5.22303 3.38244 -1.84426 74 72 93
-5.20193 3.39726 -1.8421 83 85 100
-5.17349 3.39486 -1.83345 83 91 104
-5.17317 3.41683 -1.83921 78 85 99
-4.86861 4.00054 -1.86097 71 74 91
-4.82774 3.99385 -1.84904 65 71 87
-4.8156 4.00651 -1.84973 68 71 88
-4.80217 4.01773 -1.84973 70 71 89
-4.54177 4.48246 -1.86127 88 91 108
-4.25072 4.98767 -1.87649 83 91 105
-4.11975 5.25298 -1.88705 83 89 105
-3.97287 5.46869 -1.89003 84 90 106
-3.81583 5.77843 -1.9022 86 94 107
-3.62169 6.05247 -1.90228 107 110 119
-3.4336 6.38817 -1.90919 87 94 110
-3.15639 6.82659 -1.91635 83 93 105
-2.99101 7.08891 -1.92052 82 92 104
-6.79161 0.922075 -1.82125 75 82 101
-6.45269 1.35375 -1.80799 80 89 104
-6.47283 1.37668 -1.81782 77 86 101
-6.47487 1.39473 -1.82063 82 90 105
-6.15335 1.80134 -1.81304 152 116 80
-6.15266 1.82711 -1.81665 158 124 90
-6.14779 1.84277 -1.81738 157 121 87
-6.13418 1.85508 -1.8145 156 120 87
-6.13789 1.87406 -1.81883 159 128 98
-5.86274 2.15636 -1.80115 80 81 97
-5.85847 2.17217 -1.80262 79 78 96
-5.843 2.20921 -1.8041 84 83 98
-5.83191 2.22167 -1.80263 75 74 82
-5.82577 2.2366 -1.80337 98 83 73
-5.81438 2.25771 -1.80338 154 123 96
-5.80976 2.27345 -1.80485 146 113 78
-5.81664 2.29518 -1.81146 146 113 76
-5.8132 2.32057 -1.81514 150 111 74
-5.80836 2.33635 -1.81661 149 111 75
-5.79693 2.34864 -1.81514 149 110 78
-5.79157 2.37315 -1.81808 149 116 83
-5.78165 2.38625 -1.81735 149 119 94
-5.76519 2.39575 -1.81368 143 123 100
-5.40202 2.94167 -1.81595 72 77 90
-5.39797 2.9589 -1.81889 75 78 93
-5.38635 2.97063 -1.81815 74 76 91
-5.37301 2.99093 -1.81889 75 78 93
-5.35388 2.99701 -1.81448 73 76 93
-5.35403 3.01753 -1.81962 72 78 94
-5.34224 3.02911 -1.81888 72 75 90
-5.3242 3.04585 -1.81742 77 78 95
-5.31676 3.06073 -1.81888 68 71 87
-5.27347 3.07842 -1.81008 71 74 89
-5.17153 3.44862 -1.84714 86 89 104
-5.15424 3.45584 -1.84425 90 93 108
-5.12441 3.45183 -1.83488 89 90 108
-5.10436 3.45639 -1.83055 81 82 102
-5.085 3.49502 -1.83559 69 71 86
-4.78115 4.03308 -1.84902 72 75 90
-4.76398 4.03995 -1.84691 72 75 90
-4.7529 4.05385 -1.84831 67 70 85
-4.53464 4.50342 -1.86603 88 91 108
-4.5196 4.51381 -1.86603 87 90 107
-4.49628 4.52779 -1.86534 87 90 107
-4.23808 5.00355 -1.87913 82 91 104
-4.21581 5.00316 -1.87514 83 90 106
-4.09596 5.26982 -1.88833 83 89 105
-4.07674 5.27546 -1.88703 81 91 103
-3.95074 5.46893 -1.88684 84 91 107
-3.93199 5.47586 -1.88619 81 90 105
-3.79284 5.77797 -1.8991 83 89 104
-3.77456 5.78782 -1.89971 86 94 107
-3.59831 6.05131 -1.89926 109 110 120
-3.40132 6.39528 -1.90801 85 92 108
-3.12132 6.82839 -1.91409 81 90 105
-2.77549 7.38037 -1.92031 84 92 107
-6.80268 0.88872 -1.82259 79 87 105
-6.80272 0.906312 -1.82396 76 84 103
-6.50232 1.30616 -1.82059 76 79 94
-6.48831 1.31992 -1.81709 83 89 104
-6.49417 1.33889 -1.8213 90 97 113
-6.17043 1.71236 -1.8058 86 83 100
-6.18348 1.73426 -1.81373 98 98 111
-6.16452 1.77065 -1.81231 152 123 103
-6.17031 1.79019 -1.81736 154 117 86
-5.91837 2.07626 -1.80626 76 79 94
-5.89429 2.09149 -1.8004 82 84 98
-5.91211 2.11762 -1.81141 80 82 95
-5.88448 2.12241 -1.80261 77 80 95
-5.8837 2.14858 -1.80702 77 79 94
-5.86739 2.20328 -1.81144 83 83 99
-5.30926 3.0756 -1.82035 73 77 92
-5.27319 3.09893 -1.81521 72 75 91
-5.26117 3.11024 -1.81448 72 76 92
-5.2544 3.13583 -1.81888 75 77 93
-5.22371 3.17414 -1.81961 66 71 85
-5.10926 3.49434 -1.84208 73 76 93
-5.09785 3.52961 -1.84857 73 76 91
-5.0721 3.53992 -1.84424 72 78 94
-4.74175 4.06773 -1.84971 70 73 88
-4.48557 4.54414 -1.86806 85 91 107
-4.46492 4.54678 -1.86464 85 91 107
-4.19144 5.01708 -1.87513 83 90 106
-4.05752 5.28104 -1.88573 82 92 104
-3.90549 5.48869 -1.88618 83 93 105
-3.74942 5.80684 -1.90216 85 95 107
-3.57847 6.05893 -1.89925 107 110 117
-3.38229 6.40775 -1.90974 84 92 105
-3.10056 6.83997 -1.91575 82 92 104
-2.9557 7.09366 -1.9194 82 92 104
-2.75147 7.38544 -1.92029 84 92 104
-6.80376 0.845086 -1.81984 88 95 112
-6.79654 0.8615 -1.81848 85 93 112
-6.50681 1.26394 -1.81776 74 81 99
-6.50925 1.28193 -1.82057 72 78 96
-6.19163 1.69405 -1.81084 78 85 101
