-5.81091 -12.7413 -0.998913 97 83 66
-5.76258 -12.5257 -0.979916 94 85 57
-9.56964 -7.25271 -0.981018 120 117 122
-9.61586 -7.12605 -0.977178 120 119 125
-21.0218 -6.52552 -1.69845 142 127 124
-21.0813 -6.47189 -1.70209 151 137 134
-21.1159 -6.41045 -1.70347 149 135 134
-21.164 -6.31684 -1.7052 143 128 120
-21.2574 -6.27244 -1.71197 142 125 117
-21.2971 -6.21193 -1.71387 126 112 103
-23.6897 -5.73986 -1.83714 132 127 125
-24.0426 -5.70668 -1.86554 130 122 116
-24.4313 -5.71902 -1.8978 133 126 118
-5.53258 -12.742 -0.989436 116 98 86
-5.60315 -12.7447 -0.992025 116 102 89
-5.64768 -12.7408 -0.993226 115 101 90
-5.69379 -12.7404 -0.994775 111 97 85
-21.3061 -6.1063 -1.71213 150 131 117
-21.3875 -6.05738 -1.71785 153 132 118
-21.4324 -5.99782 -1.72028 147 130 123
-21.4653 -5.89859 -1.72079 142 130 126
-21.5943 -5.86146 -1.73086 137 127 123
-21.6233 -5.79684 -1.73189 134 123 122
-24.8203 -5.72896 -1.93006 133 126 118
-25.1825 -5.73028 -1.95997 131 122 116
-25.2938 -5.63095 -1.96736 133 124 121
-25.3493 -5.5602 -1.97072 126 121 118
-5.21896 -12.698 -0.975618 115 84 81
-5.2579 -12.6825 -0.9756 118 94 88
-5.28577 -12.6392 -0.97297 105 77 73
-5.37419 -12.7471 -0.984619 105 76 72
-5.44224 -12.7452 -0.986686 111 80 77
-5.48814 -12.7455 -0.988235 110 87 78
-21.7714 -5.76359 -1.7437 146 127 127
-22.0847 -5.7355 -1.76958 150 135 131
-22.3912 -5.74019 -1.79563 151 137 131
-25.3793 -5.48365 -1.97189 101 96 98
-25.4157 -5.3667 -1.97289 116 114 119
-25.3906 -5.2784 -1.96936 118 115 127
-25.4335 -5.20438 -1.9717 105 102 111
-4.99744 -12.5281 -0.954778 115 93 76
-5.03727 -12.5171 -0.955109 117 91 77
-5.14287 -12.6765 -0.971461 112 84 76
-5.61508 -6.63993 -0.712359 85 91 55
-5.65011 -6.64141 -0.714938 86 92 52
-10.2491 -11.9459 -1.28926 86 91 52
-10.2863 -11.8772 -1.28655 87 89 53
-10.2762 -11.7909 -1.27964 103 100 65
-10.2682 -11.7079 -1.27311 101 95 63
-10.428 -11.7819 -1.28861 90 85 58
-10.5491 -11.8471 -1.30105 97 93 67
-10.6746 -11.916 -1.31407 94 86 65
-10.7337 -11.8709 -1.31463 90 78 62
-10.7714 -11.8392 -1.3148 94 81 67
-10.7904 -11.7867 -1.3123 84 78 59
-10.8225 -11.7489 -1.31171 79 73 51
-10.8916 -11.7147 -1.3138 91 82 66
-10.9624 -11.7191 -1.31876 76 65 55
-11.032 -11.7217 -1.32354 94 80 71
-11.127 -11.714 -1.32927 100 87 78
-11.1955 -11.7144 -1.33386 117 105 98
-11.2778 -11.7288 -1.34036 132 122 117
-11.3425 -11.7242 -1.34437 145 138 129
-11.4407 -11.7173 -1.35048 145 140 137
-11.5098 -11.7162 -1.35506 137 133 134
-11.5817 -11.7176 -1.36003 133 129 125
-11.6735 -11.7021 -1.36519 130 122 118
-11.7526 -11.7097 -1.37111 127 119 116
-11.8249 -11.71 -1.37608 118 112 112
-11.9241 -11.6998 -1.38219 119 115 118
-11.9981 -11.7007 -1.38735 120 119 117
-12.075 -11.7039 -1.39289 124 119 123
-12.1534 -11.7081 -1.39863 118 113 113
-12.2547 -11.6972 -1.40493 122 118 118
-12.3306 -11.6978 -1.41028 124 121 117
-12.4181 -11.709 -1.41717 123 119 121
-12.517 -11.6936 -1.42309 121 119 120
-12.5947 -11.6943 -1.42863 118 113 116
-12.677 -11.6986 -1.43475 120 116 115
-12.7821 -11.6869 -1.44144 122 118 116
-12.8646 -11.6903 -1.44755 122 118 115
-12.9517 -11.6973 -1.45425 114 110 111
-13.0361 -11.7012 -1.46055 114 112 115
-13.1345 -11.6804 -1.46628 130 124 124
-13.2117 -11.6767 -1.47163 92 87 83
-13.2831 -11.6674 -1.47622 105 89 82
-13.337 -11.6054 -1.4762 108 91 83
-13.3695 -11.5613 -1.4758 109 94 87
-13.4063 -11.521 -1.47598 107 94 88
-13.4611 -11.4597 -1.47615 116 109 109
-13.5052 -11.4256 -1.47729 122 119 117
-13.5583 -11.3991 -1.47958 118 113 113
-13.6174 -11.3774 -1.48263 125 119 122
-13.6867 -11.3279 -1.48472 125 122 123
-13.732 -11.2942 -1.48604 127 122 123
-13.7834 -11.2654 -1.48814 122 121 122
-13.8462 -11.2099 -1.48946 119 118 122
-13.9036 -11.1856 -1.49232 119 119 122
-13.9578 -11.1586 -1.4948 120 120 122
-14.0202 -11.1021 -1.49612 121 118 125
-14.0744 -11.0745 -1.4986 120 119 124
-14.1285 -11.0467 -1.50108 118 118 120
-14.1778 -11.015 -1.50298 120 119 125
-14.2506 -10.9658 -1.50565 121 120 127
-14.5515 -10.7039 -1.5138 117 116 122
-14.6018 -10.6715 -1.51589 120 118 125
-14.6664 -10.6495 -1.51971 119 116 125
-14.7117 -10.6132 -1.52123 119 116 123
-14.7703 -10.5513 -1.52237 120 117 124
-14.8074 -10.5088 -1.52293 121 117 124
-14.8605 -10.4776 -1.52541 121 117 124
-14.925 -10.4195 -1.52731 121 118 125
-14.973 -10.3844 -1.52921 120 117 124
-15.0161 -10.3456 -1.53054 119 118 124
-15.0607 -10.3078 -1.53206 116 115 121
-15.1148 -10.2418 -1.53281 118 115 124
-15.1838 -10.2204 -1.53721 118 115 126
-15.2529 -10.1986 -1.5416 117 114 125
-15.3213 -10.1415 -1.54408 118 115 125
-15.3688 -10.1047 -1.54598 117 116 122
-15.4278 -10.0754 -1.54922 119 118 124
-15.4841 -10.0096 -1.55036 118 117 125
-15.543 -9.97969 -1.5536 118 116 126
-14.5343 -7.14611 -1.33608 141 130 126
-14.5259 -7.05777 -1.33166 148 132 124
-14.5846 -7.03062 -1.33568 149 132 123
-22.723 -5.74933 -1.82394 147 131 124
-23.0698 -5.72171 -1.85277 137 124 118
-25.549 -4.93705 -1.97707 86 97 118
-9.49334 -12.1137 -1.25574 77 84 52
-9.54747 -12.1065 -1.2584 89 97 56
-9.63334 -12.1399 -1.26605 87 93 54
-9.67912 -12.1212 -1.26738 82 91 55
-9.75739 -12.1045 -1.27081 71 84 49
-9.76484 -12.037 -1.2662 88 103 67
-9.74587 -11.937 -1.25755 79 94 60
-5.59824 -6.68234 -0.714745 82 88 54
-10.154 -11.9829 -1.28603 81 87 53
-10.2302 -11.9988 -1.29195 84 90 53
-15.585 -9.9387 -1.55493 118 117 123
-15.6438 -9.90826 -1.55818 117 116 123
-15.7079 -9.84665 -1.56027 119 116 124
-15.7648 -9.81453 -1.56332 119 118 126
-15.8064 -9.77267 -1.56465 115 113 124
-15.8582 -9.70277 -1.56541 117 115 126
-15.9012 -9.66156 -1.56693 118 115 125
-15.9425 -9.61913 -1.56826 117 116 122
-16.0071 -9.55671 -1.57054 118 117 125
-16.0498 -9.51486 -1.57206 116 115 123
-16.101 -9.47793 -1.57454 117 116 124
-16.1572 -9.44378 -1.5776 116 114 125
-16.216 -9.37703 -1.57931 119 116 125
-16.2669 -9.33931 -1.58179 117 114 123
-16.3039 -9.29343 -1.58274 120 117 126
-16.3708 -9.23073 -1.5854 119 116 125
-16.4196 -9.19128 -1.58769 117 116 124
-23.4157 -5.72954 -1.8823 138 129 119
-23.7445 -5.73106 -1.91026 140 130 123
-24.1173 -5.70102 -1.94135 129 119 116
-24.1788 -5.63571 -1.94534 129 121 117
-8.82458 -12.2324 -1.2264 84 78 51
-8.88586 -12.1982 -1.22715 98 94 67
-8.91285 -12.1563 -1.22541 92 95 65
-8.98613 -12.179 -1.23134 90 93 63
-9.03282 -12.1642 -1.23285 83 88 52
-9.11145 -12.153 -1.23648 85 89 56
-9.15578 -12.1346 -1.23761 80 82 49
-9.21312 -12.1335 -1.24085 91 102 66
-9.31577 -12.153 -1.24831 77 89 51
-9.34464 -12.1132 -1.24695 78 95 58
-9.41783 -12.132 -1.25269 79 96 62
-16.4804 -9.15843 -1.59132 119 117 126
-16.5433 -9.09269 -1.59361 120 117 127
-16.5901 -9.05151 -1.5957 122 120 125
-16.6402 -9.01203 -1.59818 126 124 127
-16.6903 -8.97232 -1.60066 77 71 72
-16.7385 -8.89775 -1.60142 113 100 92
-16.7795 -8.85288 -1.60294 101 88 80
-16.8204 -8.80783 -1.60446 132 126 127
-16.8925 -8.74544 -1.6079 125 115 123
-16.9437 -8.7054 -1.61057 124 115 118
-16.986 -8.66058 -1.61229 127 119 117
-17.0452 -8.59074 -1.61438 127 122 118
-24.2227 -5.56608 -1.94776 132 124 122
-24.2722 -5.49752 -1.95071 114 106 107
-24.2989 -5.38369 -1.95088 93 89 90
-24.2505 -5.29349 -1.94514 116 111 115
-24.3187 -5.22864 -1.94982 114 112 118
-25.7371 -4.01797 -1.98005 85 99 125
-25.7468 -3.93688 -1.97988 82 97 122
-25.7602 -3.81505 -1.97954 88 100 125
-8.11217 -12.1971 -1.1848 77 88 45
-8.20923 -12.1397 -1.18534 84 81 49
-8.24646 -12.1145 -1.18532 97 94 62
-8.42691 -12.3044 -1.21023 91 93 53
-8.38158 -12.1547 -1.19583 96 95 52
-8.53492 -12.2593 -1.21249 85 83 44
-8.5882 -12.2561 -1.21516 87 87 51
-8.65618 -12.274 -1.22032 88 90 51
-8.71531 -12.2373 -1.22069 81 78 44
-8.76422 -12.2268 -1.22259 86 83 50
-17.0819 -8.54279 -1.61552 141 132 123
-17.1095 -8.49023 -1.6157 145 135 124
-17.3066 -8.28841 -1.62448 150 138 129
-17.3499 -8.2097 -1.62504 133 127 123
-17.3909 -8.16304 -1.62676 132 125 120
-17.4426 -8.12127 -1.62962 126 122 118
-17.4852 -8.04184 -1.63019 123 121 122
-17.5112 -7.98793 -1.63037 127 121 125
-25.7771 -3.73505 -1.98004 87 99 121
-25.8174 -3.65835 -1.98256 81 94 118
-25.8256 -3.53568 -1.98189 88 99 127
-8.04477 -12.4709 -1.20347 127 124 106
-8.06714 -12.421 -1.20057 78 88 56
-8.07008 -12.3409 -1.19423 73 89 42
-8.07252 -12.2184 -1.18443 76 91 47
-8.22545 -12.2889 -1.1982 89 96 49
-17.5534 -7.94135 -1.63228 73 65 76
-17.5919 -7.89294 -1.6338 88 85 95
-17.6461 -7.81839 -1.63571 89 89 89
-17.6934 -7.77359 -1.63819 105 101 102
-17.7532 -7.73416 -1.64201 119 112 111
-17.8086 -7.65942 -1.64411 116 109 103
-17.8536 -7.61306 -1.6464 98 87 95
-17.9132 -7.57271 -1.65022 68 66 73
-16.9577 -7.0725 -1.5468 122 112 104
-16.9184 -6.99415 -1.54047 178 154 127
-16.91 -6.92902 -1.5374 122 95 73
-16.9381 -6.87906 -1.53816 127 109 97
-16.975 -6.80167 -1.53872 122 103 92
-17.0655 -6.77656 -1.54599 117 101 88
-7.34855 -12.3129 -1.15551 85 74 51
-7.43327 -12.3713 -1.16451 86 78 40
-7.51443 -12.4224 -1.17274 89 83 43
-4.48532 -7.17014 -0.687784 101 94 58
-4.50914 -7.13474 -0.685827 128 116 100
-7.83999 -12.3558 -1.18356 144 131 122
-4.53784 -7.13325 -0.687328 141 128 119
-7.94386 -12.4383 -1.19563 140 130 118
-4.56657 -7.13164 -0.688828 142 132 120
-4.621 -7.14683 -0.693349 100 104 81
-12.3854 -11.3295 -1.46265 121 115 116
-12.4376 -11.3072 -1.46505 127 122 126
-12.4795 -11.2753 -1.46603 131 125 129
-12.5316 -11.2526 -1.46842 123 121 121
-12.5938 -11.2036 -1.46981 125 120 126
-12.6429 -11.1777 -1.4718 88 82 83
-12.6934 -11.153 -1.47399 99 89 83
-12.7612 -11.1083 -1.47618 107 90 80
-12.8116 -11.083 -1.47837 105 90 83
-12.8454 -11.0432 -1.47836 101 90 86
-12.919 -11.0028 -1.48135 120 119 124
-12.9496 -10.9601 -1.48093 119 118 123
-12.9951 -10.9302 -1.48252 118 117 122
-13.0528 -10.9103 -1.48571 118 117 123
-13.1138 -10.8583 -1.4871 120 119 125
-13.1545 -10.8239 -1.48809 120 119 125
-13.2029 -10.7957 -1.49008 120 119 125
-13.2665 -10.7454 -1.49187 120 118 127
-13.327 -10.7267 -1.49546 117 115 124
-13.3659 -10.6903 -1.49625 118 117 123
-13.4447 -10.6515 -1.50004 119 118 124
-13.4896 -10.6195 -1.50163 119 118 126
-13.5392 -10.5911 -1.50382 118 117 125
-13.5965 -10.5686 -1.50702 118 116 125
-13.664 -10.5197 -1.50941 120 118 125
-13.7212 -10.4966 -1.5126 122 120 125
-13.987 -10.2946 -1.52195 118 116 127
-14.0327 -10.2616 -1.52374 119 117 126
-14.0864 -10.2344 -1.52653 119 117 126
-14.1401 -10.2068 -1.52933 119 117 126
-14.2128 -10.1593 -1.53252 118 117 126
-14.2648 -10.1301 -1.53511 119 117 127
-14.3134 -10.0983 -1.5373 118 117 124
-14.3761 -10.0428 -1.53929 120 119 126
-18.0943 -7.02508 -1.6471 98 89 80
-6.93274 -12.2853 -1.13339 93 86 36
-7.06283 -12.3422 -1.14429 94 86 52
-7.13847 -12.3429 -1.14791 93 83 55
-7.22994 -12.4165 -1.15844 88 76 52
-7.26119 -12.3823 -1.15708 83 69 52
-7.29822 -12.3584 -1.15688 94 77 63
-9.92227 -11.7173 -1.31827 77 66 52
-9.97728 -11.7095 -1.32126 82 72 57
-10.0465 -11.7182 -1.32646 89 81 69
-10.1277 -11.7035 -1.33065 120 110 101
-10.201 -11.716 -1.33645 147 140 121
-10.2122 -11.656 -1.33263 148 140 125
-10.3144 -11.6641 -1.34003 145 141 138
-10.4117 -11.7025 -1.34944 140 136 130
-10.4882 -11.7165 -1.35564 139 133 129
-10.5609 -11.6887 -1.35843 126 119 116
-10.6351 -11.6989 -1.36423 128 122 124
-10.7082 -11.7074 -1.36983 117 113 112
-10.7734 -11.7067 -1.37422 119 117 118
-10.8624 -11.6948 -1.37942 118 116 112
-10.9359 -11.7021 -1.38502 120 118 119
-11.0069 -11.7062 -1.39021 116 114 117
-11.0976 -11.6942 -1.39561 119 117 120
-11.1634 -11.6917 -1.4 109 109 111
-11.2388 -11.699 -1.4058 120 118 121
-11.3327 -11.6884 -1.4116 118 118 119
-11.4057 -11.692 -1.417 117 116 117
-11.4747 -11.6909 -1.42179 118 116 116
-11.5535 -11.6995 -1.428 119 117 118
-11.6396 -11.6783 -1.43259 104 99 100
-11.7243 -11.6917 -1.43959 107 100 102
-11.7839 -11.6793 -1.44298 114 107 109
-11.883 -11.6693 -1.44938 109 103 105
-11.9441 -11.6576 -1.45297 107 103 104
-11.984 -11.6248 -1.45356 109 103 103
-12.0452 -11.6126 -1.45715 106 101 98
-12.0974 -11.5552 -1.45694 112 106 107
-12.137 -11.5218 -1.45752 113 107 109
-12.1737 -11.4856 -1.45771 111 107 106
-12.2369 -11.4385 -1.45909 117 117 115
-12.2805 -11.4087 -1.46028 121 117 117
-12.343 -11.3964 -1.46408 124 118 117
-14.4181 -10.006 -1.54068 117 116 124
-14.4665 -9.97353 -1.54288 118 117 125
-14.5205 -9.91151 -1.54386 119 118 126
-14.549 -9.86516 -1.54365 119 117 128
-14.6086 -9.83986 -1.54725 117 115 126
-14.6451 -9.79878 -1.54804 118 116 128
-14.7084 -9.74238 -1.55023 117 115 128
-14.7396 -9.69764 -1.55042 116 114 127
-14.7741 -9.65496 -1.551 118 116 128
-14.8318 -9.5945 -1.55259 118 116 127
-14.8809 -9.56119 -1.55499 120 118 128
-14.9384 -9.53301 -1.55838 118 119 123
-14.9858 -9.49816 -1.56058 121 122 126
-15.0428 -9.43649 -1.56217 118 118 125
-15.0883 -9.40011 -1.56416 120 119 127
-15.1523 -9.37505 -1.56836 117 115 126
-15.2054 -9.31036 -1.56954 117 116 122
-15.2439 -9.26913 -1.57074 122 119 126
-15.2975 -9.23701 -1.57373 120 119 125
-15.3654 -9.1807 -1.57672 119 116 125
-15.4171 -9.14698 -1.57952 122 117 127
-15.4551 -9.10493 -1.58071 120 117 126
-14.5301 -7.15929 -1.40635 132 126 121
-14.5198 -7.07026 -1.40153 125 121 119
-14.5536 -7.03095 -1.40293 118 113 111
-18.3583 -7.06246 -1.67218 94 84 74
-18.3981 -7.01205 -1.67408 97 85 83
-18.4414 -6.96285 -1.67638 119 108 101
-18.5159 -6.89216 -1.68077 126 110 102
-18.5534 -6.84035 -1.68249 124 109 101
-18.6112 -6.7959 -1.68631 128 115 107
-24.6347 -3.89849 -1.9567 80 94 119
-24.6735 -3.82536 -1.95913 76 88 109
-24.6964 -3.74965 -1.96017 82 93 113
-24.7208 -3.63444 -1.96086 79 91 111
-6.65389 -12.3123 -1.12293 95 88 54
-6.7933 -12.4386 -1.13998 92 86 50
-6.82125 -12.3986 -1.13786 89 89 51
-6.90518 -12.4638 -1.14724 86 91 51
-6.95756 -12.4691 -1.1501 116 117 73
-7.03827 -12.388 -1.14699 101 91 53
-9.31566 -11.8959 -1.29379 80 84 61
-9.4044 -11.9348 -1.3024 95 94 66
-9.42509 -11.8855 -1.29977 92 88 62
-9.45782 -11.8518 -1.29916 88 89 64
-9.48183 -11.7692 -1.29412 84 89 58
-9.52281 -11.7463 -1.29491 87 90 62
-9.57369 -11.7356 -1.2973 83 82 61
-9.64423 -11.7114 -1.29989 86 79 61
-5.58208 -6.641 -0.749693 94 81 71
-5.63977 -6.67011 -0.756447 106 95 85
-5.63077 -6.61786 -0.75125 119 109 98
-9.53422 -7.24392 -1.06898 119 117 127
-9.54665 -7.20716 -1.06768 119 117 128
-9.55102 -7.16436 -1.06529 118 117 125
-9.59486 -7.12842 -1.06679 119 117 127
-9.64646 -7.12144 -1.07088 118 116 127
-15.5015 -9.06775 -1.5829 118 117 124
-15.5551 -9.00211 -1.58429 119 117 127
-15.591 -8.95851 -1.58528 120 119 128
-15.6337 -8.91872 -1.58708 115 114 122
-15.6884 -8.85329 -1.58867 117 115 126
-15.7429 -8.81987 -1.59186 115 113 123
-15.7904 -8.78232 -1.59426 121 119 123
-15.855 -8.72174 -1.59705 123 120 125
-15.8971 -8.68081 -1.59885 123 116 120
-15.9303 -8.63495 -1.59964 128 121 125
-15.9669 -8.59083 -1.60083 79 70 73
-16.0062 -8.51598 -1.60082 114 101 93
-16.0407 -8.47061 -1.60181 99 86 76
-16.0769 -8.42603 -1.603 146 136 128
-18.6552 -6.71309 -1.68765 125 112 103
-18.7015 -6.664 -1.69032 139 124 117
-18.7402 -6.61201 -1.69223 147 133 124
-18.8097 -6.53763 -1.69625 148 131 120
-18.8405 -6.48255 -1.69739 157 140 129
-18.8956 -6.43571 -1.70102 162 143 135
-18.9412 -6.3854 -1.7037 161 144 134
-6.2098 -12.1855 -1.09256 87 69 57
-6.2586 -12.1899 -1.09504 89 73 59
-6.32044 -12.1721 -1.09617 90 85 66
-6.48978 -12.4159 -1.12454 91 87 64
-6.47046 -12.2827 -1.11225 77 77 45
-6.54642 -12.2904 -1.11625 99 87 65
-6.62151 -12.343 -1.1241 81 74 45
-8.74822 -12.0194 -1.26949 76 74 39
-8.81866 -12.0393 -1.27529 84 83 53
-8.87768 -12.0429 -1.27909 88 82 54
-8.91575 -12.0172 -1.27927 87 83 50
-8.9796 -11.9874 -1.28065 94 89 52
-9.03643 -11.9869 -1.28405 92 89 53
-9.08027 -11.9688 -1.28524 80 85 48
-9.15357 -11.9507 -1.28822 85 96 66
-9.1806 -11.9099 -1.2866 80 95 64
-9.27727 -11.9607 -1.29662 83 97 69
-16.1278 -8.35705 -1.60439 136 129 121
-16.1513 -8.30573 -1.60418 135 130 121
-16.2117 -8.27334 -1.60818 136 131 122
-16.2726 -8.20895 -1.61078 132 127 120
-16.3205 -8.16966 -1.61337 130 125 126
-16.3558 -8.12394 -1.61456 121 119 121
-18.9966 -6.30508 -1.70637 162 145 137
-19.0324 -6.2511 -1.70809 158 143 133
-19.0718 -6.19821 -1.71019 162 147 135
-19.1245 -6.11635 -1.71268 163 145 133
-19.175 -6.06662 -1.71593 163 145 132
-19.2234 -6.01601 -1.71898 163 146 133
-26.3381 -1.81039 -2.01145 95 111 136
-5.96481 -12.2056 -1.08402 100 92 55
-6.13601 -12.3724 -1.10566 95 81 66
-6.1443 -12.2424 -1.0947 94 75 64
-6.1914 -12.2435 -1.0968 106 87 74
-8.19788 -12.0573 -1.24096 83 96 55
-8.28124 -12.1016 -1.24937 80 91 53
-8.29948 -12.0482 -1.24595 86 93 54
-8.39104 -12.0626 -1.25235 85 90 51
-8.43026 -12.0402 -1.25273 89 91 50
-8.5123 -12.0798 -1.26074 100 101 57
-8.58982 -12.0716 -1.26453 84 86 46
-8.63937 -12.0632 -1.26672 91 92 55
-8.70844 -12.0821 -1.27232 94 93 58
-16.6107 -7.86785 -1.62674 119 121 126
-16.6524 -7.82435 -1.62873 119 120 126
-16.7012 -7.78402 -1.63153 122 123 128
-16.7457 -7.70978 -1.63252 122 126 128
-16.7816 -7.66317 -1.63392 121 121 123
-16.8372 -7.62542 -1.63751 67 64 73
-16.8764 -7.58007 -1.63931 90 87 98
-16.9291 -7.50888 -1.6413 90 85 89
-16.9717 -7.4647 -1.6435 99 93 97
-19.2886 -5.93729 -1.72281 167 148 134
-19.3291 -5.88375 -1.7251 167 147 132
-19.3961 -5.83809 -1.73008 162 143 128
-19.4191 -5.77893 -1.73065 167 146 133
-19.5883 -5.72961 -1.745 151 126 109
-5.63795 -12.0859 -1.06032 90 97 56
-5.69455 -12.1124 -1.06491 85 93 55
-5.84433 -12.2931 -1.08675 82 93 51
-5.92341 -12.3658 -1.09633 83 88 50
-5.97138 -12.3696 -1.09861 88 88 49
-6.08949 -12.3729 -1.10375 98 85 60
-7.88932 -12.1556 -1.23224 86 88 61
-7.92659 -12.1316 -1.23223 87 95 53
-7.97634 -12.0852 -1.231 87 100 56
-8.05448 -12.1241 -1.23861 87 101 56
-8.10578 -12.1211 -1.2412 83 100 56
-8.18601 -12.1204 -1.24559 78 94 55
-17.0014 -7.41476 -1.64429 120 115 114
-17.0589 -7.34513 -1.64689 113 105 101
-17.0865 -7.29407 -1.64748 135 122 129
-17.123 -7.24678 -1.64908 69 65 73
-17.1578 -7.16711 -1.64927 130 121 116
-17.2105 -7.12631 -1.65267 141 132 127
-17.2264 -7.07016 -1.65206 151 134 128
-17.2568 -7.01996 -1.65305 138 126 117
-17.2574 -6.9263 -1.64964 122 109 102
-19.8554 -5.74091 -1.77009 185 154 131
-20.0999 -5.74398 -1.79287 189 157 131
-5.47582 -12.0713 -1.0527 88 95 58
-5.54771 -12.083 -1.05652 97 107 57
-5.61443 -12.1336 -1.0636 94 103 50
-7.76386 -12.1648 -1.22626 142 131 121
-7.8361 -12.1544 -1.22925 133 130 111
-17.2652 -6.86712 -1.64823 137 125 115
-17.2654 -6.80503 -1.64602 122 109 105
-17.4722 -6.79223 -1.66504 87 73 71
-17.5277 -6.75106 -1.66884 83 70 61
-17.5498 -6.69685 -1.66904 85 70 63
-17.6025 -6.62274 -1.67143 121 107 98
-20.3689 -5.71797 -1.81718 202 164 134
-20.6463 -5.72673 -1.84322 199 160 128
-20.9221 -5.73326 -1.86907 207 168 134
-5.53652 -12.4224 -1.08611 110 96 86
-5.63872 -12.5556 -1.10182 100 93 74
-7.07677 -12.1633 -1.19056 122 105 87
-7.13572 -12.1797 -1.19496 132 112 90
-7.211 -12.1799 -1.19875 111 96 77
-7.25931 -12.1768 -1.20094 105 87 70
-7.30269 -12.165 -1.20213 96 79 56
-7.37425 -12.201 -1.20893 92 83 54
-7.44398 -12.1895 -1.21152 92 86 51
-4.48621 -7.14541 -0.723768 132 115 97
-4.49955 -7.11849 -0.721952 137 123 110
-4.5241 -7.11019 -0.722618 140 127 118
-4.56809 -7.10856 -0.725085 139 135 115
-17.6446 -6.57591 -1.67383 108 94 85
-17.6848 -6.52818 -1.67603 115 101 92
-17.7416 -6.48639 -1.68003 109 97 88
-17.7897 -6.40969 -1.68203 123 111 109
-17.8275 -6.36061 -1.68402 152 143 137
-17.8633 -6.31068 -1.68582 162 155 148
-21.2224 -5.70899 -1.89645 139 108 83
-21.4987 -5.71167 -1.9223 198 168 143
-21.5676 -5.65786 -1.92747 166 137 114
-21.5805 -5.58913 -1.92708 153 131 117
-5.07622 -12.1645 -1.04614 116 88 76
-5.17826 -12.3119 -1.063 116 89 77
-5.48073 -12.6709 -1.10611 109 95 82
-5.51737 -12.6489 -1.10552 116 102 89
-5.57923 -12.6874 -1.11126 129 110 96
-6.79771 -12.1919 -1.17941 82 79 46
-6.87138 -12.1923 -1.183 89 93 63
-6.927 -12.2045 -1.1868 81 80 52
-6.95386 -12.1644 -1.18458 88 77 53
-7.02287 -12.1552 -1.18716 94 79 60
-4.46753 -7.18917 -0.726939 89 73 48
-17.9125 -6.23384 -1.68802 130 126 123
-17.9442 -6.18221 -1.68941 131 126 123
-17.9965 -6.13749 -1.69301 133 127 127
-18.0486 -6.09248 -1.69661 134 129 130
-18.1045 -6.01695 -1.69961 134 127 133
-18.1639 -5.97381 -1.70402 136 128 133
-21.625 -5.49238 -1.92899 119 106 98
-21.6374 -5.42349 -1.92861 131 123 117
-21.6496 -5.35457 -1.92822 128 123 120
-21.6698 -5.25162 -1.92783 112 104 101
-21.7066 -5.18867 -1.92994 103 94 92
-4.96528 -12.2706 -1.05175 109 94 67
-5.03727 -12.3448 -1.06095 110 85 70
-5.05717 -12.2834 -1.05613 111 88 72
-5.37756 -12.6986 -1.10481 108 85 72
-5.42852 -12.7119 -1.10786 105 86 69
-6.56841 -12.2608 -1.17468 93 79 60
-6.61156 -12.2515 -1.17587 114 102 79
-6.66559 -12.2162 -1.17525 86 88 48
-6.70027 -12.1907 -1.17463 90 94 57
-6.76116 -12.2142 -1.17963 85 85 53
-9.54199 -7.22372 -1.1245 120 118 129
-9.51477 -7.15699 -1.11751 120 118 129
-9.54585 -7.11162 -1.11727 120 118 129
-9.59584 -7.10348 -1.12132 120 119 128
-18.2194 -5.92913 -1.70802 132 127 133
-18.2916 -5.85792 -1.71282 136 128 130
-18.3317 -5.80773 -1.71522 138 128 129
-18.3849 -5.7615 -1.71902 139 129 128
-18.5836 -5.7281 -1.73725 147 132 127
-21.7412 -5.12507 -1.93185 157 147 143
-21.7868 -4.95602 -1.93261 85 85 94
-21.8188 -4.89152 -1.93433 81 82 99
-21.8079 -4.81736 -1.93184 86 94 110
-4.88586 -12.233 -1.04564 90 96 48
-6.08249 -12.0424 -1.13287 106 91 75
-6.17722 -12.1417 -1.1461 109 97 80
-6.21712 -12.1284 -1.14668 103 95 64
-6.28048 -12.1144 -1.14827 99 92 72
-6.34629 -12.1522 -1.15467 101 85 71
-6.40339 -12.1719 -1.15907 95 80 60
-6.53163 -12.2823 -1.1749 89 70 53
-11.4357 -10.9053 -1.4845 117 116 124
-11.4762 -10.8768 -1.48557 118 117 125
-11.5223 -10.8537 -1.48749 120 117 124
-11.5583 -10.8207 -1.48791 119 118 124
-11.6314 -10.7889 -1.49135 119 118 124
-11.673 -10.761 -1.49263 119 116 124
-11.7189 -10.7371 -1.49455 118 116 127
-11.7729 -10.6867 -1.49518 119 116 125
-11.8172 -10.6609 -1.49689 120 117 124
-11.8586 -10.6324 -1.49817 119 118 123
-11.8939 -10.5983 -1.49859 117 116 122
-11.9635 -10.5616 -1.5016 90 86 89
-12.0091 -10.5364 -1.50352 99 86 80
-12.0576 -10.5137 -1.50588 115 101 92
-12.1419 -10.4891 -1.51104 107 94 88
-12.1813 -10.458 -1.51211 105 97 94
-12.2207 -10.4267 -1.51317 123 121 124
-12.2613 -10.3634 -1.51208 120 119 125
-12.3201 -10.3486 -1.51595 121 121 129
-12.3577 -10.3155 -1.5168 118 116 127
-12.4104 -10.2951 -1.5198 119 118 128
-12.4701 -10.2475 -1.52151 119 119 127
-12.515 -10.2203 -1.52344 119 118 125
-12.5569 -10.1903 -1.52494 119 118 126
-12.6362 -10.1582 -1.52945 118 116 126
-12.661 -10.1139 -1.52858 117 115 126
-12.6949 -10.0771 -1.52899 116 115 124
-12.7599 -10.0329 -1.53157 118 116 127
-12.7889 -9.99202 -1.53134 119 117 128
-12.8365 -9.96584 -1.5337 119 117 128
-12.8731 -9.93087 -1.53455 118 116 128
-13.1974 -9.73467 -1.55 120 118 129
-13.255 -9.68257 -1.55171 118 118 126
-13.2812 -9.63902 -1.55126 119 117 127
-13.3266 -9.60946 -1.55341 119 117 128
-13.3686 -9.57737 -1.55512 118 116 127
-13.4304 -9.52775 -1.55748 118 116 127
-13.4739 -9.49638 -1.55941 120 118 129
-13.5319 -9.47517 -1.56328 118 116 129
-13.582 -9.41658 -1.56413 118 116 129
-13.635 -9.39139 -1.56735 119 117 128
-13.675 -9.3569 -1.56885 119 117 128
-13.7246 -9.29754 -1.5697 120 118 129
-13.7725 -9.26826 -1.57227 120 118 129
-13.8269 -9.24323 -1.57571 119 117 128
-13.8616 -9.20464 -1.57656 118 116 127
-13.9204 -9.1509 -1.57871 120 116 130
-13.9482 -9.10757 -1.57869 122 119 131
-13.9974 -9.07833 -1.58149 124 121 132
-18.8248 -5.73799 -1.76088 152 134 121
-19.0567 -5.74355 -1.78352 168 146 123
-21.8489 -4.71879 -1.93375 85 96 114
-21.8666 -4.65098 -1.93413 82 97 116
-21.9017 -4.58678 -1.93624 80 95 114
-21.9085 -4.48072 -1.93489 83 95 117
-21.9352 -4.41464 -1.93623 83 95 117
-5.99561 -12.1971 -1.14316 102 85 65
-6.06473 -12.2454 -1.15056 107 87 73
-6.12756 -12.2304 -1.15195 111 93 78
-10.709 -11.3723 -1.46489 125 122 123
-10.7519 -11.348 -1.46617 122 119 124
-10.8044 -11.2981 -1.46615 122 120 124
-10.8485 -11.2749 -1.46765 118 117 120
-10.8939 -11.2529 -1.46936 119 116 120
-10.9541 -11.211 -1.47064 118 117 119
-11.0105 -11.2001 -1.47407 118 116 120
-11.0668 -11.1889 -1.47751 118 116 121
-11.0955 -11.149 -1.47663 117 116 121
-11.1554 -11.106 -1.47791 117 115 119
-11.1935 -11.0757 -1.47854 118 116 121
-11.2316 -11.0454 -1.47917 118 117 122
-11.2826 -10.9932 -1.47915 118 117 125
-11.3331 -10.9751 -1.48173 118 116 127
-11.3653 -10.9387 -1.4815 117 115 126
-14.0391 -9.01292 -1.58147 119 119 125
-14.0831 -8.97999 -1.58362 121 120 128
-14.122 -8.94364 -1.58512 123 122 130
-14.1882 -8.8936 -1.58834 120 119 126
-14.237 -8.86318 -1.59113 121 120 126
-14.2774 -8.82726 -1.59285 121 120 125
-14.3294 -8.79852 -1.59607 122 118 124
-14.3985 -8.74921 -1.59972 123 117 120
-14.4335 -8.70953 -1.60079 127 120 120
-14.482 -8.67794 -1.60358 133 127 123
-14.5252 -8.61226 -1.604 135 128 124
-14.541 -8.56089 -1.6027 144 135 129
-14.5789 -8.52264 -1.6042 144 135 125
-14.591 -8.46915 -1.60246 142 132 121
-14.6436 -8.40887 -1.60417 142 131 121
-14.7034 -8.38307 -1.60848 144 132 124
-14.7184 -8.3313 -1.60717 146 134 128
-19.3078 -5.75336 -1.80816 213 175 145
-19.5605 -5.72873 -1.832 219 177 139
-19.8217 -5.73786 -1.85764 205 161 131
-22.0027 -4.3566 -1.94159 85 97 121
-22.0084 -4.2502 -1.94025 81 95 121
-22.0364 -4.18402 -1.94178 80 94 120
-22.0388 -4.11292 -1.94082 80 94 120
-24.2916 -1.77712 -1.98583 88 101 127
-5.55156 -12.0177 -1.10796 93 96 50
-5.61195 -12.0537 -1.11376 84 81 43
-5.63589 -12.0079 -1.11053 96 94 56
-5.74682 -12.1035 -1.12396 90 96 55
-5.81388 -12.1511 -1.13117 92 97 57
-5.93309 -12.3102 -1.15082 89 89 49
-5.98766 -12.278 -1.1502 96 94 56
-10.1727 -11.6685 -1.44975 114 109 113
-10.2175 -11.6477 -1.45125 107 104 107
-10.2609 -11.6253 -1.45253 121 113 111
-10.3251 -11.5898 -1.45423 116 108 106
-10.375 -11.5744 -1.45659 117 111 115
-10.4183 -11.5513 -1.45787 116 111 112
-10.4797 -11.512 -1.45915 122 118 118
-10.511 -11.4752 -1.45848 113 109 114
-10.5687 -11.4679 -1.46214 116 113 114
-10.6024 -11.4338 -1.46191 118 116 117
-10.6607 -11.3906 -1.46275 122 122 124
-14.7635 -8.26635 -1.60802 135 127 123
-14.8179 -8.23685 -1.61168 128 122 120
-14.8376 -8.18774 -1.61102 125 120 118
-14.8925 -8.12789 -1.61316 121 116 120
-14.9327 -8.09002 -1.6151 133 128 134
-14.978 -8.05482 -1.61767 89 80 86
-15.0199 -8.01753 -1.61982 110 97 91
-15.0583 -7.94814 -1.62002 102 91 86
-15.0998 -7.91045 -1.62217 121 120 125
-15.1588 -7.88181 -1.62648 120 119 125
-15.2671 -7.84836 -1.63531 120 118 123
-14.5787 -7.17815 -1.53605 112 111 119
-14.5522 -7.1089 -1.53022 105 106 116
-14.5775 -7.03726 -1.52934 107 106 120
-14.8308 -7.10428 -1.55737 106 105 119
-20.0697 -5.74159 -1.88188 187 148 122
-20.3135 -5.70817 -1.90471 194 156 127
-20.384 -5.65924 -1.91032 186 147 118
-20.4027 -5.59577 -1.91051 176 143 115
-22.0527 -4.04401 -1.94101 82 96 122
-22.098 -3.94495 -1.94369 79 93 119
-22.0918 -3.87237 -1.94197 80 94 120
-22.1128 -3.80462 -1.94292 82 94 118
-5.42866 -11.9896 -1.10037 97 93 59
-5.51702 -12.0397 -1.10858 88 94 52
-9.25092 -11.7179 -1.3902 109 108 104
-9.30747 -11.7162 -1.39386 114 111 108
-9.37508 -11.7283 -1.39945 113 109 107
-9.43552 -11.7308 -1.40375 115 109 112
-9.51568 -11.72 -1.40827 116 111 110
-9.57632 -11.7218 -1.41257 113 109 108
-9.84838 -11.7236 -1.43149 122 118 115
-9.92668 -11.7071 -1.43557 118 114 113
-9.99303 -11.7132 -1.44074 119 115 113
-10.0557 -11.7144 -1.44526 116 112 110
-10.1134 -11.7092 -1.44891 119 114 116
-15.2925 -7.80162 -1.63551 120 119 125
-15.3019 -7.74665 -1.63378 119 118 125
-15.3621 -7.68752 -1.63679 116 115 123
-15.4208 -7.65738 -1.64109 116 115 123
-15.5874 -7.41142 -1.646 102 100 113
-15.6302 -7.34262 -1.64707 100 99 111
-20.4452 -5.50432 -1.91231 149 127 107
-20.4595 -5.43962 -1.91211 142 124 109
-20.4717 -5.37438 -1.9117 137 123 112
-20.4684 -5.30513 -1.9097 131 117 114
-20.5269 -5.21748 -1.9133 120 109 106
-22.1394 -3.70199 -1.94388 80 92 114
-22.1599 -3.634 -1.94484 81 93 115
-22.2056 -3.57005 -1.94828 83 95 119
-22.2016 -3.46224 -1.94637 82 97 120
-5.51381 -12.3944 -1.14134 125 109 96
-5.46556 -12.1772 -1.11925 110 97 80
-8.53292 -11.7341 -1.34485 127 122 121
-8.61491 -11.7337 -1.35001 128 125 120
-8.66709 -11.7299 -1.35302 124 120 116
-8.72047 -11.7275 -1.35624 122 118 117
-8.78093 -11.7346 -1.36075 120 115 111
-8.8623 -11.731 -1.3657 90 91 79
-8.91948 -11.7325 -1.36957 99 101 87
-8.98269 -11.7418 -1.37452 123 120 112
-9.05616 -11.7259 -1.37795 121 120 118
-9.11005 -11.7218 -1.38117 127 125 128
-9.17602 -11.7334 -1.38655 108 105 107
-5.58869 -6.64998 -0.819858 120 116 113
-5.60125 -6.62385 -0.818403 114 110 109
-5.63245 -6.62081 -0.820559 116 112 111
-15.672 -7.3031 -1.64943 96 96 107
-15.7048 -7.25919 -1.65072 94 94 107
-15.7433 -7.18806 -1.65136 87 90 102
-15.7793 -7.14548 -1.65307 90 91 103
-15.8315 -7.11012 -1.65673 95 94 106
-15.8836 -7.0745 -1.66039 37 40 53
-15.9213 -7.00243 -1.66103 26 25 38
-15.955 -6.95827 -1.66253 18 17 28
-15.9905 -6.91477 -1.66424 20 14 24
-20.5384 -5.15206 -1.91289 149 136 129
-20.5651 -5.09041 -1.91409 163 154 146
-20.5648 -4.98792 -1.91168 129 120 120
-20.5659 -4.92011 -1.91028 113 103 111
-20.5997 -4.86006 -1.91228 91 83 96
-22.2469 -3.39787 -1.94981 81 96 119
-22.2763 -3.33088 -1.95173 81 94 117
-5.01892 -12.0497 -1.09009 106 98 64
-5.06034 -12.0458 -1.09127 97 89 56
-5.25429 -12.3096 -1.12335 102 87 65
-5.3562 -12.3943 -1.13518 113 98 84
-5.40727 -12.4095 -1.13857 115 100 90
-5.43153 -12.3603 -1.13494 117 100 92
-8.00395 -11.7403 -1.31262 123 115 100
-8.05751 -11.7423 -1.31606 133 130 116
-8.10898 -11.7408 -1.31906 148 140 129
-8.16604 -11.7473 -1.32315 144 140 129
-8.23943 -11.7378 -1.3268 147 141 135
-8.29337 -11.7388 -1.33024 142 136 135
-8.34512 -11.7364 -1.33324 135 132 128
-8.4233 -11.7323 -1.33776 124 118 115
-8.4775 -11.7325 -1.3412 121 115 114
-16.0457 -6.84998 -1.66704 81 77 85
-16.0808 -6.80607 -1.66876 80 76 83
-16.1158 -6.76199 -1.67047 116 110 109
-16.1594 -6.69175 -1.67197 123 118 119
-16.2106 -6.65415 -1.67563 129 125 128
-16.2489 -6.611 -1.67778 127 122 127
-16.2815 -6.56543 -1.67928 129 127 130
-20.6601 -4.77188 -1.91628 86 88 100
-20.6663 -4.70523 -1.91548 84 89 102
-20.6956 -4.64377 -1.91708 86 91 106
-20.6956 -4.57576 -1.91567 86 93 109
-20.7277 -4.48072 -1.91687 85 94 109
-4.8979 -12.1251 -1.09275 92 100 54
-4.91933 -12.0698 -1.08831 89 94 47
-4.96363 -12.0737 -1.09031 92 92 53
-5.2261 -12.3491 -1.12598 100 90 63
-7.61358 -11.7732 -1.29245 108 102 86
-7.65708 -11.7618 -1.29394 92 87 68
-7.70907 -11.7636 -1.29716 99 91 74
-7.75262 -11.7519 -1.29866 95 90 70
-7.82856 -11.7498 -1.30296 123 120 105
-7.87971 -11.7492 -1.30596 134 127 117
-7.93094 -11.7485 -1.30897 142 134 127
-10.8191 -10.5367 -1.47997 117 115 126
-10.8569 -10.5089 -1.48085 118 117 125
-10.9089 -10.4947 -1.48399 122 122 128
-10.9758 -10.462 -1.48691 118 117 125
-11.0063 -10.4268 -1.48667 117 118 123
-11.0467 -10.4009 -1.48801 116 116 128
-11.0842 -10.3723 -1.48889 116 114 127
-11.1377 -10.3263 -1.48978 119 116 127
-11.1837 -10.3053 -1.49202 118 116 124
-11.2282 -10.2829 -1.49403 117 117 127
-11.2873 -10.2415 -1.49582 116 116 126
-11.3229 -10.2106 -1.49648 118 118 128
-11.3731 -10.1929 -1.49939 119 116 124
-11.4215 -10.1414 -1.4996 119 118 132
-11.4717 -10.1232 -1.50252 81 76 83
-11.507 -10.0916 -1.50318 104 92 86
-11.5436 -10.0613 -1.50407 113 96 86
-11.6019 -10.0181 -1.50586 110 92 88
-11.6429 -9.99123 -1.50742 111 105 102
-11.6959 -9.97459 -1.51079 120 119 125
-11.7478 -9.92537 -1.51167 117 117 126
-11.7917 -9.90052 -1.51369 120 118 129
-11.8339 -9.87421 -1.51548 119 118 128
-11.8898 -9.8592 -1.51929 117 115 126
-11.9275 -9.79756 -1.51815 119 119 130
-11.9757 -9.77572 -1.52084 118 116 127
-12.0239 -9.75368 -1.52353 119 118 127
-12.0749 -9.70273 -1.52442 118 117 128
-12.1229 -9.68022 -1.52711 117 115 126
-12.1864 -9.6699 -1.53205 121 119 130
-12.2325 -9.6144 -1.53226 118 116 127
-12.2819 -9.59242 -1.53518 115 115 127
-12.3142 -9.55676 -1.53562 116 116 128
-12.3558 -9.52829 -1.53741 118 116 129
-12.4043 -9.47437 -1.53807 120 118 132
-12.6284 -9.31118 -1.54747 119 119 130
-12.6744 -9.25467 -1.5479 118 118 128
-12.7153 -9.22466 -1.54969 122 121 129
-12.7593 -9.19683 -1.55193 119 118 126
-12.8033 -9.16879 -1.55417 119 118 128
-12.8712 -9.12754 -1.55776 123 121 132
-12.9005 -9.08869 -1.55798 121 119 132
-12.9589 -9.07031 -1.56225 119 117 130
-13.0038 -9.01213 -1.56268 121 121 131
-13.0409 -8.97849 -1.56402 122 122 132
-13.0796 -8.94582 -1.56559 119 119 127
-13.1173 -8.88255 -1.56512 122 121 129
-13.187 -8.87068 -1.57097 122 119 130
-13.2204 -8.83409 -1.57186 121 118 126
-13.2653 -8.80509 -1.57433 122 119 126
-13.3305 -8.75958 -1.57769 123 120 127
-13.362 -8.72137 -1.57836 125 120 127
-13.4034 -8.68955 -1.58037 124 119 123
-13.4665 -8.64202 -1.58351 129 123 125
-13.4977 -8.60332 -1.58418 127 119 123
-13.5355 -8.56877 -1.58574 137 128 129
-13.568 -8.50131 -1.58483 143 133 131
-16.3261 -6.49494 -1.681 128 126 129
-16.3603 -6.44976 -1.68272 126 124 127
-16.4091 -6.41024 -1.68616 126 124 127
-16.4863 -6.35193 -1.69176 129 127 128
-16.5164 -6.30464 -1.69305 129 127 128
-16.5556 -6.26076 -1.69541 130 128 131
-20.7466 -4.41683 -1.91747 84 96 112
-20.7653 -4.35285 -1.91807 81 93 111
-20.7768 -4.25337 -1.91726 80 91 111
-20.8067 -4.1916 -1.91906 81 92 113
-4.92596 -12.3695 -1.11685 92 108 58
-7.57134 -11.9103 -1.30263 139 125 112
-7.5891 -11.8568 -1.29873 145 131 118
-10.214 -10.9072 -1.46191 117 117 119
-10.2473 -10.8757 -1.4619 118 118 120
-10.3103 -10.876 -1.46684 118 117 122
-10.3497 -10.8168 -1.46502 118 117 122
-10.4059 -10.8093 -1.46884 119 118 123
-10.4348 -10.7729 -1.46815 120 117 124
-10.5038 -10.7446 -1.47128 118 117 123
-10.5366 -10.7122 -1.47127 120 117 124
-10.5859 -10.6967 -1.47396 115 113 123
-10.6199 -10.6655 -1.47417 117 116 124
-10.6747 -10.6219 -1.47505 117 116 124
-10.7057 -10.5875 -1.47481 118 117 126
-10.752 -10.5685 -1.47705 115 115 123
-13.582 -8.45171 -1.58324 142 131 125
-13.6109 -8.41152 -1.58368 142 131 125
-13.6532 -8.37956 -1.58592 140 131 126
-13.6899 -8.31472 -1.58568 141 134 127
-13.7048 -8.26592 -1.58432 145 136 132
-13.7349 -8.2263 -1.58499 140 132 130
-13.7725 -8.1621 -1.58497 134 126 128
-13.8211 -8.13333 -1.58812 127 123 120
-13.8371 -8.08525 -1.58698 122 119 120
-13.9152 -8.04446 -1.59237 125 121 128
-13.9533 -8.00903 -1.59416 123 120 125
-13.9757 -7.96456 -1.59393 123 121 125
-14.0101 -7.92688 -1.59527 124 121 127
-14.0584 -7.86815 -1.59684 124 121 129
-14.1237 -7.84752 -1.60223 122 119 128
-16.6081 -6.19213 -1.69821 129 127 128
-16.6601 -6.15264 -1.70208 127 125 128
-16.6896 -6.10464 -1.70337 129 126 130
-16.7301 -6.06059 -1.70595 130 124 130
-16.7781 -5.98943 -1.70831 132 127 129
-16.8277 -5.94825 -1.71197 131 128 128
-20.8325 -4.12889 -1.92046 82 93 113
-20.8489 -4.0303 -1.92026 78 87 108
-20.8722 -3.96697 -1.92146 77 85 106
-20.8935 -3.90318 -1.92246 76 87 106
-7.14438 -11.9489 -1.28226 123 99 79
-7.19002 -11.9427 -1.28419 116 96 80
-7.24767 -11.9569 -1.2887 108 89 74
-5.61865 -6.70108 -0.848814 122 118 117
-5.63162 -6.65411 -0.845353 122 117 121
-5.65536 -6.64166 -0.846081 119 114 120
-9.69467 -11.2173 -1.4488 118 113 117
-9.75036 -11.177 -1.44945 121 117 118
-9.7949 -11.1591 -1.45124 125 124 122
-9.8277 -11.1274 -1.451 117 116 120
-9.88301 -11.0865 -1.45166 118 117 119
-9.94052 -11.0829 -1.4557 117 116 119
-9.97965 -11.0582 -1.45659 118 116 121
-10.0267 -11.0076 -1.45589 118 115 122
-10.0737 -10.9915 -1.45813 117 116 121
-10.1179 -10.9722 -1.45992 115 114 119
-10.1595 -10.9498 -1.46126 120 119 124
-14.2463 -7.85826 -1.61507 123 119 130
-14.3692 -7.83924 -1.62632 124 121 127
-14.4957 -7.85032 -1.6396 128 123 130
-14.6066 -7.8522 -1.65086 96 87 88
-14.7387 -7.86468 -1.66482 109 96 88
-14.5104 -7.08958 -1.6023 125 122 129
-16.8679 -5.90351 -1.71455 134 127 134
-16.9621 -5.84777 -1.72231 133 127 131
-16.9607 -5.78821 -1.72015 135 129 133
-17.0812 -5.77034 -1.732 131 125 127
-20.9028 -3.83715 -1.92226 75 87 106
-20.9256 -3.73961 -1.92286 81 93 111
-20.9343 -3.67349 -1.92265 77 88 107
-20.9586 -3.61001 -1.92406 81 92 112
-6.86756 -11.9774 -1.27004 123 104 76
-6.91972 -11.9844 -1.27348 113 91 67
-6.99082 -11.9806 -1.27691 121 101 84
-7.02369 -11.9525 -1.27603 114 92 75
-7.07902 -11.964 -1.28012 124 97 77
-4.49587 -7.11136 -0.788297 126 114 103
-4.52143 -7.10485 -0.789248 141 128 115
-4.56633 -7.1051 -0.792124 143 131 120
-9.34006 -11.4295 -1.44149 128 123 121
-9.3688 -11.3931 -1.44035 135 127 125
-9.56329 -11.2726 -1.44388 121 117 122
-9.60158 -11.2477 -1.44454 118 114 120
-9.63853 -11.2212 -1.44498 119 115 120
-14.8711 -7.84673 -1.6772 91 83 80
-15.0001 -7.85569 -1.69071 125 124 129
-15.1258 -7.86206 -1.70376 121 118 127
-15.2481 -7.83575 -1.71479 126 124 129
-15.254 -7.77912 -1.71253 126 123 130
-15.2439 -7.71445 -1.70824 122 121 127
-15.2578 -7.63237 -1.70552 124 123 129
-15.2541 -7.57148 -1.70213 126 125 133
-14.5939 -7.18662 -1.61561 124 123 131
-14.5498 -7.02507 -1.60319 127 126 130
-17.2578 -5.74063 -1.74925 141 132 129
-17.4594 -5.74792 -1.77037 138 130 124
-17.6687 -5.75648 -1.79236 141 131 124
-20.9823 -3.51246 -1.92485 80 92 114
-21.008 -3.44904 -1.92646 82 95 113
-21.0257 -3.38424 -1.92726 82 93 112
-21.0601 -3.28809 -1.92926 84 97 119
-6.6897 -12.0486 -1.26752 118 99 82
-6.72014 -12.0161 -1.26599 111 96 68
-6.75796 -11.9975 -1.26619 98 93 59
-6.82787 -11.9929 -1.26941 112 100 69
-4.47272 -7.17212 -0.793135 134 122 110
-4.48637 -7.14517 -0.791197 140 132 126
-9.03948 -11.6328 -1.43845 122 116 116
-9.08474 -11.6177 -1.44024 117 111 110
-9.13847 -11.5758 -1.44022 116 107 104
-9.16779 -11.54 -1.43908 122 112 111
-9.1982 -11.5056 -1.43816 113 103 103
-9.23833 -11.4836 -1.43904 119 114 113
-9.30378 -11.4566 -1.44128 125 120 118
-9.59689 -7.2557 -1.22555 120 118 129
-9.52618 -7.13156 -1.20965 122 121 127
-9.56032 -7.11176 -1.21157 123 122 130
-9.60393 -7.09899 -1.21492 122 120 131
-15.2236 -7.29302 -1.68542 126 126 128
-15.2437 -7.24463 -1.68519 129 129 131
-15.2498 -7.16051 -1.6818 128 128 130
-15.2479 -7.10197 -1.67886 127 126 131
-15.2404 -7.04101 -1.67524 127 125 129
-15.2508 -6.95967 -1.67253 133 132 131
-15.2482 -6.90137 -1.66959 139 136 135
-15.2472 -6.84397 -1.66688 141 135 137
-15.2441 -6.78582 -1.66394 146 139 142
-15.2568 -6.70635 -1.66168 144 134 136
-15.2987 -6.66819 -1.66437 143 134 136
-15.3296 -6.6251 -1.66572 133 128 126
-17.8594 -5.75762 -1.8122 144 131 123
-18.0971 -5.74145 -1.83634 142 128 118
-18.3166 -5.74887 -1.85941 140 126 115
-21.0557 -3.21978 -1.92786 82 96 122
-21.0943 -3.15793 -1.93086 85 99 125
-6.41793 -12.0737 -1.25617 127 104 80
-6.48119 -12.0587 -1.25787 120 94 73
-6.52004 -12.0427 -1.25829 118 95 72
-6.57725 -12.0617 -1.26302 124 104 80
-6.64894 -12.0617 -1.26667 124 108 85
-8.51202 -11.7099 -1.40975 120 121 116
-8.58585 -11.6982 -1.41356 118 119 115
-8.6426 -11.7009 -1.4176 117 114 110
-8.69827 -11.7017 -1.42142 125 121 116
-8.75637 -11.7055 -1.42569 123 118 115
-8.83294 -11.6955 -1.42995 121 113 110
-8.88769 -11.6939 -1.43354 118 113 108
-8.94014 -11.6889 -1.43669 126 118 115
-8.99422 -11.6477 -1.43667 117 113 110
-15.3725 -6.55866 -1.66729 124 124 125
-15.3884 -6.50905 -1.66683 130 125 128
-15.4115 -6.46248 -1.66727 133 128 125
-15.4647 -6.40005 -1.67019 125 121 121
-15.493 -6.35546 -1.67131 125 122 124
-15.5156 -6.30851 -1.67175 127 123 125
-15.5602 -6.27037 -1.6749 130 126 127
-18.5382 -5.75554 -1.8827 148 133 118
-18.7595 -5.72857 -1.9049 147 128 112
-18.86 -5.69522 -1.91438 171 147 126
-18.8731 -5.63497 -1.91395 170 145 126
-22.9611 -0.523067 -1.94713 84 100 128
-6.22194 -12.1024 -1.24933 107 89 67
-6.25296 -12.0712 -1.2478 118 96 75
-6.31074 -12.0464 -1.24821 116 91 71
-6.36917 -12.0699 -1.25337 137 110 89
-8.03146 -11.7099 -1.37854 112 108 108
-8.08285 -11.7084 -1.38168 118 112 111
-8.15712 -11.7009 -1.38572 120 115 113
-8.21201 -11.7038 -1.38954 122 116 116
-8.26813 -11.7081 -1.39358 120 114 116
-8.32322 -11.7105 -1.3974 124 122 118
-8.39676 -11.6999 -1.40121 124 120 120
-8.45549 -11.7067 -1.4057 124 120 120
-15.6199 -6.20981 -1.67872 124 122 123
-15.6513 -6.16604 -1.68029 119 119 119
-15.679 -6.1207 -1.68141 124 122 123
-15.7178 -6.05137 -1.68275 125 123 124
-15.7451 -6.00574 -1.68387 129 125 126
-15.8056 -5.97259 -1.68904 128 126 129
-18.8765 -5.57185 -1.91243 139 118 103
-18.9131 -5.48642 -1.91372 140 123 115
-18.9217 -5.42493 -1.91285 140 125 120
-18.9282 -5.36289 -1.91177 141 127 122
-18.9409 -5.27065 -1.91047 128 114 108
-5.92584 -12.011 -1.2263 115 93 79
-6.01195 -12.0973 -1.23881 112 95 78
-5.99869 -11.9735 -1.22605 115 92 74
-6.11983 -12.0823 -1.24245 124 98 77
-6.16214 -12.0746 -1.24373 126 101 81
-4.52716 -7.15379 -0.815282 125 115 109
-4.54973 -7.14203 -0.815517 139 126 113
-4.58778 -7.15555 -0.819448 142 129 117
-7.61994 -11.7107 -1.35295 119 116 111
-7.67608 -11.7193 -1.35722 108 107 105
-7.72699 -11.7193 -1.36036 110 106 108
-7.79636 -11.7073 -1.3635 110 105 107
-7.85392 -11.7167 -1.36799 110 104 105
-7.90181 -11.711 -1.37046 110 104 104
-7.97466 -11.7029 -1.37427 110 106 105
-15.8456 -5.90323 -1.69061 128 126 127
-15.9041 -5.86875 -1.69556 129 127 128
-15.9421 -5.82647 -1.69803 127 126 125
-15.9743 -5.78197 -1.69983 125 123 124
-16.1256 -5.75156 -1.71491 130 127 130
-18.9832 -5.21869 -1.91348 151 139 132
-19.0006 -5.1597 -1.91369 166 153 146
-19.0065 -5.06568 -1.91175 152 139 138
-19.0406 -5.01118 -1.9139 112 101 107
-19.0208 -4.94241 -1.91001 89 84 91
-22.9112 -0.116415 -1.94146 89 104 133
-5.79999 -12.0815 -1.22744 118 96 75
-5.86197 -12.1182 -1.2339 114 91 67
-5.89251 -12.0862 -1.23216 127 102 85
-4.49191 -7.21951 -0.819989 120 117 111
-4.49841 -7.18065 -0.816281 121 116 110
-7.44855 -11.7185 -1.34331 134 122 113
-7.50121 -11.7228 -1.3469 146 131 118
-7.56922 -11.7103 -1.34981 138 128 117
-9.5414 -7.21885 -1.24943 122 120 131
-9.54418 -7.17496 -1.24646 121 119 130
-9.56577 -7.14545 -1.24645 121 119 130
-9.61745 -7.1153 -1.24939 121 121 131
-16.2998 -5.75654 -1.73383 135 128 127
-16.4854 -5.76439 -1.7541 142 134 131
-16.6689 -5.74116 -1.77301 140 131 124
-19.0699 -4.89172 -1.91389 95 91 100
-19.0591 -4.79369 -1.91022 93 90 100
-19.0771 -4.73488 -1.91065 92 89 100
-19.0736 -4.67076 -1.9087 89 89 101
-19.1466 -4.59361 -1.91452 87 89 103
-5.49957 -12.0085 -1.20679 135 116 97
-5.58002 -12.0401 -1.21347 107 95 76
-5.59131 -11.9653 -1.20654 97 81 59
-5.63695 -11.9685 -1.2089 127 113 86
-5.73237 -12.082 -1.22443 107 90 68
-7.00703 -11.7198 -1.31751 135 129 124
-7.05495 -11.7191 -1.3202 130 123 120
-7.10292 -11.7182 -1.32289 126 119 113
-11.2142 -9.33035 -1.53537 117 117 129
-11.2517 -9.30333 -1.5368 116 116 126
-11.2815 -9.26979 -1.53703 116 114 126
-11.338 -9.2288 -1.53918 119 117 128
-11.3615 -9.18992 -1.53844 117 115 126
-11.4155 -9.17615 -1.54252 119 119 129
-11.4388 -9.13705 -1.54178 118 118 128
-11.4933 -9.09386 -1.54369 118 118 128
-11.5411 -9.07441 -1.54681 116 116 126
-11.5609 -9.03249 -1.54559 120 118 129
-11.6212 -8.99349 -1.54846 119 119 131
-11.6672 -8.97218 -1.55134 123 122 135
-11.7086 -8.94701 -1.55349 126 125 139
-11.9392 -8.77918 -1.56377 122 121 130
-11.9802 -8.75283 -1.56592 122 121 127
-12.0179 -8.72394 -1.56759 124 119 129
-16.8718 -5.75227 -1.79531 129 119 109
-17.0524 -5.75456 -1.8149 139 129 120
-19.16 -4.53356 -1.91451 87 91 105
-19.181 -4.47527 -1.91537 85 93 106
-19.2087 -4.38678 -1.91623 83 92 107
-19.2273 -4.32783 -1.91687 83 90 106
-21.4552 -1.94639 -1.9539 105 117 143
-21.4158 -1.80718 -1.9489 98 112 137
-5.45363 -12.1068 -1.2146 111 97 86
-5.4595 -12.0175 -1.20595 103 90 73
-6.67639 -11.7263 -1.29957 148 135 126
-6.72388 -11.7269 -1.30226 152 141 131
-6.77433 -11.7325 -1.30562 149 139 131
-6.84134 -11.7242 -1.30854 142 138 132
-6.892 -11.7293 -1.3119 130 126 125
-6.93782 -11.7256 -1.31414 127 122 121
-10.2125 -10.007 -1.5001 118 118 128
-10.2472 -9.97976 -1.50081 116 116 126
-10.303 -9.97331 -1.50512 116 116 126
-10.3392 -9.91588 -1.50342 116 114 125
-10.3879 -9.902 -1.50654 116 114 125
-10.4181 -9.86995 -1.50652 116 116 128
-10.4779 -9.83544 -1.50891 118 118 128
-10.5065 -9.80173 -1.50865 116 116 126
-10.5522 -9.78433 -1.51129 117 117 127
-10.5777 -9.74767 -1.51055 117 115 126
-10.6531 -9.72709 -1.51559 117 117 127
-10.6653 -9.67799 -1.51269 117 117 127
-10.708 -9.65717 -1.51484 114 115 126
-10.7599 -9.61421 -1.51602 114 115 127
-10.7906 -9.5823 -1.51625 119 121 130
-10.8346 -9.56225 -1.51864 79 72 78
-10.8846 -9.51729 -1.51959 103 89 81
-10.9492 -9.51527 -1.52535 116 98 88
-10.9797 -9.48273 -1.52558 103 88 81
-11.0384 -9.47495 -1.53038 93 84 77
-11.0776 -9.41982 -1.52964 116 115 127
-11.1258 -9.40241 -1.53275 118 117 128
-11.1559 -9.3693 -1.53298 119 119 131
-12.0645 -8.67269 -1.56854 126 120 124
-12.094 -8.63761 -1.56901 130 124 125
-12.1186 -8.59894 -1.56875 135 125 126
-12.1592 -8.57175 -1.57091 142 133 133
-12.2019 -8.51744 -1.57137 144 134 133
-12.2423 -8.48988 -1.57353 144 134 133
-12.2892 -8.4667 -1.57664 143 134 130
-12.3427 -8.41964 -1.57879 144 135 128
-12.3634 -8.37795 -1.57806 142 133 126
-12.3904 -8.3407 -1.57829 142 133 130
-12.4386 -8.28965 -1.57972 141 133 133
-12.4933 -8.27098 -1.58403 134 128 129
-12.5217 -8.2344 -1.5845 129 125 123
-12.578 -8.21637 -1.58906 125 121 124
-12.6042 -8.15012 -1.58737 124 122 125
-12.6521 -8.12615 -1.59072 125 123 127
-12.68 -8.08901 -1.59119 124 121 127
-12.7439 -8.04704 -1.59503 126 124 129
-12.7632 -8.00425 -1.59429 125 123 124
-12.8176 -7.98369 -1.59861 122 120 123
-12.8458 -7.91864 -1.5974 119 118 124
-12.89 -7.8913 -1.60027 121 120 126
-12.9206 -7.8554 -1.60122 128 125 128
-12.9613 -7.82561 -1.60362 139 135 139
-13.0107 -7.77338 -1.60553 145 139 141
-17.2421 -5.72877 -1.83449 138 129 122
-17.44 -5.73417 -1.85611 131 120 116
-17.6419 -5.7396 -1.87818 126 115 109
-17.7949 -5.72803 -1.8944 124 113 105
-19.2438 -4.26837 -1.9173 81 90 107
-19.2601 -4.20885 -1.91773 84 89 108
-19.2614 -4.11441 -1.91578 81 86 105
-19.2772 -4.0548 -1.91621 80 83 98
-19.3006 -3.99674 -1.9175 83 86 101
-21.4094 -1.70496 -1.94749 132 136 142
-5.32868 -12.1776 -1.21638 118 102 89
-5.37298 -12.1782 -1.21831 116 99 88
-5.39809 -12.1329 -1.21484 116 100 85
-6.46313 -11.7211 -1.28746 117 108 93
-6.51312 -11.7279 -1.29082 142 129 118
-6.56039 -11.7291 -1.29351 147 136 128
-6.60961 -11.7337 -1.29665 147 140 128
-9.70607 -10.364 -1.48826 117 115 127
-9.73371 -10.3298 -1.48752 116 115 123
-9.78817 -10.2921 -1.4887 113 113 123
-9.82504 -10.2678 -1.48965 111 111 121
-9.88084 -10.2636 -1.49397 116 116 126
-9.92415 -10.2136 -1.49323 119 117 128
-9.9622 -10.1902 -1.49442 116 114 125
-9.99194 -10.1581 -1.49416 115 113 124
-10.0596 -10.1333 -1.49775 114 114 122
-10.0808 -10.0923 -1.49605 115 115 123
-10.1408 -10.091 -1.50109 115 115 123
-10.1549 -10.0428 -1.49819 114 114 122
-13.0495 -7.74215 -1.60768 147 138 139
-13.0797 -7.70564 -1.60863 145 137 135
-13.1287 -7.65269 -1.61055 151 142 136
-13.1843 -7.63096 -1.61511 147 136 130
-13.1919 -7.58096 -1.61293 150 136 128
-13.2387 -7.52632 -1.6146 150 133 123
-13.2993 -7.50683 -1.61988 107 93 84
-13.2995 -7.45271 -1.61674 130 118 112
-13.3514 -7.42791 -1.62082 127 117 113
-13.4009 -7.37427 -1.62298 126 116 113
-13.4249 -7.33353 -1.62321 121 113 107
-13.4818 -7.31088 -1.62801 108 100 97
-13.51 -7.24506 -1.62727 117 106 100
-17.8529 -5.65453 -1.89822 132 120 112
-17.8639 -5.59681 -1.89754 123 110 104
-17.8635 -5.53555 -1.89551 115 107 104
-17.8865 -5.45097 -1.89527 111 105 106
-17.9045 -5.39548 -1.89549 117 111 112
-19.3416 -3.91063 -1.92009 88 92 104
-19.3685 -3.85305 -1.92181 86 88 102
-19.3621 -3.7888 -1.91987 86 91 105
-19.3594 -3.69387 -1.91771 84 90 105
-4.99963 -12.0079 -1.1858 101 92 64
-5.0422 -11.9524 -1.18189 120 103 87
-5.16813 -12.1604 -1.20801 98 84 62
-5.22855 -12.2021 -1.21469 108 91 73
-5.26604 -12.1865 -1.21468 111 93 79
-6.24558 -11.7464 -1.27851 106 85 73
-6.30729 -11.7322 -1.28029 105 91 77
-6.35334 -11.7325 -1.28275 112 100 86
-6.39855 -11.7309 -1.28499 132 120 109
-9.25051 -10.6017 -1.47277 115 113 120
-9.30226 -10.5959 -1.47637 114 112 118
-9.34607 -10.547 -1.47539 115 115 124
-9.3757 -10.5153 -1.47489 119 118 124
-9.41569 -10.4955 -1.47632 118 119 124
-9.48914 -10.4803 -1.48087 115 116 121
-9.51985 -10.4497 -1.48062 117 116 122
-9.5584 -10.4278 -1.48181 116 114 124
-9.60393 -10.3807 -1.48131 117 116 124
-9.65298 -10.3703 -1.48442 117 115 128
-13.5615 -7.21904 -1.63135 109 94 87
-13.5885 -7.17963 -1.63206 91 78 74
-13.6073 -7.10871 -1.63013 125 118 116
-13.6673 -7.08667 -1.63541 133 127 127
-13.6957 -7.04778 -1.63636 144 139 139
