40.9863 -12.1762 -1.05681 59 41 35
40.7935 -12.2609 -1.05216 79 61 57
40.2198 -12.3003 -1.03652 85 63 50
40.1531 -12.4198 -1.0357 94 75 59
39.8265 -12.4589 -1.02696 77 61 46
38.9333 -12.3875 -1.00153 90 71 56
38.8036 -12.4828 -0.998793 88 69 51
37.7734 -12.4882 -0.970323 68 60 41
37.5034 -12.5326 -0.963268 72 66 41
35.9482 -12.1476 -0.916705 82 83 51
35.8179 -12.2312 -0.9139 78 74 46
35.6492 -12.3647 -0.910538 71 53 43
34.4193 -12.0674 -0.873814 96 75 61
35.3553 16.0561 -1.25564 48 46 60
35.568 15.9457 -1.26127 78 82 95
35.8818 15.9461 -1.27197 84 95 109
36.2509 15.9684 -1.28488 80 92 107
36.6308 15.9235 -1.29724 63 76 95
35.997 -12.7404 -0.923751 97 75 51
35.8715 -12.8895 -0.921788 87 61 49
34.7556 -12.6194 -0.888497 97 72 51
34.6885 -12.7203 -0.88767 101 74 57
34.6422 -12.8914 -0.888152 101 74 63
33.3544 -12.5406 -0.849373 86 62 53
33.2633 -12.6276 -0.847787 103 68 70
33.2056 -12.727 -0.847249 102 69 66
32.8886 -12.7877 -0.839273 96 72 74
32.8193 -12.8814 -0.838385 71 64 70
32.4705 -12.866 -0.82875 63 56 69
37.0119 15.9456 -1.3106 64 76 98
37.3788 15.9593 -1.32337 70 81 103
37.7766 15.9126 -1.33639 65 76 96
38.1998 15.9441 -1.35138 60 73 92
38.4831 15.9161 -1.36076 50 61 81
39.1567 15.8249 -1.3828 57 65 83
39.1289 15.6686 -1.37976 69 77 96
39.1563 15.5343 -1.37895 80 87 104
39.2687 15.3608 -1.3806 83 92 109
39.3546 15.249 -1.38215 81 89 107
39.806 14.4055 -1.38744 57 54 81
39.9006 14.295 -1.38943 87 88 112
39.9855 14.1809 -1.39106 81 89 110
40.0619 13.9917 -1.39153 83 90 109
40.1233 13.869 -1.39227 85 91 113
40.1824 13.7454 -1.39293 85 89 114
40.2757 13.5615 -1.39414 87 94 113
40.3775 13.4516 -1.3965 86 91 109
40.4183 13.3215 -1.3965 89 92 111
40.5078 13.1356 -1.39764 86 91 110
40.5096 12.9932 -1.39616 88 89 109
40.5052 12.849 -1.39446 92 91 111
40.5887 12.6612 -1.39545 97 97 114
40.7339 12.5629 -1.39959 102 101 116
30.1306 -12.8504 -0.765403 103 75 61
29.8443 -12.8991 -0.75829 92 70 49
29.5217 -12.8736 -0.749346 88 64 61
29.1298 -12.8161 -0.738183 106 78 75
28.8192 -12.8464 -0.73025 102 74 61
28.5565 -12.8404 -0.72317 100 70 60
28.4877 -12.9189 -0.722274 100 71 64
27.1286 -12.4706 -0.680725 87 83 54
27.2648 -12.637 -0.686363 56 53 30
27.3112 -12.7636 -0.689141 68 76 48
27.0487 -12.7482 -0.681999 60 63 42
26.6345 -12.7124 -0.670614 53 53 40
26.5538 -12.7783 -0.669306 61 64 46
40.8941 12.4685 -1.40432 96 96 109
40.9184 12.3329 -1.4038 97 96 112
40.9614 12.1317 -1.40331 95 94 114
41.0191 12.0059 -1.40412 93 94 113
41.0765 11.8799 -1.40494 93 96 115
41.1518 11.6878 -1.40578 95 98 117
41.2005 11.5591 -1.4063 95 101 118
41.2584 11.4328 -1.40718 94 99 118
41.3471 11.2437 -1.40862 103 108 124
41.4388 11.1261 -1.41084 103 110 126
41.4491 10.9867 -1.40995 100 102 121
41.4803 10.8529 -1.40987 99 105 118
41.5412 10.656 -1.41035 109 107 128
41.5906 10.5268 -1.41101 101 102 120
41.661 10.4026 -1.41249 107 108 126
41.7954 10.2229 -1.41585 94 97 116
41.923 10.1117 -1.41956 96 97 117
42.2426 10.0447 -1.43059 103 109 128
42.906 9.98313 -1.45416 81 85 105
43.6496 10.0067 -1.48134 58 60 81
44.4073 10.0288 -1.50904 61 66 85
45.1792 10.0492 -1.53726 68 70 91
45.7237 9.93904 -1.55625 59 61 81
45.7574 9.79322 -1.55641 55 57 82
45.568 9.60101 -1.54812 62 64 85
45.8947 9.43947 -1.5589 104 109 131
45.6982 9.09548 -1.54935 67 72 92
45.706 8.86948 -1.54813 71 78 97
45.6461 8.70669 -1.54488 74 79 101
45.5975 8.54657 -1.54207 72 75 100
45.517 8.38111 -1.53807 71 77 99
45.427 8.1398 -1.53329 74 76 99
45.3431 7.97539 -1.52922 72 78 100
45.2841 7.81597 -1.52611 71 79 102
45.2503 7.58698 -1.52356 75 76 102
45.196 7.42944 -1.52067 71 78 101
45.1469 7.2733 -1.518 71 80 100
45.1144 7.04636 -1.5156 72 78 102
45.0759 6.89284 -1.51338 72 79 101
45.0488 6.74138 -1.5116 71 79 102
44.9603 6.50802 -1.50719 73 79 101
44.8846 6.35068 -1.50363 73 81 102
44.8398 6.19822 -1.50126 74 81 102
44.8045 6.04741 -1.49926 74 79 103
44.7719 5.82457 -1.49707 73 81 100
44.7373 5.67468 -1.49515 72 79 100
44.7517 5.53113 -1.49507 71 79 100
44.7206 5.30964 -1.49303 72 76 101
44.7239 5.16504 -1.49259 71 77 102
44.6852 5.01585 -1.49059 72 78 102
44.6436 4.7945 -1.48825 75 78 104
44.6017 4.6458 -1.48618 73 79 103
44.5553 4.497 -1.48395 74 79 101
44.5025 4.34798 -1.4815 75 80 102
44.4974 4.13209 -1.48065 73 79 101
44.4772 3.9868 -1.47946 75 82 101
44.4764 3.84337 -1.47902 77 82 102
44.4828 3.62901 -1.47868 70 75 94
44.1402 2.6789 -1.46379 78 79 100
44.2188 2.47079 -1.46635 117 118 136
44.1156 2.32354 -1.46227 103 97 110
22.8671 0.852099 -0.765937 141 86 80
22.8458 0.740101 -0.764921 207 161 155
22.6446 0.513471 -0.756379 49 45 62
22.6257 0.40296 -0.755527 40 41 61
15.5114 -6.58081 -0.442473 97 70 60
15.4915 -6.63141 -0.442493 99 71 58
29.3117 11.0995 -1.1107 92 101 118
29.4016 11.0247 -1.11313 55 60 79
43.9954 1.82363 -1.4571 97 90 100
22.6476 0.329857 -0.756388 47 54 80
22.5276 0.255218 -0.751397 45 56 84
22.5772 0.145889 -0.753429 43 59 95
22.5824 0.0726713 -0.75363 40 58 96
22.5853 -0.000546204 -0.753749 40 58 96
22.5839 -0.110379 -0.753721 43 57 92
22.5862 -0.183617 -0.75384 44 55 85
22.6541 -0.331095 -0.756716 41 45 57
22.6411 -0.441004 -0.756275 45 40 60
22.6564 -0.51476 -0.756971 40 42 65
29.3137 11.3702 -1.11459 86 93 113
29.3668 11.2818 -1.11538 85 91 113
29.8086 11.064 -1.12943 51 58 79
22.7792 -0.591438 -0.76212 62 50 74
22.7331 -0.7008 -0.76036 73 68 98
22.8832 -0.779638 -0.766664 51 50 82
23.4323 -6.60685 -0.723876 97 85 95
23.3662 -6.66971 -0.72212 98 87 90
17.5429 -7.17723 -0.521372 98 76 58
17.497 -7.22464 -0.520425 88 67 57
17.5047 -7.29338 -0.521642 97 69 61
34.8338 15.8778 -1.39428 49 60 82
34.9152 15.7794 -1.39573 53 62 88
35.0393 15.6324 -1.39804 74 82 104
35.0762 15.5142 -1.39753 73 84 102
35.1713 15.421 -1.39964 80 92 112
35.2517 15.2544 -1.40006 83 91 112
35.3425 15.1587 -1.40201 82 90 114
35.3815 15.0413 -1.40167 81 89 110
35.4803 14.8819 -1.40299 81 87 109
35.5295 14.7686 -1.40314 83 91 112
35.5894 14.6596 -1.40378 81 89 110
35.6472 14.5496 -1.40433 84 92 113
35.7588 14.3945 -1.40631 84 93 110
35.7692 14.2658 -1.40482 84 90 112
35.8146 14.1508 -1.40488 85 93 112
35.9058 13.9873 -1.40604 86 93 112
36.397 13.2436 -1.4147 47 49 72
36.4033 13.1141 -1.4132 47 42 68
36.464 13.0037 -1.41409 87 93 106
36.4148 12.8554 -1.41022 87 87 104
36.5229 12.6959 -1.41236 96 99 112
36.5747 12.5824 -1.41292 101 99 113
36.7057 12.4952 -1.41693 104 98 113
36.708 12.2997 -1.41456 101 99 112
36.7909 12.196 -1.41651 93 92 110
36.8849 12.0955 -1.41896 96 95 113
37.1192 11.9737 -1.42669 94 96 117
37.3155 11.9038 -1.43357 104 109 130
37.3936 11.7964 -1.43536 96 101 123
37.5457 11.7113 -1.44036 77 83 102
37.5859 11.5259 -1.43979 85 92 112
37.6284 11.407 -1.44011 93 98 120
37.6054 11.2688 -1.43763 91 96 116
37.6397 11.0823 -1.4369 91 93 114
37.6482 10.9538 -1.43582 89 90 110
37.6351 10.8195 -1.43383 91 89 111
37.6594 10.6309 -1.43278 92 94 108
37.601 10.4849 -1.4289 100 101 116
37.5188 10.333 -1.42404 94 95 115
37.6218 10.1667 -1.42644 88 92 111
37.776 10.0777 -1.43168 95 101 117
37.9958 10.0048 -1.43972 101 108 126
38.5907 10.026 -1.4637 83 85 108
39.1922 9.97839 -1.4873 50 52 77
39.823 9.99997 -1.51276 58 63 82
40.4582 10.0186 -1.53839 75 77 98
43.8807 -5.14652 -1.46459 84 81 98
43.8257 -5.282 -1.46317 77 76 93
43.7893 -5.4905 -1.46283 89 86 103
43.6363 -5.61315 -1.45776 82 79 88
43.6174 -5.75227 -1.45775 79 74 85
43.5644 -5.88687 -1.45648 96 87 95
42.7827 -5.99194 -1.42815 111 98 95
41.6986 -5.97876 -1.38803 116 101 99
40.5913 -5.9554 -1.34701 112 99 105
39.9545 -6.05949 -1.3241 102 93 104
39.8199 -6.16959 -1.31977 102 92 103
39.7224 -6.28471 -1.31686 99 91 103
39.6086 -6.46169 -1.31375 104 94 103
32.506 -7.15952 -1.05813 47 37 46
32.5486 -7.27781 -1.06063 107 100 103
30.1963 -7.27275 -0.974963 68 59 78
29.7591 -7.27074 -0.959061 60 59 75
29.6925 -7.35553 -0.957391 99 102 110
29.6971 -7.50809 -0.958947 78 62 62
27.7978 -7.22896 -0.88756 102 100 111
27.577 -7.26726 -0.879924 95 89 99
27.5704 -7.40733 -0.881028 206 181 161
41.1116 9.96809 -1.56413 57 64 83
41.8062 9.99163 -1.59223 58 61 80
42.0112 9.89775 -1.59962 48 50 71
41.7447 9.62512 -1.58649 45 44 63
41.6371 9.46068 -1.58073 70 72 97
41.5216 9.15602 -1.57348 76 80 105
41.4928 8.94133 -1.57054 72 77 97
41.4843 8.80077 -1.56905 73 80 98
41.4343 8.65196 -1.56583 73 79 103
41.3481 8.4275 -1.56059 73 81 102
41.3085 8.28204 -1.55787 74 79 98
41.2215 8.12784 -1.55317 75 80 99
41.1443 7.90804 -1.54842 77 77 101
41.0519 7.75453 -1.54356 73 77 99
40.9924 7.60772 -1.54009 71 79 98
40.9619 7.46666 -1.53786 73 81 100
40.9266 7.25759 -1.535 75 80 102
40.8929 7.11683 -1.53269 74 79 101
40.8351 6.97242 -1.52939 76 78 103
40.8446 6.77239 -1.5285 74 79 101
40.7974 6.63065 -1.52569 72 78 100
40.7321 6.48651 -1.52214 75 80 102
40.682 6.27864 -1.51887 75 80 102
40.493 6.11744 -1.51022 71 72 93
40.5523 5.9935 -1.51194 83 88 108
40.5245 5.65851 -1.50898 69 70 91
39.4907 -6.5723 -1.31009 102 95 103
39.3999 -6.6868 -1.30747 99 94 100
39.303 -6.7998 -1.30462 107 101 105
39.1909 -6.97425 -1.30166 113 107 113
39.1285 -7.09225 -1.30016 113 107 113
39.0697 -7.21063 -1.2988 115 107 111
38.1503 -7.23338 -1.26523 118 111 124
37.8443 -7.30171 -1.25449 113 106 117
40.5429 5.52874 -1.50905 76 78 100
40.5272 5.39456 -1.50772 75 78 99
40.5291 5.19693 -1.50683 75 77 100
40.5401 5.06642 -1.50665 76 80 102
40.4892 4.92861 -1.50393 73 81 100
40.4711 4.7294 -1.5023 74 80 102
40.4489 4.59566 -1.5008 74 80 105
40.4401 4.46358 -1.49988 73 79 102
40.4336 4.26651 -1.49883 77 78 100
40.4218 4.13447 -1.49783 77 77 101
40.4135 4.00296 -1.49699 72 80 99
40.4088 3.8719 -1.49632 73 81 100
40.4313 3.67821 -1.49658 73 75 96
40.4296 3.5476 -1.49607 72 73 96
40.4274 3.41704 -1.49557 74 73 97
38.6834 -7.78095 -1.28874 103 91 100
38.6128 -7.89524 -1.28701 112 100 101
38.5672 -8.01434 -1.28625 104 94 102
38.5193 -8.13281 -1.28542 102 92 97
38.3782 -8.29563 -1.28156 83 63 65
40.2184 2.49368 -1.48451 121 120 137
40.1073 2.35811 -1.47963 110 102 123
40.2304 2.17137 -1.48434 103 92 106
40.1764 1.71736 -1.48136 111 97 99
38.1947 -8.83222 -1.27928 112 93 94
38.0939 -8.93735 -1.27651 125 109 110
37.2701 -10.2021 -1.25837 91 79 94
40.3321 -1.95634 -1.48925 125 122 139
40.2515 -2.14603 -1.48637 98 95 114
36.8001 -10.8359 -1.24796 98 88 98
36.7707 -10.9547 -1.24816 97 87 96
36.6892 -11.0581 -1.24635 99 88 94
15.5157 -6.58984 -0.514453 79 61 40
15.4903 -6.63821 -0.514225 80 60 50
23.4635 -6.52062 -0.826352 86 83 100
36.5747 -11.2151 -1.24397 97 87 96
36.4868 -11.3158 -1.24193 98 87 95
36.4082 -11.4189 -1.24027 100 88 97
36.374 -11.5995 -1.2411 98 87 85
36.2224 -11.6791 -1.2366 90 80 81
36.0953 -11.7657 -1.23307 120 106 104
35.7163 -11.8334 -1.22039 120 98 84
35.2404 -11.8032 -1.20314 120 99 93
34.8256 -11.7903 -1.18827 123 104 97
34.4302 -11.7812 -1.17415 107 94 85
40.238 -4.67167 -1.49513 76 72 89
23.3698 -6.61664 -0.823674 97 86 100
23.3709 -6.69801 -0.824618 97 87 95
23.3948 -6.78597 -0.826554 96 86 95
33.9752 -11.81 -1.15841 115 100 95
33.5976 -11.8012 -1.14495 124 109 105
33.2204 -11.7902 -1.13149 138 124 113
32.8553 -11.8401 -1.11925 94 79 73
32.986 -12.0049 -1.12594 66 53 47
32.9153 -12.0983 -1.12464 76 64 52
32.6174 -12.168 -1.11509 69 52 41
32.3704 -12.1951 -1.10678 76 64 50
31.6359 -12.039 -1.07899 87 75 59
30.5574 -12.0282 -1.04115 68 60 75
30.1617 -11.9866 -1.02679 63 60 69
17.5899 -7.20915 -0.603889 83 64 56
17.4995 -7.23884 -0.600849 89 76 62
17.5034 -7.30622 -0.602032 87 77 49
40.1011 -4.7858 -1.49008 82 75 91
40.0788 -4.91303 -1.48981 81 75 92
40.0481 -5.1042 -1.48957 81 77 95
40.0525 -5.23477 -1.49046 80 74 88
39.9892 -5.35652 -1.48854 124 118 132
39.9375 -5.47952 -1.48712 93 87 99
39.9226 -5.80254 -1.48843 95 82 88
38.2534 -6.00032 -1.42142 131 112 111
37.3698 -5.98588 -1.38522 127 110 107
36.5324 -6.03333 -1.35135 112 98 105
36.3546 -6.12376 -1.34472 111 99 104
36.2101 -6.2188 -1.33949 109 99 104
36.1322 -6.32452 -1.33706 112 102 108
27.6448 -7.22928 -1.00133 103 101 107
31.9741 -12.2815 -1.09403 78 67 47
31.82 -12.398 -1.09022 73 61 63
39.8616 -5.92376 -1.48668 108 93 96
39.25 -6.0263 -1.46232 113 96 94
36.0223 -6.48369 -1.33376 109 98 103
35.9143 -6.58303 -1.3301 110 96 108
35.8334 -6.6868 -1.32759 108 96 106
35.7435 -6.84772 -1.3252 111 101 110
35.6718 -6.95235 -1.3231 108 98 106
35.5761 -7.052 -1.32002 108 99 104
35.5473 -7.22359 -1.32026 115 105 111
35.451 -7.32226 -1.31718 114 105 110
32.5237 -7.21598 -1.19774 118 112 124
32.4667 -7.31248 -1.1963 109 100 105
30.342 -7.19967 -1.1095 101 85 96
29.9047 -7.24956 -1.09237 67 64 83
29.7371 -7.31044 -1.08622 40 40 56
29.7149 -7.40593 -1.08626 98 90 88
29.7485 -7.51528 -1.0887 90 71 75
27.5783 -7.30664 -0.999469 103 93 103
27.6062 -7.45599 -1.00218 117 100 105
29.9721 -12.6921 -1.03014 83 73 44
29.9348 -12.789 -1.03026 86 67 53
28.9369 -12.5352 -0.992167 75 62 58
28.6251 -12.5112 -0.981081 93 74 61
28.6654 -12.637 -0.98433 88 70 54
28.6376 -12.7884 -0.98566 79 68 44
28.4905 -12.8329 -0.981292 76 66 36
27.1442 -12.3437 -0.927786 81 73 44
27.0013 -12.4359 -0.924333 79 69 42
26.9267 -12.5061 -0.922875 77 63 47
25.5244 -11.9686 -0.866746 90 73 59
22.9491 0.887337 -0.933831 78 65 72
22.7513 0.805752 -0.924147 89 67 75
22.7158 0.693792 -0.922278 82 73 90
22.7047 0.619711 -0.921641 78 75 86
22.6914 0.54565 -0.920909 74 70 84
22.6559 0.471227 -0.919117 75 71 86
22.6547 0.360896 -0.918979 61 58 79
22.6446 0.287241 -0.918439 61 62 83
22.6262 0.213575 -0.917513 56 61 81
22.6358 0.103496 -0.917953 49 60 82
35.3603 -7.4216 -1.31434 111 102 107
35.3552 -7.53849 -1.31514 114 104 104
35.2538 -7.69396 -1.31241 76 63 70
34.9213 -8.14977 -1.30314 75 58 56
26.6539 -12.5886 -0.91488 94 74 63
26.5501 -12.6958 -0.913068 86 67 53
26.5345 -12.7921 -0.914074 86 66 55
22.6308 0.0300548 -0.917701 51 59 78
22.6356 -0.0433563 -0.917931 48 52 79
22.64 -0.15351 -0.918178 49 53 80
22.6362 -0.226918 -0.918023 44 51 77
22.6502 -0.300496 -0.918734 46 53 72
22.6679 -0.374229 -0.919637 48 54 76
22.6826 -0.484815 -0.920462 47 54 73
22.6798 -0.55832 -0.920403 49 54 76
22.7166 -0.632838 -0.92227 54 59 78
34.553 -8.88354 -1.29557 73 61 72
29.3986 11.2569 -1.34012 92 91 111
29.4089 11.0985 -1.33799 94 100 114
22.7501 -0.744412 -0.924058 51 50 64
22.9238 -0.824104 -0.932572 112 111 127
34.3117 -9.34956 -1.29084 95 87 101
30.7823 13.6242 -1.44385 86 94 115
30.8513 13.5359 -1.44525 87 94 113
30.9264 13.3911 -1.44591 89 93 113
31.0132 13.3099 -1.44827 88 92 116
31.0851 13.2221 -1.44986 87 94 113
31.1458 13.0708 -1.44984 90 92 115
31.1653 12.9613 -1.44875 89 92 109
31.1899 12.8541 -1.44794 91 93 113
31.2216 12.7498 -1.44752 89 93 112
31.2523 12.587 -1.44607 99 98 113
31.3965 12.5268 -1.45149 98 95 111
31.442 12.4277 -1.45184 99 96 112
31.4748 12.2656 -1.45058 96 95 112
31.4094 12.1246 -1.44527 92 93 111
31.9931 11.8171 -1.46662 26 27 45
32.1641 11.7617 -1.47349 28 26 47
32.2913 11.6314 -1.47722 91 92 113
32.4169 11.5583 -1.48179 96 98 119
32.4783 11.4623 -1.48309 91 96 116
32.4722 11.2848 -1.48011 90 94 113
32.3305 11.1203 -1.47115 91 95 114
32.2733 10.9852 -1.4665 86 90 107
32.3141 10.8255 -1.46601 89 94 114
32.3543 10.7233 -1.46636 86 93 111
32.3354 10.602 -1.46373 81 84 103
32.2868 10.4144 -1.45882 96 98 114
32.341 10.317 -1.45994 92 95 110
32.4274 10.2293 -1.46268 92 95 110
32.5268 10.1452 -1.4661 90 95 114
32.6628 10.0145 -1.4706 101 102 120
33.039 10.0115 -1.48793 102 105 124
33.4844 10.0265 -1.50873 65 68 87
33.9803 9.99418 -1.53127 55 60 79
33.9419 -9.95183 -1.28287 97 87 97
33.8405 -10.0398 -1.27986 96 89 98
33.7293 -10.1244 -1.27643 95 86 95
33.6561 -10.2198 -1.27466 95 85 96
33.5951 -10.3773 -1.27416 99 90 99
30.6456 13.8599 -1.44228 87 93 112
30.7368 13.7226 -1.4437 88 96 114
34.4304 10.0041 -1.55226 63 72 89
34.9097 10.0194 -1.57469 59 61 84
34.9284 9.84298 -1.57334 61 66 85
35.058 9.75747 -1.5783 55 53 71
35.6726 9.80222 -1.60745 56 89 61
35.5845 9.65575 -1.60156 57 60 75
35.6612 9.49225 -1.60319 71 76 96
35.6668 9.06613 -1.59851 64 68 88
35.6707 8.94532 -1.59732 74 76 99
35.647 8.818 -1.59479 75 77 98
35.652 8.63739 -1.59306 78 79 100
35.6292 8.511 -1.59063 78 80 103
35.5924 8.38166 -1.58752 75 80 100
35.5953 8.20173 -1.58579 76 81 100
35.5613 8.07391 -1.58287 77 79 100
35.5288 7.9468 -1.58005 77 79 100
35.5095 7.82295 -1.57791 77 79 102
35.4706 7.6357 -1.57425 77 79 100
35.4697 7.51644 -1.57306 77 79 100
35.4451 7.39246 -1.57072 76 81 101
35.447 7.21497 -1.56918 77 82 101
35.4115 7.08954 -1.56636 76 82 100
35.4266 6.97426 -1.56604 78 80 101
35.3971 6.79166 -1.56305 76 81 101
35.3837 6.67141 -1.56139 74 83 100
35.3699 6.55131 -1.55972 73 81 102
35.3243 6.42573 -1.55651 78 78 104
35.3313 6.25139 -1.55545 77 78 101
35.3123 6.13118 -1.55359 76 81 101
35.3046 6.01314 -1.5523 75 82 100
35.2821 5.83464 -1.54989 76 81 100
35.2833 5.71848 -1.54909 77 79 101
35.2959 5.60423 -1.54886 75 78 100
35.3365 5.43623 -1.54962 75 80 101
35.3285 5.31893 -1.54844 72 78 98
35.2945 5.19801 -1.546 72 78 99
33.5155 -10.4702 -1.27214 97 86 100
33.4776 -10.5757 -1.27194 99 89 100
33.3731 -10.719 -1.26962 97 87 96
33.3439 -10.8271 -1.26983 94 83 97
33.2537 -10.9154 -1.26739 98 87 97
33.2066 -11.0763 -1.26763 96 85 92
35.3015 5.08325 -1.54558 73 78 100
35.2982 4.90936 -1.54432 73 81 100
35.2707 4.79017 -1.54227 73 81 102
35.2547 4.67277 -1.54079 74 81 100
35.2613 4.50089 -1.54011 77 79 102
35.2364 4.38279 -1.53825 78 75 102
35.2449 4.26892 -1.53802 74 79 101
35.2435 4.09663 -1.53705 75 80 99
35.2174 3.97902 -1.53519 77 78 100
35.2781 3.87108 -1.53755 76 78 99
35.2968 3.75841 -1.5379 75 77 100
35.3288 3.58978 -1.53866 67 74 93
35.1417 2.54749 -1.52563 105 107 123
33.1175 -11.1644 -1.26528 98 88 99
33.0112 -11.2463 -1.26218 97 87 94
32.9615 -11.3469 -1.26157 101 91 98
32.8255 -11.4766 -1.258 105 94 94
32.7939 -11.583 -1.25821 102 89 90
32.7206 -11.6747 -1.2566 105 92 90
35.1243 2.26294 -1.52395 129 122 130
35.0982 1.75243 -1.52143 140 132 137
35.0945 1.46993 -1.52071 119 116 133
32.5985 -11.8077 -1.2537 100 85 84
32.2991 -11.8175 -1.24215 115 102 95
31.94 -11.8037 -1.22796 114 101 95
31.5647 -11.839 -1.21388 111 97 92
31.2233 -11.8266 -1.20043 119 102 93
30.8711 -11.8079 -1.18648 144 121 105
30.538 -11.7943 -1.17336 132 117 109
30.2091 -11.8356 -1.16126 70 61 72
29.8861 -11.8212 -1.14855 62 56 70
29.6527 -11.8397 -1.13981 62 56 58
29.2375 -12.4389 -1.13323 79 70 56
29.109 -12.4947 -1.12921 72 67 39
28.7937 -12.525 -1.11768 74 68 46
28.6267 -12.562 -1.11192 85 76 55
28.3408 -12.5465 -1.10078 84 74 47
27.8163 -12.4778 -1.07971 83 71 47
27.8162 -12.5841 -1.08149 83 69 53
27.2672 -12.4451 -1.05834 78 61 43
27.0183 -12.4898 -1.04969 85 80 55
26.7274 -12.4612 -1.03822 80 70 47
26.6799 -12.5429 -1.03784 88 78 45
26.4964 -12.5613 -1.03124 80 74 43
25.3431 -12.174 -0.981091 80 73 51
22.8689 0.867251 -1.04588 104 88 88
22.7091 0.676975 -1.03706 62 53 72
22.6681 0.602154 -1.03477 44 42 56
22.6467 0.528043 -1.03354 47 45 59
22.6211 0.453992 -1.03209 42 44 57
22.6139 0.343687 -1.03161 42 43 63
22.6097 0.270206 -1.03133 43 41 63
22.5693 0.196495 -1.02914 40 43 62
22.5748 0.0865699 -1.02941 39 44 64
22.6017 0.0132694 -1.03083 39 44 64
22.6104 -0.0601293 -1.03129 38 45 63
22.5808 -0.169984 -1.02975 39 42 61
22.591 -0.243395 -1.03032 40 43 62
22.5889 -0.316702 -1.03025 36 36 62
22.6265 -0.390691 -1.0323 36 37 58
34.9816 -4.33562 -1.52759 77 76 94
34.9419 -4.50134 -1.52671 78 75 92
34.8909 -4.60852 -1.52494 80 78 92
34.8652 -4.71881 -1.52441 80 77 94
34.8471 -4.83005 -1.52427 79 74 94
34.7893 -4.99262 -1.52262 79 77 93
15.5925 -6.67293 -0.640189 81 75 54
22.6771 -0.502014 -1.03512 51 55 75
22.7121 -0.57652 -1.03706 49 54 76
22.7289 -0.650728 -1.03806 51 57 73
22.7663 -0.762699 -1.04023 57 51 65
22.964 -0.843863 -1.05088 94 100 114
34.7506 -5.10075 -1.52152 83 79 97
34.7353 -5.21214 -1.52157 77 73 88
34.7014 -5.37765 -1.52117 111 110 123
34.7246 -5.49498 -1.52316 87 80 93
34.5819 -5.5864 -1.51704 86 78 91
34.5955 -5.75906 -1.51905 90 80 86
34.5348 -5.86277 -1.51698 115 104 104
34.405 -5.95452 -1.51153 113 96 95
33.7562 -5.95613 -1.48062 112 94 89
32.9962 -5.98873 -1.44472 112 94 90
32.3324 -5.97811 -1.41303 114 98 98
31.773 -5.98246 -1.38645 103 92 98
31.6924 -6.12545 -1.38392 103 92 101
31.6229 -6.21742 -1.38146 101 89 99
31.5924 -6.31664 -1.38093 99 88 94
23.5306 -6.58553 -1.0038 107 96 97
23.3791 -6.66601 -0.997772 95 85 96
28.5366 12.2297 -1.47425 97 96 110
28.5885 12.1428 -1.47504 91 90 111
28.6665 12.0123 -1.47628 85 91 111
28.6919 11.9144 -1.47559 93 98 117
28.7262 11.8201 -1.47543 96 98 113
28.7769 11.7324 -1.47623 96 99 115
28.8865 11.6138 -1.47937 96 102 115
28.8808 11.5039 -1.47699 92 100 113
28.9213 11.412 -1.47725 92 93 113
28.9904 11.2774 -1.47818 88 93 113
29.0208 11.1816 -1.47791 89 90 110
29.0621 11.0899 -1.47828 92 93 111
29.1373 10.9572 -1.47963 87 94 110
29.1573 10.8576 -1.47883 94 99 118
29.192 10.7634 -1.47889 90 96 114
29.2246 10.6684 -1.47884 88 95 114
29.2978 10.5346 -1.48018 86 92 113
29.3372 10.4419 -1.48055 88 94 113
29.4121 10.3614 -1.48293 86 93 111
29.4841 10.2265 -1.48428 83 90 108
29.53 10.1356 -1.48507 84 91 108
29.6042 10.054 -1.48745 87 94 111
29.9081 9.99376 -1.5018 98 105 124
30.3105 10.0162 -1.52247 70 77 96
30.6544 10.0174 -1.53986 52 57 77
31.0862 10.0441 -1.56212 60 67 86
31.4808 10.0009 -1.58144 65 73 92
32.5081 8.39575 -1.61129 78 80 101
32.519 8.23152 -1.60978 76 80 100
32.4854 8.11221 -1.60656 72 79 98
32.4707 7.99784 -1.6044 76 81 100
32.4602 7.82958 -1.60184 79 78 104
32.4505 7.71693 -1.59999 77 79 99
32.4325 7.60268 -1.59772 77 79 101
32.4337 7.493 -1.59651 79 80 101
32.444 7.33075 -1.59521 78 79 100
32.4033 7.21235 -1.59178 79 81 100
32.3993 7.1022 -1.59036 77 82 102
32.4194 6.94284 -1.5897 79 79 100
32.395 6.82882 -1.58722 78 82 101
32.374 6.71585 -1.58495 78 82 103
32.3649 6.55138 -1.58281 78 82 101
32.3391 6.43808 -1.58032 80 80 102
32.3462 6.33133 -1.57964 77 80 101
31.5495 -6.46599 -1.38033 105 96 101
31.5045 -6.5621 -1.37912 106 96 103
31.4338 -6.65274 -1.37666 104 97 100
31.3609 -6.74258 -1.3741 101 96 98
31.3297 -6.89356 -1.37417 109 99 108
31.2289 -6.97671 -1.37027 108 100 99
17.5806 -7.15736 -0.73838 122 115 113
17.5179 -7.23132 -0.736872 130 115 106
17.5034 -7.29126 -0.737282 119 104 110
28.1839 12.7312 -1.46739 97 99 111
28.2754 12.6079 -1.46926 98 96 110
28.3651 12.5376 -1.47217 101 99 113
28.3868 12.4381 -1.47116 101 99 113
28.477 12.3134 -1.47303 92 94 108
31.925 10.0254 -1.60434 60 68 87
32.2836 10.0212 -1.62248 62 68 90
32.5224 9.92196 -1.63314 50 57 75
32.4056 9.66006 -1.62332 74 73 94
32.5167 9.52206 -1.627 88 89 109
32.5933 9.43032 -1.62959 103 108 121
32.5562 9.30663 -1.62595 92 97 114
32.5273 9.12932 -1.62202 63 66 87
32.5527 9.02353 -1.62186 74 78 98
32.5528 8.91099 -1.62033 78 80 100
32.5447 8.79652 -1.61838 74 80 99
32.5498 8.6298 -1.61646 75 77 98
32.5447 8.51661 -1.61472 74 81 99
32.3529 6.17074 -1.57845 80 82 103
32.3278 6.05836 -1.57607 79 81 103
32.314 5.94829 -1.57433 79 81 102
32.3216 5.8422 -1.57375 79 80 101
32.3239 5.68173 -1.57246 77 79 102
32.3542 5.57965 -1.57315 76 78 103
32.3684 5.47484 -1.573 78 78 102
32.3985 5.31916 -1.57329 76 79 99
32.3567 5.20564 -1.57017 76 78 99
32.3579 5.09907 -1.56938 77 78 99
32.3528 4.93841 -1.56787 81 79 103
32.3294 4.82855 -1.56581 78 78 103
32.3077 4.71917 -1.56386 75 79 100
32.3053 4.6127 -1.56296 79 80 103
32.284 4.4509 -1.56071 77 81 101
32.2788 4.34441 -1.55971 75 82 101
32.2733 4.238 -1.5587 75 80 100
32.264 4.0785 -1.5572 75 80 98
32.2715 3.97396 -1.55694 75 79 99
32.2885 3.87057 -1.5572 77 80 99
32.3052 3.71445 -1.55718 74 80 101
32.3155 3.61028 -1.55713 77 79 99
32.2977 3.50314 -1.5556 71 68 93
32.3233 3.40063 -1.55639 75 73 95
31.1901 -7.07307 -1.36944 112 101 101
31.1418 -7.21971 -1.36874 115 104 98
31.0635 -7.30673 -1.36599 60 46 53
30.9189 -7.37794 -1.35996 63 56 66
29.9805 -7.31176 -1.31505 52 46 63
30.0048 -7.41928 -1.31741 94 87 96
29.9745 -7.51376 -1.31707 90 85 87
27.6903 -7.28614 -1.20716 95 91 93
27.5832 -7.35318 -1.20296 90 84 89
32.2825 2.50611 -1.55018 115 119 131
32.1201 2.28602 -1.54075 115 101 109
32.1543 1.82086 -1.5411 98 92 109
32.1693 1.66598 -1.5415 116 103 111
32.1254 1.56013 -1.53891 93 91 105
32.2664 1.46269 -1.54617 114 108 126
30.7085 -7.79761 -1.35486 105 86 88
30.5969 -7.92638 -1.35116 69 60 79
30.3196 -8.32335 -1.34307 81 85 103
30.0739 -8.72428 -1.3368 90 80 88
30.0377 -8.81808 -1.33636 84 74 84
29.9756 -8.95654 -1.33537 89 81 94
29.9348 -9.04882 -1.33474 93 86 100
29.8575 -9.13008 -1.33227 93 87 101
29.7387 -9.25065 -1.32847 92 86 99
29.6818 -9.33734 -1.32707 90 84 98
29.617 -9.42139 -1.32528 90 84 98
29.5314 -9.55077 -1.32322 91 87 102
29.4945 -9.64315 -1.32287 91 86 101
29.4422 -9.73049 -1.32176 93 88 102
29.3666 -9.8623 -1.32028 91 87 103
29.3117 -9.94842 -1.31906 89 82 98
29.2377 -10.028 -1.31688 89 83 97
29.1673 -10.1084 -1.3149 89 83 97
29.0863 -10.2372 -1.31322 90 84 98
29.038 -10.3247 -1.3124 93 87 101
29.0063 -10.4179 -1.31244 92 85 97
28.9146 -10.5421 -1.31028 95 87 98
28.8297 -10.6161 -1.30762 99 91 101
28.7671 -10.6978 -1.30611 94 86 99
28.6742 -10.8204 -1.30395 97 91 101
28.6092 -10.9006 -1.30235 93 85 98
32.0174 -4.49438 -1.54836 86 82 99
31.9671 -4.64438 -1.54684 80 78 93
31.9117 -4.74099 -1.54466 79 77 91
31.8955 -4.84319 -1.5446 81 77 94
31.8634 -4.99531 -1.54415 81 77 94
31.8247 -5.09392 -1.54292 83 79 94
31.8153 -5.19708 -1.54329 75 71 87
28.5402 -10.9792 -1.30055 96 93 104
28.4748 -11.0588 -1.29895 70 54 64
28.3823 -11.1801 -1.29689 65 58 72
28.3238 -11.2619 -1.29567 46 46 59
31.7795 -5.34837 -1.54273 100 94 108
31.7693 -5.45142 -1.5431 112 108 117
31.7057 -5.54533 -1.5406 82 74 88
31.689 -5.64714 -1.54065 90 79 96
31.6708 -5.80118 -1.54115 94 82 84
31.614 -5.89568 -1.53907 117 101 102
31.4609 -5.97196 -1.53179 110 92 88
30.8356 -6.00908 -1.49946 111 93 90
30.2241 -5.99263 -1.46731 110 96 96
29.6757 -5.98479 -1.43856 118 103 107
29.0967 -6.01603 -1.40866 106 94 104
28.9652 -6.08626 -1.40254 105 95 104
28.8999 -6.16961 -1.40003 106 97 102
28.8656 -6.25925 -1.39923 105 96 99
23.4408 -6.58742 -1.12229 98 88 97
15.5723 -6.58299 -0.723667 106 94 99
15.577 -6.6738 -0.725723 110 95 91
28.7607 -6.38196 -1.39515 101 94 101
28.6829 -6.46156 -1.39201 108 100 110
28.5854 -6.53636 -1.3878 122 115 123
28.5571 -6.67472 -1.38797 65 55 64
28.4611 -6.74896 -1.38387 78 69 77
28.4387 -6.84006 -1.38381 77 68 75
23.4161 -6.70262 -1.12267 99 87 101
27.6036 -11.8049 -1.27318 109 94 98
27.3339 -11.7953 -1.26094 112 97 92
27.0294 -11.8205 -1.24785 115 100 93
26.775 -11.8135 -1.23638 122 107 100
26.5081 -11.7994 -1.22423 113 98 92
26.2157 -11.8228 -1.21172 131 115 107
25.9879 -11.8222 -1.2016 137 122 113
25.7294 -11.8064 -1.18984 131 115 106
28.4167 -6.97959 -1.38441 71 61 68
28.4071 -7.07384 -1.38509 70 59 67
28.4127 -7.17192 -1.38662 87 74 83
28.418 -7.2701 -1.38815 84 72 75
28.2858 -7.38196 -1.38279 50 41 56
27.6163 -7.30529 -1.34722 70 57 74
27.625 -7.40226 -1.34896 88 82 90
17.6897 -7.21334 -0.841094 96 90 96
17.5472 -7.25591 -0.834853 97 86 91
17.5492 -7.32275 -0.836261 95 84 88
25.4472 -11.8276 -1.17781 105 91 81
25.2675 -11.844 -1.1702 66 59 48
25.2075 -11.9144 -1.16898 44 39 29
25.3753 -12.0904 -1.17994 72 74 60
28.4059 -7.7537 -1.394 90 87 101
28.4208 -7.85548 -1.39617 73 72 88
24.9435 -12.0363 -1.15988 60 62 47
27.6812 -8.08607 -1.36148 99 93 106
27.6546 -8.17457 -1.36142 95 88 96
27.5516 -8.28881 -1.35787 100 91 94
27.4919 -8.36718 -1.35599 110 97 97
27.4664 -8.45563 -1.35603 112 99 93
23.1157 0.944599 -1.24158 77 72 91
22.9205 0.862182 -1.22947 114 87 80
22.8873 0.749484 -1.22721 59 44 50
22.7948 0.672444 -1.22142 43 35 50
22.6876 0.485197 -1.21458 47 50 67
22.6898 0.338052 -1.21453 56 59 76
22.6641 0.227408 -1.21288 57 67 80
22.6655 0.153934 -1.21292 56 63 81
22.6587 0.0804203 -1.21247 52 60 79
22.6577 0.00696454 -1.21238 50 61 79
22.6702 -0.103247 -1.21316 47 60 79
22.6805 -0.176793 -1.21381 49 62 81
22.6787 -0.250285 -1.21372 53 64 82
27.3908 -8.57702 -1.35407 121 107 97
27.3399 -8.65746 -1.35273 112 102 96
27.2791 -8.73467 -1.35086 103 90 96
27.2005 -8.85416 -1.34879 98 88 99
27.1659 -8.93922 -1.34841 94 86 97
28.7847 6.72319 -1.63207 79 79 103
28.7695 6.62197 -1.62982 79 81 102
28.7559 6.52138 -1.62768 77 82 101
28.7597 6.37627 -1.62606 77 82 104
28.7531 6.27765 -1.62441 79 81 102
28.7442 6.17872 -1.62263 76 78 99
28.7503 6.03478 -1.62125 70 73 92
28.7405 5.93609 -1.61948 82 83 103
28.7481 5.84104 -1.6188 76 81 103
28.7514 5.74522 -1.61788 76 81 101
28.7827 5.60683 -1.61819 76 78 101
28.797 5.51325 -1.61799 74 78 101
28.8091 5.41928 -1.61768 73 80 98
28.8448 5.28161 -1.61835 76 78 101
22.6841 -0.360624 -1.21414 49 52 69
22.7433 -0.43518 -1.21782 30 31 51
22.7627 -0.619969 -1.21924 35 38 57
22.857 -0.696439 -1.22511 41 38 57
27.1309 -9.02414 -1.34802 99 91 106
27.1033 -9.11143 -1.34806 98 91 107
27.0496 -9.23838 -1.34748 96 90 104
27.0213 -9.3254 -1.34752 97 90 106
26.9191 -9.38719 -1.34341 99 93 107
25.7482 10.9148 -1.53203 92 98 117
25.7886 10.8337 -1.53244 97 95 119
25.8121 10.7456 -1.53176 97 97 118
25.889 10.6306 -1.53352 94 97 116
25.9378 10.5526 -1.53453 94 99 118
25.9863 10.4744 -1.53555 92 99 115
26.0509 10.3539 -1.53658 92 97 116
26.0821 10.2689 -1.53651 91 93 114
26.1596 10.2014 -1.53946 91 93 114
26.2061 10.0736 -1.5394 107 110 127
26.3261 10.0214 -1.54514 109 112 131
26.603 10.0262 -1.56106 69 72 91
26.9008 10.0369 -1.57832 49 56 79
27.2258 10.006 -1.59632 63 71 94
27.5581 10.0246 -1.61576 63 68 93
27.8719 10.0347 -1.63398 61 67 89
28.2055 9.99864 -1.65247 57 64 82
28.7048 9.80935 -1.67761 64 69 89
28.7135 9.70918 -1.67621 64 72 91
28.6689 9.59171 -1.67141 62 64 85
28.7393 9.51202 -1.674 89 91 112
28.767 9.26495 -1.67109 62 69 88
28.7624 9.16143 -1.66896 66 72 94
28.7869 9.01628 -1.66782 76 79 102
28.7853 8.91412 -1.66593 77 77 102
28.7814 8.8115 -1.66392 79 78 102
28.8099 8.66817 -1.66314 82 80 103
28.8033 8.56517 -1.66101 81 79 101
28.8001 8.4634 -1.65912 78 82 101
28.8024 8.36337 -1.65759 80 83 102
28.8076 8.21426 -1.65548 79 80 100
28.8071 8.11388 -1.65383 81 82 103
28.7909 8.00941 -1.65122 79 81 102
28.7886 7.85918 -1.64874 79 80 101
28.785 7.75866 -1.64697 79 82 101
28.781 7.65824 -1.6452 79 81 102
28.7885 7.51151 -1.64345 78 79 100
28.7625 7.40594 -1.64035 78 83 103
28.7709 7.30928 -1.63943 78 81 101
28.7577 7.20742 -1.63717 77 80 101
28.7668 7.06215 -1.63567 79 82 101
28.776 6.9661 -1.63487 80 80 102
28.7733 6.86736 -1.63334 81 78 105
28.8698 5.18996 -1.61889 76 76 100
28.8632 5.09278 -1.61748 75 75 101
28.8385 4.94485 -1.61452 74 81 99
28.8173 4.84568 -1.61226 75 80 102
28.8116 4.74923 -1.61097 74 80 102
28.8212 4.65537 -1.61066 76 81 101
28.8179 4.51199 -1.60915 78 78 102
28.8209 4.41727 -1.60847 77 79 100
28.8216 4.3223 -1.60766 75 80 99
28.7852 4.17469 -1.60421 74 81 100
28.7891 4.0805 -1.60365 76 78 99
28.7887 3.98578 -1.60285 76 77 98
28.8079 3.84652 -1.60292 74 80 99
28.8246 3.75412 -1.60321 72 79 98
28.835 3.66093 -1.60314 75 79 100
28.8531 3.56867 -1.60355 73 71 92
28.894 3.43187 -1.60508 75 70 93
28.9114 3.3394 -1.60549 71 73 94
28.8386 2.57934 -1.59651 92 90 112
28.7859 2.48114 -1.59279 121 119 136
28.7306 2.24327 -1.58829 120 107 101
26.8397 -9.50464 -1.34145 96 90 104
26.8162 -9.59297 -1.34181 91 86 100
26.7492 -9.66593 -1.33972 93 87 101
26.6592 -9.7788 -1.33723 95 89 102
25.3807 11.5426 -1.52634 90 98 117
25.4212 11.4619 -1.52663 89 97 118
25.4778 11.3883 -1.52801 90 98 115
25.5483 11.2715 -1.52916 91 98 114
25.5788 11.1863 -1.52884 92 97 116
25.6218 11.1066 -1.52937 91 98 117
25.6646 11.0266 -1.5299 91 96 118
28.5257 10.0064 -1.67106 53 60 79
28.6671 9.95141 -1.67814 52 60 81
28.7466 1.8253 -1.58753 117 111 122
28.7874 1.68814 -1.58954 109 98 107
28.8488 1.50512 -1.59267 116 112 130
28.7986 1.36292 -1.58921 70 68 88
26.5898 -9.85029 -1.33503 94 87 103
26.5484 -9.93172 -1.33443 92 88 101
26.5321 -10.0709 -1.3362 94 86 101
26.4807 -10.1486 -1.33506 92 86 100
26.401 -10.2154 -1.33233 106 94 108
26.3566 -10.2953 -1.33163 73 63 72
26.2641 -10.4052 -1.32913 59 56 73
26.1931 -10.4744 -1.32693 104 104 112
25.786 -11.0861 -1.31904 103 92 102
25.7171 -11.1542 -1.31705 104 95 103
25.6284 -11.2626 -1.31498 101 89 99
25.5334 -11.3188 -1.3115 103 92 100
25.4949 -11.3994 -1.31132 101 90 96
25.4364 -11.52 -1.31106 105 90 89
25.421 -11.6108 -1.31227 101 82 83
23.1282 0.929359 -1.33537 78 70 87
22.9283 0.847301 -1.32222 65 46 48
22.7623 0.656722 -1.31107 49 41 56
22.7431 0.582369 -1.30969 36 35 46
22.8223 0.473154 -1.31465 34 33 47
23.1518 0.216678 -1.33572 33 35 47
22.9496 0.140636 -1.32257 34 33 47
25.3507 -11.677 -1.31028 97 83 88
25.2799 -11.7919 -1.30938 119 107 101
25.1222 -11.8174 -1.30228 107 92 87
24.9193 -11.821 -1.29252 107 93 87
24.695 -11.8133 -1.28148 123 105 97
26.977 7.90733 -1.65479 82 80 101
26.9813 7.81418 -1.65342 84 86 106
27.0052 7.67961 -1.65258 85 81 104
26.9857 7.58027 -1.64966 85 82 103
26.987 7.48683 -1.64816 83 82 100
26.9957 7.34881 -1.64642 84 83 101
26.9925 7.25452 -1.64467 85 83 104
27.0043 7.1643 -1.64394 85 82 103
27.0173 7.02798 -1.64259 84 82 103
27.009 6.93296 -1.64057 85 83 104
27.0121 6.8409 -1.63932 88 85 105
27.0206 6.75033 -1.63847 85 82 102
27.0238 6.6124 -1.6366 86 85 103
27.0102 6.5169 -1.63432 87 87 102
27.0217 6.42738 -1.63373 85 82 103
27.0096 6.2867 -1.63095 85 83 104
26.9988 6.1925 -1.62894 86 85 102
26.9643 6.09332 -1.62537 76 73 92
27.0072 5.96552 -1.62634 125 121 136
27.034 5.78849 -1.62566 76 75 93
27.0392 5.69834 -1.6248 87 84 105
27.0547 5.56494 -1.62409 84 82 101
27.0807 5.47905 -1.62465 83 81 99
27.081 5.38817 -1.62354 84 83 101
27.0833 5.2525 -1.62206 81 79 100
27.1044 5.16571 -1.62236 79 80 100
27.0859 5.07176 -1.62008 81 82 100
27.0769 4.9346 -1.61795 87 86 104
27.0931 4.84714 -1.618 83 82 103
27.0854 4.75561 -1.6165 83 81 103
27.0885 4.62111 -1.61527 81 79 101
27.0742 4.52882 -1.61338 83 81 103
27.0753 4.43919 -1.61252 82 80 101
27.0899 4.35173 -1.61257 83 81 102
27.0931 4.2178 -1.61147 83 80 101
27.0991 4.12914 -1.611 82 80 101
27.091 4.03849 -1.60963 80 78 99
27.1244 3.90914 -1.6106 79 80 100
27.1176 3.81885 -1.60935 80 81 101
27.1164 3.72945 -1.60849 78 79 100
27.1483 3.59985 -1.60946 76 76 97
27.1563 3.51169 -1.60925 74 74 92
27.1918 3.42689 -1.61084 74 73 91
27.2032 3.3391 -1.61089 75 72 91
27.2155 3.20688 -1.6107 74 75 98
27.0893 2.57334 -1.59835 89 89 104
27.114 2.48728 -1.59943 120 119 135
23.5968 0.411414 -1.3647 34 33 47
23.513 0.333873 -1.35918 35 34 50
23.0106 0.0663343 -1.32648 34 33 51
22.9816 -0.00822049 -1.32458 36 35 51
22.9981 -0.120073 -1.32567 36 34 47
23.208 -0.196558 -1.33928 34 31 48
23.4935 -0.275296 -1.3578 35 34 50
23.6205 -0.391628 -1.36613 35 32 51
22.7931 -0.636184 -1.31286 32 30 45
22.8417 -0.711624 -1.31613 33 34 52
22.924 -0.788536 -1.3216 32 31 47
28.552 -4.47498 -1.59298 69 66 83
28.5229 -4.56437 -1.59205 81 77 94
28.4941 -4.70071 -1.59163 71 68 87
28.429 -4.784 -1.58851 74 71 88
24.3904 10.2366 -1.54562 94 97 117
24.4139 10.1537 -1.54502 89 92 111
24.4827 10.0429 -1.5465 100 104 123
24.6431 10.0137 -1.55544 99 107 126
24.9134 10.0263 -1.57197 68 73 93
25.2034 9.99796 -1.58879 51 56 77
25.4725 10.0062 -1.6052 62 69 89
26.822 9.63213 -1.67882 60 72 91
26.8698 9.50261 -1.67902 75 77 100
26.9286 9.42531 -1.681 124 129 148
26.9097 9.3217 -1.67769 104 109 131
26.9408 9.18675 -1.67686 62 64 85
26.921 9.08352 -1.67355 71 78 98
26.9521 8.99707 -1.67373 75 81 103
26.9411 8.89715 -1.67107 76 76 100
26.9645 8.76046 -1.66985 78 80 101
26.9679 8.66556 -1.66822 79 80 100
26.9633 8.56837 -1.66607 77 79 100
26.9927 8.43411 -1.66537 80 81 101
26.9874 8.33712 -1.66322 82 80 101
26.9779 8.23912 -1.66082 79 81 102
26.9788 8.09709 -1.65831 80 82 101
26.9896 8.00547 -1.65732 80 81 100
27.1088 2.31038 -1.5981 122 110 118
27.1162 2.17879 -1.5979 111 104 113
27.1036 1.78194 -1.59526 132 121 125
27.1019 1.69398 -1.59479 119 104 110
27.1678 1.47794 -1.59825 116 114 128
27.1492 1.38909 -1.59675 77 73 90
27.2147 1.17221 -1.60035 72 69 88
28.4206 -4.87642 -1.58891 80 74 88
28.3845 -5.01116 -1.58812 78 74 89
28.393 -5.10657 -1.58963 83 76 94
28.3483 -5.19264 -1.58784 84 80 97
28.3597 -5.33584 -1.5901 72 68 82
28.3163 -5.42193 -1.58843 114 109 121
28.2766 -5.50854 -1.58702 107 100 114
23.9018 10.8642 -1.53236 93 91 113
23.9677 10.8 -1.53459 93 94 116
24.0042 10.723 -1.53476 96 102 118
24.0442 10.6013 -1.53405 95 97 122
24.0892 10.5279 -1.53487 95 96 116
24.1506 10.4612 -1.53684 92 100 118
24.2339 10.4034 -1.54036 91 98 117
24.3167 10.299 -1.54274 92 95 114
25.7717 10.0241 -1.62368 62 73 89
26.062 10.0368 -1.64151 63 72 87
26.3664 10.0044 -1.65923 59 67 90
26.6574 10.0132 -1.67706 56 69 88
26.7965 9.96545 -1.68446 49 60 82
26.8289 9.83004 -1.68349 66 68 93
26.8548 9.74127 -1.68315 70 78 98
28.217 -5.59117 -1.58438 85 76 93
28.2166 -5.73229 -1.58602 90 83 99
28.2111 -5.82538 -1.5868 87 78 85
28.1623 -5.90971 -1.58489 93 80 81
27.9052 -5.99739 -1.57058 129 107 94
27.3983 -5.9832 -1.54007 125 103 92
26.921 -5.97217 -1.51137 114 95 91
26.4502 -6.0042 -1.48367 105 92 99
26.0086 -5.99441 -1.45717 108 98 107
25.7808 -6.03048 -1.44406 101 95 105
25.718 -6.10321 -1.44129 97 91 105
25.6492 -6.21785 -1.43879 100 94 105
25.5898 -6.29074 -1.43627 102 99 108
25.5243 -6.3619 -1.43339 101 95 107
25.4602 -6.47659 -1.43125 97 93 108
25.3827 -6.54407 -1.42763 101 98 109
25.3166 -6.61406 -1.42475 98 97 103
25.29 -6.73736 -1.42504 100 97 106
23.5092 -6.51875 -1.31627 73 75 88
23.433 -6.61985 -1.31339 100 94 104
23.4168 -6.69652 -1.31367 104 96 109
15.5587 -6.60731 -0.855516 93 87 101
27.1457 -2.03061 -1.59894 116 113 124
25.2541 -6.81477 -1.4241 111 101 107
25.2066 -6.88895 -1.42244 85 84 97
15.5517 -6.66332 -0.856389 96 90 102
25.0624 -7.24027 -1.41955 102 96 108
25.0117 -7.3564 -1.41851 97 95 108
24.9568 -7.42753 -1.41647 101 95 107
24.9037 -7.49895 -1.41456 99 93 106
24.8213 -7.60502 -1.41157 98 95 104
17.6778 -7.14006 -0.988148 81 69 82
17.6263 -7.2188 -0.986966 95 93 104
24.7887 -7.68208 -1.41099 97 94 105
24.7463 -7.75611 -1.40981 100 94 106
24.717 -7.83405 -1.40948 98 92 106
24.6675 -7.94926 -1.40867 97 94 106
24.6224 -8.02208 -1.40737 97 91 104
17.5471 -7.25316 -0.98321 94 90 103
17.5769 -7.33094 -0.986645 96 90 104
26.8866 -4.24904 -1.59831 70 68 82
26.8641 -4.33407 -1.5977 71 67 85
24.5582 -8.08861 -1.40484 98 92 105
24.5075 -8.2029 -1.40404 96 93 104
24.4504 -8.27125 -1.40201 96 91 101
24.4138 -8.34622 -1.40131 98 89 94
26.8658 -4.46738 -1.59919 72 68 83
26.8131 -4.54736 -1.59664 84 80 97
26.7838 -4.63104 -1.59564 81 79 93
26.7586 -4.75973 -1.59545 82 77 92
26.7227 -4.84207 -1.59406 74 70 85
26.7101 -4.92848 -1.59423 80 77 96
24.4073 -8.47497 -1.40343 101 92 96
24.3362 -8.53812 -1.40054 112 103 103
24.2462 -8.59441 -1.39643 110 100 98
24.1842 -8.66005 -1.39415 110 103 98
26.662 -5.00836 -1.59207 83 82 96
26.6742 -5.1438 -1.59446 82 78 95
26.6255 -5.22329 -1.5923 80 77 93
26.6215 -5.31133 -1.59311 73 68 83
26.5872 -5.43793 -1.59253 113 112 120
26.5611 -5.52155 -1.59192 91 85 97
24.1497 -8.77884 -1.39456 104 95 93
24.1117 -8.85259 -1.39386 99 91 97
24.0884 -8.9316 -1.39414 92 85 96
24.0246 -9.03971 -1.39273 95 91 106
23.9765 -9.10948 -1.39142 95 91 107
26.5131 -5.60061 -1.58989 78 74 89
26.5283 -5.73732 -1.59266 89 81 95
26.4642 -5.81267 -1.5896 77 65 76
26.4349 -5.89532 -1.58886 98 88 96
26.3336 -6.00644 -1.584 98 89 92
25.9339 -6.0048 -1.55866 100 91 96
25.5092 -5.9949 -1.53163 98 87 91
25.0809 -5.98147 -1.50435 100 90 91
24.6592 -6.00887 -1.47812 103 95 106
24.284 -6.0022 -1.45433 103 95 108
24.198 -6.06393 -1.44983 100 94 106
23.9244 -9.17763 -1.38987 94 90 104
23.8409 -9.27765 -1.38724 69 56 65
23.7902 -9.34589 -1.3858 70 60 69
23.7375 -9.41319 -1.38425 63 57 71
24.1351 -6.1723 -1.44755 98 95 106
24.0836 -6.24184 -1.44539 100 97 105
24.0473 -6.31508 -1.44425 97 93 108
24.0046 -6.42789 -1.4434 80 73 81
23.96 -6.49869 -1.44175 93 86 100
23.9249 -6.57185 -1.44075 95 88 105
23.6026 -6.56692 -1.42045 85 83 96
23.4548 -6.64869 -1.4126 103 102 114
23.4424 -6.72655 -1.41315 91 88 96
23.6793 -6.87512 -1.43054 107 104 113
23.6436 -6.98858 -1.43033 107 100 116
23.5764 -7.05144 -1.42726 97 91 107
23.555 -7.12751 -1.42729 95 89 104
23.4914 -7.23229 -1.42527 95 92 106
23.4503 -7.30228 -1.42401 93 91 110
15.556 -6.6168 -0.925003 91 89 102
15.523 -6.66226 -0.924116 91 89 103
23.3028 -10.0722 -1.37456 91 87 104
23.2756 -10.1488 -1.37483 93 90 104
23.2134 -10.2105 -1.37279 90 88 101
23.1511 -10.2718 -1.37075 92 91 100
23.4109 -7.37266 -1.42287 97 94 105
23.3561 -7.43813 -1.4207 99 95 110
23.3102 -7.54753 -1.41998 97 95 109
23.2473 -7.60999 -1.41729 97 93 107
23.1975 -7.67641 -1.41551 94 91 105
17.6893 -7.15906 -1.06682 80 68 80
17.582 -7.21582 -1.06167 91 89 103
23.0979 -10.3812 -1.37043 92 86 98
23.0589 -10.4524 -1.36997 96 90 102
23.0013 -10.5153 -1.36829 102 91 103
24.3472 6.92449 -1.67104 82 83 104
24.3677 6.84499 -1.67094 82 81 102
24.3533 6.75609 -1.66825 84 80 103
24.3702 6.63353 -1.66715 84 82 103
24.384 6.55249 -1.66662 81 82 102
24.3686 6.46396 -1.66393 80 80 102
24.3918 6.34343 -1.66341 82 80 104
24.3776 6.25566 -1.66086 83 81 103
24.3786 6.17185 -1.65946 82 80 102
24.3908 6.09092 -1.65893 80 78 99
24.389 5.9649 -1.65669 116 115 133
24.4081 5.80222 -1.65533 75 76 97
24.4224 5.68041 -1.65438 83 81 103
24.4428 5.60169 -1.65457 86 84 105
24.4533 5.52075 -1.65404 82 79 101
24.4837 5.40268 -1.65438 81 79 100
24.5052 5.32416 -1.65472 83 80 101
24.5342 5.24718 -1.65562 83 80 101
24.5631 5.17009 -1.65653 83 81 102
24.5606 5.04519 -1.65457 84 82 103
24.5458 4.95944 -1.65231 83 80 101
24.5406 4.87574 -1.65077 84 81 102
24.5327 4.75051 -1.64852 85 82 103
24.5189 4.66557 -1.6464 83 81 102
24.5185 4.58327 -1.64529 85 80 102
24.5191 4.46027 -1.64377 86 83 103
24.5004 4.375 -1.64136 85 82 101
24.5109 4.29496 -1.64111 85 82 101
24.5289 4.21621 -1.64144 85 82 101
24.5277 4.09348 -1.63992 86 83 102
24.5491 4.01527 -1.64054 85 82 99
24.5368 3.93175 -1.6387 84 81 100
24.5755 3.81552 -1.64021 82 79 100
24.5822 3.73502 -1.63981 84 81 100
24.6064 3.65713 -1.64072 80 78 97
24.6182 3.53675 -1.64035 78 74 97
24.6418 3.45866 -1.64126 81 78 99
24.6632 3.38018 -1.64202 81 78 97
24.6777 3.26013 -1.64193 79 77 98
24.657 3.17622 -1.63967 82 80 101
24.6419 3.09323 -1.63784 89 87 108
24.6306 3.01083 -1.63629 81 78 102
24.6413 2.89074 -1.63606 83 81 103
24.6174 2.8072 -1.63365 84 82 106
24.6091 2.72557 -1.6324 82 83 104
24.5531 2.59882 -1.62741 89 85 99
24.663 2.52951 -1.63481 124 118 131
24.5369 2.31624 -1.62424 128 116 123
24.5489 2.23717 -1.62457 129 111 114
24.5937 1.80024 -1.62522 123 111 121
24.5749 1.67894 -1.62326 127 111 119
24.67 1.52496 -1.6294 128 119 137
23.1464 0.904975 -1.51689 103 87 98
23.0943 0.827952 -1.51289 38 34 51
23.2022 0.718899 -1.52044 38 34 47
23.1354 -7.77994 -1.41374 95 91 105
23.0776 -7.84329 -1.41144 97 93 107
23.0158 -7.90507 -1.40888 100 94 106
22.9602 -8.01001 -1.40764 99 93 107
17.5323 -7.26185 -1.05975 93 91 105
17.5528 -7.33607 -1.06276 92 90 106
22.9362 -10.619 -1.36724 104 93 101
22.8928 -10.6879 -1.36654 111 99 105
22.8183 -10.7426 -1.36376 115 101 105
22.745 -10.8419 -1.36222 126 112 112
24.2729 8.1953 -1.69244 76 81 102
24.2709 8.10731 -1.69032 78 78 104
24.2951 8.02796 -1.69022 76 83 101
24.2935 7.89707 -1.68726 77 82 102
24.3113 7.81587 -1.68672 81 79 103
24.2928 7.72346 -1.68346 79 80 100
24.3277 7.60465 -1.68337 79 81 101
24.3179 7.51541 -1.68082 80 80 102
24.3364 7.4348 -1.68044 81 79 101
24.3279 7.30352 -1.67719 81 79 102
24.3362 7.22019 -1.67608 82 80 102
24.3327 7.1336 -1.6741 82 83 104
24.3443 7.05144 -1.67328 81 81 104
24.6161 1.40173 -1.62499 98 89 104
24.6697 1.24458 -1.62824 83 79 101
24.7022 1.16606 -1.6303 79 73 90
24.7201 1.04666 -1.63123 77 69 85
24.7683 0.607407 -1.63361 65 50 55
24.7677 0.487143 -1.63338 51 41 50
24.758 0.406824 -1.63255 44 36 47
24.7679 0.326853 -1.63317 46 37 52
24.7318 0.246335 -1.63047 46 37 54
23.3002 -0.674896 -1.52719 36 33 50
23.1137 -0.744771 -1.51381 34 31 50
22.9226 -8.07956 -1.40676 98 93 107
22.8847 -8.14894 -1.40589 97 94 105
22.8618 -8.22344 -1.40605 98 93 105
22.7954 -8.32402 -1.40415 101 96 103
22.6991 -10.9092 -1.3614 115 102 101
24.1811 9.17911 -1.70951 72 71 95
24.1806 9.08969 -1.70725 77 77 103
24.2041 9.00916 -1.70686 73 79 101
24.232 8.88592 -1.70577 73 77 102
24.2249 8.79468 -1.70308 72 78 102
24.255 8.71672 -1.70327 74 81 100
24.2589 8.58566 -1.70045 74 81 99
24.2884 8.50756 -1.70064 77 83 100
24.2667 8.4122 -1.69694 76 81 99
24.2673 8.32464 -1.69496 79 79 102
24.7355 0.126352 -1.63067 45 37 48
24.7286 0.0463255 -1.63014 43 37 51
24.7354 -0.0336554 -1.63061 43 36 52
24.7338 -0.153644 -1.63052 43 35 50
24.7301 -0.233601 -1.63027 42 36 46
24.732 -0.313597 -1.63046 44 38 50
24.739 -0.433689 -1.63109 42 35 51
24.7443 -0.513798 -1.63157 39 35 49
24.7574 -0.594116 -1.63262 38 36 50
23.118 -0.819835 -1.51428 23 22 36
22.7681 -8.3969 -1.40405 102 95 102
22.7406 -8.46968 -1.40395 113 103 108
22.6301 -8.55349 -1.39908 114 103 98
22.5778 -8.61677 -1.39729 115 104 99
22.214 10.0113 -1.59999 59 66 85
22.4472 10.026 -1.61585 55 61 82
22.6697 10.0347 -1.63085 62 71 87
22.9265 10.0126 -1.64731 59 67 85
23.1624 10.0236 -1.66332 60 65 85
23.3986 10.0333 -1.67933 59 68 83
23.6545 10.0047 -1.69564 56 63 82
23.8987 10.0142 -1.71223 52 63 84
24.0028 9.9656 -1.71788 52 59 78
24.0391 9.84422 -1.71708 67 73 95
24.0651 9.76397 -1.71669 73 79 101
24.0927 9.68438 -1.71645 58 63 84
24.1295 9.56341 -1.71579 103 102 123
24.1285 9.473 -1.71339 122 129 150
24.1517 9.30228 -1.7106 63 66 91
24.8214 -1.07738 -1.63833 83 86 105
22.5477 -8.68822 -1.39707 128 110 107
22.5092 -8.79803 -1.39724 75 62 67
22.4525 -8.8592 -1.3952 62 54 67
22.3956 -8.9201 -1.39316 57 54 73
24.7066 -1.99391 -1.63387 101 100 111
24.709 -2.07438 -1.63449 100 98 112
22.0029 -9.55089 -1.38476 111 100 108
21.9442 -9.60936 -1.38271 112 102 110
21.9038 -9.67545 -1.38196 108 98 108
21.8595 -9.73978 -1.38096 112 101 111
21.7959 -9.83753 -1.3797 122 108 114
21.7566 -9.90382 -1.37908 120 106 110
21.7135 -9.96833 -1.37821 115 102 109
24.3535 -4.2423 -1.62802 74 72 83
24.3557 -4.36397 -1.62966 71 68 85
24.3506 -4.44399 -1.63028 68 67 82
24.3119 -4.51802 -1.62843 61 59 77
24.2945 -4.59579 -1.62818 73 72 88
21.6326 -10.0578 -1.37579 116 101 106
21.609 -10.1309 -1.37633 115 99 102
21.567 -10.1956 -1.37558 110 94 97
24.2245 -4.70422 -1.62463 59 56 75
24.2027 -4.78093 -1.62408 79 76 93
24.1747 -4.8564 -1.62311 68 65 84
24.1231 -4.9676 -1.621 75 74 90
24.118 -5.04746 -1.62175 77 76 92
24.0951 -5.1237 -1.62121 78 75 94
21.5124 -10.2966 -1.37511 116 100 103
22.665 6.15508 -1.66328 82 81 102
22.6888 6.08237 -1.66362 82 81 102
22.6565 5.99529 -1.6595 99 97 118
22.7239 5.89441 -1.66264 90 88 108
22.685 5.80623 -1.65806 68 69 88
22.7233 5.73716 -1.65964 83 81 101
22.7285 5.66004 -1.6586 81 81 101
22.7634 5.551 -1.65927 75 80 99
22.7641 5.47295 -1.65793 80 81 101
22.7956 5.40204 -1.65904 80 78 100
22.8079 5.28784 -1.65802 77 80 97
22.833 5.21542 -1.65868 81 82 102
22.8033 5.13109 -1.65502 81 82 103
22.8475 5.024 -1.65662 83 81 103
22.8269 4.94203 -1.65373 83 81 103
22.8001 4.85904 -1.65038 82 80 101
22.8298 4.78769 -1.65149 80 81 101
22.8157 4.66908 -1.64862 81 82 102
22.8193 4.59267 -1.64774 82 80 101
22.8226 4.51628 -1.64685 84 82 103
22.8425 4.40464 -1.64675 82 80 100
22.8472 4.32863 -1.64602 82 80 101
22.832 4.24914 -1.64375 81 79 100
22.886 4.14365 -1.64643 82 79 100
22.8604 4.06259 -1.64338 82 79 100
22.8758 3.98864 -1.64357 79 80 98
22.8831 3.91336 -1.64315 79 80 98
22.8863 3.79932 -1.64197 81 79 100
22.9147 3.72744 -1.64325 82 78 100
22.939 3.65482 -1.64421 78 76 97
22.9508 3.54215 -1.64381 72 72 91
22.9251 3.46218 -1.64091 76 74 94
22.9821 3.39417 -1.6445 78 76 97
22.9907 3.28112 -1.64394 76 77 96
22.9819 3.20381 -1.64244 77 75 96
23.0184 3.13254 -1.64448 79 77 98
22.9933 3.05326 -1.64174 84 85 105
22.9944 2.93956 -1.64072 78 79 100
22.9806 2.86205 -1.63891 81 79 101
22.9665 2.78468 -1.6371 77 84 102
22.9643 2.67105 -1.63592 78 77 101
22.9278 2.59153 -1.63241 76 70 92
22.9663 2.52022 -1.63476 126 118 131
22.9295 2.32818 -1.63038 105 94 99
22.9057 2.25074 -1.62795 122 103 93
22.9599 1.80512 -1.6291 108 101 114
22.9603 1.73017 -1.62868 117 95 89
22.9505 1.65455 -1.62748 104 93 100
22.937 1.54139 -1.62584 109 108 121
22.9942 1.4701 -1.62989 107 104 115
22.9797 1.39433 -1.62839 110 105 119
23.0074 1.20865 -1.62971 78 75 96
23.0836 1.13733 -1.63531 77 72 92
24.0774 -5.24159 -1.6217 78 75 94
24.05 -5.31681 -1.62087 77 74 93
