-11.9763 -7.48598 -0.803157 107 95 66
-11.96 -7.39829 -0.798816 97 82 61
-11.984 -7.36216 -0.798957 95 80 57
-12.0384 -7.34483 -0.801701 86 75 49
-20.4848 -12.1001 -1.3273 131 115 99
-20.6354 -12.1027 -1.33585 147 131 114
-20.8104 -12.1186 -1.34621 158 141 127
-20.9996 -12.0976 -1.35618 160 147 133
-21.1527 -12.0983 -1.36486 158 141 127
-21.3094 -12.1002 -1.3738 168 148 133
-21.5029 -12.1217 -1.38545 161 142 127
-21.6949 -12.0966 -1.39555 142 129 120
-27.002 -9.73216 -1.5379 134 123 129
-27.1141 -9.62913 -1.54229 119 101 93
-27.224 -9.57259 -1.54752 130 119 117
-27.5679 -9.26003 -1.5614 134 128 140
-27.6904 -9.20507 -1.56749 133 127 138
-27.7893 -9.09331 -1.57114 141 137 135
-25.3853 -7.12984 -1.39603 112 103 104
-9.35556 -19.2153 -1.08741 126 81 78
-9.35678 -19.0643 -1.07912 134 86 81
-9.51164 -19.0066 -1.08008 132 88 85
-9.59595 -19.0293 -1.08361 137 92 85
-11.0566 -16.6952 -1.08155 84 81 63
-11.1805 -16.6584 -1.08401 80 85 68
-11.3504 -16.6329 -1.08879 86 94 74
-11.3828 -16.5698 -1.08658 84 90 76
-11.6129 -16.5197 -1.0924 86 93 77
-11.6966 -16.4756 -1.09317 85 89 76
-8.85186 -6.72789 -0.641108 147 124 69
-8.88796 -6.71257 -0.642652 128 103 47
-8.91131 -6.68744 -0.642958 138 110 54
-8.92271 -6.63167 -0.641098 151 110 87
-8.96501 -6.62069 -0.64326 137 100 74
-21.8611 -12.1002 -1.40514 130 119 117
-21.9961 -12.0856 -1.41239 126 115 111
-22.173 -12.0481 -1.42133 157 136 121
-22.2678 -12.0099 -1.4256 161 138 122
-22.28 -11.927 -1.42378 136 117 101
-22.3898 -11.8513 -1.42779 127 112 105
-22.4578 -11.7979 -1.43012 128 115 107
-22.5187 -11.7405 -1.43193 130 117 111
-22.5759 -11.681 -1.43348 125 112 106
-22.6547 -11.5877 -1.43529 129 119 116
-22.7187 -11.5312 -1.43736 123 114 112
-22.7914 -11.4789 -1.44008 126 119 119
-22.8997 -11.3993 -1.44409 126 119 121
-22.9435 -11.332 -1.44474 124 115 118
-27.8698 -9.02334 -1.57455 138 134 132
-27.9482 -8.95232 -1.57784 143 137 135
-28.0442 -8.83812 -1.58137 141 131 131
-28.1013 -8.7596 -1.58332 148 135 141
-28.1772 -8.68669 -1.58648 144 133 137
-28.2949 -8.57775 -1.59147 139 130 135
-28.3532 -8.49868 -1.59354 134 124 133
-28.438 -8.42726 -1.59732 128 121 128
-25.4772 -7.02675 -1.39981 153 143 137
-8.71728 -19.3247 -1.07722 78 79 73
-8.81072 -19.2919 -1.0777 79 81 75
-8.93675 -19.2524 -1.07866 132 108 108
-9.03489 -19.2295 -1.07987 131 102 99
-10.5129 -17.0522 -1.08225 104 100 72
-10.5945 -16.8894 -1.07602 96 93 73
-10.6561 -16.872 -1.07718 85 81 69
-10.704 -16.8323 -1.07666 69 63 52
-10.8229 -16.8468 -1.08157 78 76 63
-10.8674 -16.8016 -1.08066 82 91 71
-10.9365 -16.7949 -1.08273 82 87 73
-23.0248 -11.283 -1.4481 128 119 123
-23.1146 -11.193 -1.45082 125 119 122
-23.1794 -11.1353 -1.45302 123 116 125
-23.226 -11.0687 -1.45392 119 114 122
-23.2977 -11.0139 -1.45664 122 117 123
-23.3539 -10.9069 -1.45703 131 127 129
-23.4452 -10.8605 -1.46117 74 63 67
-23.5437 -10.8171 -1.46583 115 100 97
-23.6371 -10.7262 -1.46894 123 105 92
-23.7336 -10.6807 -1.47347 123 115 123
-23.7826 -10.6137 -1.47463 125 120 128
-28.4807 -8.34302 -1.59841 132 127 134
-28.5493 -8.21768 -1.60036 147 137 137
-28.5683 -8.12636 -1.59999 146 134 126
-28.5206 -7.77563 -1.59158 137 125 128
-28.5709 -7.69333 -1.59328 134 129 135
-28.9292 -7.6446 -1.61375 130 128 133
-8.31642 -19.4711 -1.07579 91 91 87
-8.37294 -19.4365 -1.07517 64 64 66
-8.44246 -19.433 -1.07663 71 71 73
-8.60431 -19.3939 -1.07832 74 76 73
-8.66681 -19.3731 -1.07868 75 75 72
-10.1765 -17.3364 -1.08694 88 90 73
-10.211 -17.2102 -1.08098 81 84 64
-10.2843 -17.2131 -1.08356 79 78 61
-10.3294 -17.1677 -1.08252 93 97 75
-10.4216 -17.1404 -1.08407 79 81 55
-24.0755 -10.3412 -1.48511 126 120 129
-24.1654 -10.2459 -1.48809 121 117 128
-24.2279 -10.1833 -1.49029 121 118 129
-24.2681 -10.1112 -1.49093 124 118 130
-24.3516 -10.0122 -1.49352 123 117 129
-24.419 -9.95093 -1.49611 123 117 129
-24.4845 -9.88856 -1.49857 120 117 130
-24.5517 -9.82661 -1.50116 123 120 131
-24.6841 -9.74552 -1.50724 124 120 134
-22.1247 -7.67536 -1.30523 133 125 135
-22.1635 -7.57253 -1.30548 131 128 132
-29.0735 -7.58556 -1.62142 128 125 133
-29.1849 -7.5172 -1.62702 128 125 134
-29.5682 -7.51774 -1.6498 127 124 135
-29.6545 -7.39143 -1.65309 123 120 131
-29.7192 -7.30878 -1.65577 127 121 133
-29.7779 -7.22435 -1.65808 127 122 134
-8.16232 -19.8832 -1.09555 71 72 75
-8.21732 -19.8416 -1.09445 79 80 75
-8.21769 -19.665 -1.08445 82 84 81
-8.26064 -19.5956 -1.08152 73 75 70
-24.7844 -9.69572 -1.51216 127 121 135
-24.8791 -9.64322 -1.51669 125 122 129
-24.9905 -9.55179 -1.52136 128 125 134
-25.0756 -9.49459 -1.52524 127 124 134
-25.1287 -9.42506 -1.52692 134 126 139
-25.2376 -9.331 -1.53145 135 129 139
-25.324 -9.27309 -1.53547 133 126 136
-25.3729 -9.20114 -1.53689 148 138 145
-25.4177 -9.12762 -1.53805 67 54 58
-29.8435 -7.09184 -1.66015 133 130 141
-29.9074 -7.0081 -1.66283 130 127 139
-29.9439 -6.91772 -1.6638 133 128 142
-30.0296 -6.7889 -1.66721 132 126 138
-30.0984 -6.7054 -1.67026 133 127 139
-30.1573 -6.61939 -1.67269 129 123 135
-30.2043 -6.53054 -1.67439 124 121 132
-8.03546 -20.017 -1.10032 66 69 62
-9.35291 -17.9084 -1.09389 86 86 71
-9.42351 -17.8405 -1.09207 82 89 69
-25.4897 -9.01864 -1.54012 140 121 111
-25.5322 -8.94395 -1.54116 144 140 131
-25.7436 -8.6132 -1.54736 139 133 136
-25.8285 -8.50697 -1.55047 136 130 132
-25.915 -8.44569 -1.55461 136 132 133
-25.9748 -8.37537 -1.55694 137 131 133
-30.2299 -6.38727 -1.67415 120 118 129
-30.2645 -6.29551 -1.67512 119 115 132
-30.2715 -6.19797 -1.67439 122 120 134
-30.3288 -6.06109 -1.67621 131 129 142
-30.3741 -5.97116 -1.67792 130 126 140
-30.4328 -5.88366 -1.68047 128 124 138
-8.48675 -17.7508 -1.05986 124 79 74
-9.12186 -18.2171 -1.10506 132 85 81
-9.11549 -18.0622 -1.09585 131 87 81
-9.25755 -18.2074 -1.10842 133 88 82
-9.32716 -18.1344 -1.10621 126 92 83
-9.02503 -12.5604 -0.89989 72 73 60
-10.8392 -12.9766 -1.0042 136 100 91
-10.9158 -12.9878 -1.00839 126 89 83
-10.99 -12.9956 -1.01228 123 84 79
-11.0797 -12.9799 -1.01561 121 82 79
-11.1567 -12.9899 -1.01979 126 86 84
-11.2262 -12.9904 -1.02312 121 82 79
-11.3292 -12.9884 -1.02788 120 83 77
-11.4029 -12.9927 -1.03164 116 78 75
-11.4767 -12.9966 -1.03539 113 74 72
-11.5803 -12.9929 -1.04016 120 77 71
-11.6491 -12.99 -1.04334 114 73 67
-11.726 -12.9958 -1.04738 111 73 64
-11.7991 -12.9968 -1.05099 115 71 66
-11.9086 -12.9968 -1.05634 114 71 64
-11.9806 -12.9955 -1.0598 111 72 66
-12.0541 -12.9952 -1.06341 111 77 74
-12.1602 -12.9891 -1.06832 124 88 85
-12.2447 -12.9998 -1.07309 126 89 82
-12.3227 -13.0027 -1.07714 125 91 80
-12.4075 -13.0126 -1.0819 129 95 86
-12.5048 -12.994 -1.0858 131 96 89
-13.9378 -12.4913 -1.13545 115 80 74
-13.9687 -12.4413 -1.13472 114 79 72
-26.0154 -8.29872 -1.55798 135 129 131
-26.0476 -8.17446 -1.55759 134 129 132
-26.1047 -8.10276 -1.55979 132 127 132
-26.1464 -8.0261 -1.56095 135 128 135
-26.2424 -7.92083 -1.56496 133 126 133
-26.3313 -7.85782 -1.56936 133 125 132
-26.3704 -7.7797 -1.5704 135 128 136
-26.4341 -7.70864 -1.57312 134 126 133
-25.4362 -7.11717 -1.50043 135 128 124
-25.4243 -6.98527 -1.49744 125 113 112
-30.4718 -5.79209 -1.68181 125 123 136
-30.5076 -5.65019 -1.68242 157 156 165
-30.5596 -5.56072 -1.68461 159 157 170
-30.627 -5.4738 -1.68778 118 117 129
-30.6436 -5.32796 -1.68729 113 114 127
-30.7202 -5.24205 -1.69106 111 110 126
-30.7435 -5.14677 -1.69155 111 110 124
-8.18065 -17.8851 -1.0595 78 77 75
-8.21632 -17.8164 -1.05638 91 74 80
-8.50945 -18.316 -1.09383 97 69 74
-8.50991 -18.0921 -1.0806 99 67 73
-8.90299 -18.2704 -1.10196 132 87 84
-9.00267 -18.333 -1.10844 133 88 83
-8.96832 -12.6883 -0.905105 77 77 66
-9.48766 -13.136 -0.953388 80 82 61
-9.52921 -13.1085 -0.953528 77 73 58
-9.4227 -12.8731 -0.93516 91 80 71
-9.47081 -12.8134 -0.933709 57 50 39
-9.69372 -13.0377 -0.956407 64 53 41
-9.74204 -13.0192 -0.957415 54 39 30
-9.81901 -12.9967 -0.959434 67 50 45
-9.87083 -12.9825 -0.960876 76 59 48
-9.9334 -12.9824 -0.963619 90 74 58
-10.0236 -12.9763 -0.967229 104 86 75
-10.09 -12.9804 -0.970405 103 81 73
-10.1529 -12.9794 -0.973148 116 96 83
-10.2256 -12.9908 -0.977048 124 102 89
-10.3139 -12.9798 -0.980369 131 106 99
-10.3784 -12.9794 -0.983257 135 106 101
-10.4491 -12.9866 -0.986867 140 111 103
-10.5378 -12.9741 -0.990188 139 110 100
-10.6125 -12.9852 -0.994232 133 103 95
-10.6799 -12.9867 -0.997409 124 91 88
-10.7766 -12.9821 -1.0016 124 91 86
-12.5901 -13.003 -1.09057 115 76 67
-12.6727 -13.0086 -1.09505 174 137 74
-12.7773 -12.9955 -1.09967 201 156 60
-12.8659 -13.0059 -1.10473 182 144 71
-12.949 -13.0102 -1.10921 111 80 47
-13.0625 -13.0038 -1.11469 101 66 59
-13.153 -13.0142 -1.1199 104 70 63
-13.231 -13.0115 -1.1238 106 77 68
-13.3205 -13.0196 -1.12885 88 71 61
-13.4291 -13.0051 -1.13376 78 71 53
-13.5189 -13.0123 -1.13882 83 83 60
-13.6088 -13.0189 -1.14388 90 91 68
-13.7165 -13.0011 -1.14864 87 92 67
-13.7953 -12.9958 -1.15254 79 79 58
-13.8973 -13.012 -1.15876 102 89 75
-14.0026 -12.9896 -1.16323 114 86 78
-14.0788 -12.9802 -1.16684 113 85 79
-14.2726 -12.597 -1.15872 110 77 68
-14.5196 -12.7381 -1.17896 112 78 69
-14.8676 -12.9663 -1.20889 120 82 71
-15.0161 -12.9744 -1.21741 146 95 82
-15.11 -12.9748 -1.22261 151 97 87
-15.2583 -13.0217 -1.23302 150 100 88
-15.3285 -13.0002 -1.23591 126 98 99
-15.4251 -12.9597 -1.23937 124 124 140
-15.5546 -12.9876 -1.2479 135 132 145
-15.5626 -12.7899 -1.23922 158 149 152
-15.7071 -12.7473 -1.24542 83 72 74
-26.5403 -7.60444 -1.57791 97 83 88
-26.6496 -7.54554 -1.58374 123 113 107
-26.8017 -7.27224 -1.58865 131 126 130
-26.8545 -7.19634 -1.59072 136 131 137
-26.9123 -7.07644 -1.5924 139 133 143
-30.8234 -5.01107 -1.69508 111 109 126
-30.844 -4.91507 -1.69545 111 110 128
-30.884 -4.8221 -1.69703 109 111 129
-30.904 -4.72588 -1.69739 101 103 120
-30.9684 -4.58652 -1.70007 99 102 119
-8.26729 -18.6206 -1.10552 76 79 72
-8.17172 -18.2446 -1.08063 82 83 78
-8.23496 -18.1578 -1.07713 77 78 73
-8.93493 -13.0262 -0.923922 77 80 71
-9.36314 -13.1756 -0.950506 73 71 55
-7.62007 -6.88571 -0.640673 113 81 71
-7.62915 -6.85153 -0.639324 115 83 73
-15.6509 -12.9867 -1.25324 146 141 148
-15.7768 -12.8863 -1.25569 145 136 142
-16.0117 -12.874 -1.26841 116 94 79
-16.1163 -12.8768 -1.27448 115 94 68
-16.044 -12.7367 -1.26406 117 97 57
-16.094 -12.6955 -1.26507 107 83 52
-16.2324 -12.6833 -1.27244 110 88 67
-16.287 -12.6451 -1.27388 94 65 47
-16.7024 -12.3974 -1.28716 130 98 76
-16.8139 -12.4002 -1.29381 136 102 77
-16.8423 -12.3407 -1.29294 114 86 70
-16.8946 -12.2584 -1.2925 108 78 65
-17.0255 -12.2738 -1.30088 111 82 71
-17.0599 -12.2184 -1.30059 106 80 64
-17.1924 -12.1931 -1.30738 101 72 57
-17.2882 -12.1812 -1.31258 95 72 57
-17.3027 -12.1111 -1.31055 79 57 45
-17.4115 -12.1076 -1.31691 77 58 43
-17.546 -12.0807 -1.32384 97 79 55
-17.6682 -12.0849 -1.33136 114 94 70
-17.8037 -12.0975 -1.34003 130 112 88
-17.9486 -12.0746 -1.34783 88 73 68
-11.9306 -7.47548 -0.871703 116 106 106
-11.9056 -7.38284 -0.866285 125 113 107
-11.9279 -7.34577 -0.866281 115 108 98
-11.984 -7.32949 -0.869372 117 106 102
-17.1558 -7.61111 -1.14178 120 114 126
-17.1687 -7.52096 -1.14004 120 114 126
-17.2169 -7.47848 -1.14206 123 117 129
-27.0128 -7.01245 -1.59771 130 125 132
-27.1325 -6.95281 -1.60432 128 123 130
-27.2056 -6.8808 -1.60781 131 127 136
-27.2854 -6.76461 -1.61105 135 132 140
-27.6683 -6.76728 -1.63528 132 131 137
-31.0074 -4.49286 -1.70165 105 108 125
-31.0382 -4.39787 -1.70275 106 109 126
-31.0892 -4.25576 -1.7047 102 108 124
-31.1292 -4.16169 -1.7064 107 110 128
-31.1807 -4.06896 -1.70883 98 101 120
-31.2283 -3.92556 -1.71066 104 114 127
-8.20975 -19.0531 -1.1299 73 74 73
-8.21351 -18.8977 -1.12069 74 75 70
-7.24281 -12.9534 -0.855355 91 89 86
-7.29501 -12.9542 -0.85723 84 85 80
-7.37246 -12.9523 -0.859828 81 82 86
-7.43062 -12.963 -0.862571 85 86 85
-7.48311 -12.9631 -0.864447 93 93 92
-7.55701 -12.9532 -0.866466 81 81 79
-7.61161 -12.9562 -0.868631 83 82 80
-7.71765 -13.0489 -0.878315 76 73 72
-7.76974 -13.0462 -0.880046 75 71 72
-7.84536 -13.0364 -0.88221 74 72 75
-7.89554 -13.0297 -0.883651 82 78 80
-7.95893 -13.0451 -0.886973 72 64 72
-18.0797 -12.0822 -1.35607 107 90 86
-18.2209 -12.0957 -1.36518 113 96 89
-18.373 -12.0743 -1.37356 115 96 86
-18.5048 -12.0795 -1.3818 104 86 79
-18.6451 -12.0894 -1.39076 128 115 108
-18.7907 -12.1018 -1.40015 123 110 101
-18.9454 -12.0774 -1.40868 125 114 108
-28.4066 -6.85296 -1.68321 125 124 130
-28.3601 -6.70084 -1.67803 127 124 136
-28.421 -6.62127 -1.68075 128 124 138
-28.4622 -6.53691 -1.68217 126 122 135
-28.4938 -6.40325 -1.6823 131 129 140
-31.2771 -3.83197 -1.71297 104 114 127
-31.302 -3.73523 -1.71383 106 111 127
-31.3562 -3.64185 -1.7165 110 116 131
-31.3919 -3.49608 -1.71772 106 114 125
-31.4316 -3.40055 -1.71955 106 113 129
-7.8592 -19.1265 -1.12565 71 73 72
-7.93928 -19.1543 -1.12927 74 73 66
-8.02825 -19.0338 -1.12421 72 75 71
-8.13078 -19.0301 -1.12653 88 88 89
-6.79194 -12.8707 -0.834708 87 89 74
-6.84422 -12.8749 -0.836728 97 99 89
-7.1114 -13.2458 -0.86955 82 87 82
-7.11452 -13.1517 -0.863616 88 87 82
-7.10693 -13.0383 -0.856092 94 93 89
-7.11917 -12.9639 -0.851749 86 84 87
-7.19349 -12.9577 -0.853913 100 94 97
-10.161 -14.5219 -1.06374 53 45 31
-8.90219 -6.75091 -0.717228 120 93 76
-8.94095 -6.71577 -0.718065 116 88 67
-8.95011 -6.67972 -0.716885 109 83 61
-8.97656 -6.65692 -0.717554 124 98 79
-19.4814 -11.8745 -1.4341 119 108 106
-19.5566 -11.7956 -1.43583 124 115 108
-19.5876 -11.7314 -1.43539 125 115 110
-19.6389 -11.6795 -1.43669 126 116 114
-19.7133 -11.5996 -1.43842 118 108 107
-19.7814 -11.5572 -1.44117 115 105 104
-19.8477 -11.5135 -1.44376 126 115 119
-19.9353 -11.4404 -1.44665 123 118 120
-19.9979 -11.394 -1.44896 121 116 114
-20.0535 -11.3433 -1.45069 118 110 114
-20.1158 -11.2964 -1.453 122 113 117
-20.1749 -11.2059 -1.45358 120 112 118
-20.2213 -11.1496 -1.45459 118 112 119
-20.271 -11.0951 -1.45588 117 109 118
-20.3571 -11.019 -1.45877 121 112 116
-20.4328 -10.9782 -1.46224 120 111 116
-20.4891 -10.9266 -1.46411 123 116 118
-28.5363 -6.31892 -1.68385 124 123 131
-28.5669 -6.23185 -1.68462 120 119 127
-28.5953 -6.14421 -1.68527 120 119 127
-28.6524 -6.01559 -1.68721 118 115 128
-28.6821 -5.92802 -1.68799 126 123 134
-28.686 -5.83515 -1.68708 122 120 133
-28.7241 -5.70229 -1.68785 120 119 132
-31.4551 -3.30312 -1.7204 108 114 128
-31.5348 -3.16126 -1.72442 108 113 132
-7.73801 -19.2562 -1.13059 74 73 68
-8.91313 -6.80283 -0.720594 134 114 94
-20.5535 -10.8379 -1.46527 117 113 114
-20.606 -10.7838 -1.46685 119 114 118
-20.6918 -10.7471 -1.47119 125 118 125
-20.7387 -10.6898 -1.47234 125 120 124
-20.7898 -10.5933 -1.47248 126 119 124
-20.8238 -10.5292 -1.47262 126 120 127
-20.879 -10.4758 -1.4745 123 117 126
-20.9629 -10.3956 -1.47739 124 119 125
-21.0071 -10.3362 -1.4784 123 118 124
-21.0511 -10.2766 -1.47941 121 116 123
-21.1091 -10.183 -1.48027 122 117 124
-21.1652 -10.1291 -1.48229 120 114 124
-21.2122 -10.0706 -1.48359 123 117 127
-21.2717 -10.0179 -1.4859 122 117 124
-28.7587 -5.61548 -1.68902 120 118 131
-28.7714 -5.5244 -1.68875 115 112 129
-28.8081 -5.39099 -1.68953 107 106 124
-28.8457 -5.30443 -1.69095 112 113 128
-28.8751 -5.21629 -1.69186 113 112 128
-28.8886 -5.12523 -1.69173 112 111 127
-10.4893 -16.1102 -1.17281 79 72 53
-10.5734 -16.1316 -1.17743 78 71 52
-10.6831 -16.1363 -1.18206 104 102 79
-10.7503 -16.1302 -1.18437 83 86 55
-10.7859 -16.0754 -1.18248 79 73 54
-10.9862 -15.9982 -1.18594 99 83 77
-11.0043 -15.9181 -1.18188 117 95 89
-7.62814 -6.9455 -0.672976 108 84 71
-7.65049 -6.92339 -0.673146 106 82 69
-21.352 -9.93406 -1.48864 89 80 84
-21.4256 -9.8874 -1.49211 111 95 92
-21.4936 -9.83787 -1.49514 117 99 89
-21.5841 -9.75756 -1.49875 132 121 123
-21.641 -9.70231 -1.50092 128 122 130
-21.9332 -9.46663 -1.51363 128 121 132
-21.9785 -9.40505 -1.51493 128 123 132
-22.0399 -9.30959 -1.51637 130 124 130
-28.9411 -4.99412 -1.69367 110 109 125
-28.9794 -4.90716 -1.69522 108 109 124
-29.0214 -4.82066 -1.69703 106 107 121
-29.0627 -4.68701 -1.69833 102 103 121
-29.0804 -4.59632 -1.69858 100 103 120
-29.1215 -4.50918 -1.7004 98 103 122
-10.0209 -16.3678 -1.17068 90 87 83
-10.0592 -16.3165 -1.16894 90 87 79
-10.1282 -16.3163 -1.17154 86 78 65
-10.1698 -16.2134 -1.16676 95 86 65
-10.2429 -16.2195 -1.16994 87 80 63
-10.2689 -16.149 -1.16661 80 71 58
-10.343 -16.1564 -1.16993 91 87 62
-10.4788 -16.2047 -1.17817 90 88 60
-10.1069 -12.5654 -1.02912 123 88 84
-13.8308 -12.3143 -1.21505 102 85 65
-13.9325 -12.2895 -1.21969 107 92 61
-14.0165 -12.2871 -1.22448 107 94 63
-22.0829 -9.24677 -1.51752 129 121 128
-22.1091 -9.17684 -1.51737 129 120 125
-22.1567 -9.07523 -1.51781 129 121 119
-22.2008 -9.01262 -1.5191 135 127 124
-22.2503 -8.95207 -1.52084 140 128 128
-22.3015 -8.89203 -1.52271 141 130 129
-22.3645 -8.79603 -1.52444 141 130 129
-22.3559 -8.71213 -1.52169 143 133 131
-22.3934 -8.64644 -1.52256 140 132 130
-22.4367 -8.5426 -1.52284 138 133 131
-29.1623 -4.42183 -1.70221 100 105 125
-29.2017 -4.28722 -1.7035 102 107 126
-29.234 -4.19826 -1.7048 104 107 124
-29.3016 -4.11411 -1.70842 106 109 126
-29.3119 -3.97489 -1.7079 97 101 117
-8.96318 -12.6999 -0.984176 117 79 76
-9.09763 -12.683 -0.989119 117 78 71
-9.04783 -12.5299 -0.977199 118 80 77
-9.38773 -12.7979 -1.00953 123 82 76
-9.36618 -12.6852 -1.00148 128 87 82
-9.76503 -12.9374 -1.03566 125 82 75
-9.83816 -12.952 -1.03999 126 83 76
-9.89952 -12.9504 -1.04277 125 82 76
-9.98368 -12.9363 -1.04586 120 79 73
-10.0525 -12.9435 -1.04957 116 78 72
-10.1202 -12.9489 -1.05312 117 79 73
-10.1795 -12.9429 -1.0556 130 97 85
-10.2824 -12.9507 -1.06101 137 99 90
-10.2815 -12.8673 -1.0559 122 87 81
-10.5026 -12.9402 -1.07105 130 93 86
-10.5761 -12.9497 -1.07522 122 83 76
-10.6522 -12.962 -1.07971 121 82 77
-10.7438 -12.9512 -1.08357 119 81 78
-10.8052 -12.9441 -1.0862 118 78 76
-10.8882 -12.9629 -1.09145 117 78 75
-10.9497 -12.9553 -1.09408 120 81 79
-11.0405 -12.9411 -1.09779 113 73 71
-11.1138 -12.9465 -1.10181 117 76 74
-11.2001 -12.9667 -1.10737 123 86 80
-11.2888 -12.9479 -1.11077 115 76 77
-11.373 -12.9642 -1.11603 118 78 77
-11.4455 -12.9666 -1.11989 124 83 77
-11.5373 -12.9494 -1.1236 120 79 73
-11.6114 -12.9524 -1.12762 120 81 76
-11.6883 -12.9582 -1.13195 125 86 81
-11.768 -12.9665 -1.13658 131 95 87
-11.8589 -12.9458 -1.14014 135 99 91
-11.9108 -12.9223 -1.14153 133 98 93
-12.0138 -12.9544 -1.14879 126 94 89
-12.1226 -12.9512 -1.15436 120 87 80
-12.2058 -12.9603 -1.15931 111 78 70
-12.2879 -12.9676 -1.1641 112 80 70
-12.4001 -12.9654 -1.16997 107 69 63
-12.4866 -12.976 -1.17523 107 73 64
-12.5623 -12.9747 -1.17925 116 83 65
-12.6492 -12.9845 -1.18451 165 129 70
-12.7567 -12.9742 -1.18976 198 158 63
-12.8258 -12.9645 -1.19301 189 153 78
-12.9132 -12.973 -1.19826 104 77 54
-13.031 -12.9708 -1.2046 110 91 70
-13.0991 -12.9585 -1.20769 114 92 70
-13.112 -12.8912 -1.20475 118 93 74
-13.2793 -12.9764 -1.21867 102 87 67
-13.2995 -12.8755 -1.21433 88 92 64
-13.3562 -12.8509 -1.21618 75 85 54
-13.3813 -12.7956 -1.21463 84 98 62
-13.5054 -12.7952 -1.22159 80 87 56
-13.6199 -12.8246 -1.22963 89 86 59
-13.7419 -12.8603 -1.23845 99 91 67
-13.8321 -12.8248 -1.24169 80 92 50
-13.8554 -12.7669 -1.23999 69 92 40
-13.8387 -12.3985 -1.21985 106 97 69
-14.231 -12.3986 -1.24274 112 101 69
-14.2899 -12.3335 -1.24289 102 98 60
-14.299 -12.2643 -1.23994 103 97 61
-14.3972 -12.2718 -1.24613 116 107 75
-14.5986 -12.3666 -1.26283 103 99 90
-14.7412 -12.3705 -1.27149 130 128 139
-14.6829 -12.2439 -1.26174 133 131 144
-15.0787 -12.4969 -1.29794 148 142 152
-15.112 -12.4062 -1.29546 156 150 154
-15.11 -12.3263 -1.29144 139 131 142
-15.174 -12.3006 -1.29406 102 93 85
-15.1643 -12.1759 -1.2874 116 95 72
-15.3882 -12.2784 -1.30597 108 87 69
-15.418 -12.2242 -1.30519 122 102 86
-15.4305 -12.1564 -1.30271 112 90 76
-15.4836 -12.0818 -1.3024 110 88 73
-15.5568 -12.0618 -1.30595 104 83 65
-8.88087 -6.77819 -0.74829 113 97 75
-8.92284 -6.74542 -0.749502 140 122 107
-8.9415 -6.71662 -0.749325 147 123 110
-8.96485 -6.69136 -0.749669 154 134 117
-22.4905 -8.48293 -1.52501 134 130 129
-22.5292 -8.41738 -1.52602 132 126 127
-22.5603 -8.30869 -1.52544 134 128 132
-22.7031 -8.28129 -1.53454 134 128 131
-22.7843 -8.23058 -1.53888 100 88 91
-22.8036 -8.15715 -1.53844 104 90 87
-22.8671 -8.05926 -1.54046 137 121 116
-22.1832 -7.7386 -1.48595 134 128 132
-22.0899 -7.62849 -1.47699 134 129 136
-22.1605 -7.5369 -1.47973 133 127 137
-29.3313 -3.8838 -1.70842 95 101 117
-29.3802 -3.79643 -1.71088 109 115 131
-29.4425 -3.66353 -1.71386 112 114 130
-29.455 -3.57121 -1.71398 110 114 131
-29.4989 -3.48257 -1.71619 107 114 130
-29.503 -3.38917 -1.7158 108 116 129
-8.59017 -12.9153 -0.981737 115 104 86
-8.65718 -12.9306 -0.985601 125 103 89
-8.71556 -12.9323 -0.988227 125 96 88
-8.80316 -12.9336 -0.992091 123 90 85
-8.85401 -12.9231 -0.993634 121 86 82
-8.91939 -12.9339 -0.997188 122 85 84
-8.9894 -12.951 -1.00136 118 80 81
-9.06414 -12.9309 -1.00337 120 80 80
-9.09676 -12.808 -0.997015 115 76 75
-9.4127 -12.9594 -1.02083 127 90 82
-9.59787 -12.9203 -1.02685 123 84 79
-9.67297 -12.9389 -1.03149 126 86 76
-16.3748 -12.0597 -1.35667 146 129 115
-16.4808 -12.0594 -1.36332 137 121 107
-16.6108 -12.0363 -1.37043 140 123 109
-16.7381 -12.0499 -1.37909 138 121 103
-16.856 -12.0558 -1.38682 143 126 107
-16.9963 -12.037 -1.39487 117 103 91
-17.1211 -12.0461 -1.40322 113 101 90
-17.2347 -12.0465 -1.41048 131 111 100
-17.3632 -12.0566 -1.41914 129 107 94
-17.5174 -12.0432 -1.42842 137 117 107
-17.5856 -12.01 -1.43136 138 117 102
-17.6537 -11.9764 -1.4343 144 125 111
-23.045 -7.75982 -1.5458 134 128 138
-23.0798 -7.6914 -1.54666 134 129 135
-23.1432 -7.59222 -1.54883 136 132 136
-23.1964 -7.52957 -1.55114 133 131 134
-23.2778 -7.47586 -1.55562 134 131 135
-23.3629 -7.42291 -1.56039 136 131 137
-29.5694 -3.25566 -1.71916 104 111 127
-29.5886 -3.16376 -1.71981 112 118 134
-7.75404 -12.9031 -0.946517 72 63 54
-7.82102 -12.9257 -0.95069 86 75 65
-7.87805 -12.9309 -0.953317 96 81 75
-7.95035 -12.9152 -0.955168 105 90 85
-8.01271 -12.9284 -0.958568 120 97 92
-8.068 -12.9295 -0.960885 123 98 88
-8.13944 -12.911 -0.962582 127 109 95
-8.16439 -12.8624 -0.960411 125 108 94
-8.25987 -12.927 -0.968608 125 111 92
-8.32292 -12.9388 -0.972008 110 103 75
-8.39788 -12.9241 -0.974169 122 101 93
-8.44404 -12.9084 -0.975093 130 98 96
-8.51392 -12.9294 -0.979421 121 93 87
-17.7355 -11.9116 -1.43677 104 89 87
-17.7737 -11.8573 -1.43692 109 93 86
-17.7702 -11.7754 -1.4332 108 90 81
-17.8662 -11.7195 -1.43706 112 93 87
-17.8988 -11.6616 -1.43675 114 97 90
-17.9362 -11.6068 -1.4369 125 112 106
-17.9884 -11.5616 -1.43845 128 116 110
-18.0721 -11.4966 -1.44123 125 115 108
-18.1191 -11.4477 -1.44231 119 108 104
-18.4365 -11.1728 -1.45219 117 108 113
-18.4758 -11.1183 -1.45265 118 109 114
-18.5474 -11.0831 -1.45605 119 110 114
-18.5916 -11.0313 -1.45697 119 110 114
-18.658 -10.9532 -1.45836 120 111 116
-18.7104 -10.906 -1.46006 118 108 116
-18.7385 -10.8445 -1.45959 117 110 117
-18.7782 -10.7507 -1.45866 115 108 115
-18.837 -10.7068 -1.46098 117 110 117
-18.8801 -10.6539 -1.4619 120 113 121
-18.9266 -10.6027 -1.46314 119 112 119
-18.9911 -10.5226 -1.46452 118 113 120
-17.1027 -7.58111 -1.23252 128 121 132
-17.1228 -7.49444 -1.23128 128 118 126
-17.182 -7.45675 -1.23437 127 117 125
-23.4195 -7.32019 -1.56212 138 131 139
-23.4529 -7.25031 -1.56299 137 132 138
-23.4995 -7.1844 -1.56486 136 132 138
-23.5703 -7.08538 -1.56775 134 131 138
-23.6431 -7.0269 -1.57165 136 131 138
-23.7043 -6.96462 -1.57469 129 123 131
-23.7493 -6.85698 -1.5757 124 111 111
-23.7852 -6.7869 -1.57685 127 112 112
-8.37676 -17.044 -1.15708 126 86 82
-8.51664 -16.9959 -1.15837 140 100 94
-8.55696 -16.9449 -1.15634 146 109 100
-8.65248 -17.0063 -1.16342 141 103 95
-8.70861 -16.987 -1.164 136 101 94
-6.39873 -12.3642 -0.859171 93 75 69
-7.21345 -12.9251 -0.927216 79 81 63
-7.27323 -12.9398 -0.930462 68 67 52
-7.34289 -12.924 -0.932004 67 67 55
-7.39907 -12.9312 -0.93463 62 61 46
-7.45439 -12.9365 -0.937101 69 67 53
-7.52619 -12.9231 -0.938953 72 65 55
-7.57676 -12.9192 -0.940651 79 70 59
-7.63831 -12.9341 -0.944051 85 74 62
-7.69005 -12.9314 -0.945903 92 82 66
-11.9621 -7.53088 -0.968081 122 111 113
-11.9378 -7.46383 -0.963372 121 111 112
-11.9469 -7.41826 -0.962024 123 113 114
-11.9707 -7.35625 -0.961012 121 110 115
-12.0319 -7.3432 -0.964874 120 110 117
-19.0198 -10.4613 -1.46421 117 111 121
-19.0727 -10.4133 -1.46606 116 110 120
-19.1347 -10.3315 -1.4673 119 113 123
-19.1698 -10.2735 -1.4676 118 114 121
-19.2522 -10.2408 -1.47209 116 113 120
-19.3293 -10.1662 -1.47471 116 113 120
-19.3603 -10.1058 -1.47471 118 115 122
-19.4106 -10.0554 -1.47641 118 115 124
-19.4803 -10.0147 -1.47981 117 111 121
-19.5246 -9.92242 -1.47965 116 113 122
-19.5727 -9.87035 -1.48119 116 113 122
-19.6366 -9.82609 -1.48413 119 116 125
-19.7122 -9.74896 -1.48676 123 118 127
-19.8081 -9.71982 -1.49248 121 115 125
-23.8208 -6.71665 -1.578 134 127 131
-23.8659 -6.64893 -1.57988 139 135 141
-23.8961 -6.53662 -1.57988 140 134 141
-23.9444 -6.46951 -1.58204 138 133 139
-24.0022 -6.40474 -1.58493 138 133 139
-24.0544 -6.29787 -1.58667 136 130 140
-29.775 -2.33446 -1.72731 91 107 132
-29.7889 -2.1943 -1.72757 84 99 125
-8.0104 -17.0885 -1.14872 126 110 116
-8.18371 -17.1159 -1.1558 118 85 81
-8.25767 -17.1361 -1.15941 132 94 89
-8.31039 -17.0406 -1.15477 119 78 73
-7.05295 -13.0594 -0.930485 79 81 60
-7.07819 -13.0097 -0.928004 86 84 66
-7.11223 -12.9282 -0.923666 81 81 64
-7.15006 -12.9031 -0.923352 74 73 55
-19.8646 -9.67095 -1.4948 124 117 125
-19.9468 -9.59586 -1.49804 124 118 128
-20.0138 -9.5515 -1.50129 125 119 131
-20.1042 -9.5179 -1.50654 125 119 131
-20.1422 -9.45923 -1.50731 123 118 125
-20.2309 -9.38564 -1.51118 91 79 80
-20.2848 -9.334 -1.51334 117 100 94
-20.3096 -9.26887 -1.51303 116 98 88
-20.3812 -9.1866 -1.5155 126 116 124
-20.4419 -9.13746 -1.51828 127 118 128
-24.104 -6.23043 -1.58898 143 138 145
-24.3174 -6.20489 -1.60358 147 140 143
-24.7644 -6.23729 -1.63567 149 141 140
-7.80694 -17.2785 -1.15525 90 88 89
-7.88109 -17.2282 -1.15409 100 98 86
-7.9004 -17.1277 -1.14801 101 97 92
-7.97294 -17.1473 -1.15147 113 104 113
-6.44258 -12.9984 -0.904844 142 99 96
-6.49553 -13.0058 -0.907161 141 98 96
-6.56023 -12.9852 -0.907929 137 100 92
-6.57017 -12.9046 -0.902664 135 100 94
-6.58412 -12.833 -0.898171 126 90 84
-7.08818 -13.2256 -0.943178 78 75 56
-20.5236 -8.83071 -1.51471 141 132 128
-20.5595 -8.77038 -1.51548 140 131 126
-20.5888 -8.66916 -1.51455 141 131 129
-20.6279 -8.61007 -1.51563 142 133 132
-20.6743 -8.55387 -1.51733 137 129 133
-20.7486 -8.47104 -1.52026 129 121 129
-20.7835 -8.40981 -1.52103 126 121 128
-20.8275 -8.35214 -1.52258 119 115 123
-25.3318 -6.25478 -1.67601 125 119 122
-25.9674 -6.32665 -1.72212 135 132 139
-25.9824 -6.24421 -1.72183 130 127 138
-26.0629 -6.13427 -1.72573 130 127 138
-26.0928 -6.05519 -1.7266 127 123 138
-7.67499 -17.6462 -1.17595 78 85 61
-7.7562 -17.4574 -1.16567 102 105 89
-7.7968 -17.4027 -1.16321 106 107 101
-6.03934 -12.9699 -0.889557 85 78 88
-6.10054 -12.9989 -0.893576 88 77 89
-6.15207 -13.0058 -0.895738 113 101 101
-6.21993 -12.9942 -0.897126 135 106 101
-6.26069 -12.9772 -0.897276 145 109 103
-6.31327 -12.9853 -0.899593 128 90 85
-6.39146 -12.9944 -0.902837 131 88 85
-20.9066 -8.2704 -1.52598 128 122 126
-20.9577 -8.21511 -1.52814 138 129 130
-21.0197 -8.1639 -1.53123 144 135 136
-21.0742 -8.1095 -1.53371 142 132 132
-21.1039 -8.00764 -1.53308 162 148 141
-21.1449 -7.94784 -1.53447 107 97 95
-21.182 -7.88647 -1.53555 112 102 103
-21.2387 -7.79445 -1.53725 121 115 114
-21.2847 -7.73607 -1.53911 141 132 125
-26.1051 -5.97195 -1.72616 123 120 134
-26.1281 -5.84814 -1.72587 125 121 135
-26.1358 -5.76397 -1.72515 125 125 135
-26.1704 -5.68576 -1.72645 123 121 132
-26.2321 -5.61326 -1.72977 117 115 128
-26.2417 -5.48643 -1.72861 116 118 130
-7.54047 -17.8687 -1.1871 97 108 91
-7.54599 -17.724 -1.17755 93 103 92
-7.59817 -17.616 -1.17176 113 111 94
-5.70682 -12.9727 -0.879372 105 111 100
-5.75605 -12.9775 -0.881225 114 115 103
-5.82969 -12.9826 -0.88385 104 104 101
-5.86003 -12.9432 -0.881989 101 99 104
-5.90059 -12.9273 -0.882139 103 99 101
-5.99782 -12.9843 -0.889252 75 71 72
-11.9899 -7.52273 -1.0095 118 107 112
-11.9434 -7.44213 -1.00237 117 106 113
-11.9757 -7.38532 -1.0022 119 108 115
-12.02 -7.36162 -1.00445 119 109 114
-21.3268 -7.67613 -1.54065 89 74 73
-21.35 -7.60931 -1.54065 118 102 90
-21.4055 -7.5162 -1.54235 144 134 132
-21.9858 -7.64264 -1.58814 143 137 139
-22.0183 -7.57699 -1.58891 144 139 145
-26.2639 -5.40525 -1.72904 125 124 138
-26.3013 -5.32718 -1.73063 119 117 131
-26.337 -5.20562 -1.73149 115 112 129
-26.3621 -5.12485 -1.73222 114 112 129
-26.3772 -5.04208 -1.73221 117 115 133
-7.38083 -18.0365 -1.19406 92 95 89
-7.47825 -18.0362 -1.19666 96 98 90
-5.4498 -12.9742 -0.871813 109 111 105
-5.50316 -12.9911 -0.874594 109 118 106
-5.55063 -12.993 -0.876137 105 111 108
-5.59664 -12.9911 -0.87737 116 112 106
-5.66615 -12.9879 -0.879222 116 120 102
-12.1927 -12.2376 -1.23205 106 110 69
-22.1813 -7.5169 -1.59943 138 133 134
-22.7505 -7.63034 -1.64414 138 133 131
-22.7603 -7.55464 -1.64305 140 135 137
-22.7625 -7.43708 -1.64042 146 140 145
-22.7717 -7.36145 -1.63933 143 139 140
-21.9941 -7.03482 -1.57419 138 133 136
-21.8631 -6.91785 -1.56181 136 131 137
-21.9098 -6.81975 -1.56305 138 131 138
-21.9036 -6.74287 -1.56088 137 132 138
-21.9563 -6.68405 -1.56351 135 133 138
-26.4174 -4.92113 -1.73351 105 104 120
-26.4319 -4.83818 -1.73351 102 104 123
-26.4383 -4.75376 -1.73293 101 105 124
-26.4679 -4.67352 -1.73408 99 103 122
-26.5005 -4.55087 -1.73495 99 105 121
-26.5099 -4.46698 -1.73466 99 104 123
-5.21817 -12.974 -0.865178 98 99 96
-7.28682 -18.1273 -1.19769 101 102 98
-5.29716 -12.9988 -0.869197 106 106 99
-5.32982 -12.9645 -0.867644 107 108 107
-5.38142 -12.9781 -0.870116 104 108 107
-9.93384 -12.4075 -1.1157 121 81 81
-10.9076 -12.6924 -1.18659 111 84 72
-11.6628 -12.9243 -1.24337 105 87 66
-11.7369 -12.9269 -1.24774 97 80 60
-11.8151 -12.9337 -1.25261 105 86 66
-11.8351 -12.8346 -1.24756 108 92 74
-11.7781 -12.692 -1.23546 94 93 63
-11.7674 -12.6012 -1.22923 86 87 56
-11.7758 -12.4925 -1.22301 86 91 55
-11.9388 -12.5903 -1.23847 95 107 63
-12.04 -12.6203 -1.2462 96 107 63
-12.093 -12.5586 -1.24552 86 102 53
-12.1549 -12.5458 -1.24837 83 87 27
-12.3557 -12.678 -1.2682 167 146 59
-12.4195 -12.6656 -1.27122 194 158 72
-12.259 -12.3823 -1.24466 99 91 63
-12.5219 -12.4965 -1.26718 95 105 60
-12.5784 -12.4369 -1.267 97 110 64
-12.611 -12.3924 -1.26633 102 120 72
-12.8 -12.5036 -1.28431 82 98 53
-12.8125 -12.3994 -1.27892 83 99 54
-12.9757 -12.4823 -1.29371 56 71 43
-12.8885 -12.3199 -1.27892 74 83 53
-12.9435 -12.2966 -1.28093 85 92 63
-13.0795 -12.3122 -1.29017 74 85 54
-13.1143 -12.2689 -1.28983 73 87 54
-13.1982 -12.272 -1.2952 77 92 56
-13.2434 -12.1997 -1.29385 67 88 47
-13.573 -12.1616 -1.31233 80 94 52
-13.6443 -12.1502 -1.31619 77 91 50
-13.6859 -12.1119 -1.31669 101 110 72
-13.7658 -12.0694 -1.31937 92 90 60
-13.8535 -12.0715 -1.32508 89 86 62
-13.9383 -12.0706 -1.33046 110 104 87
-14.0557 -12.0593 -1.33734 134 125 110
-14.1468 -12.0626 -1.34339 140 133 119
-14.2501 -12.0758 -1.35078 124 122 118
-14.3462 -12.0821 -1.35733 122 125 134
-14.4613 -12.0654 -1.36388 132 130 143
-14.5607 -12.073 -1.37077 149 143 153
-14.6618 -12.0815 -1.37783 157 151 153
-14.7744 -12.0601 -1.38404 142 140 145
-14.8775 -12.0686 -1.39126 127 123 125
-14.9684 -12.0665 -1.39714 141 128 121
-15.0923 -12.0518 -1.40453 122 110 99
-15.199 -12.061 -1.41209 122 112 104
-15.3074 -12.071 -1.41982 124 116 112
-15.4068 -12.0729 -1.42654 124 116 113
-22.0211 -6.59104 -1.56629 135 131 136
-22.06 -6.52763 -1.56783 136 131 135
-22.1179 -6.46963 -1.57093 135 130 136
-22.1913 -6.37821 -1.57448 139 133 137
-22.222 -6.31188 -1.57541 135 130 136
-22.3158 -6.26315 -1.58144 135 130 135
-22.3979 -6.2107 -1.58654 134 129 134
-26.5387 -4.38633 -1.73581 101 106 125
-26.5444 -4.25907 -1.7348 103 109 125
-26.5804 -4.17944 -1.73653 101 107 123
-26.5906 -4.09565 -1.73638 104 110 126
-26.6363 -3.9745 -1.73841 116 122 134
-8.45771 -16.2852 -1.20317 133 105 96
-8.47356 -16.1919 -1.19728 135 109 102
-8.58643 -16.2882 -1.20795 136 106 98
-8.27094 -12.3117 -1.02655 117 88 74
-9.05346 -12.5143 -1.07811 124 85 75
-9.14134 -12.5564 -1.08534 134 98 82
-9.25725 -12.6371 -1.09659 126 90 78
-9.26823 -12.5282 -1.0897 125 86 79
-9.46661 -12.7208 -1.11272 126 85 79
-9.61237 -12.8382 -1.12801 138 94 83
-9.75894 -12.9548 -1.14331 137 93 82
-9.85222 -12.9546 -1.14801 130 87 80
-9.91227 -12.9515 -1.15086 127 85 79
-9.9915 -12.9736 -1.1564 122 82 71
-10.0481 -12.9227 -1.15589 121 85 73
-10.0504 -12.8427 -1.15068 123 90 75
-10.2147 -12.9745 -1.16799 118 79 77
-10.2737 -12.9258 -1.16782 118 80 77
-10.3432 -12.8499 -1.16646 113 81 80
-10.5024 -12.9696 -1.18276 116 82 80
-10.5948 -12.9615 -1.18713 114 81 76
-10.6359 -12.9305 -1.18729 113 81 77
-10.7432 -12.9813 -1.19636 119 85 81
-10.8223 -12.9548 -1.19888 125 84 78
-10.8723 -12.9337 -1.20022 126 90 82
-10.8676 -12.8465 -1.19433 122 89 80
-10.9975 -12.9217 -1.20626 118 95 80
-11.2036 -12.9629 -1.22021 118 90 73
-11.277 -12.9678 -1.22457 114 87 78
-11.3488 -12.9292 -1.22608 121 93 82
-11.4666 -12.9845 -1.23616 113 88 76
-11.5339 -12.9807 -1.23969 114 95 78
-11.6256 -12.9631 -1.24372 97 85 61
-15.522 -12.0478 -1.43292 118 108 106
-16.0259 -11.8168 -1.45525 125 113 105
-16.0142 -11.7313 -1.4502 128 114 106
-16.0693 -11.6956 -1.45222 128 112 105
-16.1394 -11.6323 -1.45389 112 102 93
-16.1992 -11.5996 -1.45641 126 114 105
-16.2783 -11.5806 -1.46094 123 110 102
-16.361 -11.5253 -1.46396 127 114 106
-16.4385 -11.5043 -1.46833 126 115 109
-16.4932 -11.4669 -1.47034 128 117 113
-16.569 -11.4057 -1.47269 127 116 112
-16.599 -11.3507 -1.47218 126 117 110
-16.6681 -11.3227 -1.47571 121 112 107
-16.7307 -11.2898 -1.47856 84 74 75
-16.7663 -11.2005 -1.47688 108 91 87
-16.8402 -11.1749 -1.48091 116 97 90
-16.8495 -11.1058 -1.47838 116 99 89
-16.8642 -11.0029 -1.47468 106 90 83
-16.8596 -10.9252 -1.47081 123 112 109
-16.8813 -10.8651 -1.46963 124 112 113
-16.8911 -10.7973 -1.46728 121 110 109
-17.2471 -10.3952 -1.47515 118 108 109
-17.2839 -10.3445 -1.47565 120 110 111
-17.3035 -10.2834 -1.47447 118 107 113
-17.3571 -10.2427 -1.47665 121 110 116
-22.6205 -6.15806 -1.60216 142 137 139
-22.9432 -6.16868 -1.62661 146 140 142
-23.2932 -6.18447 -1.65321 143 133 131
-26.638 -3.88937 -1.73768 92 95 112
-26.6374 -3.804 -1.73681 96 97 115
-26.6642 -3.72255 -1.73797 111 112 130
-26.6865 -3.59769 -1.7384 115 116 133
-26.7086 -3.51543 -1.73926 109 113 129
-8.11512 -12.3639 -1.02304 111 83 74
-8.42738 -12.7687 -1.06607 109 96 73
-8.7403 -12.9463 -1.09312 119 83 70
-8.80531 -12.9578 -1.09698 119 82 74
-8.88861 -12.9522 -1.1005 119 79 76
-8.81653 -12.7579 -1.08352 120 78 74
-8.87802 -12.7639 -1.08688 116 78 71
-9.07047 -12.9624 -1.1099 118 80 75
-8.99662 -12.7253 -1.08989 124 80 79
-9.16924 -12.8911 -1.10972 122 82 80
-9.2225 -12.8826 -1.11174 122 85 82
-7.58342 -6.91429 -0.761486 69 70 42
-7.6165 -6.88053 -0.761674 82 83 52
-7.64164 -6.86106 -0.762245 98 101 73
-17.418 -10.1696 -1.47799 120 111 115
-17.4833 -10.1354 -1.48135 119 109 113
-17.5297 -10.0898 -1.48286 119 113 116
-17.5865 -10.0137 -1.48386 114 107 114
-17.617 -9.95884 -1.48386 116 109 116
-17.6456 -9.90288 -1.48369 119 114 118
-17.7294 -9.84168 -1.48738 123 117 122
-17.7576 -9.78539 -1.48721 122 116 121
-17.8239 -9.75019 -1.49073 125 118 125
-17.8624 -9.69935 -1.49157 122 115 122
-17.9262 -9.62612 -1.49342 122 114 125
-17.9695 -9.57772 -1.49476 121 115 125
-18.0408 -9.54414 -1.49879 125 119 125
-18.0864 -9.46055 -1.49895 125 120 127
-18.1204 -9.40686 -1.49945 125 117 128
-18.1879 -9.37049 -1.50315 126 116 125
-17.1516 -7.616 -1.3609 130 122 125
-17.131 -7.543 -1.35687 128 121 124
-17.1837 -7.47071 -1.35854 132 122 130
-23.6185 -6.15201 -1.67704 147 135 122
-23.9827 -6.16653 -1.70473 144 132 119
-24.2718 -6.15974 -1.72639 134 123 116
-26.7088 -3.43024 -1.73854 107 116 131
-26.7436 -3.30682 -1.73998 100 109 124
-26.7708 -3.22496 -1.74128 107 113 133
-26.7681 -3.13945 -1.74041 98 104 125
-26.8205 -3.06035 -1.74359 84 95 116
-7.77299 -12.7228 -1.0335 113 78 73
-7.86593 -12.7899 -1.04241 115 85 80
-8.02972 -12.9281 -1.05955 121 92 85
-8.088 -12.9343 -1.06257 120 85 82
-8.15674 -12.9572 -1.06727 112 81 76
-8.2117 -12.9114 -1.06643 105 87 71
-8.26608 -12.9101 -1.06877 111 95 74
-8.21312 -12.7361 -1.05398 101 90 64
-8.40996 -12.9623 -1.07902 103 96 67
-8.59369 -12.9406 -1.0859 115 100 76
-11.9723 -12.2903 -1.27004 169 143 61
-12.2172 -12.275 -1.2841 105 120 74
-12.456 -12.2487 -1.29729 91 109 55
-12.5219 -12.2381 -1.30076 85 103 51
-12.6872 -12.2103 -1.30944 78 88 47
-12.8251 -12.1922 -1.31707 84 86 64
-12.8757 -12.1271 -1.31637 73 79 52
-12.9519 -12.1241 -1.32106 86 94 66
-13.0137 -12.1071 -1.32401 60 66 40
-13.1135 -12.0872 -1.32922 64 72 40
-18.2553 -9.33379 -1.50684 123 117 124
-18.3283 -9.26364 -1.5097 124 119 124
-18.3955 -9.22618 -1.51339 123 116 119
-18.4413 -9.17767 -1.51507 122 116 121
-18.4852 -9.09211 -1.51523 127 118 123
-18.545 -9.05021 -1.51825 132 120 122
-18.585 -8.9984 -1.51943 131 124 118
-18.6513 -8.92339 -1.52178 139 125 125
-18.6946 -8.87286 -1.52329 139 130 124
-18.7287 -8.81787 -1.52395 140 130 123
-18.7518 -8.75765 -1.52361 89 73 75
-18.7884 -8.66804 -1.52327 120 102 99
-24.561 -6.11028 -1.74727 127 117 125
-24.587 -6.03512 -1.74789 125 120 126
-24.5895 -5.95423 -1.74665 123 122 130
-24.5917 -5.87339 -1.74541 127 127 135
-24.6047 -5.75446 -1.74432 117 116 124
-24.6179 -5.67636 -1.74401 125 124 132
-7.47192 -12.8414 -1.02933 119 92 80
-7.56096 -12.8593 -1.03436 123 89 81
-7.637 -12.9003 -1.04058 123 89 81
-7.71932 -12.9514 -1.0478 127 96 91
-7.76347 -12.8885 -1.04511 123 89 82
-7.85035 -12.9457 -1.05301 122 89 82
-9.95146 -12.5312 -1.16922 120 83 78
-10.3619 -12.3326 -1.17839 114 84 74
-10.6889 -12.6476 -1.21783 112 87 74
-10.8333 -12.7002 -1.22946 112 97 69
-10.8298 -12.6167 -1.22373 119 104 75
-10.9833 -12.7181 -1.23919 122 102 77
-11.1762 -12.7429 -1.25186 113 91 78
-11.2741 -12.776 -1.25967 97 81 67
-11.333 -12.7636 -1.26228 104 97 67
-11.4158 -12.7379 -1.2654 102 106 69
-11.4853 -12.7368 -1.26939 96 101 58
-11.4779 -12.6495 -1.26331 86 93 52
-11.5714 -12.6746 -1.27042 88 98 57
-11.5778 -12.5636 -1.26364 85 96 57
-11.5518 -12.4574 -1.2553 101 106 67
-11.6129 -12.4466 -1.25825 100 113 69
-11.6447 -12.3651 -1.25494 88 108 66
-11.7207 -12.3697 -1.2598 79 95 62
-11.7736 -12.3494 -1.26171 73 87 51
-11.8829 -12.3496 -1.26831 98 118 63
-11.9455 -12.3387 -1.27143 99 103 42
-12.0723 -12.3176 -1.27785 195 159 80
-12.1753 -12.3084 -1.28358 101 87 58
-12.315 -12.298 -1.29156 75 93 48
-12.424 -12.2928 -1.29799 103 123 74
-12.6426 -12.2425 -1.30857 113 128 80
-12.7919 -12.236 -1.3176 85 86 54
-13.4803 -12.0848 -1.35283 137 127 112
-13.5706 -12.0909 -1.35908 132 124 111
-13.6596 -12.0951 -1.36516 127 119 108
-13.7767 -12.0856 -1.37228 122 113 107
-13.8646 -12.0875 -1.37818 124 115 109
-13.9571 -12.0929 -1.3846 126 119 112
-14.0732 -12.0799 -1.39155 120 111 107
-14.1736 -12.0907 -1.39884 121 112 111
-14.2637 -12.0919 -1.40492 112 108 115
-14.3675 -12.1042 -1.41256 108 108 120
-14.4814 -12.0859 -1.41916 139 137 150
-14.578 -12.0907 -1.42593 151 145 155
-14.6855 -12.1038 -1.43392 159 150 153
-14.8014 -12.0846 -1.44069 141 137 144
-14.8708 -12.0651 -1.44433 126 117 125
-14.9325 -12.0389 -1.44711 124 105 105
-14.9928 -11.973 -1.44762 119 107 100
-14.9937 -11.8978 -1.44362 105 94 90
-15.0675 -11.8809 -1.44779 107 98 95
-15.1008 -11.8316 -1.44744 104 95 93
-15.1711 -11.7733 -1.44917 117 106 103
-15.226 -11.7408 -1.45125 116 106 100
-8.8908 -6.73261 -0.847957 121 110 103
-15.6719 -11.5526 -1.4726 124 114 112
-15.7153 -11.5097 -1.47346 127 116 112
-15.7778 -11.4808 -1.47641 123 112 110
-15.8566 -11.4257 -1.47919 127 113 112
-15.8996 -11.3822 -1.48005 130 116 115
-15.9636 -11.3535 -1.48318 128 114 113
-16.0127 -11.2766 -1.48282 122 113 109
-16.0716 -11.2439 -1.48543 127 116 112
-16.0896 -11.1825 -1.48368 126 115 111
-16.1199 -11.0925 -1.48142 127 116 114
-16.1144 -11.0153 -1.47725 123 114 107
-16.1086 -10.9382 -1.47307 125 116 111
-16.0595 -10.8322 -1.46438 92 80 82
-16.1294 -10.7704 -1.46646 108 91 87
-16.1639 -10.7212 -1.46663 120 101 94
-16.1933 -10.6687 -1.46628 113 96 86
-16.2491 -10.5973 -1.46697 104 90 85
-16.2931 -10.5543 -1.46819 118 107 109
-16.3504 -10.5197 -1.47079 120 107 114
-18.8345 -8.61851 -1.52512 123 103 91
-18.8769 -8.5671 -1.52663 137 123 116
-18.9234 -8.48185 -1.5273 127 121 125
-19.069 -8.22854 -1.53014 129 123 131
-19.1249 -8.18234 -1.533 128 123 129
-19.1735 -8.13273 -1.53518 129 124 130
-19.2327 -8.05207 -1.53719 133 127 134
-24.6348 -5.59911 -1.74401 146 144 155
-24.6387 -5.47839 -1.7423 122 120 134
-24.6627 -5.40276 -1.74292 110 108 122
-24.6632 -5.32201 -1.74168 118 119 132
-24.6711 -5.24296 -1.74106 115 119 132
-24.6927 -5.12638 -1.7409 115 115 131
-26.9467 -2.26317 -1.74748 87 102 128
-26.943 -2.17767 -1.74676 147 156 173
-28.3389 -0.386475 -1.74308 84 100 126
-28.3177 -0.259205 -1.74147 81 98 124
-28.3534 -0.174837 -1.74406 84 101 127
-6.96765 -12.86 -1.0102 122 84 75
-6.97677 -12.7807 -1.00465 121 84 75
-7.05972 -12.8423 -1.01255 119 80 75
-7.09033 -12.7558 -1.00733 119 82 76
-7.10884 -12.6957 -1.00363 124 88 79
-7.23318 -12.8317 -1.01875 117 84 75
-7.30029 -12.8605 -1.02363 125 94 85
-7.40231 -12.9039 -1.03102 123 90 79
-7.46812 -12.9284 -1.03555 131 100 89
-9.0048 -12.5946 -1.12411 118 79 77
-9.03439 -12.5126 -1.11976 121 84 76
-9.16978 -12.621 -1.13435 128 94 82
-9.21198 -12.5977 -1.13487 129 89 81
-9.2598 -12.5408 -1.1333 124 85 78
-9.32875 -12.5541 -1.13781 130 90 83
-9.78254 -12.8806 -1.18436 125 84 75
-9.88663 -12.9365 -1.19374 125 83 75
-9.97075 -12.9648 -1.20017 141 104 83
-10.09 -12.9962 -1.20867 116 85 70
-10.0862 -12.9084 -1.20242 132 101 93
-10.0028 -12.7185 -1.18486 124 97 88
-10.0539 -12.5819 -1.17825 124 84 82
-10.395 -12.9332 -1.22081 122 85 83
-10.4657 -12.9401 -1.22515 114 81 77
-10.5855 -12.9661 -1.23349 115 88 79
-10.574 -12.8701 -1.22636 111 85 77
-10.6788 -12.9177 -1.23539 104 80 71
-10.8221 -12.9697 -1.24685 115 85 75
-11.1752 -12.8624 -1.25968 117 100 81
-8.93486 -6.87608 -0.859646 131 119 110
-8.88459 -6.77109 -0.849684 114 103 97
-8.95999 -6.74253 -0.85389 120 110 107
-8.95117 -6.67077 -0.849099 115 105 104
-8.99825 -6.66335 -0.852352 127 117 115
-16.4173 -10.455 -1.47269 119 108 114
-16.4627 -10.4123 -1.47408 119 108 116
-16.7488 -10.0911 -1.48083 132 122 123
-16.7795 -10.0389 -1.48083 129 119 120
-16.822 -9.99365 -1.48204 130 120 121
-16.8456 -9.93712 -1.48134 126 116 119
-16.9257 -9.87836 -1.48481 133 123 124
-16.9764 -9.83755 -1.4869 128 118 116
-17.0254 -9.79552 -1.4888 131 120 121
-17.0739 -9.71776 -1.48915 131 120 125
-17.1138 -9.67036 -1.49019 130 120 124
-17.1693 -9.63158 -1.49279 127 118 122
-17.231 -9.56083 -1.49452 125 116 122
-17.281 -9.5186 -1.4966 126 118 123
-19.2625 -7.99424 -1.53769 135 125 133
-19.2922 -7.93629 -1.53819 133 126 133
-19.3653 -7.86085 -1.54155 133 126 133
-19.389 -7.80028 -1.54155 134 130 133
-19.4421 -7.75153 -1.54424 134 132 137
-19.496 -7.66762 -1.54591 135 130 136
-19.534 -7.61247 -1.54725 134 129 135
-19.5625 -7.55352 -1.54776 133 128 134
-19.5908 -7.49448 -1.54826 137 130 137
-24.6942 -5.0461 -1.73981 114 113 129
-24.715 -4.96975 -1.74028 113 113 129
-24.7549 -4.85681 -1.74167 103 103 120
-24.7614 -4.7776 -1.74105 104 110 126
-24.7794 -4.7006 -1.74135 102 108 124
-27.0529 -1.97296 -1.7537 85 103 131
-27.076 -1.8892 -1.75499 88 105 133
-27.071 -1.80342 -1.75427 86 101 128
-28.3629 -0.0901431 -1.74477 86 102 128
-6.11728 -12.4213 -0.944863 123 90 88
-6.64937 -12.9255 -1.00284 123 84 76
-6.66352 -12.8537 -0.997957 127 88 83
-6.70842 -12.8442 -0.998961 122 82 77
-6.78874 -12.8547 -1.00282 118 80 74
-6.88339 -12.9424 -1.01307 119 82 76
-6.93686 -12.9481 -1.01559 123 86 79
-8.04851 -12.5021 -1.07083 102 96 67
-8.15214 -12.4522 -1.07203 101 85 67
-8.3107 -12.5291 -1.08523 110 101 72
-8.28695 -12.3662 -1.07219 122 104 85
-8.82937 -12.8018 -1.13021 119 81 78
-8.9246 -12.857 -1.1389 120 82 78
-9.06862 -12.9823 -1.15505 119 82 76
-8.99859 -12.7525 -1.13506 119 84 78
-9.07638 -12.7804 -1.14097 116 79 73
-9.68527 -12.9584 -1.18472 124 87 78
-9.75224 -12.9655 -1.18871 125 88 77
-17.3274 -9.47421 -1.49834 124 114 120
-17.3631 -9.42392 -1.49903 126 117 122
-17.4117 -9.3454 -1.49954 122 117 121
-17.4471 -9.29478 -1.50024 124 118 122
-17.4965 -9.25148 -1.50232 126 120 126
-17.5672 -9.18425 -1.50509 123 117 127
-17.6339 -9.14959 -1.50891 123 116 126
-17.713 -9.12097 -1.51395 128 120 127
-17.7815 -9.0515 -1.51655 124 113 115
-17.8232 -9.00314 -1.51794 124 114 114
-17.8737 -8.95907 -1.52019 139 129 128
-17.9062 -8.90588 -1.52071 143 132 127
-17.9542 -8.82544 -1.5214 148 138 126
-17.1652 -7.62411 -1.41521 127 124 131
-17.1317 -7.54556 -1.40982 128 125 132
-17.2027 -7.48106 -1.41329 131 125 135
-19.6399 -7.40817 -1.5496 134 128 132
-19.6809 -7.35375 -1.55128 136 128 133
-19.7421 -7.30679 -1.5548 137 128 133
-19.7941 -7.22096 -1.55648 137 128 130
-19.814 -7.15835 -1.55631 144 133 137
-19.8468 -7.10039 -1.55731 144 135 131
-19.9147 -7.01987 -1.5605 142 132 132
-24.8122 -4.58606 -1.74228 98 103 122
-24.8237 -4.50782 -1.74212 98 103 122
-24.831 -4.42883 -1.74166 102 105 124
-24.8597 -4.35361 -1.74289 97 103 119
-24.8811 -4.23685 -1.74304 101 106 125
-24.8875 -4.15774 -1.74258 104 109 128
-27.0704 -1.67526 -1.75369 85 101 126
-27.0767 -1.59028 -1.75383 85 102 130
-27.1185 -1.50729 -1.75658 84 101 129
-27.0927 -1.37775 -1.75426 86 103 129
-6.30629 -12.9289 -0.990426 122 88 86
-6.43763 -12.9477 -0.996636 113 82 79
-6.4852 -12.9445 -0.998144 122 87 84
-6.53368 -12.9429 -0.999821 116 79 78
-6.60866 -12.9437 -1.00267 127 84 78
-7.71074 -12.5596 -1.05956 115 85 76
-7.8945 -12.732 -1.08076 109 91 74
-8.03186 -12.7803 -1.09065 109 77 72
-8.16129 -12.8568 -1.10229 106 88 75
-8.17231 -12.7864 -1.09759 108 96 75
-8.42962 -12.9739 -1.12347 96 91 66
-8.39931 -12.7517 -1.10574 106 100 70
-8.72586 -12.9486 -1.13579 107 84 70
-8.81734 -12.9997 -1.14395 119 83 75
-8.88313 -12.9675 -1.14481 120 82 79
-18.0168 -8.7868 -1.52487 149 134 127
-18.0326 -8.72529 -1.52383 144 134 125
-18.105 -8.65619 -1.52695 142 133 132
-18.1438 -8.60558 -1.52816 135 130 129
-18.1951 -8.56074 -1.53059 132 124 123
-18.203 -8.49544 -1.52885 80 68 70
-18.2636 -8.42006 -1.53093 119 102 94
-18.2782 -8.35798 -1.52989 122 104 98
-18.3162 -8.3066 -1.5311 134 124 124
-18.3597 -8.2231 -1.53162 130 124 134
-19.9846 -6.97472 -1.56487 144 136 136
-20.0225 -6.91807 -1.56638 146 138 138
-20.0414 -6.85474 -1.56621 150 141 140
-20.1159 -6.77534 -1.57007 146 136 134
-20.1815 -6.72759 -1.5741 150 142 140
-20.2055 -6.66566 -1.57444 137 131 131
-20.2641 -6.58004 -1.57695 135 129 134
-24.9233 -4.08344 -1.74443 105 111 127
-24.9335 -3.96478 -1.74381 109 112 129
-24.9509 -3.8874 -1.74427 113 116 133
-24.9701 -3.81024 -1.74489 96 99 118
-27.0901 -1.29229 -1.75383 86 101 129
-27.1031 -1.20757 -1.75455 88 103 130
-27.0801 -1.12126 -1.75267 89 103 130
-27.0982 -0.994061 -1.75368 83 100 128
-6.1212 -13.0019 -0.989436 92 69 63
-6.16122 -12.9835 -0.989431 98 70 69
-6.21685 -12.9994 -0.992621 113 82 80
-6.28394 -12.9857 -0.993961 111 81 77
-7.62109 -12.902 -1.08131 118 85 71
-7.68663 -12.9236 -1.08582 122 91 75
-7.74149 -12.8798 -1.08494 118 80 71
-7.83357 -12.9453 -1.09398 110 70 63
-7.9099 -12.983 -1.10023 115 76 70
-8.0412 -12.8845 -1.09882 110 85 74
-7.59335 -6.8889 -0.803338 121 112 106
-7.61118 -6.86284 -0.802934 121 112 105
-7.64506 -6.85143 -0.804734 119 110 105
-18.5199 -7.98539 -1.53629 128 125 132
-18.5495 -7.92981 -1.53681 130 127 133
-18.5973 -7.88189 -1.53907 130 128 133
-18.6315 -7.79382 -1.53889 132 125 131
-18.679 -7.74545 -1.54114 134 127 134
-18.7355 -7.70062 -1.54427 132 125 132
-18.7873 -7.61939 -1.54583 134 129 136
-20.3084 -6.52457 -1.57914 137 132 138
-20.345 -6.46645 -1.58065 137 132 138
-20.3834 -6.40875 -1.58232 137 132 138
-20.4257 -6.31714 -1.5835 138 133 137
-20.5207 -6.27663 -1.59022 138 133 136
-20.5623 -6.21934 -1.59223 141 133 135
-24.9948 -3.69375 -1.74551 106 111 130
-25.0015 -3.61469 -1.74519 107 113 129
-25.0277 -3.53839 -1.74643 106 112 126
-25.0419 -3.46031 -1.74674 108 112 126
-25.0491 -3.34127 -1.74612 100 107 122
-27.0904 -0.908505 -1.75296 87 102 131
