-42.1593 -13.5736 0.491153 84 80 81
-42.7767 -13.6244 0.495042 108 98 93
-43.6817 -13.6864 0.500728 90 75 79
-42.0198 -12.7342 0.488673 84 89 71
-42.4218 -12.6384 0.490978 88 98 71
-43.0114 -12.6672 0.494671 84 98 71
-44.6332 -12.9922 0.505289 80 95 68
-44.715 -12.6368 0.505159 86 94 67
-45.0755 -12.5861 0.507303 66 81 64
-43.4474 -6.98609 0.489085 86 70 65
-44.6022 -6.8842 0.496299 83 78 75
-44.4651 -6.64897 0.49519 90 80 77
-44.4771 -6.50815 0.495121 100 92 85
-44.4549 -6.36249 0.494834 123 104 95
-8.17365 -15.4558 0.117246 155 129 56
-8.82595 -14.8618 0.118609 240 118 107
-8.84204 -14.5243 0.120112 241 117 105
-8.86931 -14.4681 0.120305 241 117 105
-8.98111 -14.5007 0.119893 241 117 105
-9.09446 -14.4846 0.119699 240 116 104
-9.51546 -12.8674 0.125728 255 249 205
-9.58096 -12.8736 0.125522 226 210 172
-9.65014 -12.8844 0.125286 250 243 203
-9.71236 -12.8852 0.12511 254 249 198
-9.79967 -12.8771 0.124899 240 123 113
-9.86932 -12.8868 0.124663 214 110 117
-9.94396 -12.9025 0.124386 255 238 220
-10.0245 -12.8835 0.124236 255 253 205
-10.0946 -12.8922 0.124 254 251 208
-10.1624 -12.8973 0.123783 255 253 205
-10.2518 -12.888 0.123563 252 248 202
-15.7517 -12.8521 0.191527 179 98 114
-15.8792 -12.8341 0.191481 171 87 104
-15.9945 -12.8465 0.191422 167 81 99
-16.1055 -12.8544 0.191368 163 73 93
-16.2367 -12.8365 0.191318 185 56 88
-16.3465 -12.8419 0.191265 197 61 92
-16.4627 -12.8516 0.191206 201 57 90
-16.5729 -12.8559 0.191153 187 54 82
-16.7128 -12.8409 0.191096 207 109 124
-16.8329 -12.8511 0.191034 203 63 92
-18.2817 -7.36338 0.192598 84 59 64
-18.2743 -7.29422 0.192622 91 71 72
-48.6773 -13.9194 0.531989 97 106 76
-46.8375 -12.8401 0.518681 141 144 137
-47.8 -12.9426 0.524834 93 87 77
-47.9633 -12.8255 0.525648 112 101 95
-52.5289 -12.8159 0.554094 124 111 95
-52.1473 -12.2907 0.550898 105 102 115
-53.6192 -7.06806 0.553799 95 86 87
-53.5649 -6.88996 0.553288 100 90 83
-8.63625 -16.0459 0.113526 96 76 49
-9.18624 -14.7358 0.118346 241 117 105
-10.3223 -12.8956 0.123326 255 247 212
-10.3893 -12.8982 0.12312 255 248 213
-10.4803 -12.8891 0.122889 255 249 169
-10.5538 -12.8987 0.122633 231 109 97
-10.6262 -12.9065 0.122386 216 110 132
-10.695 -12.9093 0.12217 255 243 205
-10.7803 -12.8905 0.121989 228 144 138
-10.8608 -12.9064 0.121682 212 122 127
-10.9325 -12.9112 0.121446 210 149 148
-11.0246 -12.8987 0.121215 245 193 195
-16.9452 -12.8545 0.190979 202 59 89
-17.0874 -12.8381 0.190921 203 58 85
-17.2049 -12.8438 0.190862 182 51 80
-17.3227 -12.8489 0.190803 170 51 81
-17.4575 -12.8238 0.190751 175 61 86
-17.5788 -12.8298 0.190689 200 59 91
-17.702 -12.8364 0.190625 200 58 89
-17.8253 -12.8423 0.190562 188 51 83
-17.9674 -12.8184 0.190504 183 69 97
-18.0928 -12.824 0.190439 194 56 89
-18.22 -12.8301 0.190372 190 69 98
-18.3741 -12.8115 0.190305 200 50 86
-13.3127 -7.27238 0.131281 202 60 87
-13.2978 -7.21079 0.131496 215 67 98
-13.3283 -7.17404 0.131451 215 69 101
-53.3015 -12.8271 0.558939 85 84 74
-62.0233 -12.7772 0.613594 109 86 73
-60.2967 -11.9301 0.601589 138 116 83
-62.7548 -12.2109 0.61745 100 80 55
-63.8729 -11.7015 0.623865 130 106 72
-63.5678 -11.4398 0.621614 131 109 68
-58.4549 -7.05044 0.584578 128 110 96
-58.5535 -6.87587 0.585054 142 120 105
-63.7337 -6.97495 0.61817 129 102 92
-63.4839 -6.74612 0.616392 141 107 106
-67.0021 -6.58694 0.638732 71 71 69
-66.7069 -6.34664 0.636669 182 185 172
-66.7995 -6.14382 0.637113 112 99 92
-11.1017 -12.9088 0.120938 198 110 126
-11.1596 -12.8957 0.120812 255 218 204
-11.2546 -12.8848 0.120561 227 100 112
-11.3283 -12.8892 0.120314 241 83 120
-11.4021 -12.8933 0.120068 216 127 152
-11.4853 -12.9076 0.119751 229 183 173
-11.5717 -12.8841 0.11957 244 173 184
-11.6445 -12.8856 0.119333 255 235 209
-11.7255 -12.8956 0.119036 255 244 199
-11.8189 -12.8781 0.118805 255 241 191
-11.8909 -12.877 0.118578 255 221 181
-11.9696 -12.8828 0.118301 252 190 164
-8.29596 -7.34301 0.0737832 210 173 169
-8.29447 -7.29606 0.0741819 209 169 169
-8.31207 -7.26655 0.0742642 167 54 77
-8.36929 -7.24942 0.073887 178 69 93
-18.4936 -12.8103 0.190245 205 60 96
-18.6281 -12.8187 0.190172 175 81 105
-18.7795 -12.7948 0.190107 143 131 129
-18.9161 -12.8027 0.190033 155 146 135
-19.0512 -12.8087 0.189961 186 125 122
-19.1865 -12.814 0.189888 216 69 102
-19.3472 -12.7917 0.189815 215 65 101
-19.4863 -12.7975 0.18974 223 62 107
-19.6357 -12.8091 0.189655 191 49 90
-19.7987 -12.7847 0.189581 206 61 90
-19.9284 -12.7815 0.189514 219 64 96
-68.4681 -14.3261 0.656271 159 153 141
-67.5611 -11.9379 0.64746 147 132 85
-12.0647 -12.8652 0.11806 235 150 180
-12.1356 -12.8615 0.117843 255 240 210
-12.2217 -12.8734 0.117516 255 240 205
-12.2983 -12.8748 0.117259 252 244 197
-12.3856 -12.8464 0.117078 251 239 197
-12.4791 -12.8643 0.1167 255 243 200
-12.5534 -12.8615 0.116463 255 243 198
-12.6521 -12.8431 0.116202 255 215 189
-12.7349 -12.8481 0.115904 231 77 99
-12.8152 -12.8499 0.115627 237 112 136
-12.9298 -12.8454 0.115255 158 114 89
-13.0032 -12.8391 0.115028 174 128 95
-20.5791 -12.7986 0.189156 201 62 94
-20.7371 -12.8082 0.189065 201 62 91
-20.9221 -12.7885 0.188974 189 64 88
-21.0908 -12.8023 0.188875 200 61 93
-21.2615 -12.8163 0.188774 203 61 93
-21.4491 -12.7937 0.188681 198 61 91
-21.6238 -12.8076 0.188577 186 56 84
-23.3319 -7.35583 0.189269 79 68 80
-23.2453 -7.20854 0.189358 108 88 88
-13.0839 -12.8396 0.11475 192 142 107
-13.1675 -12.8424 0.114453 179 138 108
-13.2743 -12.8271 0.114141 226 169 164
-13.3553 -12.8262 0.113863 192 58 89
-13.4423 -12.8305 0.113546 196 57 88
-13.5538 -12.8175 0.113203 215 162 177
-13.6484 -12.8277 0.112836 210 169 182
-13.7515 -12.8051 0.112553 218 172 185
-13.842 -12.8101 0.112216 219 181 185
-13.9312 -12.8133 0.111888 214 181 180
-14.0221 -12.8174 0.11155 189 108 123
-21.7971 -12.8194 0.188475 189 73 100
-21.9977 -12.8 0.188372 112 78 77
-22.1784 -12.8136 0.188264 123 96 82
-22.3491 -12.8202 0.188164 139 84 71
-22.5374 -12.8358 0.18805 205 91 103
-22.7322 -12.8069 0.187952 222 67 104
-22.9229 -12.8211 0.187837 215 69 97
-5.66632 -12.4829 0.0394509 117 85 50
-5.68488 -12.4201 0.0400844 122 103 72
-5.7474 -12.4055 0.0399616 78 60 38
-5.79041 -12.3992 0.0398331 105 82 65
-14.1361 -12.8018 0.111197 204 62 92
-14.2243 -12.8022 0.11088 212 139 151
-14.7527 -12.7914 0.109 181 57 100
-14.8464 -12.7926 0.108651 181 54 79
-14.9538 -12.8052 0.108213 222 158 177
-15.06 -12.8159 0.107785 212 160 176
-15.1727 -12.7908 0.107452 209 177 172
-23.9033 -12.7916 0.187281 201 63 90
-24.1028 -12.8025 0.187159 200 54 88
-24.2937 -12.8076 0.187044 203 63 95
-24.5079 -12.8237 0.186911 207 59 92
-24.7142 -12.7852 0.186805 191 59 85
-24.9148 -12.7912 0.186683 192 58 88
-25.1353 -12.8062 0.186545 198 61 89
-25.3548 -12.7694 0.186429 195 62 88
-25.5741 -12.7806 0.186292 189 61 88
-25.7955 -12.7915 0.186154 186 62 88
-26.0391 -12.7612 0.186019 177 66 85
-3.14278 -7.31752 0.00656403 85 74 47
-3.16133 -7.29911 0.00683147 91 69 47
-3.19349 -7.28161 0.00694839 136 126 77
-3.21262 -7.26492 0.00716449 132 125 65
-3.24524 -7.28148 0.00646038 132 114 69
-15.2839 -12.8041 0.106993 180 119 130
-15.3937 -12.8156 0.106545 197 112 139
-15.5239 -12.8024 0.106101 193 60 92
-15.6295 -12.8088 0.105683 212 157 163
-15.7385 -12.8171 0.105244 177 138 147
-15.8678 -12.8002 0.104811 203 143 168
-15.9771 -12.8073 0.104372 202 153 172
-16.0914 -12.8175 0.103903 201 162 167
-16.2105 -12.8308 0.103404 157 82 99
-16.3422 -12.812 0.102961 196 94 107
-16.4572 -12.8202 0.102492 169 88 93
-26.2576 -12.7675 0.185883 173 87 93
-26.48 -12.7742 0.185744 150 81 72
-26.7405 -12.7978 0.185576 156 92 82
-27.007 -12.7707 0.185424 164 86 73
-27.0533 -12.6895 0.185422 181 103 89
-27.2169 -12.6632 0.185329 172 82 76
-26.416 -12.1379 0.186 185 81 78
-26.9651 -12.2899 0.185609 189 72 92
-27.0827 -12.2418 0.18555 185 62 87
-28.6242 -12.7812 0.184417 175 62 85
-18.1779 -7.4003 0.109099 209 82 103
-18.2191 -7.31791 0.109064 212 77 106
-18.2282 -7.25571 0.109136 217 88 116
-27.6533 -7.31919 0.186316 106 95 70
-27.6676 -7.23036 0.186317 109 105 66
-29.124 -6.78993 0.185357 185 178 170
-28.8038 -6.61977 0.185598 91 76 81
-6.69791 -12.805 0.0307701 70 53 12
-6.91925 -12.4647 0.0333414 93 81 53
-7.04632 -12.6093 0.0310544 117 97 47
-8.28157 -7.3781 0.0357462 207 174 178
-8.29638 -7.34588 0.0359123 165 111 133
-8.30959 -7.31232 0.0361095 148 69 93
-8.34753 -7.27782 0.0360285 193 58 98
-16.577 -12.8315 0.101993 186 149 147
-16.703 -12.8052 0.10159 180 138 140
-16.8233 -12.8152 0.101091 190 122 126
-16.9439 -12.8244 0.100591 192 93 113
-17.0831 -12.8053 0.100108 170 55 81
-17.1913 -12.8035 0.0996886 216 165 175
-17.3237 -12.8191 0.0991193 176 124 136
-17.4556 -12.7914 0.0986854 158 50 79
-17.5756 -12.7959 0.0981961 201 57 91
-17.7055 -12.8069 0.0976467 201 62 94
-17.8226 -12.8078 0.0971774 170 59 80
-28.8896 -12.7922 0.184246 175 74 81
-29.1571 -12.8025 0.184074 177 62 83
-29.4304 -12.7587 0.183917 193 71 95
-29.0807 -12.4985 0.184215 174 63 76
-30.0002 -12.7849 0.183546 188 71 87
-30.2746 -12.7907 0.183368 148 61 82
-30.2434 -12.6105 0.183443 125 91 81
-30.8888 -12.7677 0.182984 144 78 79
-31.1938 -12.7804 0.182783 196 64 95
-7.37458 -12.6501 0.0287553 135 67 49
-7.72443 -12.6231 0.0269892 241 117 105
-17.978 -12.793 0.0966031 170 96 113
-18.0907 -12.7889 0.0961637 194 133 144
-18.2264 -12.8005 0.0955841 222 174 173
-18.3693 -12.7735 0.0950897 173 63 85
-18.5005 -12.7799 0.0945401 185 63 94
-18.6336 -12.7868 0.0939803 150 92 106
-18.7871 -12.7637 0.0934258 147 136 130
-18.9223 -12.7701 0.0928559 162 145 135
-19.0561 -12.7747 0.0922961 191 91 107
-19.1918 -12.7796 0.0917261 214 69 105
-19.356 -12.7591 0.0911113 227 162 165
-19.4905 -12.7612 0.0905512 173 70 85
-11.2699 -7.12436 0.0466013 229 154 172
-11.2914 -7.08938 0.0466082 194 63 99
-11.3458 -7.05066 0.0463021 179 53 82
-32.1978 -12.7838 0.182135 211 60 98
-32.5392 -12.7434 0.181927 213 65 101
-32.9039 -12.7683 0.181682 210 70 105
-33.2522 -12.7846 0.181449 195 70 96
-33.6289 -12.8094 0.181195 194 75 100
-34.0168 -12.7752 0.180953 215 85 116
-34.3795 -12.7894 0.180709 203 81 109
-34.7539 -12.8056 0.180457 202 87 113
-35.1431 -12.7625 0.180214 183 72 105
-33.3894 -7.295 0.182303 102 101 83
-6.20217 -14.403 0.0150213 95 81 54
-6.3244 -14.5728 0.0125342 130 117 82
-6.86557 -14.4033 0.0119844 157 115 80
-6.90082 -14.3626 0.0122761 193 148 104
-7.12215 -14.1434 0.0136471 130 103 71
-7.09669 -13.9799 0.0156076 111 95 43
-7.17763 -14.0355 0.0145724 100 76 38
-7.25978 -14.0369 0.0141331 139 120 60
-7.81193 -13.0013 0.0224139 242 115 106
-7.81971 -12.9222 0.0232166 243 116 107
-8.2811 -13.0526 0.0190282 242 115 103
-8.33121 -12.9976 0.0192973 236 117 107
-8.38918 -13.001 0.0188994 229 113 108
-8.53325 -12.8292 0.0197853 252 193 152
-19.6402 -12.7725 0.0899011 158 82 92
-19.8036 -12.7476 0.0892961 206 68 102
-19.937 -12.7462 0.0887458 214 120 140
-20.5977 -12.7668 0.0859294 195 61 101
-20.7697 -12.7844 0.085159 176 52 81
-20.9432 -12.7568 0.0845034 146 56 73
-21.1072 -12.767 0.0837828 194 64 99
-35.4996 -12.7668 0.179975 182 76 102
-35.8771 -12.7765 0.179721 179 77 100
-36.2882 -12.7317 0.179461 176 78 103
-36.6967 -12.7467 0.179184 154 70 90
-37.1 -12.7573 0.178911 130 59 74
-37.5491 -12.781 0.178603 114 56 66
-38.0376 -12.7488 0.178286 73 56 71
-38.4896 -12.7669 0.177976 67 61 73
-38.3849 -7.38787 0.178748 120 104 96
-6.699 -15.345 0.00200573 108 98 54
-6.86059 -14.5114 0.0107835 102 87 41
-6.99885 -14.3983 0.011395 107 80 51
-7.23422 -14.7841 0.0058899 84 65 52
-7.38652 -14.8083 0.00485956 129 105 62
-8.18267 -13.3057 0.0169392 244 118 106
-8.20823 -13.255 0.0173255 242 116 104
-8.29595 -13.1682 0.0177118 242 115 106
-8.53763 -13.1479 0.0164206 230 80 102
-8.52253 -13.034 0.0177118 217 62 93
-8.54107 -12.9293 0.0186905 245 147 129
-8.59772 -12.8417 0.0192402 255 205 137
-8.67704 -12.8323 0.0188235 238 119 105
-8.74291 -12.8458 0.0182541 231 113 100
-8.80453 -12.8523 0.0177825 242 116 104
-8.88646 -12.845 0.0173168 242 115 106
-8.95056 -12.8542 0.0167963 241 114 105
-9.01482 -12.8631 0.0162758 242 114 104
-9.07583 -12.8668 0.0158287 243 114 108
-9.15828 -12.8579 0.0153631 239 116 129
-9.22409 -12.8676 0.0148181 251 210 204
-9.28889 -12.8753 0.0142976 255 247 185
-9.3752 -12.87 0.0137586 254 252 207
-21.2921 -12.7887 0.0829422 195 61 96
-21.4819 -12.7665 0.0821966 146 60 75
-21.645 -12.7727 0.0814857 215 153 159
-21.8274 -12.789 0.0806649 121 43 62
-22.0163 -12.7619 0.0799289 113 90 86
-22.2062 -12.78 0.0790679 106 86 76
-22.3878 -12.792 0.0782569 175 157 136
-22.5609 -12.7981 0.0774956 245 201 187
-22.7736 -12.7784 0.0766295 209 123 141
-22.9595 -12.789 0.0757982 220 183 178
-43.428 -14.2608 0.174349 65 60 74
-43.1366 -13.9403 0.174613 55 53 67
-43.0404 -13.7603 0.17471 109 98 97
-23.2457 -7.28819 0.0854361 71 53 66
-23.2407 -7.16708 0.0856372 100 83 85
-42.0408 -12.7888 0.175563 74 62 61
-42.468 -12.774 0.175272 82 89 72
-43.0647 -12.7335 0.174874 83 92 66
-43.5904 -12.741 0.17451 72 77 60
-44.9202 -12.7498 0.173596 89 96 78
-44.5209 -12.4853 0.173909 89 89 79
-45.0592 -12.4845 0.173535 69 74 75
-43.3774 -7.22874 0.175177 91 76 71
-44.4587 -6.76552 0.174405 129 130 135
-7.00048 -15.8595 -0.0052429 142 122 69
-5.67697 -12.5566 -0.00862768 164 125 80
-5.68668 -12.4737 -0.00747282 143 110 79
-5.74042 -12.4389 -0.00728983 100 70 52
-5.79408 -12.4563 -0.00786966 179 141 92
-7.82391 -14.9401 0.00114217 92 84 61
-7.86178 -14.7293 0.00327788 102 84 49
-7.88106 -14.4887 0.00582927 168 160 103
-7.93413 -14.4806 0.00562943 132 119 68
-8.2124 -14.6203 0.00255952 167 133 48
-8.26495 -14.5018 0.00355735 195 175 70
-8.30166 -14.2006 0.006616 158 84 70
-8.54602 -14.4749 0.00223119 233 136 104
-9.44145 -12.8787 0.0132136 178 144 102
-9.50551 -12.8838 0.0127177 255 246 205
-9.59228 -12.8772 0.0121786 252 253 210
-9.6625 -12.8897 0.0115603 249 254 209
-9.7246 -12.8906 0.0111132 254 249 198
-9.79511 -12.9025 0.010495 255 239 198
-9.88009 -12.8909 0.0100048 231 109 119
-9.94493 -12.8941 0.00950879 201 126 134
-10.0159 -12.905 0.00889062 252 243 205
-10.1 -12.8905 0.00842482 255 241 204
-10.175 -12.9054 0.00773337 222 183 165
-10.2391 -12.9057 0.00726177 192 144 123
-23.13 -12.7899 0.0750566 206 168 180
-13.2861 -7.28088 0.0245275 196 61 89
-13.3124 -7.21495 0.0246335 188 91 103
-13.3587 -7.1869 0.0242991 226 179 169
-24.1566 -12.774 0.0706186 159 76 80
-24.3481 -12.7784 0.0697666 185 66 84
-24.554 -12.7891 0.0688346 197 57 97
-24.7785 -12.759 0.0679175 168 77 96
-24.9833 -12.7662 0.0669953 195 66 95
-25.1829 -12.7694 0.0661029 174 52 80
-47.4592 -12.9117 0.171818 95 98 92
-46.9491 -12.6144 0.17221 90 82 78
-48.3679 -12.1061 0.17128 84 96 75
-47.4714 -11.6438 0.171965 92 99 81
-49.6841 -12.0233 0.17037 80 86 73
-50.517 -12.0578 0.169778 84 94 78
-3.12565 -7.29469 -0.0211027 79 65 38
-3.15241 -7.26439 -0.0205614 101 82 46
-3.17742 -7.26263 -0.0207836 118 107 65
-3.19711 -7.24785 -0.0205963 116 106 53
-3.23732 -7.25046 -0.021108 165 140 89
-8.40022 -14.8565 -0.00107317 184 159 41
-10.3334 -12.9024 0.00660055 255 243 210
-10.3978 -12.902 0.00612893 194 142 119
-10.4722 -12.9139 0.00546193 252 208 177
-10.5418 -12.9192 0.00489253 227 94 97
-10.628 -12.9031 0.00440232 232 110 141
-10.7016 -12.9123 0.00375966 255 228 223
-10.7729 -12.918 0.00316582 201 154 148
-10.8594 -12.9006 0.00267556 241 204 196
-10.9309 -12.9056 0.00208179 226 195 180
-11.0077 -12.9164 0.0013903 215 192 181
-11.0959 -12.8991 0.000875581 250 207 184
-11.1704 -12.906 0.000232979 252 212 195
-25.4226 -12.7417 0.0651055 208 160 163
-25.6408 -12.7512 0.0641131 166 78 91
-25.8574 -12.7586 0.0631305 190 117 129
-26.1124 -12.7327 0.0620529 196 156 156
-26.3333 -12.7389 0.0610501 173 124 119
-26.5797 -12.7561 0.0599074 152 102 95
-26.8229 -12.77 0.0587846 149 104 98
-27.0774 -12.7359 0.0577164 198 140 133
-26.696 -12.4549 0.0600361 166 94 88
-26.7523 -12.3796 0.0599407 165 72 77
-26.7877 -12.2439 0.0600692 161 59 88
-26.991 -12.2352 0.0591651 196 121 136
-27.7461 -7.28619 0.0637825 119 113 82
-27.706 -7.18311 0.0640981 108 109 68
-56.6486 -12.6832 0.165394 113 105 103
-58.5669 -12.4398 0.164055 97 102 72
-59.4626 -12.3382 0.163433 103 103 75
-58.8605 -12.0202 0.163879 105 102 70
-58.67 -11.7894 0.164026 185 168 122
-53.5299 -7.12283 0.167844 91 84 92
-58.3828 -7.11878 0.16432 81 76 81
-6.62083 -12.7908 -0.018013 144 136 64
-6.6547 -12.7601 -0.0178046 101 99 58
-6.83245 -12.864 -0.0204998 97 87 50
-6.8345 -12.5332 -0.0158393 78 72 30
-6.97629 -12.5198 -0.0166643 90 70 45
-7.32596 -12.6931 -0.0216442 135 73 55
-7.40579 -12.6519 -0.0216696 145 57 53
-9.11263 -15.3565 -0.0105894 236 119 101
-9.51676 -15.2795 -0.0121869 242 116 104
-11.2438 -12.9111 -0.000385306 194 117 115
-11.3375 -12.8984 -0.000997686 228 120 156
-11.4111 -12.9027 -0.00161591 211 175 174
-11.4876 -12.9096 -0.00228302 205 181 169
-11.5522 -12.9027 -0.0027305 255 237 209
-11.6545 -12.897 -0.00348931 207 107 103
-11.73 -12.9013 -0.00413205 203 142 129
-11.8003 -12.8993 -0.00467717 255 244 195
-11.8976 -12.886 -0.00533852 212 103 84
-11.9736 -12.8892 -0.00598131 225 96 95
-12.0469 -12.889 -0.00657526 240 99 112
-12.1474 -12.8771 -0.00728537 240 107 140
-12.2237 -12.879 -0.0079282 249 210 188
-11.27 -7.15426 0.00060764 203 172 163
-11.2899 -7.11814 0.00064615 186 106 112
-11.3275 -7.06863 0.000562824 238 154 168
-28.4186 -12.7757 0.0515654 207 143 139
-28.7007 -12.7411 0.0503565 173 72 92
-28.9705 -12.7527 0.0491027 195 122 130
-29.2607 -12.7716 0.0477391 176 67 91
-29.5073 -12.7697 0.0466146 199 110 127
-28.9814 -12.381 0.0497952 191 147 149
-30.1153 -12.7543 0.0438612 140 70 89
-30.4034 -12.7645 0.0425167 120 81 85
-29.9413 -12.4056 0.0453375 147 86 90
-28.8453 -6.66385 0.0591388 109 87 84
-28.8282 -6.56492 0.0593231 113 109 104
-63.1422 -12.3816 0.16081 97 95 76
-64.2054 -11.9636 0.160059 95 93 56
-63.6055 -11.3354 0.160518 93 81 56
-63.6517 -11.1375 0.160488 127 114 69
-63.5154 -7.03905 0.160582 100 75 79
-61.6641 -6.44089 0.161898 128 120 109
-62.5712 -6.33731 0.161228 137 144 122
-66.7333 -6.44297 0.158203 108 107 103
-7.16677 -13.311 -0.0291513 93 77 61
-7.59302 -12.8414 -0.0257031 235 138 108
-7.5282 -12.6385 -0.0224128 243 117 105
-12.3029 -12.8835 -0.00861974 255 237 200
-12.374 -12.8788 -0.00916502 211 100 108
-12.475 -12.8648 -0.00987527 255 238 196
-12.5518 -12.8652 -0.0105181 224 101 91
-12.6398 -12.8767 -0.011356 238 96 104
-12.7399 -12.8595 -0.0120419 247 84 118
-12.8172 -12.8586 -0.0126848 236 105 134
-12.9001 -12.863 -0.0134252 144 81 76
-12.9978 -12.8413 -0.0140625 171 124 91
-13.081 -12.8448 -0.0148029 185 139 102
-13.1701 -12.8536 -0.0156409 182 135 103
-13.2523 -12.8549 -0.0163571 215 180 162
-13.3504 -12.8309 -0.0169944 189 52 78
-31.0229 -12.7403 0.0397123 225 150 163
-32.3244 -12.7462 0.0336771 197 64 95
-32.7003 -12.7174 0.0319866 187 60 87
-33.0547 -12.7363 0.0303013 189 61 86
-33.4152 -12.7553 0.0285857 198 75 103
-33.251 -7.35005 0.0368928 113 103 93
-33.2688 -7.1901 0.0369679 93 98 68
-6.3298 -14.6148 -0.0426585 122 100 61
-6.23848 -14.2718 -0.0370841 116 109 51
-6.41677 -14.5062 -0.041566 139 113 60
-7.17193 -14.0539 -0.039743 144 139 67
-8.22411 -13.3113 -0.0370311 242 116 104
-8.26608 -13.2412 -0.0364081 243 115 106
-8.28432 -13.0886 -0.0344838 244 116 108
-8.36195 -13.0776 -0.0349618 251 151 139
-8.41277 -13.069 -0.0352575 233 111 99
-8.52564 -13.158 -0.037376 240 101 110
-8.52092 -13.0612 -0.0360372 230 81 114
-8.55224 -12.9767 -0.035164 211 79 83
-8.53768 -12.8667 -0.0335742 223 103 89
-8.59796 -12.8723 -0.0341529 232 116 101
-8.68296 -12.8711 -0.0348513 233 118 107
-8.73797 -12.8678 -0.0352729 236 114 106
-8.80415 -12.8809 -0.0360087 241 114 105
-8.88737 -12.8751 -0.0366442 242 115 106
-8.9494 -12.8809 -0.0372543 241 114 105
-13.4414 -12.8397 -0.0178568 209 58 89
-13.5311 -12.8466 -0.0186948 210 62 94
-13.634 -12.825 -0.0194053 228 140 158
-13.7211 -12.8282 -0.0201946 214 171 176
-13.8056 -12.8281 -0.0209353 180 79 97
-13.9175 -12.813 -0.021792 206 122 136
-14.0037 -12.8134 -0.0225571 232 173 180
-14.1003 -12.8228 -0.0234926 189 61 92
-14.1852 -12.8209 -0.0242334 222 118 132
-33.793 -12.7786 0.02678 194 72 105
-34.1576 -12.7334 0.0251586 175 68 90
-34.5438 -12.7544 0.0233125 199 83 111
-34.8891 -12.758 0.0216857 201 104 124
-35.3056 -12.7226 0.019794 177 54 90
-35.6668 -12.7268 0.0180868 162 55 89
-36.0472 -12.7354 0.0162795 163 52 78
-36.465 -12.6906 0.014387 178 70 97
-36.8992 -12.7123 0.0122998 171 55 86
-37.3112 -12.7237 0.0103321 164 58 81
-7.00041 -14.8452 -0.0500361 107 74 30
-7.11128 -14.9656 -0.0524726 105 74 45
-7.1658 -14.9621 -0.0527652 185 137 101
-7.33326 -14.7804 -0.0512195 124 89 64
-7.35733 -14.6554 -0.0495837 130 103 69
-7.38837 -14.6044 -0.0490577 116 98 49
-9.01494 -12.8914 -0.0379586 242 114 104
-9.08064 -12.9015 -0.038663 242 113 106
-9.15986 -12.8875 -0.0391727 242 115 112
-9.2201 -12.8889 -0.0397201 232 127 128
-9.29429 -12.9095 -0.0406443 253 202 178
-9.37849 -12.9008 -0.0412797 248 221 194
-9.44259 -12.906 -0.0419211 255 251 205
-9.51151 -12.9175 -0.0426883 238 209 166
-9.59259 -12.9026 -0.0432294 247 231 170
-9.66535 -12.9182 -0.0440906 231 208 153
-9.72762 -12.919 -0.0446694 255 252 207
-9.79116 -12.9211 -0.0452795 255 244 194
-9.88108 -12.9158 -0.0460404 242 120 116
-14.7121 -12.8129 -0.0289001 211 174 171
-14.839 -12.8036 -0.0299762 181 57 90
-14.9341 -12.806 -0.0308632 172 67 92
-15.0369 -12.8145 -0.0318719 220 172 180
-15.1399 -12.8224 -0.0328806 187 140 148
-15.2632 -12.8062 -0.0338838 153 103 110
-15.3757 -12.8207 -0.0350386 190 124 137
-15.4778 -12.8256 -0.036023 189 62 97
-15.6062 -12.8109 -0.0370992 188 106 119
-15.7179 -12.8222 -0.0382298 173 130 141
-15.8252 -12.8291 -0.0392873 179 120 135
-13.3033 -7.30971 -0.0279911 184 63 98
-13.3087 -7.23216 -0.0274819 188 110 134
-13.3621 -7.20777 -0.028038 211 174 177
-37.7899 -12.7549 0.0080149 157 73 92
-38.2702 -12.717 0.00580157 67 63 71
-38.3053 -7.39955 0.0120379 97 90 80
-38.3806 -7.28935 0.0117577 101 94 67
-7.28713 -15.0397 -0.0546582 124 90 62
-7.33348 -15.0176 -0.0546358 115 91 76
-7.76993 -14.8547 -0.0552 114 91 53
-7.87541 -14.7776 -0.0548343 74 64 24
-8.30348 -14.8082 -0.0583105 179 138 83
-8.32403 -14.7373 -0.0574708 185 151 50
-8.3801 -14.7311 -0.0577956 142 116 21
-8.31776 -14.3557 -0.0521139 155 95 84
-9.95936 -12.9364 -0.0470271 210 111 129
-10.0185 -12.9312 -0.0475117 255 248 208
-10.1003 -12.9134 -0.0480529 248 221 188
-10.1779 -12.9312 -0.0490083 250 226 197
-10.2447 -12.9345 -0.0496811 254 226 202
-10.3343 -12.9248 -0.0504107 250 209 189
-10.41 -12.9384 -0.0513033 195 115 122
-10.4796 -12.9438 -0.0520389 254 234 206
-10.5419 -12.9395 -0.0525863 247 202 181
-10.6371 -12.9342 -0.0534413 244 114 154
-10.7097 -12.9416 -0.0542397 255 211 216
-10.7697 -12.9333 -0.0547244 193 121 101
-10.873 -12.9357 -0.0557676 199 87 111
-10.9371 -12.9313 -0.0563464 243 200 195
-15.9528 -12.8107 -0.0403393 138 63 87
-16.0682 -12.8226 -0.0415185 160 100 119
-16.1777 -12.829 -0.0426005 206 144 160
-16.292 -12.8385 -0.0437555 179 66 92
-16.4314 -12.8256 -0.0449779 161 55 83
-16.5383 -12.8275 -0.0460113 137 56 73
-16.6516 -12.8338 -0.047142 203 170 176
-16.7948 -12.8207 -0.0484131 147 49 80
-16.9086 -12.8256 -0.0495439 182 56 90
-17.0226 -12.8299 -0.0506747 188 57 84
-17.1649 -12.813 -0.0519216 203 170 175
-18.2158 -7.37224 -0.0302462 171 101 99
-18.2291 -7.27856 -0.0299734 185 66 91
-43.7069 -14.2185 -0.0223176 66 66 73
-43.6678 -13.9793 -0.0217678 100 96 93
-43.6439 -13.8212 -0.0214229 125 112 101
-42.2802 -12.737 -0.0133526 65 68 63
-43.8403 -12.8329 -0.0209655 68 72 58
-43.9238 -12.7081 -0.021201 69 74 64
-46.3056 -13.2392 -0.0333666 70 81 65
-44.3982 -12.4691 -0.0231661 75 82 76
-47.4724 -13.011 -0.0386954 79 75 75
-47.007 -12.4885 -0.0357918 90 82 79
-43.4047 -7.11737 -0.0129256 132 119 109
-44.3862 -6.63583 -0.0174713 114 105 97
-8.57297 -15.7031 -0.0728009 131 108 80
-9.11549 -15.1576 -0.0692398 240 116 104
-9.08685 -14.9491 -0.0661604 241 117 105
-9.10725 -14.8785 -0.065353 241 117 105
-9.48517 -15.1342 -0.0718224 242 115 106
-11.0089 -12.9358 -0.0571134 214 191 179
-11.1102 -12.9336 -0.0580939 198 84 102
-11.1733 -12.9266 -0.0586415 251 195 198
-11.2507 -12.9361 -0.0595339 255 213 204
-11.3336 -12.9512 -0.0605518 235 84 119
-11.4198 -12.9288 -0.061156 183 74 98
-11.4899 -12.928 -0.0618604 204 161 158
-11.5719 -12.9405 -0.0628469 252 217 202
-11.6678 -12.927 -0.0636706 255 232 227
-11.7329 -12.9192 -0.0642496 255 251 205
-11.8087 -12.923 -0.0650795 254 248 197
-11.905 -12.908 -0.0659032 254 248 200
-11.9797 -12.9095 -0.0667017 249 217 165
-17.2825 -12.8183 -0.0531012 194 172 172
-17.4003 -12.823 -0.0542808 198 176 177
-17.5247 -12.8318 -0.0555576 198 171 179
-17.6598 -12.8054 -0.0566831 157 68 93
-17.7895 -12.8163 -0.058033 147 58 71
-17.9146 -12.8229 -0.05931 216 179 182
-18.0519 -12.795 -0.06046 182 126 140
-18.1807 -12.8025 -0.0617857 170 116 123
-18.3064 -12.8069 -0.0630629 254 201 205
-18.4556 -12.7843 -0.0643831 173 55 78
-18.5867 -12.7906 -0.0657333 250 188 188
-18.7245 -12.8008 -0.0671808 148 125 120
-47.6464 -12.8181 -0.0392881 82 78 73
-48.0857 -12.0514 -0.0405072 69 76 61
-48.3206 -11.9493 -0.0415358 70 78 65
-50.3141 -12.1907 -0.0514992 81 93 72
-50.6569 -12.1056 -0.0530785 82 93 76
-50.6043 -11.9255 -0.0526305 92 96 98
-48.351 -7.38142 -0.0376114 96 93 98
-12.056 -12.912 -0.0675315 243 104 103
-12.1526 -12.8955 -0.0683553 229 105 129
-12.2277 -12.8958 -0.0691538 254 239 207
-12.3113 -12.9044 -0.0701404 255 233 191
-12.388 -12.9054 -0.0709703 202 113 101
-12.4838 -12.8854 -0.0717628 254 241 194
-12.5733 -12.8985 -0.0728747 198 131 93
-12.6422 -12.8896 -0.0735167 212 113 101
-12.7411 -12.8708 -0.074372 241 99 113
-12.8354 -12.8868 -0.0755778 223 77 106
-12.8989 -12.8711 -0.0760946 142 67 68
-13.008 -12.8605 -0.0771691 163 120 91
-13.0915 -12.8638 -0.0781245 187 142 109
-13.1765 -12.8681 -0.0791111 173 130 99
-18.8695 -12.7718 -0.0684283 167 147 136
-19.0078 -12.7803 -0.0698758 191 141 135
-19.1463 -12.7881 -0.0713234 175 64 85
-19.2851 -12.7951 -0.072771 240 169 179
-19.4542 -12.7777 -0.0743591 226 176 184
-19.5884 -12.7797 -0.0757339 195 144 149
-19.7463 -12.7962 -0.077449 227 164 178
-19.8977 -12.7635 -0.0787699 214 151 161
-59.6536 -12.191 -0.0971879 100 105 67
-58.9357 -11.8522 -0.0933573 166 146 107
-58.7265 -11.6187 -0.0921245 98 91 66
-58.4361 -6.95457 -0.0875199 227 220 207
-13.2632 -12.8734 -0.080129 185 158 141
-13.3687 -12.8562 -0.0811097 196 57 83
-13.4557 -12.8605 -0.0821277 209 61 94
-13.5341 -12.8561 -0.0829578 208 64 92
-13.6503 -12.8467 -0.0841577 194 60 86
-13.7275 -12.84 -0.0849566 205 124 138
-13.8194 -12.8466 -0.0860686 171 82 109
-13.9332 -12.8325 -0.0872059 198 114 123
-14.024 -12.8367 -0.0882866 227 176 181
-14.115 -12.8405 -0.0893673 187 55 88
-14.1987 -12.837 -0.0902916 216 145 157
-20.5261 -12.7677 -0.0852368 143 68 86
-20.6906 -12.7818 -0.0870251 235 174 178
-20.8572 -12.7961 -0.0888378 170 103 120
-21.0441 -12.7766 -0.0906451 128 59 71
-21.2078 -12.7867 -0.0924093 170 88 109
-21.3855 -12.8041 -0.0943679 157 60 86
-21.5716 -12.7797 -0.0961511 207 162 169
-21.7517 -12.7959 -0.0981342 161 105 114
-21.9182 -12.803 -0.099923 94 68 65
-22.1189 -12.7827 -0.101901 117 95 90
-63.4678 -11.1127 -0.11508 166 143 87
-63.7698 -10.9594 -0.11646 118 101 59
-63.5365 -7.15509 -0.113045 101 79 69
-66.6723 -6.5546 -0.128461 90 89 94
-8.2999 -7.36786 -0.0715241 141 78 94
-8.30442 -7.32617 -0.0709053 217 177 181
-8.32066 -7.29519 -0.0706938 155 53 84
-14.8191 -12.8277 -0.0973903 182 58 94
-8.36909 -7.2699 -0.0711926 187 60 90
-14.9421 -12.8135 -0.0986843 164 56 80
-15.0527 -12.8282 -0.100141 219 158 172
-15.1514 -12.832 -0.101347 166 132 139
-15.2564 -12.8404 -0.102678 171 132 141
-15.3909 -12.8321 -0.104191 149 61 93
-15.4964 -12.8393 -0.105522 182 57 90
-15.5897 -12.8357 -0.106603 171 52 80
-15.7233 -12.8238 -0.108085 188 131 150
-22.2999 -12.7956 -0.103884 123 96 85
-22.4759 -12.8045 -0.105794 193 145 132
-22.6627 -12.8184 -0.107851 246 195 180
-22.8594 -12.7896 -0.109756 186 139 147
-23.0467 -12.8011 -0.111812 205 172 172
-23.8313 -12.8059 -0.120203 187 109 120
-24.0437 -12.7761 -0.122304 156 98 112
-23.2492 -7.33591 -0.0878593 90 66 79
-23.2446 -7.25467 -0.0875198 107 87 93
-15.8526 -12.8481 -0.109885 212 172 176
-15.9805 -12.8293 -0.111242 217 172 180
-16.0854 -12.8321 -0.112542 151 98 108
-16.1983 -12.8406 -0.113999 210 152 161
-16.3113 -12.8485 -0.115455 198 62 97
-16.4542 -12.8377 -0.117093 221 162 180
-16.5599 -12.8381 -0.118394 213 173 184
-16.6815 -12.8501 -0.120006 209 171 179
-16.8124 -12.8269 -0.121395 215 166 180
-16.9409 -12.8424 -0.123133 169 76 102
-17.0488 -12.8415 -0.124464 195 58 89
-24.2363 -12.7824 -0.124409 221 168 178
-24.4398 -12.7933 -0.12666 170 59 86
-24.6294 -12.7956 -0.128718 161 53 89
-24.8677 -12.7727 -0.131158 177 107 118
-25.065 -12.7761 -0.133313 143 67 77
-25.2803 -12.7874 -0.13571 228 161 171
-25.5053 -12.7522 -0.137957 149 77 95
-25.7248 -12.7626 -0.140403 197 139 146
-25.9554 -12.777 -0.142995 206 142 159
-26.1956 -12.7438 -0.145436 173 128 150
-18.1868 -7.4239 -0.0978037 159 81 111
-18.2426 -7.38049 -0.0983624 184 131 132
-18.241 -7.28077 -0.0977627 181 105 102
-17.1819 -12.8169 -0.125884 189 61 93
-17.3094 -12.829 -0.127591 214 155 162
-17.4324 -12.8369 -0.129204 142 73 95
-17.5443 -12.8359 -0.130598 150 62 92
-17.6927 -12.8185 -0.132299 150 59 79
-17.8098 -12.8196 -0.133787 173 87 108
-17.9401 -12.8293 -0.135525 203 168 171
-18.0908 -12.8103 -0.137258 212 181 170
-18.2101 -12.8104 -0.138777 217 184 168
-18.3362 -12.8144 -0.140422 171 103 108
-18.4892 -12.7936 -0.142186 165 82 79
-18.6189 -12.7984 -0.143893 217 190 150
-26.4304 -12.757 -0.148077 165 113 117
-26.6584 -12.7653 -0.150621 195 150 147
-26.9065 -12.7818 -0.153432 168 125 122
-27.184 -12.7587 -0.156359 156 111 111
-27.4365 -12.7736 -0.159219 178 139 147
-27.4177 -12.6607 -0.158437 123 78 94
-27.9898 -12.7677 -0.165298 149 88 109
-28.2343 -12.7736 -0.168037 168 129 136
-28.4955 -12.7854 -0.170995 209 172 179
-27.7266 -7.2553 -0.140054 97 95 65
-18.7555 -12.807 -0.145725 140 129 123
-18.8924 -12.8149 -0.147557 159 146 131
-19.0413 -12.7867 -0.149227 197 143 148
-19.1785 -12.7929 -0.15106 158 63 84
-19.3244 -12.8039 -0.153048 225 174 185
-19.4872 -12.7816 -0.154969 195 153 146
-19.6252 -12.7853 -0.156801 227 176 174
-19.7735 -12.7948 -0.158821 244 181 196
-19.9354 -12.768 -0.160711 169 74 108
-28.788 -12.7556 -0.174093 239 171 188
-29.0609 -12.7688 -0.177197 165 116 133
-29.3378 -12.782 -0.180349 164 118 133
-29.5968 -12.7856 -0.183259 200 162 177
-28.9748 -12.3543 -0.174242 145 118 124
-30.1889 -12.7638 -0.189777 86 58 59
-30.4838 -12.777 -0.193149 134 110 99
-30.3048 -12.5347 -0.190008 144 98 108
-29.8779 -12.2478 -0.183887 198 173 175
-28.8285 -6.63589 -0.15137 79 58 57
-28.8328 -6.54188 -0.151181 117 108 103
-20.5842 -12.7818 -0.169379 165 63 87
-20.7493 -12.7953 -0.171681 214 165 161
-20.9061 -12.8027 -0.173826 207 164 164
-21.0987 -12.7857 -0.176247 179 128 128
-21.2732 -12.8014 -0.178704 123 45 63
-21.4343 -12.8078 -0.180912 209 159 163
-21.6364 -12.7919 -0.18349 204 176 170
-21.8153 -12.8064 -0.18601 203 175 164
-21.9858 -12.8149 -0.188374 81 62 54
-32.1038 -12.757 -0.21131 233 182 170
-32.4289 -12.7696 -0.215046 240 182 182
-32.7747 -12.7883 -0.21905 242 193 184
-33.1503 -12.7566 -0.223171 135 50 75
-33.5139 -12.777 -0.227394 138 57 72
-33.8722 -12.7932 -0.231544 159 57 86
-34.2623 -12.7577 -0.235836 206 135 144
-34.6141 -12.7662 -0.239889 229 171 183
-3.12518 -7.24694 -0.0824871 98 77 58
-3.14576 -7.23424 -0.0823254 97 75 54
-3.16186 -7.21034 -0.0817148 93 77 47
-3.20035 -7.20961 -0.0822235 127 92 47
-3.23053 -7.22073 -0.0830345 128 92 45
-22.1854 -12.7928 -0.190889 124 100 90
-22.3791 -12.812 -0.19366 125 85 86
-22.5487 -12.8163 -0.195993 150 88 87
-22.7343 -12.8285 -0.198607 141 65 74
-22.942 -12.8048 -0.201247 191 149 154
-23.1177 -12.8087 -0.203675 196 170 164
-23.9205 -12.8191 -0.214753 199 170 177
-35.0056 -12.787 -0.244453 217 174 177
-35.3838 -12.7378 -0.248575 189 137 151
-35.7593 -12.7474 -0.252921 170 126 129
-36.1559 -12.7621 -0.257534 192 145 150
-36.5748 -12.7177 -0.262167 159 106 131
-36.9931 -12.7342 -0.267047 178 137 134
-37.4326 -12.7553 -0.272196 139 57 70
-37.9066 -12.7852 -0.277781 122 47 69
-23.2605 -7.31744 -0.171976 81 62 73
-23.3322 -7.25997 -0.172788 120 96 99
-33.34 -7.35197 -0.206862 118 108 99
-33.2642 -7.17125 -0.205505 88 96 72
-8.27127 -7.33203 -0.110331 143 61 77
-8.28747 -7.30115 -0.11009 217 164 176
-8.31943 -7.26137 -0.110021 184 56 86
-8.36238 -7.25411 -0.110828 216 147 158
-11.3053 -7.18468 -0.13011 192 140 139
-11.3012 -7.10823 -0.128983 183 64 94
-11.3328 -7.07947 -0.129283 219 156 159
-24.1194 -12.7809 -0.217206 175 136 157
-24.3196 -12.7902 -0.22004 180 101 116
-24.5273 -12.8021 -0.222999 192 70 94
-24.7263 -12.8083 -0.225801 237 158 174
-24.9493 -12.7761 -0.228661 238 171 188
-25.1525 -12.7815 -0.231526 169 83 106
-25.3721 -12.7938 -0.234672 204 155 157
-25.6031 -12.7603 -0.237657 185 150 149
-25.825 -12.7707 -0.240835 123 65 77
-26.0473 -12.7798 -0.244013 197 161 160
-38.3766 -12.7439 -0.283046 73 71 76
-42.0091 -12.7959 -0.3254 97 76 73
-42.3368 -12.7514 -0.32907 76 74 77
-38.3332 -7.39377 -0.266566 99 95 85
-38.2455 -7.25243 -0.265215 94 88 66
-5.64602 -12.4998 -0.140377 105 80 25
-5.67735 -12.4663 -0.1399 119 89 52
-5.72933 -12.4803 -0.140751 133 98 62
-5.81428 -12.4113 -0.139996 170 125 46
-26.2864 -12.7448 -0.247123 211 160 174
-26.5129 -12.7527 -0.250364 149 68 98
-26.7668 -12.7722 -0.254073 216 164 180
-27.0066 -12.7835 -0.257532 134 86 97
-27.3049 -12.7685 -0.261642 219 156 171
-27.5527 -12.7798 -0.265226 185 144 154
-27.1467 -12.4887 -0.257571 214 163 181
-28.0985 -12.7675 -0.27289 206 149 168
-28.3546 -12.7773 -0.2766 197 136 148
-43.3009 -14.2363 -0.345593 70 65 74
-43.3274 -14.0948 -0.345377 69 66 76
-43.5502 -13.9415 -0.347389 100 94 94
-44.8557 -13.1307 -0.359766 72 81 70
-43.9906 -12.7269 -0.34831 64 68 67
-43.7684 -12.5138 -0.345012 63 67 68
-44.0451 -12.3694 -0.347781 61 65 68
-44.0982 -12.2354 -0.347981 60 60 70
-6.76067 -12.7855 -0.158942 166 141 51
-6.81916 -12.8023 -0.159998 170 146 49
-6.87405 -12.7623 -0.15972 166 154 71
-6.93 -12.7732 -0.160622 109 98 64
-6.86882 -12.5612 -0.15509 75 63 43
-6.94877 -12.5703 -0.156243 128 111 57
-7.00068 -12.5738 -0.156941 163 148 59
-6.97668 -12.4364 -0.153554 171 146 62
-7.3222 -12.6503 -0.16257 124 66 31
-7.38982 -12.6324 -0.163008 189 138 83
-7.47346 -12.5975 -0.163281 236 121 99
-7.54201 -12.5805 -0.163771 242 115 106
-7.55351 -12.5108 -0.162376 243 116 107
-7.57174 -12.4533 -0.161339 242 115 106
-7.63162 -12.4219 -0.16142 242 118 106
-7.66264 -12.3866 -0.161047 240 116 104
-28.6184 -12.7889 -0.280435 153 59 86
-28.9081 -12.7562 -0.284358 213 169 184
-29.1763 -12.7659 -0.288255 206 173 171
-29.4558 -12.7787 -0.29234 127 78 83
-29.7265 -12.7861 -0.29627 96 55 74
-30.0397 -12.7542 -0.300568 157 127 129
-30.2981 -12.7524 -0.304279 108 84 87
-30.6178 -12.7746 -0.30902 124 91 82
-30.1294 -12.4053 -0.299769 203 148 154
-47.4608 -13.0121 -0.389924 64 60 68
-47.5611 -12.7994 -0.390436 80 71 76
-27.7261 -7.30979 -0.239071 98 87 60
-27.8275 -7.24345 -0.240354 99 89 56
-47.724 -12.1238 -0.390341 103 99 75
-48.563 -12.0141 -0.399951 65 77 63
-50.1472 -12.1573 -0.419092 73 84 68
-50.093 -11.9779 -0.41796 85 96 79
-28.8556 -6.60094 -0.253673 77 71 63
-43.2784 -7.23098 -0.325576 88 78 77
-43.2429 -7.08561 -0.324884 120 112 108
-44.3281 -6.76514 -0.337386 115 109 109
-8.44186 -12.8586 -0.181727 222 67 95
-8.49077 -12.8029 -0.181195 244 121 113
-8.5606 -12.8238 -0.182608 238 114 104
-32.5701 -12.7599 -0.337211 236 183 191
-32.9356 -12.7844 -0.342671 230 155 166
-33.3178 -12.7532 -0.348064 223 162 172
-33.6805 -12.7714 -0.353462 170 86 109
-34.038 -12.7853 -0.358768 232 152 176
-53.5302 -12.6255 -0.460473 82 90 86
-57.9355 -12.3312 -0.512103 80 85 66
-58.0062 -12.1561 -0.512531 87 94 63
-58.3827 -11.9485 -0.516524 131 136 97
-58.5346 -11.7884 -0.517972 98 102 56
-53.3699 -7.21133 -0.44721 96 90 100
-8.26235 -13.1553 -0.185759 241 116 104
-8.24224 -13.0312 -0.182783 240 116 105
-8.34222 -13.1028 -0.185675 245 114 106
-8.32661 -12.9873 -0.182954 242 115 109
-8.38588 -12.9473 -0.182881 236 91 104
-8.5465 -13.1123 -0.18863 217 50 90
-8.6405 -12.8594 -0.184479 240 113 105
-8.72552 -12.8579 -0.185632 242 110 106
-8.7894 -12.8677 -0.186738 239 114 108
-8.85345 -12.8772 -0.187844 240 111 105
-8.91538 -12.8831 -0.188848 243 112 104
-8.99993 -12.8783 -0.18995 241 112 106
-9.06101 -12.8819 -0.190903 240 111 105
-9.12332 -12.8869 -0.191907 241 112 107
-9.21171 -12.8858 -0.193161 241 115 119
-9.2743 -12.8901 -0.194166 249 150 157
-9.3416 -12.9007 -0.195374 248 209 171
-9.42934 -12.8966 -0.196577 254 251 205
-9.49697 -12.9065 -0.197786 254 253 201
-9.56126 -12.9112 -0.198841 225 213 147
-9.61977 -12.9076 -0.199642 231 201 166
-9.71046 -12.9049 -0.200947 255 248 188
-9.77628 -12.9103 -0.202053 201 122 78
-13.3179 -7.30817 -0.175998 194 66 104
-13.3102 -7.25021 -0.175129 166 55 80
-13.3539 -7.19361 -0.175428 191 158 167
-34.4254 -12.7467 -0.364223 164 81 114
-34.7875 -12.7572 -0.369592 206 171 165
-35.1819 -12.7771 -0.37549 186 119 141
-35.5686 -12.7288 -0.380916 202 138 157
-35.9376 -12.7342 -0.386378 195 127 146
-36.3221 -12.7426 -0.39209 187 155 157
-36.7334 -12.7579 -0.39824 136 91 102
-37.2087 -12.7274 -0.405103 165 103 103
-33.3077 -7.28735 -0.323885 82 75 64
-59.1736 -11.7244 -0.52547 92 94 64
-64.0932 -11.972 -0.584888 89 81 59
-64.9839 -11.9279 -0.595474 122 108 82
-64.5058 -11.526 -0.588904 105 98 62
-63.2998 -11.1048 -0.573593 124 118 83
-58.314 -7.23059 -0.507007 118 114 114
-58.414 -6.96367 -0.507852 221 218 207
-6.73596 -14.178 -0.190851 125 107 45
-7.36383 -14.5834 -0.207002 145 110 58
-7.41499 -14.5735 -0.20734 103 81 33
-7.43783 -14.5061 -0.206044 108 80 47
-9.847 -12.9219 -0.203364 235 111 112
-9.937 -12.9162 -0.204618 255 216 211
-10.0008 -12.9174 -0.205623 252 246 195
-10.0672 -12.9215 -0.206729 250 222 185
-10.1601 -12.9176 -0.208086 238 176 174
-10.2316 -12.9273 -0.209396 255 230 206
-10.2971 -12.9288 -0.210451 240 190 164
-10.3726 -12.9426 -0.211915 204 119 119
-10.4575 -12.9258 -0.212915 210 84 105
-10.5234 -12.9263 -0.21397 233 76 114
-10.5981 -12.9374 -0.215383 233 77 112
-10.6934 -12.9317 -0.21679 252 195 187
-10.7685 -12.942 -0.218203 219 171 169
-10.8552 -12.9244 -0.219253 253 208 198
-10.9319 -12.9355 -0.220717 167 74 85
-11.0024 -12.9385 -0.221925 234 176 189
-11.0704 -12.9381 -0.223032 180 97 109
-37.6759 -12.7556 -0.412158 164 75 98
-38.1684 -12.7892 -0.41962 87 68 75
-39.5402 -12.9052 -0.440533 67 63 78
-63.4647 -7.16443 -0.569274 110 86 78
-61.936 -6.30207 -0.549751 159 137 113
-66.658 -6.57335 -0.607322 107 99 96
-3.12494 -7.2575 -0.114779 91 78 47
-6.58352 -15.2657 -0.21494 92 69 45
-6.56919 -15.0981 -0.210829 130 109 80
-3.17357 -7.21823 -0.114004 108 87 60
-6.53216 -14.8793 -0.205287 94 69 39
-3.19545 -7.20908 -0.113992 115 89 51
-3.22493 -7.21831 -0.11481 121 97 52
-7.02683 -14.6948 -0.205957 115 91 53
-7.29013 -15.0212 -0.21634 165 138 97
-7.31221 -14.8867 -0.213453 101 71 51
-7.37451 -14.8986 -0.214404 177 137 102
-7.66519 -14.6775 -0.212537 130 108 40
-8.33764 -14.5737 -0.218131 138 113 37
-8.7026 -14.8483 -0.228789 163 131 61
-11.1601 -12.9217 -0.224185 222 146 160
-11.2426 -12.9374 -0.225852 255 203 204
-11.3123 -12.9374 -0.22701 228 82 111
-11.4011 -12.9181 -0.228112 239 117 153
-11.4841 -12.9325 -0.229779 163 55 81
-11.5489 -12.9254 -0.230734 185 90 97
-11.6539 -12.9226 -0.232447 224 164 169
-11.7228 -12.9193 -0.233554 255 242 202
-11.7932 -12.9172 -0.234712 193 106 92
-11.865 -12.9162 -0.235921 237 189 176
-11.9667 -12.9068 -0.237482 186 115 105
-12.0387 -12.905 -0.238691 236 102 117
-12.1177 -12.9103 -0.240155 254 204 207
-12.2197 -12.8992 -0.241715 254 233 195
-12.2935 -12.8977 -0.242976 227 179 119
-12.3743 -12.9032 -0.24449 232 95 121
-12.4672 -12.8803 -0.245695 255 224 205
-11.2694 -7.10959 -0.176709 180 56 92
-11.2925 -7.07556 -0.176762 181 62 99
-42.1248 -12.7336 -0.478278 69 62 62
-45.203 -12.9706 -0.525461 70 73 69
-45.4563 -12.8893 -0.528932 64 70 64
-44.0944 -12.1315 -0.5053 72 67 73
-38.2817 -7.30959 -0.400155 99 91 77
-5.62843 -12.492 -0.189685 137 119 51
-5.65722 -12.4531 -0.188965 107 78 22
-5.68985 -12.4232 -0.188538 153 119 88
-5.74995 -12.4029 -0.188691 97 56 28
-5.79627 -12.4037 -0.189258 106 67 34
-5.85918 -12.4408 -0.190994 68 44 7
-8.73974 -15.4113 -0.241839 144 121 26
-12.5468 -12.8834 -0.247159 194 107 98
-12.6294 -12.8891 -0.248724 242 85 118
-12.7107 -12.8929 -0.250239 244 85 111
-12.8054 -12.8693 -0.251495 226 77 114
-12.8898 -12.8751 -0.253112 171 108 97
-12.9772 -12.8833 -0.25483 145 101 76
-13.0779 -12.8637 -0.25629 183 135 98
-13.1628 -12.8682 -0.257907 179 143 118
-13.2464 -12.8708 -0.259473 205 177 164
-13.3461 -12.8481 -0.260882 184 98 104
-13.4372 -12.8567 -0.262702 197 59 86
-13.5198 -12.8565 -0.264217 193 85 100
-13.6299 -12.8418 -0.265983 200 169 164
-13.7128 -12.8407 -0.267498 207 170 176
-13.8031 -12.846 -0.269268 206 140 160
-47.3922 -12.8779 -0.55804 66 56 58
-47.6313 -12.7027 -0.560944 93 83 75
-47.5332 -11.9615 -0.556624 95 104 76
-47.6397 -11.8297 -0.557756 79 88 71
-49.7744 -12.1934 -0.591486 77 89 71
-49.5854 -11.9004 -0.587555 70 81 65
-50.1143 -11.8611 -0.595463 60 71 62
-43.3173 -7.14698 -0.47727 119 113 113
-44.4098 -6.68427 -0.493089 116 111 107
-5.59941 -12.5851 -0.191871 123 101 61
-6.96888 -12.7759 -0.213927 76 65 47
-7.13609 -12.7554 -0.21568 108 89 18
-7.14132 -12.6248 -0.212387 152 128 35
-7.23248 -12.6973 -0.215524 161 139 56
-7.54253 -12.5155 -0.215337 242 115 106
-7.55654 -12.4512 -0.213919 242 116 104
-7.56196 -12.3291 -0.21092 239 117 104
-9.66069 -15.6145 -0.25799 242 116 104
-13.8877 -12.8455 -0.270834 187 61 94
-14.0013 -12.8309 -0.272702 225 172 172
-14.0848 -12.8281 -0.274217 167 58 78
-14.1786 -12.8342 -0.276089 198 62 93
-14.6967 -12.8176 -0.285644 176 91 113
-14.7871 -12.8167 -0.287363 194 62 93
-14.8912 -12.8271 -0.289541 203 59 87
-15.0307 -12.8267 -0.292223 197 59 91
-15.1277 -12.8294 -0.294146 173 80 96
-15.2309 -12.8367 -0.296273 213 151 158
-8.33599 -16.7795 -0.268383 89 70 29
-7.64749 -13.0146 -0.229525 129 65 26
-8.29239 -13.0398 -0.239731 235 130 109
-8.35159 -13.0448 -0.240765 232 121 106
-8.3576 -12.9203 -0.237766 236 126 117
-8.43373 -12.8638 -0.237557 206 87 96
-8.53257 -12.8852 -0.239637 231 120 115
-8.5536 -12.8306 -0.238628 231 128 108
-8.61501 -12.8377 -0.239779 233 128 107
-8.70222 -12.8395 -0.241217 240 142 118
-8.7639 -12.846 -0.242368 241 142 115
-8.82349 -12.8489 -0.243402 230 112 95
-15.3559 -12.8209 -0.298446 194 62 91
-15.4626 -12.8296 -0.300675 199 59 87
-15.5725 -12.8403 -0.303006 190 62 89
-15.7012 -12.8247 -0.305281 195 138 153
-15.8116 -12.8341 -0.307612 213 165 171
-15.9222 -12.8429 -0.309942 155 107 122
-16.0376 -12.8549 -0.312426 216 158 178
-16.1579 -12.8286 -0.314396 222 174 186
-16.2738 -12.8393 -0.31688 168 60 91
-16.3961 -12.8543 -0.319567 216 151 157
-16.5342 -12.8392 -0.322097 217 171 185
-16.6492 -12.8466 -0.32453 144 64 89
-13.288 -7.3048 -0.230461 179 66 89
-13.3188 -7.2681 -0.230747 189 69 96
-13.3074 -7.2084 -0.229637 232 174 180
-59.0403 -11.9327 -0.732011 113 111 70
-58.8824 -11.7089 -0.728933 107 102 57
-53.4568 -7.09975 -0.634019 93 87 88
-8.29842 -13.1398 -0.242317 240 146 129
-8.52626 -13.0967 -0.244754 226 106 112
-8.88653 -12.8565 -0.244611 239 112 103
-8.97328 -12.855 -0.24599 241 109 104
-9.03322 -12.857 -0.247025 241 109 104
-9.10009 -12.8685 -0.248409 242 110 105
-9.18734 -12.8657 -0.249788 241 112 112
-9.25109 -12.8717 -0.250997 219 126 136
-9.31728 -12.8806 -0.252323 255 247 223
-9.40383 -12.8749 -0.253644 255 244 203
-9.46916 -12.8815 -0.254912 250 238 193
-9.53696 -12.8911 -0.256296 255 250 193
-9.60373 -12.8988 -0.257622 246 214 181
-9.68853 -12.888 -0.258827 249 216 191
-9.75319 -12.8918 -0.260036 255 231 181
-9.82396 -12.9033 -0.261537 235 105 97
-9.91276 -12.896 -0.262916 232 105 130
-9.97903 -12.9003 -0.264184 212 138 144
-10.0503 -12.9108 -0.265685 255 229 190
-10.1371 -12.8989 -0.266948 232 104 129
-10.2062 -12.9054 -0.268332 254 217 219
-10.2755 -12.9116 -0.269717 206 130 114
-16.766 -12.8547 -0.327013 181 102 127
-16.9 -12.8333 -0.329391 199 146 152
-17.0172 -12.8399 -0.331875 162 60 89
-17.1298 -12.8423 -0.334206 168 63 85
-17.2554 -12.8537 -0.336945 225 164 177
-17.3998 -12.8361 -0.339628 180 59 95
-17.5146 -12.8377 -0.34201 135 44 65
-17.6328 -12.841 -0.344495 230 174 183
-17.781 -12.823 -0.34728 185 64 91
-17.8964 -12.8225 -0.349662 241 180 183
-18.0266 -12.8319 -0.352503 169 89 105
-18.169 -12.8065 -0.355085 244 197 193
-18.2996 -7.4105 -0.29238 200 131 147
-18.2313 -7.31648 -0.289887 192 133 133
-64.897 -11.7427 -0.82142 98 98 72
-58.4226 -7.10477 -0.711052 65 59 61
-63.5833 -7.02217 -0.791068 89 74 77
-62.0527 -6.36137 -0.76627 156 142 122
-7.33983 -14.4328 -0.262114 138 118 59
-10.3461 -12.9191 -0.27116 231 103 125
-10.4334 -12.9055 -0.272422 249 207 198
-10.5068 -12.9153 -0.273982 212 74 101
-10.5767 -12.9201 -0.275366 229 80 110
-10.6681 -12.9097 -0.276804 242 175 175
-10.7407 -12.9169 -0.278305 197 134 138
-10.8097 -12.9191 -0.279632 225 102 129
-10.9029 -12.9088 -0.281128 217 132 143
-10.9759 -12.9148 -0.282629 220 184 183
-11.0479 -12.919 -0.284072 182 107 118
-11.1186 -12.9214 -0.285457 208 103 128
-11.2163 -12.9136 -0.287128 255 207 202
-11.2899 -12.9182 -0.288629 215 82 109
-11.3637 -12.9225 -0.29013 234 105 140
-11.4526 -12.9027 -0.291394 232 171 175
-11.5306 -12.9106 -0.29307 235 195 186
-11.629 -12.9002 -0.294741 191 143 120
-11.698 -12.8969 -0.296009 255 239 210
-11.7724 -12.8992 -0.297511 212 99 93
-8.25496 -7.28136 -0.196453 186 119 134
-8.31085 -7.24112 -0.197033 185 57 85
-18.2947 -12.8109 -0.357773 251 206 200
-18.4206 -12.8146 -0.360461 146 54 64
-18.5549 -12.8233 -0.363404 226 110 151
-18.7063 -12.7998 -0.366241 144 108 112
-18.8295 -12.799 -0.368827 156 136 129
-18.9728 -12.811 -0.372024 171 153 138
-19.1248 -12.7846 -0.374861 161 67 87
-19.2635 -12.7915 -0.377906 215 157 174
-19.4025 -12.7977 -0.380951 207 177 167
-19.5701 -12.7781 -0.384246 167 66 80
-19.7163 -12.7869 -0.387495 227 156 161
-66.7079 -6.41368 -0.838783 121 120 126
-6.54282 -15.0449 -0.268981 115 100 75
-7.01151 -14.793 -0.267606 118 84 57
-7.02939 -14.7118 -0.265656 100 82 52
-7.24656 -15.0577 -0.277501 101 71 50
-7.25467 -14.9543 -0.274851 169 134 100
-7.30617 -14.8833 -0.273597 110 78 56
-7.28625 -14.7242 -0.269135 144 119 88
-7.30464 -14.6463 -0.267303 102 88 56
-7.38155 -14.6308 -0.267861 98 78 55
-7.50379 -14.65 -0.269925 114 98 67
-7.62874 -14.6156 -0.270639 104 90 48
-7.65194 -14.5496 -0.269217 114 95 35
-7.82147 -14.7676 -0.277143 133 115 38
-7.85961 -14.6733 -0.275189 77 72 25
-8.02368 -14.5991 -0.275475 92 79 65
-8.52214 -14.9121 -0.290442 158 138 67
-8.37403 -14.5414 -0.278858 98 65 34
-8.61363 -14.8049 -0.288995 178 154 66
-8.80177 -14.9196 -0.294621 217 126 96
-8.85302 -14.848 -0.293545 242 116 102
-9.01334 -14.6493 -0.290893 244 115 103
-9.03983 -14.5909 -0.289823 240 115 104
-11.8523 -12.9071 -0.299246 215 140 153
-11.9446 -12.8872 -0.300625 207 136 128
-12.0275 -12.8972 -0.302477 237 99 110
-12.1011 -12.8965 -0.30392 236 85 110
-12.1964 -12.878 -0.305417 255 211 210
-12.2744 -12.8809 -0.307035 251 226 183
-12.3552 -12.8862 -0.30877 221 151 129
-12.4481 -12.8633 -0.31015 255 231 209
-12.5307 -12.8692 -0.311943 247 204 180
-12.6077 -12.8691 -0.313503 233 153 146
-12.6906 -12.8742 -0.315296 235 143 146
-12.7881 -12.8535 -0.316852 228 84 119
-12.874 -12.8606 -0.318761 170 111 100
-12.9559 -12.863 -0.320496 143 100 77
-13.058 -12.8448 -0.322227 176 130 95
-13.1416 -12.8477 -0.32402 193 153 128
-13.2324 -12.8572 -0.326105 213 151 141
-8.24787 -7.34358 -0.197807 142 53 78
-8.29035 -7.26797 -0.197116 167 85 98
-19.8543 -12.7894 -0.390489 151 57 76
-20.5045 -12.8081 -0.404752 233 180 184
-20.6502 -12.7657 -0.407336 198 64 96
-20.8268 -12.7863 -0.41145 173 74 93
-21.0073 -12.8079 -0.415665 192 112 126
-21.1893 -12.784 -0.419318 194 59 85
-21.3533 -12.793 -0.423025 217 133 148
-6.18819 -15.1109 -0.266957 94 81 34
-6.67429 -15.2255 -0.275333 129 114 80
-8.4183 -15.2212 -0.296952 88 74 56
-9.62586 -15.4474 -0.320105 243 114 113
-13.3293 -12.8317 -0.327602 250 201 200
-13.4118 -12.8318 -0.329337 169 58 86
-13.5017 -12.8385 -0.331363 197 62 90
