-5.03111 -1.73293 -1.7991 69 82 101
-5.03564 -1.71726 -1.79911 68 81 100
-5.30386 -1.28925 -1.79101 71 83 107
-5.60933 -0.851723 -1.7906 69 84 107
-5.75557 -0.615671 -1.78699 68 83 106
-5.86174 -0.512049 -1.79688 66 80 107
-6.08489 -0.183703 -1.79937 72 86 112
-2.31718 -5.33845 -1.73287 90 110 147
-2.34465 -5.36202 -1.74362 85 107 146
-2.44266 -5.1777 -1.73684 79 99 135
-2.58849 -4.98675 -1.7421 76 95 128
-2.60961 -4.99322 -1.74737 77 96 129
-2.89994 -4.61449 -1.75718 72 91 123
-3.15726 -4.24428 -1.75904 70 87 117
-3.16753 -4.23194 -1.75764 71 88 118
-3.43125 -3.77955 -1.74563 71 83 105
-3.44226 -3.76942 -1.74563 72 83 105
-3.61659 -3.49764 -1.74432 72 84 100
-3.62664 -3.48686 -1.74433 71 83 99
-3.63928 -3.47867 -1.74579 69 82 100
-3.64532 -3.4639 -1.7436 69 82 101
-4.44234 -2.44409 -1.77247 77 79 89
-4.45071 -2.43139 -1.77321 81 87 94
-4.46392 -2.42134 -1.77614 80 84 93
-4.47272 -2.39993 -1.77542 78 85 93
-4.71739 -2.10624 -1.78573 67 80 107
-4.72809 -2.08527 -1.78645 67 81 108
-5.02771 -1.69741 -1.79422 67 79 100
-5.04008 -1.67567 -1.79633 68 81 101
-5.31429 -1.27448 -1.79374 74 86 108
-5.31558 -1.25743 -1.79307 68 80 102
-5.59185 -0.822546 -1.78336 69 81 105
-5.57859 -0.803018 -1.77809 69 81 105
-5.75188 -0.588111 -1.78507 71 86 109
-5.86432 -0.49369 -1.79752 70 84 110
-5.84227 -0.473442 -1.78993 78 92 118
-6.07886 -0.164438 -1.79754 71 85 111
-2.17133 -5.60137 -1.74432 72 91 123
-2.42373 -5.1756 -1.73363 80 99 139
-2.57767 -5.00244 -1.7454 78 97 130
-2.86248 -4.63041 -1.75514 77 97 132
-2.88439 -4.61959 -1.75582 74 93 126
-3.12671 -4.26885 -1.75974 69 88 120
-3.13814 -4.25813 -1.75904 68 87 119
-3.39202 -3.81472 -1.74563 70 82 108
-3.40671 -3.80903 -1.74778 71 83 108
-3.42619 -3.7968 -1.74922 70 82 106
-3.58198 -3.53641 -1.74505 70 82 98
-3.58827 -3.52176 -1.74286 71 83 99
-3.60751 -3.52036 -1.74798 72 84 100
-4.48096 -2.38711 -1.77616 79 81 94
-4.47769 -2.36811 -1.77177 74 76 88
-4.49444 -2.35099 -1.77471 73 77 89
-4.50089 -2.33721 -1.77471 73 77 88
-4.73717 -2.07228 -1.7879 67 81 107
-4.73939 -2.05618 -1.78647 66 80 106
-4.74305 -2.03205 -1.78432 65 81 107
-5.0391 -1.65822 -1.79424 69 81 103
-5.05407 -1.64597 -1.79845 68 80 102
-5.31143 -1.23033 -1.78968 64 77 100
-5.58392 -0.786138 -1.77942 71 83 107
-5.76223 -0.571131 -1.7883 77 92 115
-5.83151 -0.454158 -1.78614 71 84 110
-6.07657 -0.145314 -1.79693 65 80 105
-2.13016 -5.58945 -1.73634 78 97 129
-2.14984 -5.59274 -1.73941 77 96 128
-2.28968 -5.33911 -1.72972 87 107 144
-2.40762 -5.18044 -1.73299 80 100 137
-2.55424 -5.01134 -1.74475 82 100 136
-2.84967 -4.6403 -1.75582 82 102 139
-3.11629 -4.28108 -1.76113 71 90 122
-3.37203 -3.8375 -1.74706 67 81 108
-3.37968 -3.82324 -1.74491 68 82 108
-3.52462 -3.58376 -1.74212 72 84 100
-3.54438 -3.57209 -1.74431 73 85 101
-3.55338 -3.56021 -1.74358 71 84 101
-3.5662 -3.55233 -1.74505 71 84 101
-4.51224 -2.32598 -1.77692 85 91 106
-4.52388 -2.30606 -1.77765 54 62 80
-4.53185 -2.29302 -1.77839 53 64 85
-4.53646 -2.27827 -1.77767 50 61 81
-4.74685 -2.01671 -1.78361 66 82 108
-4.75229 -2.00211 -1.78362 66 82 108
-4.76281 -1.98971 -1.78578 62 78 104
-5.06086 -1.62233 -1.79846 68 79 102
-5.33083 -1.21759 -1.79581 70 82 106
-5.59294 -0.769728 -1.78207 68 80 104
-5.76499 -0.553327 -1.78896 71 86 109
-2.27993 -5.3613 -1.73542 87 106 146
-2.38685 -5.19728 -1.73558 85 104 144
-2.5425 -5.02523 -1.74739 82 100 136
-2.83499 -4.64686 -1.75515 81 103 142
-3.07703 -4.29292 -1.75624 71 88 121
-3.08857 -4.28235 -1.75554 71 89 121
-3.32403 -3.86175 -1.74203 68 84 110
-3.3388 -3.85634 -1.74419 68 82 109
-3.34889 -3.84507 -1.74347 66 82 108
-3.49849 -3.6204 -1.74504 74 83 100
-3.50768 -3.60867 -1.74431 73 84 101
-3.51935 -3.59962 -1.74504 71 83 99
-4.54622 -2.25737 -1.77767 88 100 118
-4.55737 -2.24589 -1.77988 73 85 104
-4.56182 -2.23106 -1.77915 67 81 105
-4.76785 -1.96626 -1.78435 92 107 122
-4.79716 -1.96177 -1.79442 115 126 140
-5.06505 -1.60655 -1.79847 67 80 99
-5.06739 -1.5902 -1.79778 70 83 102
-5.32279 -1.19838 -1.79174 71 83 107
-5.3275 -1.17341 -1.79175 71 83 105
-5.59001 -0.742836 -1.7801 76 88 112
-5.76288 -0.525952 -1.78768 63 78 102
-5.8289 -0.426266 -1.78488 72 86 112
-5.82933 -0.407848 -1.78489 67 81 108
-2.11858 -5.61145 -1.74188 79 98 130
-2.25876 -5.35334 -1.73036 85 107 148
-2.36589 -5.18968 -1.73043 84 107 144
-2.52377 -5.0236 -1.7441 83 104 139
-2.79376 -4.6556 -1.7504 79 98 138
-2.80755 -4.64754 -1.7504 81 101 138
-3.05386 -4.31394 -1.75764 72 91 123
-3.06546 -4.30345 -1.75694 70 89 121
-3.30217 -3.89483 -1.74634 69 83 110
-3.30779 -3.8778 -1.74275 67 83 109
-3.45877 -3.65368 -1.74357 73 85 101
-3.46932 -3.64343 -1.74357 71 82 100
-3.47983 -3.63316 -1.74357 70 82 98
-4.55956 -2.21296 -1.7755 65 79 105
-4.569 -2.19193 -1.77551 69 83 109
-4.56992 -2.17547 -1.77332 68 81 106
-4.78009 -1.93761 -1.78509 74 77 94
-4.78315 -1.91338 -1.78294 91 92 106
-5.06855 -1.56484 -1.79569 66 79 101
-5.07615 -1.55011 -1.79709 69 81 103
-5.33029 -1.15675 -1.79176 70 82 106
-5.58207 -0.724221 -1.77681 71 86 109
-5.76363 -0.507947 -1.78769 73 87 113
-5.8278 -0.389308 -1.78427 64 78 105
-2.09176 -5.61628 -1.74066 69 88 121
-2.23457 -5.36255 -1.73037 89 111 150
-2.35249 -5.20138 -1.73237 86 108 147
-2.49798 -5.02706 -1.74148 73 94 128
-2.78262 -4.66858 -1.75244 77 95 135
-3.02066 -4.33455 -1.75695 73 92 124
-3.03029 -4.32103 -1.75485 73 92 124
-3.2652 -3.90857 -1.74131 69 85 112
-3.28275 -3.89419 -1.74131 68 84 110
-3.41748 -3.68506 -1.74137 71 83 105
-3.42567 -3.67218 -1.73991 72 83 101
-3.4437 -3.67036 -1.7443 72 83 101
-4.58087 -2.16382 -1.77552 67 81 107
-4.5884 -2.14188 -1.7748 70 82 108
-4.59924 -2.13012 -1.777 73 83 110
-4.8055 -1.90574 -1.79013 69 75 99
-4.80369 -1.88812 -1.78727 65 79 105
-4.8013 -1.86174 -1.78296 71 82 107
-5.0783 -1.53373 -1.7964 70 82 104
-5.08399 -1.51841 -1.79711 67 79 102
-5.32021 -1.13726 -1.78701 70 82 106
-5.63207 -0.712782 -1.79397 70 82 106
-5.76619 -0.490108 -1.78834 71 85 111
-2.06818 -5.60007 -1.73329 75 94 127
-2.22002 -5.37217 -1.73165 90 110 147
-2.32817 -5.20914 -1.73174 100 120 159
-2.48537 -5.03907 -1.74346 76 96 131
-2.76256 -4.66497 -1.74768 79 99 136
-3.01099 -4.34804 -1.75904 72 91 124
-3.23299 -3.94005 -1.74275 71 87 113
-3.24564 -3.93206 -1.74346 70 86 113
-3.26506 -3.93292 -1.74849 68 83 112
-3.37952 -3.72013 -1.74137 68 83 106
-3.39516 -3.71577 -1.7443 70 83 107
-3.40469 -3.70434 -1.74357 69 81 105
-4.60163 -2.11441 -1.77554 67 81 107
-4.60723 -2.09161 -1.77409 64 80 106
-4.62302 -2.08203 -1.77849 65 81 107
-4.81491 -1.8504 -1.78656 51 59 83
-4.82156 -1.83624 -1.78729 84 92 107
-5.08841 -1.49408 -1.79642 73 86 105
-5.0616 -1.46942 -1.78454 67 80 99
-5.3338 -1.11426 -1.79042 69 82 106
-5.34006 -1.09835 -1.79179 67 79 103
-5.58019 -0.680007 -1.77485 69 81 105
-5.76305 -0.471759 -1.78706 71 85 111
-5.84381 -0.362544 -1.78935 71 85 111
-2.20543 -5.38176 -1.73292 89 111 150
-2.31133 -5.21189 -1.73046 102 123 161
-2.46969 -5.04413 -1.74281 79 98 131
-2.73184 -4.69299 -1.75109 75 94 129
-2.74311 -4.68015 -1.74905 85 105 142
-2.97552 -4.36513 -1.75695 73 92 124
-2.98631 -4.3533 -1.75555 72 91 124
-3.20807 -3.96954 -1.74562 70 85 116
-3.22079 -3.96165 -1.74634 70 85 116
-3.35087 -3.74349 -1.74064 68 82 108
-3.37358 -3.73571 -1.74429 68 83 106
-4.62186 -2.06474 -1.77557 66 80 108
-4.61894 -2.04672 -1.77192 65 81 107
-4.6378 -2.02986 -1.77631 66 82 108
-4.82299 -1.82002 -1.78586 84 91 102
-4.8289 -1.79703 -1.78515 83 88 100
-5.0977 -1.4628 -1.79714 71 84 103
-5.34813 -1.08279 -1.79383 68 80 104
-5.61887 -0.666894 -1.78806 69 81 105
-5.75491 -0.443967 -1.78385 73 86 112
-5.83647 -0.343658 -1.78682 74 88 115
-2.18238 -5.39427 -1.7342 91 113 152
-2.29846 -5.22521 -1.73304 99 121 160
-2.45849 -5.05952 -1.74611 78 100 140
-2.71702 -4.69913 -1.75041 80 99 131
-2.95867 -4.36745 -1.75415 72 91 123
-3.1931 -3.97438 -1.74346 69 86 116
-3.33151 -3.76599 -1.7421 69 81 107
-3.3448 -3.75901 -1.74356 69 83 109
-3.87989 -3.09985 -1.77251 66 78 100
-3.88308 -3.08348 -1.76953 66 79 98
-3.90325 -3.08143 -1.77551 66 79 96
-3.91063 -3.06858 -1.77476 67 78 96
-3.92704 -3.0534 -1.77626 69 81 100
-3.93147 -3.03813 -1.77402 68 81 100
-3.94445 -3.02989 -1.77627 70 81 101
-3.95783 -3.01218 -1.77627 70 81 102
-3.96208 -2.99685 -1.77403 69 80 98
-3.97351 -2.9873 -1.77553 68 79 99
-3.9925 -2.97404 -1.77852 69 80 99
-3.99368 -2.95635 -1.77479 68 80 97
-4.00647 -2.94781 -1.77704 69 80 97
-4.01652 -2.92751 -1.77555 68 81 98
-4.03073 -2.91998 -1.77854 67 80 97
-4.03754 -2.90676 -1.7778 69 80 98
-4.04579 -2.89465 -1.7778 67 79 96
-4.06447 -2.88087 -1.78079 70 81 98
-4.0652 -2.86312 -1.77706 69 81 98
-4.09119 -2.86416 -1.78602 70 82 99
-4.09931 -2.84241 -1.78379 65 78 96
-4.10587 -2.82899 -1.78305 68 81 100
-4.11987 -2.821 -1.78604 68 79 97
-4.12625 -2.79807 -1.78306 71 84 103
-4.13868 -2.78888 -1.7853 71 82 102
-4.14958 -2.77857 -1.7868 70 81 99
-4.16654 -2.77247 -1.79128 70 81 99
-4.17717 -2.75257 -1.79054 72 81 98
-4.18035 -2.73682 -1.78831 73 82 97
-4.18196 -2.72002 -1.78533 73 82 96
-4.65007 -2.01854 -1.77925 66 82 107
-4.64865 -2.00126 -1.77633 66 82 108
-4.83017 -1.78081 -1.78372 91 98 115
-4.82965 -1.76393 -1.78158 68 78 103
-5.10004 -1.43791 -1.79575 68 81 100
-5.31386 -1.0585 -1.78025 64 76 100
-5.6444 -0.652076 -1.79664 70 83 108
-5.76293 -0.426572 -1.78644 72 86 112
-5.86314 -0.326556 -1.7957 70 84 111
-2.16012 -5.38232 -1.72788 91 111 148
-2.27209 -5.22738 -1.73047 100 122 163
-2.426 -5.04699 -1.73755 78 99 138
-2.69307 -4.70576 -1.74838 78 97 129
-2.92707 -4.39041 -1.75486 71 90 122
-2.93598 -4.37555 -1.75206 71 90 122
-3.15391 -4.00978 -1.7449 70 87 117
-3.16455 -3.99906 -1.74418 71 86 117
-3.17516 -3.98832 -1.74347 70 85 116
-3.29268 -3.80004 -1.7421 69 84 110
-3.29185 -3.77603 -1.73479 67 83 109
-3.33486 -3.80493 -1.75453 68 84 110
-3.75494 -3.21328 -1.76203 66 78 102
-3.78985 -3.20584 -1.77099 66 78 102
-3.80408 -3.18892 -1.771 66 78 101
-3.81321 -3.17759 -1.771 67 79 101
-3.82231 -3.16623 -1.771 66 78 100
-3.83 -3.15362 -1.77026 66 78 102
-3.84676 -3.13892 -1.77176 66 78 103
-3.85433 -3.12624 -1.77101 67 79 102
-3.86328 -3.11475 -1.77102 66 78 100
-4.20001 -2.70527 -1.78832 75 85 97
-4.20608 -2.69157 -1.78757 82 90 101
-4.21982 -2.68301 -1.79057 78 86 96
-4.23044 -2.67233 -1.79206 81 85 96
-4.23439 -2.64806 -1.78834 76 80 91
-4.24338 -2.63629 -1.78909 98 104 122
-4.25856 -2.62852 -1.79283 70 81 98
-4.2638 -2.6052 -1.78985 81 86 96
-4.27111 -2.59231 -1.78985 81 84 94
-4.66564 -1.9834 -1.77999 67 83 109
-4.65898 -1.96394 -1.77488 67 81 107
-4.67106 -1.95244 -1.77781 80 91 114
-4.8545 -1.74808 -1.78877 68 82 108
-4.85036 -1.72987 -1.78518 67 82 105
-5.09644 -1.42 -1.79296 71 83 105
-5.11081 -1.40701 -1.79717 68 80 102
-5.31607 -1.03317 -1.77958 70 82 105
-5.62028 -0.622834 -1.78742 65 77 103
-5.76147 -0.40841 -1.78581 72 86 113
-5.88076 -0.299532 -1.80142 72 86 113
-2.14734 -5.39708 -1.73105 88 108 145
-2.25913 -5.24058 -1.73306 97 118 161
-2.38955 -5.04448 -1.73163 83 101 137
-2.41763 -5.06922 -1.74349 85 105 142
-2.66084 -4.71271 -1.74498 79 98 130
-2.67566 -4.70676 -1.74566 76 95 127
-2.8973 -4.40095 -1.75206 72 91 124
-2.9181 -4.40525 -1.75765 71 90 122
-3.13254 -4.01896 -1.74275 70 87 117
-3.25231 -3.83218 -1.74137 68 84 110
-3.26692 -3.82697 -1.74356 68 84 110
-3.27099 -3.80872 -1.73917 70 86 112
-3.71822 -3.2788 -1.76799 70 82 104
-3.73415 -3.2635 -1.76874 68 80 104
-3.73673 -3.2461 -1.76501 66 81 104
-3.74877 -3.23751 -1.76651 68 83 106
-3.782 -3.21834 -1.77174 65 77 101
-4.28462 -2.58337 -1.79284 84 88 100
-4.29118 -2.56097 -1.79061 80 88 99
-4.29835 -2.54799 -1.79062 78 86 97
-4.31334 -2.53986 -1.79435 91 97 108
-4.31885 -2.52584 -1.79361 80 84 94
-4.3251 -2.50332 -1.79138 85 90 96
-4.67241 -1.92797 -1.7749 97 100 119
-4.68786 -1.91779 -1.77929 94 101 120
-4.84616 -1.7117 -1.7816 68 83 106
-4.85856 -1.69115 -1.78376 70 83 108
-5.10927 -1.38112 -1.79438 67 81 105
-5.34235 -1.02125 -1.78843 69 81 105
-5.34834 -1.00523 -1.78979 69 81 103
-5.64382 -0.607617 -1.79535 68 80 106
-5.76812 -0.381788 -1.78775 73 87 114
-5.84481 -0.279383 -1.78939 70 84 111
-2.12703 -5.39034 -1.72662 86 106 143
-2.24095 -5.23953 -1.73049 97 119 160
-2.88132 -4.4199 -1.75486 74 93 126
-3.09706 -4.04613 -1.74275 68 87 119
-3.10678 -4.03406 -1.74131 69 86 116
-3.11751 -4.02349 -1.74059 70 87 117
-3.22397 -3.85588 -1.74137 68 84 110
-3.23655 -3.83588 -1.73844 68 84 110
-3.65304 -3.34714 -1.76648 69 82 101
-3.66004 -3.33373 -1.76499 69 81 98
-3.66964 -3.32289 -1.765 70 81 101
-3.68974 -3.31171 -1.76798 69 81 104
-3.69526 -3.29693 -1.76575 68 80 104
-3.71146 -3.29236 -1.76948 68 80 104
-4.33207 -2.49023 -1.79139 85 87 97
-4.34059 -2.47806 -1.79214 81 83 95
-4.35297 -2.45927 -1.79289 81 84 91
-4.36459 -2.4489 -1.79514 81 83 93
-4.3778 -2.43941 -1.79813 85 85 96
-4.69295 -1.90332 -1.7793 70 80 103
-4.68765 -1.88466 -1.77492 69 85 107
-4.86999 -1.67865 -1.78665 68 82 108
-4.8779 -1.66485 -1.78809 69 83 109
-5.1163 -1.36611 -1.79579 68 80 102
-5.12511 -1.35152 -1.79789 70 82 104
-5.36688 -0.982889 -1.79524 69 81 103
-5.64106 -0.589613 -1.79404 70 85 108
-5.76842 -0.363748 -1.78776 72 86 112
-5.8694 -0.261876 -1.79764 75 88 115
-2.22792 -5.25265 -1.73307 95 116 159
-2.3581 -5.03326 -1.72374 84 103 139
-2.62872 -4.7383 -1.74771 75 94 126
-2.64194 -4.7291 -1.74703 70 89 121
-2.86347 -4.42022 -1.75137 74 93 125
-3.07985 -4.06111 -1.74347 71 90 122
-3.19808 -3.87028 -1.73917 69 84 113
-3.20932 -3.86091 -1.73917 70 86 112
-3.60347 -3.40072 -1.76648 71 82 100
-3.62252 -3.38868 -1.76872 70 82 103
-3.62312 -3.36879 -1.7635 69 81 103
-3.62888 -3.35415 -1.76126 68 81 101
-4.37235 -2.4102 -1.79067 80 79 91
-4.38868 -2.40248 -1.79515 86 86 98
-4.39373 -2.38824 -1.79441 85 87 99
-4.40408 -2.36823 -1.79442 86 86 96
-4.41225 -2.35577 -1.79517 88 88 97
-4.69902 -1.86431 -1.77639 60 79 103
-4.69876 -1.84775 -1.7742 58 70 95
-4.70709 -1.83458 -1.77567 47 58 78
-4.87167 -1.64609 -1.78379 69 83 109
-4.88732 -1.62654 -1.78739 70 84 110
-5.12664 -1.33503 -1.7972 71 83 105
-5.3617 -0.964703 -1.79253 69 81 103
-5.62324 -0.570163 -1.78745 73 85 109
-5.77053 -0.345824 -1.78842 69 83 109
-5.84657 -0.242471 -1.79004 72 86 113
-2.10635 -5.40965 -1.73043 80 100 137
-2.33322 -5.05818 -1.72836 85 103 142
-2.35031 -5.05708 -1.73033 86 106 143
-2.61465 -4.74577 -1.74771 78 97 130
-2.83044 -4.44081 -1.75137 77 96 129
-2.85142 -4.43009 -1.75207 74 93 126
-3.05383 -4.07583 -1.74203 74 93 125
-3.06898 -4.07157 -1.74419 69 88 120
-3.17057 -3.895 -1.7399 71 86 115
-3.18187 -3.88572 -1.7399 68 83 112
-3.5482 -3.43751 -1.7605 71 80 96
-3.57124 -3.4298 -1.76498 73 81 99
-3.58243 -3.42059 -1.76573 72 81 98
-3.58972 -3.40736 -1.76424 71 83 99
-4.41713 -2.34147 -1.79443 85 87 93
-4.41712 -2.32447 -1.79145 80 83 97
-4.43855 -2.31055 -1.79668 50 59 77
-4.44165 -2.29529 -1.7952 53 65 82
-4.71997 -1.81476 -1.77788 89 96 107
-4.72475 -1.80017 -1.77788 84 90 102
-4.91271 -1.61866 -1.79602 70 84 110
-4.89394 -1.59572 -1.78669 74 86 110
-5.12653 -1.30961 -1.79511 68 80 102
-5.12972 -1.29358 -1.79512 68 80 102
-5.35828 -0.946894 -1.7905 66 81 104
-5.63623 -0.544853 -1.79142 73 85 111
-2.08672 -5.40453 -1.72664 84 99 138
-2.20025 -5.25087 -1.72922 97 118 161
-2.60304 -4.75826 -1.74975 77 95 131
-2.81833 -4.45058 -1.75207 75 94 127
-3.02132 -4.09475 -1.7406 72 91 124
-3.03751 -4.09216 -1.74347 71 90 123
-3.14286 -3.91949 -1.74064 68 84 113
-3.15474 -3.89832 -1.73698 72 89 117
-3.52037 -3.48199 -1.76497 72 80 99
-3.53844 -3.46912 -1.76647 72 83 98
-3.53696 -3.4466 -1.75975 72 82 98
-4.44799 -2.28179 -1.7952 62 74 90
-4.45782 -2.26149 -1.79521 54 66 83
-4.47551 -2.25399 -1.80044 67 79 98
-4.46857 -2.2335 -1.79448 74 88 110
-4.72426 -1.78359 -1.7757 84 93 107
-4.72996 -1.76102 -1.77497 85 93 112
-4.91645 -1.57831 -1.79316 72 87 110
-5.12743 -1.27619 -1.79303 69 81 103
-5.37104 -0.923343 -1.79391 68 83 106
-5.64454 -0.527912 -1.79407 69 83 109
-5.77122 -0.318744 -1.78843 68 82 108
-5.87898 -0.215752 -1.80083 74 86 111
-2.07312 -5.4173 -1.72918 84 102 138
-2.18211 -5.2496 -1.72665 100 121 164
-2.30892 -5.06409 -1.72706 86 105 142
-2.57728 -4.76087 -1.74636 76 95 128
-2.80523 -4.45869 -1.75207 73 91 127
-3.00927 -4.10347 -1.7406 69 88 121
-3.1019 -3.93784 -1.73625 72 87 118
-3.11779 -3.93476 -1.73917 71 86 117
-3.13033 -3.92715 -1.73991 66 81 110
-3.46549 -3.51863 -1.75974 71 82 100
-3.47317 -3.50571 -1.75825 74 85 103
-3.49762 -3.49991 -1.76348 71 82 100
-3.509 -3.49097 -1.76423 72 83 101
-4.48477 -2.2165 -1.79747 67 81 107
-4.48918 -2.202 -1.79673 69 83 110
-4.50018 -2.19086 -1.79898 67 81 107
-4.73281 -1.74575 -1.77425 76 89 114
-4.74609 -1.73429 -1.77792 71 85 111
-4.89575 -1.55495 -1.78311 74 87 113
-4.91569 -1.545 -1.78959 73 87 114
-5.13976 -1.25387 -1.79584 69 81 103
-5.14278 -1.23778 -1.79585 72 84 106
-5.3749 -0.906831 -1.7946 71 84 107
-5.37129 -0.889031 -1.79257 69 81 105
-5.63778 -0.509623 -1.79144 71 85 111
-5.79395 -0.301975 -1.79617 73 87 113
-5.87495 -0.197037 -1.79957 74 86 112
-2.04747 -5.42199 -1.72793 76 96 130
-2.17515 -5.28042 -1.73568 96 119 161
-2.29045 -5.06153 -1.72377 84 102 138
-2.54978 -4.77713 -1.74704 77 96 129
-2.56232 -4.76649 -1.74568 76 95 128
-2.77285 -4.48042 -1.75278 73 91 127
-2.78696 -4.47403 -1.75348 75 95 132
-2.98374 -4.1329 -1.74419 69 88 120
-2.99381 -4.12115 -1.74276 68 87 119
-3.08755 -3.95583 -1.73845 68 87 117
-3.43656 -3.56232 -1.76422 70 82 104
-3.45124 -3.5458 -1.76347 68 80 102
-3.47021 -3.54529 -1.7687 70 81 101
-4.50783 -2.17799 -1.79973 67 81 107
-4.5205 -2.15905 -1.80123 68 82 108
-4.51643 -2.14033 -1.79676 67 82 108
-4.74537 -1.71771 -1.77573 68 81 107
-4.91139 -1.51877 -1.78529 75 89 115
-4.90817 -1.50133 -1.78242 74 88 114
-5.14212 -1.22083 -1.79446 68 80 102
-5.64861 -0.483953 -1.79475 73 88 111
-5.76757 -0.282419 -1.78716 71 85 111
-5.87466 -0.17844 -1.79958 63 77 103
-2.03026 -5.42384 -1.72667 81 101 133
-2.14503 -5.27118 -1.72925 94 117 161
-2.2954 -5.11856 -1.74289 86 104 140
-2.75688 -4.48351 -1.75068 78 97 129
-2.95534 -4.1438 -1.74132 70 89 121
-2.9675 -4.13525 -1.74132 71 90 122
-3.06337 -3.9722 -1.73771 68 86 119
-3.07712 -3.96629 -1.73918 67 86 118
-3.39608 -3.59316 -1.76198 70 82 104
-3.40725 -3.57265 -1.75899 70 82 104
-3.42253 -3.56821 -1.76198 70 82 104
-4.53391 -2.1323 -1.80199 68 82 109
-4.5397 -2.10993 -1.8005 66 82 108
-4.53543 -2.09126 -1.79603 67 80 106
-4.76299 -1.69941 -1.78013 67 81 107
-4.75338 -1.67972 -1.77428 68 82 108
-4.76125 -1.66622 -1.77575 68 83 108
-4.91911 -1.48837 -1.7853 74 88 114
-4.91754 -1.47149 -1.78316 75 90 116
-5.14692 -1.19668 -1.79447 68 80 104
-5.60411 -0.462757 -1.77892 72 86 112
-5.777 -0.264844 -1.79039 74 88 114
-2.01305 -5.42564 -1.72541 81 100 132
-2.12691 -5.2697 -1.72668 95 116 159
-2.26931 -5.09662 -1.73235 85 104 141
-2.50982 -4.78657 -1.74366 76 94 130
-2.52803 -4.78793 -1.74705 73 93 127
-2.75012 -4.50282 -1.75558 83 101 138
-2.94969 -4.17695 -1.75066 75 94 126
-3.03825 -4.00036 -1.74064 69 85 118
-3.04664 -3.987 -1.73845 70 86 119
-3.36791 -3.60452 -1.7575 71 83 105
-3.38685 -3.60448 -1.76272 71 83 105
-4.53609 -2.07503 -1.7938 66 80 106
-4.54171 -2.06119 -1.79381 67 81 107
-4.55556 -2.04276 -1.79605 68 82 108
-4.76636 -1.6435 -1.77503 70 84 110
-4.76356 -1.62633 -1.77211 69 83 109
-4.93782 -1.45299 -1.78891 73 88 117
-5.15888 -1.18262 -1.79798 69 81 106
-5.15621 -1.16524 -1.79589 65 77 99
-5.60654 -0.445375 -1.77959 64 78 104
-5.77163 -0.237455 -1.78847 68 82 107
-5.87645 -0.150582 -1.80022 70 85 108
-2.11422 -5.28429 -1.72991 95 117 158
-2.25429 -5.12683 -1.74027 82 102 139
-2.50192 -4.80729 -1.74909 79 97 133
-2.70828 -4.50774 -1.74929 78 97 130
-2.7252 -4.50647 -1.75209 77 95 131
-2.92805 -4.19861 -1.75282 71 90 122
-2.93939 -4.18858 -1.7521 70 89 121
-3.018 -3.99701 -1.73479 67 85 116
-3.33064 -3.63875 -1.7575 68 83 106
-3.3412 -3.62901 -1.7575 68 83 106
-3.35894 -3.62772 -1.76198 69 84 107
-4.57116 -2.03355 -1.80054 68 82 108
-4.56824 -2.01571 -1.79681 67 81 107
-4.77655 -1.61454 -1.77578 69 83 109
-4.92364 -1.43232 -1.78174 76 90 117
-4.9326 -1.41867 -1.7839 78 92 118
-5.15532 -1.14829 -1.7945 74 86 108
-5.60957 -0.419205 -1.78026 79 91 115
-5.77713 -0.219626 -1.79041 73 86 111
-5.86655 -0.131806 -1.79707 73 87 113
-2.22374 -5.09233 -1.72512 82 102 139
-2.47298 -4.80248 -1.74299 83 101 139
-2.69228 -4.51058 -1.7472 79 99 134
-2.90708 -4.20805 -1.75138 74 93 125
-3.01381 -4.05537 -1.75235 71 90 122
-3.0022 -4.01313 -1.73626 69 88 120
-3.30957 -3.67007 -1.76123 68 82 108
-3.32836 -3.65841 -1.76272 69 83 109
-4.57008 -1.99171 -1.79383 68 82 108
-4.5822 -1.98081 -1.79683 68 82 108
-4.58753 -1.96681 -1.79684 67 81 108
-4.78495 -1.59291 -1.77652 69 84 110
-4.78196 -1.57576 -1.7736 71 85 112
-4.93301 -1.39418 -1.78175 80 94 121
-5.15794 -1.12367 -1.79381 71 83 107
-5.64382 -0.403939 -1.79215 66 81 104
-5.77503 -0.201459 -1.78978 72 84 110
-5.88122 -0.113452 -1.80215 71 86 110
-2.089 -5.28905 -1.72863 92 116 155
-2.20336 -5.08414 -1.71986 80 100 136
-2.46413 -4.82141 -1.74774 79 97 133
-2.6692 -4.51718 -1.7451 82 101 134
-2.86658 -4.1993 -1.7399 71 90 122
-2.88187 -4.1958 -1.74205 72 91 123
-2.98589 -4.06661 -1.74942 71 90 122
-2.99879 -4.05948 -1.75015 70 89 121
-3.27625 -3.70937 -1.76421 69 83 109
-3.30106 -3.70509 -1.76944 68 82 108
-3.31656 -3.70118 -1.77242 69 83 109
-3.75056 -3.01157 -1.76286 68 80 104
-3.76339 -3.00397 -1.76515 67 79 102
-3.78189 -3.00104 -1.77051 67 78 100
-3.78758 -2.98744 -1.76898 67 78 98
-3.79073 -2.96234 -1.76363 64 76 99
-3.80202 -2.95338 -1.76517 66 78 102
-3.81473 -2.94554 -1.76746 67 79 101
-3.82337 -2.92502 -1.76517 67 79 99
-3.83892 -2.91937 -1.769 66 78 100
-3.84576 -2.90678 -1.76824 67 80 99
-3.86874 -2.89752 -1.77359 69 82 101
-3.86819 -2.87918 -1.76901 67 80 99
-3.87782 -2.86876 -1.76978 68 80 102
-3.89034 -2.86055 -1.77208 68 81 100
-3.8926 -2.83529 -1.76673 68 81 100
-3.90801 -2.82922 -1.77055 68 81 100
-3.92044 -2.82086 -1.77285 67 80 99
-3.93282 -2.80326 -1.77285 67 79 101
-3.93777 -2.7893 -1.77133 66 78 100
-3.9531 -2.78297 -1.77516 68 79 99
-3.96095 -2.77114 -1.77516 68 79 97
-3.99111 -2.76628 -1.78434 70 82 98
-3.98086 -2.74143 -1.77517 72 82 99
-4.00969 -2.74447 -1.78588 73 82 97
-4.00207 -2.71262 -1.77594 72 81 98
-4.01424 -2.70379 -1.77824 72 81 97
-4.01577 -2.68753 -1.77519 73 83 96
-4.03058 -2.67154 -1.77672 74 82 95
-4.04724 -2.66568 -1.78131 76 83 93
-4.05931 -2.65664 -1.78361 76 83 93
-4.06478 -2.63422 -1.78055 81 89 99
-4.06601 -2.61791 -1.7775 81 94 110
-4.60267 -1.94878 -1.79983 67 81 107
-4.59433 -1.92875 -1.79386 68 82 108
-4.60629 -1.91767 -1.79686 66 82 108
-4.79659 -1.56438 -1.778 70 84 111
-4.78644 -1.54495 -1.77215 71 85 111
-4.93828 -1.37941 -1.78248 78 94 120
-4.93813 -1.36308 -1.78105 80 96 122
-5.16057 -1.10751 -1.79382 68 79 101
-5.16679 -1.09209 -1.79523 68 80 98
-5.6329 -0.385555 -1.7882 75 89 115
-5.87134 -0.0854143 -1.79899 71 85 111
-2.0709 -5.28737 -1.72607 92 116 154
-2.18555 -5.10705 -1.72514 81 101 138
-2.44902 -4.82663 -1.74707 79 97 133
-2.65053 -4.54722 -1.7514 79 98 131
-2.66661 -4.54455 -1.75349 79 98 131
-2.84467 -4.20682 -1.73775 73 92 125
-2.9739 -4.08873 -1.75381 70 89 121
-3.24996 -3.72257 -1.76123 69 83 109
-3.25615 -3.70732 -1.75824 69 83 109
-3.64886 -3.1194 -1.75825 64 79 102
-3.66329 -3.11351 -1.76131 68 80 104
-3.67496 -3.10511 -1.76284 67 79 101
-3.68592 -3.08633 -1.76131 66 78 100
-3.69472 -3.0754 -1.76132 66 79 98
-3.70768 -3.06807 -1.76361 68 81 100
-3.71984 -3.05035 -1.76285 69 80 98
-3.72853 -3.03931 -1.76285 69 80 98
-3.74001 -3.03063 -1.76438 69 80 102
-4.07796 -2.60874 -1.7798 81 91 105
-4.08528 -2.59648 -1.77981 80 86 96
-4.10124 -2.58106 -1.7821 82 83 96
-4.10691 -2.56772 -1.78134 81 84 96
-4.12342 -2.56134 -1.78594 85 85 97
-4.13146 -2.54073 -1.78441 81 85 94
-4.13856 -2.52828 -1.78442 80 84 93
-4.60931 -1.89434 -1.79462 69 82 108
-4.61948 -1.88242 -1.79687 71 83 107
-4.79629 -1.5238 -1.77362 71 87 113
-4.96517 -1.34617 -1.78968 78 94 121
-5.16365 -1.06631 -1.79244 69 81 104
-5.64827 -0.368849 -1.79349 73 87 113
-5.77314 -0.174259 -1.78914 74 86 110
-5.88397 -0.0669054 -1.80343 74 86 110
-2.05458 -5.29101 -1.72543 91 113 150
-2.17107 -5.11462 -1.72581 80 100 136
-2.43083 -4.82494 -1.74367 82 100 136
-2.62558 -4.55028 -1.74791 75 94 127
-2.82272 -4.22785 -1.7399 72 91 124
-2.83515 -4.21974 -1.7399 73 92 125
-2.9417 -4.09348 -1.74796 69 88 120
-2.95986 -4.09422 -1.75235 68 87 119
-3.20795 -3.75101 -1.75899 68 82 109
-3.21544 -3.73732 -1.75675 70 84 110
-3.23093 -3.73378 -1.75974 69 83 109
-3.5992 -3.18861 -1.7613 63 78 101
-3.6106 -3.17014 -1.75977 64 79 102
-3.61832 -3.15822 -1.75901 64 79 102
-3.63008 -3.15001 -1.76054 64 79 102
-3.63442 -3.12521 -1.75519 64 79 102
-4.16598 -2.52855 -1.79436 79 83 95
-4.15341 -2.49512 -1.7829 80 84 96
-4.17295 -2.49034 -1.78902 78 84 96
-4.17201 -2.47294 -1.7852 75 81 95
-4.18836 -2.46611 -1.7898 78 84 98
-4.18955 -2.44144 -1.78521 76 82 98
-4.62108 -1.86685 -1.79539 63 74 96
-4.62949 -1.85414 -1.79689 45 59 79
-4.80725 -1.51113 -1.77656 71 87 113
-4.80574 -1.49457 -1.77437 71 87 113
-4.95054 -1.32579 -1.78251 78 94 121
-5.14591 -1.04611 -1.78475 69 81 105
-5.769 -0.156055 -1.78787 73 88 111
-2.03996 -5.3 -1.72673 89 111 148
-2.15592 -5.12037 -1.72582 81 101 137
-2.41189 -4.84203 -1.7464 81 99 134
-2.61915 -4.57099 -1.7535 74 93 126
-2.80931 -4.23431 -1.73919 70 89 121
-2.89803 -4.09438 -1.73846 71 90 122
-2.90485 -4.07828 -1.73481 72 91 123
-3.17446 -3.7668 -1.75526 66 83 109
-3.20042 -3.76469 -1.76123 70 86 112
-3.52004 -3.23894 -1.75058 68 80 102
-3.53464 -3.2337 -1.75364 68 80 103
-3.55593 -3.2348 -1.76052 69 81 105
-3.56119 -3.22048 -1.75823 68 80 104
-3.57814 -3.20725 -1.75976 68 83 105
-3.58465 -3.19416 -1.75823 66 81 104
-4.21539 -2.44014 -1.79439 66 74 97
-4.20307 -2.41612 -1.78522 60 72 97
-4.22949 -2.4064 -1.79287 55 70 92
-4.22498 -2.38713 -1.78753 54 70 95
-4.23479 -2.37621 -1.78906 58 71 97
-4.24456 -2.36525 -1.7906 58 69 95
-4.6373 -1.83289 -1.79689 90 96 110
-4.63873 -1.81729 -1.79541 84 88 99
-4.6384 -1.801 -1.79318 81 89 102
-4.81536 -1.47327 -1.77584 73 87 114
-4.81374 -1.45671 -1.77366 73 87 114
-4.98256 -1.31832 -1.79401 80 95 124
-4.95525 -1.29459 -1.78181 78 92 121
-5.14093 -1.02854 -1.78196 68 80 104
-5.64152 -0.341909 -1.79086 75 87 113
-5.77049 -0.138035 -1.78852 75 90 112
-5.89085 -0.0482906 -1.80598 74 88 114
-2.01414 -5.30258 -1.72481 90 110 147
-2.39448 -4.8419 -1.74368 82 100 136
-2.59871 -4.56519 -1.74791 74 93 126
-2.78918 -4.24472 -1.73847 74 93 125
-2.88506 -4.10114 -1.73773 73 92 124
-3.16028 -3.79546 -1.76048 71 87 115
-3.17133 -3.7863 -1.76048 69 85 111
-3.50386 -3.29191 -1.76051 69 81 105
-3.51464 -3.2829 -1.76128 68 80 102
-3.51221 -3.2609 -1.7544 69 81 103
-4.24516 -2.34053 -1.78602 54 62 90
-4.2645 -2.33493 -1.79214 53 60 88
-4.26288 -2.31753 -1.78832 54 62 88
-4.28422 -2.30442 -1.79368 64 75 96
-4.6563 -1.78381 -1.79766 87 97 113
-4.82451 -1.44388 -1.77659 72 87 116
-4.96222 -1.27201 -1.78253 78 92 119
-5.13747 -1.00295 -1.77917 69 81 105
-5.63793 -0.32405 -1.78955 75 87 113
-5.77208 -0.110955 -1.78918 71 86 109
-5.87683 -0.0296147 -1.80155 69 83 109
-2.1327 -5.1289 -1.72583 78 98 131
-2.37782 -4.84344 -1.74165 84 103 137
-2.58611 -4.57424 -1.74861 79 98 131
-2.76226 -4.25737 -1.73704 76 95 129
-2.78518 -4.26715 -1.74494 74 93 125
-2.87168 -4.14833 -1.75017 70 89 121
-2.87976 -4.13382 -1.74724 71 90 122
-3.12541 -3.80928 -1.75601 72 87 116
-3.13652 -3.80024 -1.75601 73 90 119
-3.44747 -3.33504 -1.75592 69 81 103
-3.46229 -3.31984 -1.75592 68 80 104
-3.47443 -3.31229 -1.75745 69 81 103
-3.48396 -3.30208 -1.75746 69 81 103
-4.28408 -2.2879 -1.79063 63 71 96
-4.30174 -2.2811 -1.79598 49 58 91
-4.29856 -2.25455 -1.78987 41 56 92
-4.31453 -2.24675 -1.79447 47 65 91
-4.30762 -2.22676 -1.78836 48 62 89
-4.66273 -1.77023 -1.79842 69 81 105
-4.66568 -1.75527 -1.79768 69 83 110
-4.83212 -1.42192 -1.77733 75 89 117
-4.81782 -1.40175 -1.77002 74 90 116
-4.96352 -1.25615 -1.78182 81 95 121
-4.96297 -1.23981 -1.78039 71 86 112
-5.14156 -0.987174 -1.77988 69 81 105
-5.16214 -0.974429 -1.78688 66 78 102
-5.63615 -0.306305 -1.7889 74 86 110
-5.77152 -0.0928642 -1.78919 75 87 111
-5.88551 -0.00163888 -1.80473 72 86 113
-2.00003 -5.31325 -1.72675 95 115 152
-2.11814 -5.1363 -1.7265 83 102 134
-2.35799 -4.85857 -1.7437 78 96 132
-2.55104 -4.59085 -1.74792 77 96 129
-2.56714 -4.58857 -1.75002 71 90 122
-2.74298 -4.26915 -1.73704 76 94 130
-2.82154 -4.12394 -1.73116 73 92 124
-2.83856 -4.12367 -1.73481 72 91 123
-3.09601 -3.83024 -1.75527 69 84 115
-3.11318 -3.8168 -1.75526 70 85 114
-3.4185 -3.36521 -1.75592 72 83 105
-3.42562 -3.35253 -1.75439 69 82 101
-3.43527 -3.34248 -1.75439 70 82 104
-4.33009 -2.22229 -1.79601 43 55 85
-4.32652 -2.19578 -1.7899 39 55 80
-4.34402 -2.18858 -1.79526 48 60 82
-4.67994 -1.73649 -1.80067 67 81 107
-4.67758 -1.7195 -1.79769 69 83 109
-4.68036 -1.7045 -1.79696 68 82 109
-4.83738 -1.39137 -1.77662 74 89 118
-4.98595 -1.22129 -1.78759 65 80 109
-5.14772 -0.955234 -1.7806 64 78 102
-5.64982 -0.280431 -1.79353 77 90 114
-1.98476 -5.32026 -1.7274 97 115 150
-2.09855 -5.12943 -1.72189 87 106 139
-2.345 -4.86861 -1.74506 79 97 133
-2.53835 -4.59975 -1.74863 74 93 126
-2.7187 -4.28633 -1.73777 78 96 132
-2.7341 -4.28342 -1.73992 71 89 125
-2.80695 -4.14232 -1.73409 73 92 125
-3.07685 -3.85254 -1.7575 68 85 115
-3.08589 -3.84065 -1.75601 71 86 117
-3.36368 -3.40941 -1.75286 69 82 105
-3.38139 -3.39734 -1.75439 70 82 104
-3.38863 -3.38475 -1.75286 69 81 105
-3.40219 -3.37884 -1.75515 70 82 106
-4.33356 -2.167 -1.78762 48 60 86
-4.3511 -2.15143 -1.79145 44 59 82
-4.36191 -2.14071 -1.79375 48 61 81
-4.35783 -2.12253 -1.78916 47 58 78
-4.67963 -1.68819 -1.79472 68 82 108
-4.67971 -1.66408 -1.79174 66 82 108
-4.84261 -1.37684 -1.77736 73 90 120
-4.82307 -1.34732 -1.76712 74 91 121
-4.9708 -1.20128 -1.78041 69 84 114
-4.96826 -1.18451 -1.77826 62 76 104
-5.14207 -0.929373 -1.77711 64 79 102
-5.64039 -0.262339 -1.79024 70 84 109
-5.7728 -0.0748065 -1.78984 75 87 111
-1.9589 -5.32255 -1.72548 94 114 149
-2.08458 -5.13851 -1.72322 85 103 138
-2.33123 -4.87688 -1.74574 80 98 134
-2.5142 -4.60382 -1.74584 79 98 131
-2.69928 -4.29789 -1.73777 76 95 129
-2.78073 -4.15515 -1.73263 75 94 126
-2.79484 -4.15033 -1.73409 71 90 123
-3.05142 -3.87911 -1.75975 66 85 115
-3.06017 -3.85386 -1.75377 70 87 117
-3.32985 -3.44496 -1.75362 68 83 106
-3.33895 -3.42355 -1.7498 70 82 106
-3.35132 -3.4165 -1.75133 71 83 107
-4.38515 -2.11164 -1.79758 44 55 76
-4.37595 -2.09103 -1.79071 43 55 76
-4.68579 -1.65036 -1.7925 68 82 109
-4.69356 -1.63725 -1.794 68 82 108
-4.84788 -1.3382 -1.77591 73 91 121
-4.98197 -1.16356 -1.78187 63 79 105
-5.15329 -0.914824 -1.78061 70 83 105
-5.65537 -0.245259 -1.79553 73 85 111
-5.77214 -0.0567059 -1.78985 73 87 113
-2.06129 -5.14669 -1.72323 84 103 136
-2.30614 -4.87967 -1.74303 78 96 132
-2.50477 -4.61931 -1.74933 75 94 127
-2.66848 -4.30337 -1.73347 73 92 125
-2.68842 -4.3088 -1.73921 72 92 125
-2.76011 -4.16386 -1.73117 73 92 124
-3.02229 -3.88749 -1.75527 67 86 118
-3.03472 -3.8803 -1.75602 69 86 116
-3.30229 -3.4767 -1.75515 67 82 105
-3.30987 -3.46431 -1.75362 67 82 105
-3.31615 -3.45054 -1.75133 66 81 104
-4.39328 -2.08337 -1.79606 44 55 75
-4.39384 -2.05935 -1.79225 49 59 82
-4.39107 -2.04204 -1.78843 54 66 86
-4.39492 -2.0279 -1.78767 55 69 92
-4.69861 -1.61502 -1.79326 69 83 109
-4.84398 -1.32119 -1.77299 75 92 122
-4.84566 -1.29763 -1.77154 76 91 122
-5.00104 -1.15198 -1.78834 68 82 108
-5.15894 -0.899269 -1.78202 67 82 105
-5.76579 -0.0295042 -1.78793 70 84 110
-2.04302 -5.14315 -1.71994 82 101 134
-2.29162 -4.88608 -1.74303 76 94 130
-2.487 -4.61799 -1.74584 74 92 128
-2.66026 -4.3191 -1.73706 73 92 125
-2.73573 -4.17954 -1.73118 77 96 129
-2.74696 -4.17013 -1.73044 77 96 128
-3.01218 -3.91113 -1.7605 69 88 120
-3.26405 -3.50735 -1.75362 69 83 106
-3.27297 -3.49646 -1.75286 70 82 106
-3.28063 -3.48415 -1.75133 70 82 106
-4.40375 -2.0161 -1.78921 61 76 96
-4.40729 -1.99368 -1.78692 58 72 98
-4.70629 -1.60183 -1.79476 69 84 110
-4.71742 -1.58984 -1.79776 69 83 110
-4.85421 -1.28396 -1.77374 75 92 122
-4.982 -1.13132 -1.77973 63 77 103
-4.98829 -1.11668 -1.78117 62 76 102
-5.1567 -0.874052 -1.77993 72 84 103
-5.65746 -0.218748 -1.7962 76 92 115
-5.60637 -0.199439 -1.7784 72 85 109
-5.77255 -0.0114705 -1.79052 69 83 110
-2.03195 -5.16099 -1.72456 79 98 131
-2.2799 -4.8994 -1.74575 74 92 128
-2.46939 -4.63523 -1.74864 74 94 129
-2.6407 -4.33037 -1.73706 79 98 131
-2.72073 -4.19757 -1.73411 75 94 127
-2.98296 -3.91918 -1.75602 73 90 120
-2.99441 -3.91061 -1.75602 72 91 123
-3.23454 -3.52675 -1.75133 70 82 108
-3.24352 -3.51595 -1.75056 68 82 108
-4.41435 -1.98104 -1.78769 60 72 96
-4.41294 -1.96455 -1.78464 52 66 91
-4.43139 -1.94892 -1.78924 51 65 92
-4.71698 -1.56568 -1.79478 72 83 111
-4.72452 -1.55239 -1.79628 71 83 111
-4.85732 -1.26886 -1.77375 76 93 123
-4.9908 -1.09302 -1.78046 63 79 105
-5.16224 -0.858452 -1.78134 71 81 96
-5.15663 -0.841067 -1.77855 72 81 97
-2.2632 -4.9005 -1.74372 74 94 130
-2.44919 -4.62871 -1.74305 79 98 133
-2.62526 -4.33291 -1.73491 76 94 130
-2.70371 -4.1973 -1.73045 75 94 126
-2.95274 -3.9389 -1.75528 69 86 116
-2.96112 -3.92583 -1.75304 68 85 115
-3.20728 -3.5487 -1.75056 66 81 107
-3.22071 -3.53191 -1.74903 67 81 107
-4.43326 -1.93393 -1.78771 50 65 94
-4.44012 -1.92117 -1.78848 52 67 93
-4.71972 -1.5349 -1.79255 69 85 111
-4.73067 -1.52276 -1.79555 68 85 113
-4.86594 -1.24709 -1.77522 74 93 123
-4.86713 -1.23149 -1.7745 76 93 123
-5.00972 -1.08117 -1.78694 67 81 107
-5.62305 -0.182344 -1.78434 74 86 110
-2.00325 -5.1528 -1.71865 74 93 126
-2.24088 -4.90989 -1.74373 78 98 133
-2.42667 -4.65259 -1.74725 77 95 131
-2.44119 -4.64741 -1.74795 76 94 130
-2.61685 -4.34854 -1.7385 75 94 127
-2.68098 -4.21581 -1.73192 74 93 126
-2.69426 -4.20978 -1.73265 74 92 128
-2.93272 -3.96036 -1.75752 71 88 118
-2.93914 -3.94425 -1.75379 70 87 117
-3.17866 -3.57929 -1.75209 69 83 109
-3.19139 -3.57291 -1.75362 69 83 109
-3.20174 -3.56365 -1.75362 68 82 109
-4.44995 -1.90162 -1.78926 56 72 98
-4.46182 -1.89098 -1.79232 61 77 103
-4.46007 -1.87448 -1.78927 68 83 109
-4.72814 -1.49804 -1.79182 69 85 112
-4.85564 -1.21278 -1.76865 78 93 124
-4.86215 -1.19853 -1.77012 76 91 120
-5.00675 -1.06439 -1.78479 69 83 109
-5.16705 -0.817895 -1.78136 79 81 93
-5.15945 -0.800267 -1.77787 70 77 81
-5.62648 -0.164811 -1.78567 74 86 110
-1.9868 -5.15442 -1.71734 68 87 120
-2.22832 -4.92133 -1.74577 80 98 134
-2.58167 -4.36195 -1.73636 79 97 131
-2.59453 -4.35465 -1.73636 77 96 129
-2.66295 -4.2288 -1.73265 73 92 125
-2.90568 -3.95895 -1.75081 70 86 119
-3.15452 -3.60504 -1.75362 68 82 108
-3.16497 -3.5959 -1.75362 69 83 109
-4.47018 -1.86304 -1.79157 52 64 87
-4.49339 -1.849 -1.79846 49 57 82
-4.73547 -1.48466 -1.79332 69 84 113
-4.73571 -1.46896 -1.79184 70 85 116
-4.87225 -1.1771 -1.77233 76 91 119
-5.03087 -1.04536 -1.79271 66 82 107
-5.00047 -1.02275 -1.77978 66 82 107
-5.1629 -0.784322 -1.77858 68 67 63
-5.60936 -0.138016 -1.77975 70 84 110
-1.97613 -5.17391 -1.72262 70 89 122
-2.20817 -4.91349 -1.74034 78 97 130
-2.39026 -4.66615 -1.74587 76 95 128
-2.40799 -4.66788 -1.74936 78 97 130
-2.56533 -4.36261 -1.73349 79 98 131
-2.65335 -4.24117 -1.73485 73 92 124
-2.88548 -3.98013 -1.75305 69 88 120
-2.90323 -3.98119 -1.75753 68 87 119
-3.12437 -3.6234 -1.75133 72 86 113
-3.13939 -3.6084 -1.75056 69 83 110
-3.78984 -2.7857 -1.78223 67 78 98
-3.80068 -2.77651 -1.78379 67 80 99
-3.81003 -2.76616 -1.78457 68 81 100
-3.8252 -2.75111 -1.78613 67 79 95
-3.8286 -2.73623 -1.7838 71 83 99
-3.83931 -2.72687 -1.78537 73 82 99
-3.85135 -2.70945 -1.78537 73 82 99
-3.85608 -2.69562 -1.78382 72 81 96
-4.47952 -1.82752 -1.79005 70 78 97
-4.49804 -1.81946 -1.79618 78 88 100
-4.4783 -1.78777 -1.78395 80 87 101
-4.74348 -1.44767 -1.79259 71 86 115
-4.74538 -1.43252 -1.79185 72 87 116
-4.87321 -1.1615 -1.77161 78 93 122
-5.03015 -1.01291 -1.79057 69 84 109
-5.17373 -0.769422 -1.78209 90 86 64
-5.61265 -0.120492 -1.78108 69 83 108
-2.37568 -4.67115 -1.74517 79 97 133
-2.5524 -4.38667 -1.73924 74 93 126
-2.63631 -4.2406 -1.7312 75 94 126
-2.89163 -4.02985 -1.77097 69 88 120
-3.10099 -3.63847 -1.7498 70 86 112
-3.11268 -3.63095 -1.75057 71 86 112
-3.64383 -2.9541 -1.77515 66 79 99
-3.65369 -2.94435 -1.77594 66 78 100
-3.67476 -2.9441 -1.78295 63 76 97
-3.68359 -2.92396 -1.78062 66 78 100
-3.69478 -2.91524 -1.78218 66 78 100
-3.69179 -2.89471 -1.77595 71 82 102
-3.70292 -2.88595 -1.77752 67 79 99
-3.72426 -2.87621 -1.78219 65 77 99
-3.73248 -2.865 -1.7822 66 78 102
-3.73922 -2.8526 -1.78142 66 78 102
-3.75328 -2.83683 -1.78221 63 75 99
-3.76282 -2.82667 -1.78299 63 75 99
-3.77955 -2.82216 -1.78767 65 77 101
-3.78613 -2.80962 -1.7869 66 78 102
-3.87857 -2.69483 -1.79161 72 81 96
-3.8845 -2.67289 -1.7885 75 85 97
-3.89356 -2.66221 -1.78929 73 83 95
-3.89959 -2.64935 -1.78851 75 85 97
-3.90259 -2.63434 -1.78618 75 83 96
-3.9202 -2.62084 -1.7893 74 83 98
-3.93062 -2.61107 -1.79087 76 84 96
-3.94253 -2.6023 -1.79321 77 85 97
-3.95549 -2.5854 -1.79399 76 83 99
-3.96125 -2.57237 -1.79322 75 86 103
-3.96394 -2.55725 -1.79089 69 82 101
-3.98586 -2.54638 -1.79635 49 64 94
-3.98536 -2.52917 -1.79246 70 86 120
-4.49845 -1.7803 -1.79084 83 90 106
-4.49456 -1.76315 -1.78702 60 74 97
-4.75075 -1.41847 -1.79261 70 87 115
-4.87595 -1.14631 -1.77161 77 92 122
-5.0066 -0.983844 -1.7798 66 73 95
-5.16528 -0.743475 -1.7779 111 103 72
-5.61589 -0.102942 -1.78241 67 79 103
-1.95268 -5.18155 -1.72263 75 94 127
-2.18849 -4.92962 -1.74307 77 96 129
-2.53604 -4.38719 -1.73637 76 94 130
-2.61541 -4.24851 -1.72974 75 94 127
-2.85384 -3.99745 -1.75156 69 88 120
-3.0668 -3.67392 -1.7521 72 87 118
-3.06951 -3.65487 -1.74675 70 85 116
-3.08924 -3.65765 -1.75286 71 86 115
-3.54618 -3.06226 -1.772 68 81 100
-3.55634 -3.05289 -1.77279 70 83 102
-3.57813 -3.04431 -1.77746 67 80 99
-3.58277 -3.0299 -1.77513 68 80 101
-3.59283 -3.02039 -1.77591 67 79 101
-3.60427 -3.01206 -1.77747 68 80 102
-3.60936 -2.98853 -1.7728 66 78 102
-3.62208 -2.98134 -1.77515 65 77 100
-3.64037 -2.97891 -1.7806 67 80 100
-4.00169 -2.52317 -1.79714 132 149 175
-3.99957 -2.50495 -1.79247 133 153 178
-4.01825 -2.49173 -1.79637 135 155 182
-4.02525 -2.47952 -1.79638 140 159 186
-4.0508 -2.47922 -1.80573 138 157 185
-4.04455 -2.44987 -1.79717 134 152 185
-4.50437 -1.75146 -1.78933 64 81 107
-4.51514 -1.73216 -1.79086 67 82 110
-4.76361 -1.39871 -1.7956 72 89 119
-4.76711 -1.38405 -1.79561 72 89 119
-4.8822 -1.12392 -1.77235 77 92 121
-5.00332 -0.967167 -1.77765 79 81 102
-5.16485 -0.726978 -1.77721 119 107 76
-1.94579 -5.21355 -1.73253 76 95 128
-2.17513 -4.93915 -1.74443 77 96 129
-2.33916 -4.68427 -1.74378 79 99 134
-2.35608 -4.68451 -1.74658 80 98 134
-2.51176 -4.40471 -1.73781 72 92 127
-2.52476 -4.39763 -1.73781 76 96 130
-2.59229 -4.26647 -1.73121 73 91 125
-2.62292 -4.29156 -1.74583 75 94 127
-2.84575 -4.05218 -1.76799 68 87 120
-2.86298 -4.03843 -1.76724 71 89 121
-3.03398 -3.68851 -1.74828 71 88 116
-3.05498 -3.68126 -1.75134 73 90 120
-3.47977 -3.11389 -1.76498 66 79 104
-3.50169 -3.10587 -1.76965 66 78 102
-3.51465 -3.09919 -1.77199 65 77 101
-3.52895 -3.0937 -1.77511 67 79 103
-3.54815 -3.08286 -1.77823 68 80 102
-4.06543 -2.44641 -1.80418 142 157 189
-4.06448 -2.42915 -1.80029 145 160 187
-4.08604 -2.41738 -1.80575 145 161 190
-4.08183 -2.39818 -1.80031 144 160 188
-4.09952 -2.39247 -1.80577 144 159 188
-4.08888 -2.36948 -1.7972 147 164 193
-4.51451 -1.71637 -1.78858 68 82 109
-4.51902 -1.70258 -1.78858 66 82 108
-4.767 -1.36831 -1.79413 72 89 119
-4.89931 -1.11194 -1.77822 77 92 121
-4.87468 -1.09067 -1.76725 79 94 123
-5.0274 -0.955929 -1.78628 81 85 98
-5.16994 -0.711225 -1.77862 108 96 70
-5.61544 -0.0765224 -1.78242 71 83 107
-1.93254 -5.22575 -1.73517 78 97 129
-2.15843 -4.93986 -1.7424 77 95 131
-2.32916 -4.69934 -1.74728 81 101 136
-2.59008 -4.30835 -1.74511 77 95 131
-2.8309 -4.05553 -1.76575 71 87 121
-3.01582 -3.7103 -1.75058 81 100 132
-3.02325 -3.69721 -1.74828 72 88 121
-3.4386 -3.17958 -1.77041 64 78 104
-3.44909 -3.17061 -1.77119 65 79 105
-3.45428 -3.15646 -1.76886 63 78 101
-3.46704 -3.13971 -1.76808 64 79 102
-3.48007 -3.13318 -1.77042 64 78 103
-4.12289 -2.365 -1.80889 149 166 194
-4.11209 -2.34207 -1.80033 149 164 193
-4.13286 -2.33797 -1.80735 148 165 195
-4.12557 -2.30883 -1.79879 144 163 195
-4.12881 -2.2944 -1.79723 143 162 194
-4.53303 -1.68446 -1.79165 66 83 109
-4.52704 -1.66673 -1.78707 67 83 109
-4.76686 -1.35258 -1.79264 72 89 119
-4.77587 -1.33159 -1.79414 73 90 120
-4.89701 -1.07177 -1.77458 77 92 122
-5.04047 -0.942414 -1.79061 55 55 75
-5.17606 -0.687301 -1.78002 97 89 70
-5.64495 -0.0590852 -1.79298 80 92 118
-1.91538 -5.22531 -1.73321 75 94 127
-2.13592 -4.94873 -1.7424 81 99 135
-2.47873 -4.42221 -1.73782 76 94 129
-2.49096 -4.41357 -1.7371 79 97 135
-2.54708 -4.2902 -1.73049 76 95 128
-2.57654 -4.314 -1.74438 77 96 130
-2.80609 -4.06996 -1.76501 71 90 122
-2.82289 -4.06986 -1.76874 72 88 121
-2.99916 -3.72324 -1.75058 71 90 123
-3.38871 -3.21746 -1.76573 69 81 103
-3.40838 -3.21784 -1.77196 68 80 102
-3.42158 -3.2116 -1.7743 66 80 106
-3.42285 -3.18331 -1.76651 64 78 104
-4.16068 -2.29653 -1.80971 146 164 195
-4.15149 -2.26653 -1.80036 150 166 199
-4.18019 -2.26656 -1.81128 148 165 195
-4.16721 -2.24297 -1.80193 146 161 192
-4.53139 -1.65289 -1.78707 67 83 109
-4.53651 -1.63147 -1.78632 69 83 110
-4.77559 -1.31586 -1.79266 73 90 120
-4.894 -1.05534 -1.77239 77 92 121
-5.01287 -0.912976 -1.7784 85 84 100
-5.17173 -0.67032 -1.77793 89 84 62
-2.12116 -4.95459 -1.74241 78 97 133
-2.30636 -4.70564 -1.74589 81 102 138
-2.4632 -4.42411 -1.73567 74 92 128
-2.53715 -4.30226 -1.73268 77 93 127
-2.76133 -4.06592 -1.75382 71 90 122
-2.78483 -4.0771 -1.76277 71 90 122
-2.97199 -3.73291 -1.74676 71 90 123
-2.98942 -3.7333 -1.75134 67 86 119
-3.35802 -3.25518 -1.76728 68 80 104
-3.37001 -3.24784 -1.76884 68 80 104
-3.37299 -3.23122 -1.76495 69 81 105
-4.18789 -2.23832 -1.80895 145 166 197
-4.17342 -2.20578 -1.79727 153 168 197
-4.2021 -2.20542 -1.80819 153 168 197
-4.19526 -2.18554 -1.80196 153 170 199
-4.53728 -1.61634 -1.78479 68 84 110
-4.54495 -1.6037 -1.78633 66 83 109
-4.78418 -1.30266 -1.79491 73 90 120
-4.77332 -1.27607 -1.78819 74 91 121
-4.89277 -1.03931 -1.77093 77 92 123
-5.04598 -0.903167 -1.79062 113 111 123
-5.02042 -0.882422 -1.77985 103 94 99
-5.20451 -0.657875 -1.78984 126 110 85
-5.65742 -0.0414082 -1.79761 77 89 115
-2.10446 -4.9551 -1.74038 79 98 134
-2.27554 -4.71157 -1.7431 80 100 137
-2.29697 -4.72234 -1.75009 84 103 143
-2.44233 -4.43272 -1.73496 73 91 127
-2.51255 -4.30306 -1.7283 80 99 132
-2.74844 -4.07213 -1.75308 72 91 124
-2.94538 -3.75556 -1.74753 72 91 123
-2.95848 -3.75012 -1.74906 78 97 129
-3.31482 -3.29971 -1.76727 69 81 103
-3.337 -3.30329 -1.77506 69 81 105
-3.33391 -3.28 -1.76727 66 81 104
-3.33705 -3.26343 -1.76338 66 81 104
-4.22416 -2.17676 -1.81132 147 164 193
-4.21391 -2.15518 -1.80353 152 168 196
-4.20847 -2.13626 -1.79809 152 168 194
-4.5603 -1.58589 -1.79016 68 83 112
-4.79252 -1.26578 -1.79492 74 91 121
-4.91696 -1.02853 -1.77972 77 92 123
-4.90445 -1.00222 -1.77315 80 97 126
-5.03467 -0.860922 -1.78417 79 66 79
-5.60391 -0.014884 -1.77915 75 87 113
-2.09034 -4.96261 -1.74106 77 95 131
-2.26383 -4.72304 -1.7452 79 99 137
-2.43244 -4.44625 -1.73783 74 94 131
-2.50338 -4.31667 -1.73123 78 96 131
-2.719 -4.09302 -1.75383 72 91 124
-2.73006 -4.08374 -1.75308 74 93 126
-2.92024 -3.76781 -1.74524 67 86 118
-2.93228 -3.76096 -1.746 66 85 118
-3.27074 -3.32303 -1.76103 68 82 107
-3.28785 -3.32146 -1.7657 68 81 106
-3.29749 -3.31171 -1.76571 70 82 107
-4.23399 -2.12549 -1.80588 149 166 191
-4.24471 -2.11508 -1.80823 146 161 187
-4.23253 -2.09281 -1.79966 149 161 189
-4.25957 -2.09076 -1.8098 143 157 185
-4.55565 -1.5689 -1.78635 68 84 110
-4.55795 -1.55435 -1.78559 68 84 110
-4.79382 -1.25052 -1.79418 71 90 122
-4.90851 -0.987263 -1.77389 80 97 125
-5.02362 -0.842992 -1.77915 85 75 91
-5.20481 -0.633083 -1.78915 103 92 74
-5.21332 -0.617542 -1.79196 100 93 77
-2.41689 -4.44797 -1.73568 75 95 132
-2.48814 -4.31874 -1.72904 76 95 128
-2.8976 -3.79609 -1.74906 74 93 125
-2.91397 -3.79537 -1.75288 71 90 122
-3.24617 -3.36768 -1.76725 67 81 107
-3.25224 -3.35396 -1.76492 66 80 106
-3.25827 -3.34024 -1.76259 68 82 108
-4.24557 -2.05956 -1.7989 148 161 181
-4.2693 -2.05564 -1.80748 149 162 179
-4.25843 -2.03436 -1.79969 155 169 183
-4.56718 -1.54218 -1.78789 69 85 111
-4.58753 -1.52588 -1.79402 69 85 111
-4.80595 -1.23026 -1.79718 74 92 122
-4.79636 -1.21213 -1.79196 74 91 121
-4.89246 -0.968398 -1.76658 81 96 124
-5.02169 -0.826709 -1.77772 86 78 93
-5.18274 -0.597644 -1.78007 96 89 70
-2.03409 -4.92366 -1.7207 79 98 131
-2.06834 -4.97292 -1.74175 78 96 134
-2.24098 -4.72899 -1.74381 83 103 138
-2.39751 -4.45972 -1.73641 80 99 134
-2.47041 -4.33245 -1.73051 78 96 132
-2.70427 -4.13936 -1.76653 75 94 127
-2.7276 -4.13589 -1.77025 75 94 126
-2.88229 -3.79827 -1.74601 69 88 120
-3.20522 -3.39412 -1.76335 70 84 110
-3.21994 -3.39018 -1.76647 68 82 108
-3.23147 -3.37175 -1.76414 70 84 110
-4.29358 -2.02779 -1.81216 125 140 166
-4.27762 -2.00413 -1.80204 38 51 88
-4.2814 -1.99022 -1.80127 20 34 73
-4.57215 -1.50543 -1.78561 69 84 113
-4.583 -1.49372 -1.78868 67 84 114
-4.79749 -1.19687 -1.79122 74 91 121
-4.90701 -0.947548 -1.77098 81 96 126
-5.03937 -0.805683 -1.78348 74 72 82
-2.213 -4.74135 -1.74382 77 95 131
-2.22701 -4.7352 -1.74382 78 98 135
-2.38034 -4.45792 -1.73282 76 95 128
-2.44327 -4.34288 -1.72905 76 96 133
-2.45938 -4.34265 -1.73197 78 98 135
-2.69117 -4.14535 -1.76578 74 93 126
-2.85725 -3.82324 -1.74831 69 88 120
-2.87048 -3.81814 -1.74983 68 87 119
-3.18118 -3.41906 -1.76413 69 83 109
-3.19653 -3.40496 -1.76413 69 83 109
-4.30985 -1.98006 -1.81063 40 54 89
-4.30359 -1.96132 -1.80518 46 58 81
-4.30557 -1.94655 -1.80363 45 55 73
-4.58911 -1.47265 -1.78869 70 85 116
-4.81114 -1.18483 -1.79571 74 91 121
-4.90542 -0.931539 -1.76952 81 96 123
-5.03365 -0.788772 -1.78062 71 72 78
-2.0362 -4.97704 -1.73904 76 94 130
-2.37186 -4.47468 -1.73713 74 94 129
-2.66586 -4.15881 -1.76504 72 91 124
-2.67898 -4.15291 -1.76578 72 91 124
-2.83881 -3.82064 -1.74296 72 88 121
-3.13623 -3.4404 -1.75789 69 83 109
-3.16362 -3.44055 -1.76568 68 82 108
-3.17242 -3.42982 -1.76491 67 81 107
-4.31249 -1.93412 -1.80442 44 57 74
-4.31742 -1.91273 -1.80286 44 53 71
-4.58229 -1.45521 -1.7841 71 86 115
-4.58596 -1.44115 -1.78411 69 86 116
-4.8104 -1.1612 -1.79348 73 90 120
-4.81136 -1.14591 -1.79274 74 91 121
-4.90925 -0.916546 -1.77026 83 97 126
-5.05362 -0.776028 -1.78781 77 76 82
-2.00553 -4.96222 -1.73022 74 92 128
-2.1901 -4.74704 -1.74243 76 96 132
-2.35551 -4.47447 -1.73426 73 95 134
-2.42454 -4.35472 -1.72979 74 94 129
-2.64887 -4.17324 -1.76654 73 92 125
-2.81457 -3.84682 -1.74602 68 87 119
-2.82577 -3.83883 -1.74602 68 87 119
-3.12321 -3.46729 -1.76256 68 82 108
-3.13093 -3.45527 -1.76101 70 84 110
-4.31923 -1.89795 -1.80131 44 53 70
-4.32266 -1.88393 -1.80054 44 54 66
-4.32733 -1.86251 -1.79899 41 53 70
-4.59183 -1.42005 -1.78412 70 87 117
-4.6007 -1.4076 -1.78642 70 87 117
-4.82126 -1.13282 -1.79574 74 91 121
-4.91444 -0.893856 -1.771 77 91 119
-5.02389 -0.755354 -1.7756 74 74 76
-1.99864 -4.99076 -1.73906 79 97 133
-2.17536 -4.75134 -1.74174 75 95 132
-2.33212 -4.47743 -1.7314 91 111 148
-2.41379 -4.39813 -1.74296 81 99 135
-2.42336 -4.38473 -1.74003 76 94 130
-2.6348 -4.17741 -1.76505 77 96 128
-2.78902 -3.85808 -1.74373 70 89 121
-2.8023 -3.85325 -1.74526 71 90 122
-3.10092 -3.49442 -1.7649 68 84 110
-3.11895 -3.48356 -1.76645 68 82 108
-4.3357 -1.85071 -1.80056 36 51 70
-4.34403 -1.83888 -1.80212 46 59 78
-4.59538 -1.39079 -1.78261 71 88 118
-4.82567 -1.11049 -1.79575 75 92 122
-4.92366 -0.87977 -1.77394 79 93 121
-4.92001 -0.863438 -1.77175 83 95 122
-5.04678 -0.734936 -1.78352 81 82 78
-1.98496 -4.99972 -1.74042 75 93 129
-2.1606 -4.7556 -1.74104 80 102 141
-2.31964 -4.48557 -1.73212 83 103 140
-2.39923 -4.40149 -1.7415 84 104 139
-2.6207 -4.18154 -1.76356 74 93 125
-2.77471 -3.87452 -1.74603 69 88 120
-3.05888 -3.51889 -1.761 68 82 109
-3.07584 -3.50684 -1.76178 66 82 108
-3.09071 -3.50351 -1.76489 68 84 110
-3.63845 -2.74006 -1.77557 70 82 102
-3.64764 -2.73019 -1.77637 68 80 99
-3.65534 -2.71917 -1.77638 68 79 97
-3.67601 -2.70923 -1.78118 70 81 101
