54.7907 -16.3715 1.93395 67 69 43
36.5868 15.997 0.929376 54 52 66
36.604 15.657 0.927547 51 50 66
35.9074 14.893 0.911183 46 48 61
35.94 14.7715 0.911014 53 51 64
31.8521 11.6621 0.824011 66 68 55
31.9735 11.531 0.825406 75 70 64
31.9707 11.414 0.824758 49 47 56
58.9135 -16.6789 2.05447 94 83 56
38.6258 16.6465 0.967604 51 46 66
36.2302 14.7524 0.915813 54 51 62
36.1029 14.5002 0.912182 56 52 67
36.1295 14.2427 0.911164 64 58 60
36.7258 14.2685 0.921447 55 49 62
21.6152 -7.23296 0.727686 79 76 38
21.5743 -7.29677 0.727306 87 82 46
36.846 14.1785 0.922998 68 65 71
36.56 13.7363 0.915691 68 70 65
55.7912 15.6623 1.48703 57 57 50
55.8793 14.6354 1.48396 53 58 58
55.5727 14.2727 1.47571 53 58 54
55.2886 14.013 1.46845 59 67 66
55.2691 13.8208 1.46718 53 58 58
55.2548 13.6303 1.46604 50 56 53
55.2142 13.3408 1.46392 62 67 63
51.3842 11.2184 1.37276 74 59 69
51.4728 10.8938 1.37348 95 83 102
16.6896 -7.21468 0.552188 128 113 62
16.5185 -7.20642 0.54923 70 65 47
16.5022 -7.26274 0.549394 50 50 44
26.9021 11.5659 0.617564 50 47 65
26.8855 11.4566 0.616848 50 49 67
41.9662 15.5642 1.01802 60 59 55
40.7351 14.9696 0.993771 55 57 47
37.0615 11.5307 0.913509 68 63 58
59.1359 14.0775 1.55146 56 58 55
59.1183 13.8745 1.55024 57 60 69
59.024 13.5556 1.54691 53 59 70
58.6187 13.2672 1.53702 60 68 67
58.934 13.1405 1.54334 63 68 76
51.6388 10.3274 1.37509 90 73 87
26.1867 -6.08183 0.817977 7 54 131
26.2073 -6.21971 0.819211 52 81 125
26.2176 -6.31106 0.819963 94 99 118
26.1422 -6.38225 0.81875 34 49 98
26.0292 -6.48851 0.816948 10 55 128
25.9669 -6.562 0.816046 25 59 112
25.98 -6.65394 0.816887 84 84 81
25.9396 -6.77716 0.816781 76 71 39
25.892 -6.85386 0.816237 144 129 100
45.776 17.3627 1.09289 59 64 58
37.0568 11.3342 0.91256 68 65 55
57.0368 11.2044 1.49527 57 43 39
27.0273 -7.23825 0.843046 79 69 54
45.7626 16.0343 1.08568 50 53 58
48.0416 16.5594 1.1276 60 58 61
43.9647 14.4771 1.047 59 56 61
44.4408 14.2384 1.05415 57 51 55
33.2882 15.1325 0.7176 42 44 60
33.5956 15.1397 0.721622 47 48 54
49.7565 16.7851 1.15834 61 63 78
48.4661 16.1001 1.13271 61 61 66
45.8953 14.9374 1.08266 58 51 57
44.8212 14.0427 1.0599 67 63 59
44.8966 13.5165 1.05891 51 51 61
41.8417 11.6002 0.997511 67 69 61
41.7205 11.4237 0.994698 44 46 42
41.9098 11.2585 0.9974 56 57 61
31.6203 -7.0933 0.941244 44 43 58
31.5656 -7.18748 0.940584 93 113 154
27.6953 -12.3518 0.898191 50 51 46
27.5226 -12.54 0.896508 54 55 42
27.6652 -12.8699 0.902651 59 54 52
27.4003 -12.8558 0.897156 65 68 61
27.1194 -12.8325 0.891253 68 65 59
26.8607 -12.8178 0.88589 63 63 60
35.3715 15.5842 0.746823 48 47 62
45.5304 13.545 1.07012 63 65 62
45.7558 13.3725 1.07333 61 60 56
45.7347 12.8133 1.0707 76 74 59
29.1824 -12.8875 0.933624 60 47 40
36.801 16.0612 0.767696 51 44 60
36.6995 15.8782 0.765519 45 42 57
36.2776 15.2191 0.756978 48 47 62
36.2016 14.984 0.754919 45 44 59
31.8636 11.4584 0.682773 58 59 51
50.5123 14.5601 1.16158 63 62 56
50.5066 14.3842 1.16078 73 68 53
36.6545 -7.21645 1.0512 58 51 58
36.4973 -7.30737 1.04824 64 64 56
36.5906 -7.44727 1.05098 41 38 29
21.5711 -7.15213 0.635708 79 76 40
21.5665 -7.22763 0.636109 82 82 34
21.5104 -7.28629 0.635511 91 87 40
32.3694 -12.8706 0.998923 71 72 55
31.664 -12.8889 0.984522 103 93 78
31.3555 -12.8824 0.978105 70 51 59
31.0158 -12.8614 0.970923 61 50 64
30.7008 -12.9058 0.96486 79 72 63
36.1436 14.8251 0.753456 49 48 64
36.2575 14.7354 0.754565 53 48 61
36.3953 14.6548 0.756035 54 52 63
41.5881 -7.06929 1.15811 87 62 61
41.5232 -7.19486 1.15726 159 97 86
34.9595 -12.8588 1.05264 65 65 47
34.8147 -12.9324 1.05023 70 70 55
34.7449 -13.0329 1.04962 65 64 47
32.7163 -12.8852 1.00623 65 62 53
54.7255 14.4392 1.23523 48 52 57
55.048 13.8681 1.23889 51 55 54
43.7398 -6.21291 1.20166 128 86 102
43.7901 -6.43387 1.20363 99 68 86
43.727 -6.56734 1.20279 85 48 72
43.7288 -6.71027 1.20341 136 100 96
43.5779 -7.0437 1.20152 129 78 61
43.7319 -7.21127 1.20562 98 53 59
43.7137 -7.71035 1.20746 132 104 52
37.2991 -14.1743 1.11246 57 59 49
37.3507 -14.3294 1.11486 59 55 50
36.4529 -14.1246 1.09447 60 60 55
35.5562 -14.2407 1.07693 51 42 33
40.1976 15.7851 0.811089 54 58 50
40.2738 15.6661 0.811602 55 64 48
40.4001 15.4919 0.812546 60 65 52
40.7915 15.49 0.817739 56 57 49
58.871 15.1143 1.3109 39 46 48
58.8205 14.6036 1.30821 62 66 68
58.7037 14.3768 1.30538 51 54 50
58.1706 13.9542 1.29451 70 72 68
58.8941 13.9268 1.30726 76 70 83
58.7358 13.6926 1.30371 75 69 77
51.4645 10.8184 1.16558 67 46 51
51.7789 -6.82824 1.38049 69 87 109
51.9066 -7.01296 1.38399 65 60 76
51.5724 -7.13583 1.37712 63 66 70
46.4788 -7.35157 1.26633 74 54 48
26.0814 -6.07654 0.709298 10 53 131
26.2421 -6.24673 0.712994 10 41 101
25.8927 -6.25338 0.706807 59 70 114
25.833 -6.3272 0.706115 12 55 126
26.0464 -6.51155 0.710845 15 56 128
25.7203 -6.51972 0.705097 84 106 152
25.6657 -6.59399 0.704514 76 69 56
25.5946 -6.70785 0.703856 86 86 50
25.5511 -6.78445 0.703494 85 77 47
40.5398 -12.8544 1.16996 90 78 54
40.5382 -12.9959 1.17098 57 44 49
40.8385 -14.3179 1.18755 71 62 43
39.5867 -14.1699 1.16013 99 84 83
39.5975 -14.387 1.16215 86 78 66
41.1945 15.4901 0.823101 60 63 52
40.705 15.0868 0.814964 65 71 61
40.9707 15.0348 0.818305 66 69 53
41.1161 14.9383 0.819873 52 58 46
41.3635 14.6537 0.822088 54 54 54
41.5516 14.5699 0.824297 49 50 58
36.9429 11.4696 0.751276 65 60 50
56.944 11.2879 1.2648 46 52 62
61.7702 -6.43124 1.59898 131 109 118
61.7481 -6.72673 1.59943 93 93 105
56.6539 -7.1852 1.48892 37 53 82
46.0694 -12.9021 1.28794 93 77 51
46.0494 -13.1338 1.28909 77 82 44
41.6599 -14.2302 1.2041 75 70 40
42.4162 -14.6346 1.22319 77 67 49
41.3773 -14.6511 1.20153 137 101 92
16.6305 -7.16919 0.474214 88 65 43
16.6214 -7.26044 0.474664 64 47 32
16.535 -7.28729 0.473698 65 56 55
52.1941 -14.4106 1.42897 139 104 82
49.3122 -14.2184 1.36612 88 92 59
48.9668 -14.2889 1.35925 71 77 43
48.9267 -14.5306 1.36009 77 78 39
48.8205 -14.6684 1.35881 72 76 40
47.177 -14.3457 1.32158 37 37 11
48.289 -14.9301 1.34941 124 108 84
46.8758 -14.6631 1.3175 105 90 71
46.3987 -15.0843 1.31055 88 87 57
47.9594 16.6089 0.917847 58 54 57
48.0585 16.3857 0.918354 84 80 85
65.9625 -12.3162 1.71458 134 103 50
66.319 -12.5998 1.72374 136 103 69
58.6963 -12.3328 1.55667 55 58 64
58.6249 -12.5124 1.5561 60 71 54
31.5853 -7.1173 0.812449 75 78 61
31.5267 -7.21047 0.811848 27 45 97
55.3944 -15.0923 1.50196 164 131 90
26.0455 -12.4662 0.751813 81 69 58
48.7922 16.4588 0.928494 66 68 86
47.9628 16.0126 0.915738 43 50 57
48.1409 15.8157 0.917439 66 65 70
48.8334 15.8676 0.926975 72 73 67
48.7372 15.665 0.924987 71 70 65
46.2084 14.6195 0.88724 54 51 60
45.3293 13.474 0.871628 62 63 58
45.7095 13.4266 0.876665 63 62 57
41.8279 11.2913 0.817392 66 65 71
28.3503 -11.7064 0.784368 60 53 58
28.2977 -11.7907 0.784121 59 52 60
28.5755 -12.011 0.790526 65 55 53
28.0555 -12.5399 0.78596 65 55 48
27.8125 -12.5934 0.782327 62 54 43
27.5657 -12.5898 0.77817 70 66 61
48.8276 15.2651 0.924872 66 64 46
51.1796 15.3659 0.957138 58 59 62
45.842 13.2268 0.87786 75 76 60
45.7131 13.032 0.875525 65 68 46
36.5286 -7.23492 0.901413 63 70 54
52.9002 14.87 0.979118 69 70 51
21.5885 -7.13212 0.54035 82 72 44
21.5556 -7.23683 0.540443 82 77 49
21.5469 -7.3109 0.54071 70 66 45
33.3373 -12.8619 0.877963 89 82 78
32.5889 -12.8773 0.865292 89 72 67
31.7103 -14.8698 0.866296 64 41 34
31.0499 -14.6863 0.853768 73 37 42
55.0921 15.195 1.01003 53 53 53
54.5486 14.8599 1.00165 47 45 48
55.3582 14.6052 1.01205 56 57 58
43.4987 -7.0894 1.02618 134 88 44
41.5405 -7.1152 0.99099 153 121 77
41.5287 -7.24972 0.991304 143 98 56
35.2639 -12.6974 0.909881 92 81 78
34.9049 -12.6959 0.903685 111 97 86
34.7498 -12.8288 0.901949 69 65 73
34.6502 -12.918 0.900868 68 71 71
34.5055 -12.9902 0.898897 65 69 69
33.6928 -12.8736 0.884132 62 59 55
32.1413 -14.9439 0.874092 72 39 37
55.5532 14.4669 1.01437 51 51 50
58.1155 14.9291 1.05081 52 58 57
56.2145 14.16 1.02267 59 62 69
56.6469 14.0759 1.02842 93 96 103
51.3257 10.7856 0.947388 71 53 56
51.6691 -7.05833 1.17365 43 41 44
51.6001 -7.21644 1.17293 87 98 98
46.9007 -7.10056 1.0876 62 50 63
40.5447 -12.7719 1.00202 106 98 61
40.3356 -12.8482 0.998846 70 56 52
40.2788 -12.9716 0.998636 56 48 51
36.0186 -14.0094 0.932189 76 66 59
35.7177 -14.2222 0.928635 103 89 52
35.6143 -14.313 0.927555 70 44 13
36.0111 -14.6696 0.937001 108 89 66
61.0475 14.9512 1.09125 80 87 99
63.8801 15.4225 1.13148 73 75 76
57.4453 13.5939 1.03827 102 101 118
60.0606 13.8029 1.07493 82 66 71
54.5921 11.0105 0.993244 57 65 87
61.639 -6.5174 1.35271 67 29 56
57.0425 -7.32317 1.27177 92 88 92
56.406 -7.42468 1.26057 91 84 85
26.0818 -6.17953 0.597698 16 53 119
26.0533 -6.30556 0.597811 17 49 115
25.9625 -6.37236 0.596826 15 55 125
25.9296 -6.45272 0.596703 17 54 124
25.9367 -6.58711 0.597361 92 100 143
25.7593 -6.71932 0.595474 84 85 49
26.0857 -6.93628 0.600909 63 68 31
39.7378 -13.7836 0.994557 67 62 49
40.2057 -14.1587 1.00519 137 81 69
39.7905 -14.1569 0.998007 61 13 25
64.7694 14.5489 1.14177 63 58 65
56.9006 11.2824 1.02589 43 44 61
58.8403 10.9827 1.05241 58 61 68
58.7496 10.7723 1.0508 71 70 84
58.7367 10.5767 1.0503 68 71 83
48.8552 -13.9978 1.15502 77 77 42
49.1366 -14.4157 1.16242 101 99 61
48.7816 -14.5657 1.15709 95 93 44
48.6293 -14.6891 1.15517 93 81 47
46.8298 -14.3147 1.12139 98 81 53
46.6443 -14.5022 1.1193 77 66 75
26.7999 11.5225 0.371626 47 44 61
26.8164 11.4273 0.371588 49 48 62
68.2414 -11.2925 1.48803 145 100 59
66.0968 -11.6964 1.45102 144 95 50
66.2927 -11.9478 1.45556 130 78 40
62.7435 -13.0706 1.39678 72 58 66
58.581 -12.4058 1.31931 59 61 58
52.0289 -14.2723 1.21247 86 71 59
54.1349 -15.0282 1.25387 82 74 52
51.0995 -14.8086 1.1992 71 65 48
67.5336 -12.5016 1.48014 145 99 65
65.7955 -14.3549 1.45727 60 54 51
31.6095 -7.08068 0.677908 138 116 102
31.6449 -7.24807 0.679049 70 83 119
28.024 -12.4242 0.656821 142 39 66
28.1815 -12.5997 0.660009 152 44 70
28.1062 -12.674 0.65951 154 44 68
27.9013 -12.7442 0.657304 152 51 69
27.6419 -12.7346 0.653869 122 47 53
27.3864 -12.7251 0.65049 154 46 67
27.1294 -12.7134 0.647081 159 40 75
26.5522 -12.6039 0.63888 145 48 61
26.4465 -12.658 0.637881 148 49 66
36.6028 -7.19735 0.747858 71 79 68
36.5381 -7.36691 0.747555 92 72 62
30.3363 -12.7402 0.689142 126 100 89
35.7803 16.0719 0.427528 45 44 60
35.8333 15.9576 0.427652 45 44 58
35.269 15.5105 0.423894 45 42 62
36.3403 15.8312 0.430244 46 44 58
43.4696 -7.08959 0.843602 153 108 49
41.637 -7.20579 0.81828 141 88 41
33.4762 -12.7355 0.730723 66 26 34
33.092 -12.7733 0.725825 91 22 28
32.7394 -12.7596 0.721055 120 38 52
32.3909 -12.7453 0.716341 153 61 76
32.0378 -12.786 0.711899 134 68 53
31.694 -12.7684 0.707239 155 84 76
31.3431 -12.7459 0.702461 156 67 71
30.9894 -12.7777 0.697983 61 51 58
30.6543 -12.7565 0.693433 58 48 56
37.6777 16.2563 0.438209 53 51 62
36.876 15.2934 0.432458 44 46 61
36.3428 14.8739 0.428937 47 45 56
36.5762 14.8307 0.43018 52 57 54
36.1876 14.5424 0.427654 49 51 48
31.8437 11.4942 0.399735 54 60 50
46.917 -7.25854 0.892506 112 93 44
46.4572 -7.34024 0.886295 61 43 35
36.7616 -12.7706 0.774942 84 65 74
36.2713 -12.7327 0.768139 130 72 68
35.8351 -12.7748 0.762509 71 17 41
35.3818 -12.7431 0.75625 65 23 42
34.9816 -12.7275 0.750798 61 18 39
34.5763 -12.7074 0.745258 66 28 40
34.1665 -12.7451 0.739992 72 22 33
33.809 -12.7368 0.73517 90 41 50
51.613 -7.21741 0.958408 78 70 63
51.6107 -7.38467 0.958847 63 48 42
41.8628 -12.818 0.844271 95 64 64
41.2563 -12.7789 0.835825 67 43 57
40.6676 -12.7414 0.827635 71 59 73
40.1187 -12.7828 0.820388 63 53 60
39.6626 -12.7789 0.814183 52 43 56
37.747 -12.7714 0.78823 73 62 62
37.226 -12.7966 0.781337 77 58 64
40.5225 16.0162 0.453634 53 58 53
39.8485 15.6088 0.449376 47 45 59
39.7598 15.4285 0.448665 46 47 48
61.6735 -6.7109 1.09896 76 84 95
56.6269 -7.44888 1.02964 42 35 33
47.1501 -12.8684 0.916808 71 18 34
46.195 -12.8486 0.903613 60 39 44
45.6323 -12.8508 0.895912 63 48 44
45.0681 -12.8491 0.88818 69 50 41
44.515 -12.9237 0.880963 69 48 44
43.8693 -12.8904 0.871983 66 54 50
43.1918 -12.8438 0.86251 69 52 40
42.5025 -12.8631 0.853204 72 57 50
42.418 16.0486 0.464265 52 60 45
42.3357 15.8638 0.463594 51 57 47
42.5124 15.6971 0.464385 53 54 49
37.0103 11.462 0.429047 55 57 46
58.5732 -12.3973 1.07282 63 64 55
58.5369 -12.584 1.07302 71 79 56
16.54 -7.22327 0.321872 150 51 67
16.5162 -7.27645 0.32191 150 35 61
16.5585 -7.35793 0.322404 158 34 69
44.4272 16.2282 0.475747 55 59 44
42.7439 15.4714 0.465447 56 61 52
67.1498 -11.3196 1.18887 61 35 29
66.5331 -11.9784 1.18238 141 90 46
66.182 -12.1328 1.178 124 80 43
65.9957 -12.4241 1.17638 102 80 74
67.8042 -12.9834 1.20358 86 71 65
62.6439 -12.9366 1.13147 117 89 84
59.489 -12.9838 1.08778 76 73 55
48.0802 16.5867 0.496746 50 46 63
49.1476 17.1234 0.503325 49 47 63
48.1929 16.3676 0.497154 61 59 77
49.4105 15.9873 0.503719 52 47 55
50.2267 16.0699 0.508447 59 61 60
46.1989 14.5613 0.484146 40 41 47
46.1534 14.3856 0.483742 63 67 53
45.5104 13.8711 0.479651 56 55 58
45.6492 13.3574 0.480049 61 67 53
41.9686 11.2889 0.457438 53 54 56
50.0297 14.9602 0.506393 62 66 49
53.9711 15.2789 0.529277 53 56 51
53.4216 14.9424 0.525888 57 59 54
54.5933 14.984 0.53266 49 56 46
55.3273 14.9928 0.536907 50 54 52
55.0789 14.4573 0.535141 51 55 58
21.6595 -7.27024 0.350811 153 42 70
21.5481 -7.31088 0.350288 156 42 74
60.0503 15.333 0.564438 46 49 56
60.3903 15.2141 0.566352 49 51 48
56.2902 13.9116 0.541871 48 48 53
60.3793 14.702 0.566023 48 51 55
60.574 14.5449 0.567087 109 113 116
51.4587 10.7529 0.512438 111 108 125
54.706 11.056 0.531556 57 68 84
26.8416 11.6079 0.157566 59 67 63
26.757 11.4701 0.157855 42 50 47
63.894 15.0083 0.586604 74 69 49
26.0241 -6.47841 0.374 150 113 75
25.9592 -6.59553 0.37389 73 57 67
58.9585 10.9279 0.55649 64 67 77
58.8476 10.7141 0.555811 68 66 80
58.8385 10.5192 0.555736 78 83 94
27.2079 -7.18464 0.382523 95 78 53
31.6085 -7.2499 0.408288 84 77 74
36.6782 16.7264 0.13976 41 42 52
36.1871 16.298 0.140884 42 44 58
35.9772 16.0671 0.141441 42 44 58
35.9 15.8958 0.141772 43 41 55
36.7002 -7.23294 0.438089 82 66 57
36.6469 -7.40515 0.438124 56 20 20
26.0553 -12.382 0.391013 159 112 125
36.5719 15.9778 0.140923 51 54 59
36.9779 15.5217 0.141128 52 53 57
36.9792 15.3833 0.141325 42 44 56
36.5392 15.0668 0.142248 61 66 63
31.921 11.5506 0.15211 44 53 50
41.5838 -7.22075 0.466819 142 92 48
28.7539 -12.7508 0.407005 101 39 71
28.0622 -12.5573 0.402572 143 116 134
28.0967 -12.6797 0.403162 112 78 85
27.9297 -12.7667 0.402533 151 129 139
27.6569 -12.7511 0.400988 93 37 56
27.4064 -12.7438 0.399595 120 65 84
27.1671 -12.74 0.398276 142 77 105
26.6277 -12.7517 0.395379 140 41 79
39.2357 15.9368 0.1381 53 59 49
46.5925 -7.24092 0.496436 101 88 58
46.5822 -7.39129 0.49665 75 57 44
43.587 -7.13548 0.478478 167 115 68
32.7618 -12.7818 0.429357 132 81 85
32.4107 -12.7662 0.427346 176 123 129
32.0531 -12.8049 0.425465 157 107 119
31.7047 -12.7854 0.423462 125 34 67
31.3661 -12.7675 0.421521 170 128 130
31.0206 -12.7446 0.419528 62 50 52
30.674 -12.7764 0.4177 60 48 58
30.3663 -12.7641 0.415955 134 96 88
30.0277 -12.737 0.413993 171 127 133
39.6262 15.945 0.137669 57 63 59
39.7234 15.836 0.137719 48 54 51
40.0214 15.5832 0.137734 48 55 50
51.738 -7.2746 0.526955 79 69 54
37.7431 -12.7888 0.457489 128 41 70
37.2361 -12.8181 0.454689 167 102 112
36.7763 -12.7932 0.452013 153 35 70
36.3113 -12.7636 0.449296 164 36 67
35.8677 -12.7385 0.446714 182 98 113
35.4197 -12.7727 0.444278 144 40 75
35.0054 -12.7517 0.44188 159 112 117
34.5916 -12.7283 0.439479 137 40 65
34.2016 -12.7729 0.437411 110 30 46
33.8432 -12.7641 0.435371 131 31 66
33.4853 -12.7532 0.433328 153 106 117
33.1021 -12.7911 0.43129 192 131 136
42.1931 15.8726 0.134957 48 54 46
41.9378 15.6255 0.135579 55 56 50
37.0844 11.5258 0.146402 46 45 50
61.7109 -6.77206 0.58535 81 85 96
56.7453 -7.51226 0.557047 78 80 57
43.8817 -12.92 0.492945 241 138 160
43.2236 -12.8782 0.489057 231 113 122
42.5384 -12.898 0.485171 153 55 73
41.9183 -12.8582 0.481511 178 118 132
41.3122 -12.8187 0.477936 150 72 89
40.7145 -12.7778 0.474408 175 127 136
40.1756 -12.822 0.471441 65 46 63
39.6974 -12.8108 0.468681 104 82 100
39.2674 -12.812 0.466232 171 121 144
44.4151 16.3712 0.13185 75 77 76
47.5135 -12.8348 0.513683 221 56 96
46.1919 -12.8767 0.506147 209 56 100
45.6316 -12.8789 0.502921 254 148 154
45.0815 -12.8803 0.499754 249 137 134
44.4885 -12.9428 0.496493 237 154 165
16.7228 -7.2182 0.1888 115 52 84
16.6309 -7.24346 0.188915 123 98 112
16.6159 -7.33259 0.188973 109 38 66
26.731 11.501 0.0296009 37 37 51
50.2126 17.57 0.123823 44 46 60
47.9832 16.6295 0.127552 49 45 57
48.1646 16.5195 0.127502 46 40 54
41.9051 11.4682 0.141044 83 87 95
66.919 -11.1242 0.623666 128 83 56
66.851 -11.3309 0.623656 57 43 29
67.0177 -11.906 0.625734 144 99 58
66.9296 -12.1094 0.625614 111 77 52
68.0061 -12.5251 0.63277 94 68 50
58.8294 -12.2059 0.578211 104 75 76
58.616 -12.6477 0.577894 76 63 63
59.6131 -13.0586 0.584613 76 66 70
52.2058 17.4216 0.121809 58 57 62
49.4885 16.3519 0.126248 53 52 50
49.5314 16.1036 0.126512 53 55 54
49.5082 15.9218 0.126782 68 74 67
50.2447 15.9786 0.12589 59 67 56
50.7227 15.9505 0.125398 56 62 49
51.8099 15.6547 0.124559 50 53 58
53.9555 16.0133 0.121672 47 53 42
60.3386 17.4662 0.112638 54 56 51
56.6239 16.1106 0.118538 59 60 55
58.6821 16.2859 0.116001 70 66 64
54.8341 14.3868 0.122747 51 51 59
21.6799 -7.16738 0.183229 154 116 135
21.6354 -7.2302 0.183318 111 48 75
31.873 11.5687 0.00321917 41 39 59
31.961 11.4837 0.00300931 46 44 58
60.737 17.0578 0.112697 54 47 56
60.3631 16.2308 0.114157 54 51 62
59.5878 15.8215 0.115555 50 49 59
60.2187 15.4752 0.11526 41 42 37
58.8944 14.9389 0.117437 40 41 34
51.4389 10.9064 0.130871 59 60 87
54.6606 11.1264 0.126898 52 59 77
38.9346 17.7606 -0.051253 47 44 53
37.2099 16.6347 -0.039061 46 44 57
37.2683 16.5175 -0.0389778 45 44 52
37.1834 16.1972 -0.0375356 54 53 61
37.465 16.1038 -0.0386727 41 37 51
37.0585 15.6533 -0.0352251 55 57 67
37.4324 15.4561 -0.0365204 47 55 59
63.0999 15.7799 0.111618 44 43 35
62.3629 15.2817 0.113054 53 52 51
62.2249 15.0385 0.113516 66 74 80
26.102 -6.49681 0.177754 74 52 58
26.0125 -6.56387 0.177903 71 52 46
39.2484 16.041 -0.0474774 54 55 57
39.7711 16.0279 -0.0501027 56 57 52
58.8093 10.7949 0.122493 47 48 50
27.1697 -7.17244 0.176974 60 45 34
40.7576 16.2652 -0.0558161 65 68 61
40.272 15.9268 -0.0523369 61 63 59
42.7755 16.6581 -0.0672596 45 43 56
40.1187 15.4983 -0.0503045 47 46 54
41.5463 15.506 -0.0576326 52 51 49
36.9757 11.5871 -0.0232706 60 66 63
37.0365 11.4106 -0.0231435 52 58 54
44.0939 16.2757 -0.0728919 55 53 53
31.7909 -7.12023 0.171615 67 55 58
31.6426 -7.1942 0.171839 58 47 47
49.9934 19.043 -0.111056 29 31 33
48.8842 17.8302 -0.101899 68 56 72
48.0557 16.6711 -0.0944186 48 43 51
41.9301 11.4277 -0.0488804 85 95 114
36.8045 -7.23394 0.165886 93 87 50
36.665 -7.32881 0.166119 83 51 40
16.6477 -7.21179 0.108639 148 108 130
16.5724 -7.24362 0.108988 109 78 93
16.5776 -7.34127 0.108849 112 44 71
48.067 16.5035 -0.0940119 41 38 49
49.9425 16.3387 -0.103294 47 46 51
49.8915 16.1465 -0.102514 48 46 55
41.6759 -7.2083 0.160205 76 49 42
52.236 17.2594 -0.11767 38 36 44
51.6347 16.4282 -0.112348 54 54 53
51.7595 16.2858 -0.112623 52 52 57
46.6184 -7.20738 0.154437 69 59 47
43.7162 -7.05265 0.157711 78 51 37
28.762 -12.6932 0.178222 154 118 131
28.4301 -12.7126 0.178589 160 126 142
28.1899 -12.7154 0.178851 142 106 122
27.9171 -12.7022 0.179141 110 44 71
27.6629 -12.6956 0.179414 136 102 117
27.3818 -12.7282 0.179729 160 111 128
27.1246 -12.7165 0.180002 116 79 99
26.8732 -12.7058 0.180268 96 49 70
26.6023 -12.7365 0.18057 148 41 77
55.6178 16.7999 -0.134115 53 54 61
58.222 17.3715 -0.149197 55 55 53
59.4669 17.4287 -0.155888 49 50 47
57.2888 16.6026 -0.142388 56 53 60
57.3646 16.4265 -0.142345 62 62 63
56.7347 15.9565 -0.137894 45 46 51
51.7616 -7.14653 0.148388 71 57 53
33.8222 -12.7426 0.172687 102 47 68
33.4611 -12.731 0.173082 145 125 133
33.1153 -12.7228 0.173462 129 64 80
32.7443 -12.763 0.17389 111 50 61
32.4012 -12.7509 0.174264 161 103 120
32.0436 -12.731 0.174649 147 124 130
31.6976 -12.7133 0.175022 114 45 70
31.3433 -12.7483 0.175427 155 124 129
31.0037 -12.7283 0.175791 72 48 64
30.6665 -12.707 0.176151 60 46 63
30.3209 -12.7369 0.176541 182 151 157
29.0616 -12.7122 0.177904 139 107 127
61.4744 17.0571 -0.165532 69 69 87
59.3713 16.2791 -0.152558 82 95 110
51.4672 10.7588 -0.0981164 108 115 134
61.6877 -6.70245 0.136403 62 53 59
56.7286 -7.45339 0.142811 73 67 39
41.2027 -12.7596 0.164427 182 114 149
40.6041 -12.7191 0.165082 143 95 100
40.1072 -12.7064 0.165637 79 51 59
39.6176 -12.7625 0.166217 94 66 79
21.643 -7.11597 0.082887 113 33 69
21.5833 -7.17379 0.0831622 118 32 66
21.5977 -7.2555 0.0830322 173 119 134
37.7027 -12.7554 0.168366 128 76 95
37.2336 -12.7318 0.168881 160 131 142
36.7242 -12.7571 0.169461 209 142 144
36.2675 -12.7309 0.169959 132 49 73
35.8303 -12.7086 0.170437 165 123 136
35.4124 -12.6902 0.170894 132 85 95
34.9713 -12.724 0.1714 109 61 72
34.5826 -12.7101 0.171827 116 40 70
34.2112 -12.7 0.172236 146 118 127
62.8691 16.4736 -0.171504 128 133 146
62.9738 16.2869 -0.171614 75 69 86
63.8076 16.1753 -0.175792 103 99 103
64.0085 16.0092 -0.176469 62 64 59
63.933 15.7748 -0.175527 60 59 66
56.9865 11.4189 -0.129059 82 93 113
25.966 -6.51292 0.0603046 121 105 84
49.1161 -12.3898 0.155196 110 93 77
25.952 -6.59811 0.0603539 62 49 54
46.1242 -12.7451 0.158837 221 61 104
45.52 -12.8148 0.159564 238 159 150
44.9593 -12.8139 0.160203 231 159 153
44.3876 -12.8064 0.16085 192 120 119
43.7637 -12.8558 0.161583 194 130 140
43.1107 -12.8162 0.162302 232 153 150
42.4736 -12.7772 0.163003 162 67 66
41.8335 -12.7331 0.163703 198 115 135
58.84 10.9101 -0.137992 58 64 54
67.4874 -12.1362 0.133799 102 70 55
67.6877 -12.3935 0.133756 88 58 50
67.7967 -12.6356 0.133808 117 76 52
64.1028 -13.0112 0.138343 45 8 16
58.7873 -12.1403 0.143887 159 122 102
59.6 -12.9978 0.143538 88 77 85
26.7154 11.577 -0.184334 45 41 56
26.8114 11.515 -0.185079 47 43 58
27.2458 -7.15246 0.0532719 69 47 36
27.1389 -7.21806 0.0538175 116 79 61
31.7083 -7.16985 0.0294441 85 71 66
36.7645 -7.31033 0.00227228 81 60 32
41.6223 -7.16262 -0.0239317 105 79 72
31.8248 11.5398 -0.244273 100 76 92
31.8635 11.4377 -0.244195 60 61 74
46.6595 -7.25455 -0.0511694 30 28 31
37.4836 16.6112 -0.339421 51 54 66
37.606 16.5207 -0.34029 47 49 62
56.8236 -7.342 -0.106304 66 56 54
51.7648 -7.28151 -0.0788476 79 67 51
30.512 -12.7177 0.0320482 61 53 64
30.181 -12.7519 0.0336879 122 37 60
28.8988 -12.7118 0.0402237 132 111 122
28.5642 -12.6762 0.0419552 117 39 70
28.3419 -12.6876 0.0430621 135 109 120
28.0413 -12.717 0.0445331 159 108 125
27.783 -12.709 0.0458411 157 124 142
27.5123 -12.6938 0.0472188 109 37 62
27.2511 -12.734 0.04847 113 51 64
26.9992 -12.7237 0.0497428 133 73 84
26.7441 -12.7102 0.0510346 181 130 152
26.4748 -12.7403 0.0523313 150 61 96
38.9866 17.7879 -0.36396 67 71 80
39.414 16.2573 -0.359816 60 67 85
39.6789 16.2162 -0.362676 62 69 87
61.7381 -6.67863 -0.133271 62 47 58
37.945 -12.7956 -0.00631914 105 32 61
37.4598 -12.7674 -0.00376973 110 40 65
36.9694 -12.7343 -0.00119202 190 143 137
36.5024 -12.7061 0.0012585 171 86 105
36.0499 -12.7445 0.0035695 102 40 62
35.6048 -12.7173 0.00590067 141 87 93
35.1752 -12.6928 0.00814649 119 44 62
34.7715 -12.7376 0.0101897 112 44 63
34.3806 -12.7211 0.0122241 144 42 75
34.0277 -12.716 0.0140498 117 35 61
33.6271 -12.7523 0.0160743 167 105 124
33.2769 -12.7431 0.0178854 150 90 99
32.9309 -12.7332 0.0196737 177 121 142
32.554 -12.7692 0.0215667 149 86 98
32.2181 -12.7583 0.0232992 98 33 66
31.8938 -12.7498 0.0249683 138 91 106
31.5364 -12.7261 0.0268205 148 47 81
31.1762 -12.757 0.0286213 129 97 106
30.8458 -12.739 0.0303253 70 59 67
44.9533 20.2838 -0.448106 57 61 76
45.0252 19.543 -0.444465 59 66 84
40.0415 16.1381 -0.366502 50 58 75
40.4108 16.1341 -0.370812 47 57 73
40.058 15.8475 -0.36505 48 55 74
39.9032 15.64 -0.362067 48 54 70
40.0033 15.4577 -0.362257 48 44 54
41.3668 15.8229 -0.380359 75 87 73
41.3965 15.6826 -0.379942 24 35 42
41.5662 15.5183 -0.381084 97 67 71
36.9367 11.5702 -0.305712 52 57 77
36.9858 11.3902 -0.305471 49 58 73
26.4602 0.768473 -0.140146 89 94 116
26.2258 0.67669 -0.137048 65 57 78
26.1776 0.548282 -0.13627 34 21 41
26.1661 0.463306 -0.136008 25 21 35
26.1523 0.378396 -0.13572 21 19 33
26.1966 0.251871 -0.136132 40 40 52
26.1422 0.166712 -0.135339 47 47 59
26.1454 0.0821194 -0.135279 52 46 60
46.3754 -12.7744 -0.0505882 219 99 133
45.8615 -12.7916 -0.0478756 198 51 84
45.3046 -12.8715 -0.0449796 171 79 83
44.7336 -12.8652 -0.0419606 140 65 78
44.1343 -12.8471 -0.038788 172 114 132
43.5068 -12.8171 -0.0354624 216 153 141
42.8214 -12.8403 -0.0318744 239 164 161
42.1876 -12.7992 -0.0285153 207 137 128
41.5602 -12.756 -0.025191 135 46 81
40.9364 -12.7814 -0.0219402 179 128 144
40.3717 -12.7487 -0.0189567 72 25 44
39.8666 -12.7311 -0.0162987 70 52 60
26.7855 11.5674 -0.289295 50 58 76
26.8152 11.4774 -0.289075 47 54 73
44.4534 16.2543 -0.419263 54 24 38
26.1433 -0.213938 -0.13494 23 7 33
26.1992 -0.299109 -0.135561 21 13 36
26.3122 -0.427932 -0.136881 113 109 126
67.8677 -12.3934 -0.165492 111 75 55
67.6522 -12.5761 -0.164331 109 56 44
58.7899 -12.0082 -0.116601 71 41 40
58.672 -12.47 -0.116041 64 54 43
46.299 16.0852 -0.440407 51 59 72
46.876 16.115 -0.447451 53 56 77
47.4251 16.1318 -0.454105 50 58 76
48.0014 16.154 -0.461117 52 60 78
41.8492 11.5511 -0.36525 62 62 79
41.8899 11.418 -0.365167 52 63 79
16.6831 -7.19783 -0.0253546 131 55 81
16.6798 -7.25999 -0.0255472 130 109 112
16.6044 -7.29196 -0.0247826 125 99 115
48.6226 16.1014 -0.468328 50 61 82
49.2173 16.1213 -0.475565 51 60 78
49.8334 16.1443 -0.483084 52 60 76
50.4851 16.0859 -0.490669 47 62 77
51.1368 16.1112 -0.498644 51 60 76
53.1405 16.0841 -0.522742 50 53 69
53.8982 16.1231 -0.532094 51 59 80
54.6283 16.0546 -0.540655 51 58 77
55.3838 16.0821 -0.549945 49 60 78
35.5507 16.1697 -0.452844 48 63 81
31.889 11.5045 -0.365422 61 52 68
56.1668 16.1127 -0.559593 51 59 79
56.7929 16.0944 -0.567121 49 57 76
57.7084 16.0532 -0.578109 38 36 58
51.3878 10.9251 -0.480026 39 49 78
51.407 10.7577 -0.479657 29 33 66
35.8824 16.1783 -0.457777 48 63 84
36.2273 16.1905 -0.46294 51 64 88
36.6293 16.1553 -0.468619 48 60 86
36.9789 16.1644 -0.473843 44 58 85
37.3694 16.1887 -0.47979 44 59 82
61.1526 16.0597 -0.620194 52 60 81
62.0682 16.0864 -0.631504 54 65 85
63.0232 16.0107 -0.642915 50 61 86
63.1411 15.0811 -0.640651 76 77 102
63.2998 14.9058 -0.641915 58 63 85
62.1889 14.4382 -0.626428 66 78 104
54.6232 11.1497 -0.520894 43 50 68
56.8838 11.4168 -0.549842 59 71 87
21.6777 -7.15901 -0.0848835 145 61 92
21.5952 -7.20962 -0.084025 133 42 70
38.5028 16.1584 -0.496387 32 39 58
38.954 16.1241 -0.502874 51 60 80
39.3563 16.1394 -0.508973 51 62 87
39.787 16.1635 -0.515564 47 61 81
40.1828 16.1711 -0.521527 49 63 81
40.1963 15.8047 -0.519214 47 56 71
40.0129 15.5869 -0.51497 48 57 74
37.0072 11.5157 -0.443677 48 59 79
58.7826 10.9192 -0.571738 43 52 49
26.231 0.644971 -0.230935 38 39 57
26.2146 0.517153 -0.230492 37 35 56
26.185 0.431771 -0.229889 48 44 67
26.0109 -6.41968 -0.136145 126 111 121
25.9832 -6.54602 -0.136053 62 50 52
40.6604 16.133 -0.528429 47 58 77
40.1617 15.4223 -0.51611 75 85 91
41.4765 15.7634 -0.538184 33 42 54
41.5154 15.6262 -0.537853 23 21 33
26.1871 0.34695 -0.229803 52 53 73
26.1632 0.21954 -0.229263 42 47 66
26.1606 0.134776 -0.229113 48 46 68
26.1578 0.0500476 -0.228962 55 57 80
26.1847 -0.0347255 -0.229295 49 54 73
26.1751 -0.161851 -0.229014 40 45 64
26.2073 -0.246961 -0.229443 42 40 61
26.2232 -0.33203 -0.229615 39 40 58
27.195 -7.1677 -0.152215 83 61 66
43.9354 16.1173 -0.577643 116 67 63
44.4259 16.1327 -0.58516 73 46 70
41.9306 11.4802 -0.519616 54 63 80
31.6663 -7.18559 -0.207397 69 55 53
36.7124 -7.1385 -0.269963 56 43 44
16.7117 -7.23179 -0.0912841 155 46 77
16.6954 -7.28875 -0.0913248 147 63 91
16.6291 -7.32461 -0.0905154 142 38 69
41.6453 -7.18362 -0.331537 64 59 66
36.7362 -7.32599 -0.270521 96 61 48
51.5218 10.8293 -0.666711 38 48 82
46.6839 -7.11891 -0.394494 67 54 64
46.7393 -7.2797 -0.395323 52 53 39
43.5494 -7.00571 -0.355158 82 68 66
61.7649 -6.58118 -0.583637 93 61 70
56.7734 -7.33978 -0.52121 68 53 50
56.66 -7.60048 -0.519958 73 61 50
51.7153 -7.11537 -0.457573 60 50 52
51.6996 -7.28105 -0.457487 101 83 75
21.7087 -7.20022 -0.167121 159 57 86
21.6165 -7.24772 -0.165881 156 58 86
26.0668 -6.47297 -0.232591 77 53 52
26.0233 -6.59581 -0.232249 69 54 61
28.3567 -12.508 -0.182538 147 40 72
28.5307 -12.6914 -0.185297 150 41 70
28.2501 -12.6773 -0.181973 149 41 73
27.9719 -12.7163 -0.178906 152 41 73
27.7103 -12.7067 -0.175831 162 38 72
27.4454 -12.694 -0.172709 149 38 71
27.1719 -12.7284 -0.169696 148 38 73
26.9168 -12.7163 -0.166699 153 41 73
26.6729 -12.7079 -0.163851 152 37 75
47.8785 -12.2222 -0.416858 66 53 62
46.434 -12.8078 -0.400439 83 46 58
45.9746 -12.8406 -0.394898 75 37 57
44.3265 -12.9215 -0.374985 70 44 44
43.74 -12.9044 -0.367798 64 35 35
43.0878 -12.9392 -0.359961 70 32 29
42.5446 -12.9265 -0.353325 69 29 30
41.9522 -12.8955 -0.346049 100 49 58
40.9317 -12.8015 -0.333431 54 9 22
40.4134 -12.7836 -0.327104 78 57 64
40.3493 -12.905 -0.326659 68 49 64
37.4674 -12.7939 -0.291591 142 53 88
36.9531 -12.7531 -0.285285 170 66 89
36.43 -12.706 -0.278858 176 72 95
35.9556 -12.7367 -0.273273 155 57 84
35.5055 -12.7078 -0.26779 162 63 92
35.0992 -12.6914 -0.262876 162 63 92
34.6848 -12.7323 -0.258065 161 64 84
34.3133 -12.7227 -0.2536 158 58 84
33.9515 -12.7144 -0.24926 157 53 83
33.5777 -12.7605 -0.244974 156 51 82
33.2355 -12.7543 -0.240885 155 52 81
32.8937 -12.7461 -0.236797 158 50 76
32.541 -12.7316 -0.232564 156 45 78
32.1726 -12.7681 -0.228338 153 41 79
31.8245 -12.7503 -0.224158 155 42 70
31.4844 -12.7334 -0.220079 155 46 69
31.1024 -12.7555 -0.215664 131 52 71
30.7706 -12.737 -0.211687 61 55 58
30.4207 -12.7089 -0.207467 64 46 65
67.7154 -12.3656 -0.662849 68 50 48
67.8503 -12.8353 -0.665126 158 115 98
58.7257 -12.0022 -0.550512 130 93 85
58.7047 -12.2897 -0.550701 59 35 41
58.5866 -12.4596 -0.549501 127 91 71
57.6986 -12.465 -0.538501 134 93 71
57.3416 -12.6752 -0.534443 68 58 64
54.5817 -12.4379 -0.499892 86 67 59
53.2259 -12.5791 -0.483413 103 81 67
53.0802 -12.7234 -0.481884 135 129 128
27.2957 -7.23756 -0.254 77 58 59
45.88 -13.0509 -0.394249 78 50 53
45.1153 -12.9921 -0.384776 78 50 49
31.7161 -7.14495 -0.323171 92 73 66
31.7002 -7.24816 -0.323166 87 67 58
53.0837 -14.4307 -0.485508 151 91 82
36.7702 -7.21793 -0.403196 129 97 79
36.7288 -7.39303 -0.402903 140 101 89
21.1869 8.13842 -0.409004 65 65 73
46.7645 -7.22729 -0.562093 76 75 71
43.6505 -7.1091 -0.512316 63 55 54
41.654 -7.267 -0.480803 61 50 56
51.8026 -7.23802 -0.642501 67 56 53
61.8375 -6.72925 -0.802587 61 48 54
56.8631 -7.4768 -0.723615 118 108 107
28.3203 -12.764 -0.293023 121 45 70
27.9757 -12.7733 -0.287988 140 54 74
27.7029 -12.7582 -0.283876 147 56 83
27.4559 -12.7531 -0.280206 145 59 84
27.1365 -12.766 -0.275586 157 61 91
26.8884 -12.7566 -0.271887 155 59 90
26.657 -12.7534 -0.268473 158 57 84
58.8654 -12.1619 -0.763105 174 137 111
58.5029 -12.3786 -0.757877 121 88 55
56.9442 -12.2413 -0.732963 114 79 54
56.9259 -12.4266 -0.733105 87 64 48
53.288 -12.4419 -0.67588 86 67 53
51.8771 -12.5517 -0.654023 88 81 96
47.0793 -12.6809 -0.579349 97 63 51
46.0366 -12.7971 -0.56348 125 91 82
45.9026 -12.9177 -0.561784 83 59 50
42.6568 -12.9006 -0.511394 75 55 42
40.6195 -12.7891 -0.479528 75 65 66
39.7821 -12.6688 -0.466168 65 53 62
40.3951 -13.0025 -0.476871 71 61 61
35.1279 -12.772 -0.39532 56 41 54
34.8801 -12.8724 -0.392004 46 38 47
34.8423 -12.9848 -0.391928 48 38 54
34.8153 -13.1011 -0.392042 45 39 46
29.1567 -13.0212 -0.306801 80 28 42
26.7124 11.5462 -0.578156 47 60 79
26.8746 11.512 -0.581639 48 59 84
37.4792 -14.221 -0.437486 54 48 57
35.7293 -14.0253 -0.410147 50 39 48
36.0198 -14.4685 -0.416658 49 33 46
35.5476 -14.4135 -0.409296 51 39 52
35.2785 -14.7652 -0.40703 59 47 61
20.6828 8.75896 -0.489044 50 62 86
31.9329 11.4341 -0.703104 79 82 105
35.3447 16.1256 -0.835078 48 62 88
35.6989 16.1461 -0.843686 47 63 89
36.0317 16.155 -0.851661 49 63 89
36.4067 16.1107 -0.860069 48 62 88
36.7788 16.1317 -0.869143 51 63 85
37.1312 16.1418 -0.877637 48 61 80
26.08 0.830663 -0.489627 68 68 92
25.9935 0.743807 -0.487213 60 62 83
25.9547 0.658738 -0.486044 58 61 80
25.9803 0.533386 -0.486501 56 62 84
25.9647 0.44912 -0.485953 57 57 81
25.897 0.364202 -0.484059 54 59 79
25.8769 0.280271 -0.483408 56 63 82
25.9367 0.155238 -0.484798 52 58 80
25.9439 0.0714613 -0.484872 50 58 79
25.8869 -0.012385 -0.48329 47 58 76
25.8994 -0.137895 -0.483488 48 56 77
25.9596 -0.222008 -0.48496 44 55 75
25.9337 -0.305592 -0.484206 47 55 74
38.6887 16.1487 -0.914911 28 28 47
39.1131 16.103 -0.924612 106 110 125
39.5108 16.1163 -0.9343 59 69 89
39.9053 16.1257 -0.94388 65 75 100
40.3589 16.0814 -0.954359 71 83 105
40.7673 16.0906 -0.964302 77 83 107
40.1587 15.7063 -0.945614 78 80 101
40.0574 15.4465 -0.940518 69 77 97
37.093 11.4602 -0.830357 48 58 83
28.4542 1.13624 -0.551785 78 90 116
25.9627 -0.431711 -0.48487 40 47 75
26.008 -0.516415 -0.485979 40 52 74
26.1508 -0.60351 -0.489624 84 91 109
41.616 15.5049 -0.978933 82 97 120
44.399 16.2026 -1.05355 57 73 98
41.2399 14.5469 -0.960432 94 101 120
40.4295 13.9034 -0.934525 116 114 128
40.7312 13.86 -0.94152 113 111 127
41.3363 13.9151 -0.956889 85 88 104
43.038 14.0969 -1.00045 70 52 73
41.9078 11.3955 -0.949778 52 65 86
28.4892 -0.883515 -0.550155 103 102 118
44.5708 16.1032 -1.05676 50 59 90
26.8413 11.615 -0.692524 48 63 84
26.782 11.4372 -0.688699 50 62 84
49.7206 16.0762 -1.18295 70 59 69
50.3717 16.0183 -1.19855 46 56 80
51.0269 16.0449 -1.21498 49 60 82
51.6313 16.0518 -1.22999 49 59 83
53.7311 16.0414 -1.28201 54 58 83
54.4527 16.0654 -1.30015 49 60 82
55.2271 16.0048 -1.31895 51 62 82
56.0193 16.0384 -1.33896 53 61 80
56.7238 16.0424 -1.35656 52 61 78
57.5136 15.9671 -1.37571 35 38 61
58.3233 15.9895 -1.39612 52 63 83
51.534 10.7562 -1.18815 70 67 88
16.7553 -7.27999 -0.275097 51 48 52
16.6468 -7.29808 -0.272646 54 45 51
16.6467 -7.36166 -0.273209 56 53 54
60.8976 15.9604 -1.46039 40 49 66
61.8281 15.9917 -1.48397 34 40 59
59.9176 14.7926 -1.42721 42 43 57
59.9179 14.5905 -1.42577 35 39 64
59.9905 14.3049 -1.42562 50 49 69
60.0456 14.1161 -1.4257 50 51 75
56.8288 11.3767 -1.3265 65 74 93
58.7893 10.8912 -1.37358 77 83 105
26.1736 0.931946 -0.591433 102 97 117
25.879 0.796341 -0.582438 72 73 93
25.8183 0.710998 -0.580462 74 79 98
25.8113 0.627268 -0.580085 73 82 99
25.786 0.543244 -0.579175 72 78 94
25.7752 0.417934 -0.578647 81 88 104
25.7193 0.333901 -0.57685 75 82 100
25.707 0.2506 -0.576355 71 78 96
26.0503 -6.42869 -0.499869 86 77 76
25.9896 -6.54695 -0.498935 77 65 54
25.9834 -6.63404 -0.499217 65 52 61
21.6669 -7.11153 -0.393958 73 53 47
21.6169 -7.21108 -0.393404 71 57 62
35.426 16.0888 -0.982617 47 58 80
35.7808 16.1082 -0.992446 50 62 84
36.1196 16.1184 -1.00173 48 63 84
36.5374 16.0908 -1.01272 48 63 86
25.7168 0.125911 -0.576478 55 57 69
25.7219 0.0427427 -0.576515 68 71 86
25.7168 -0.0404257 -0.576257 66 73 89
25.7331 -0.165292 -0.576617 62 70 89
25.7313 -0.248482 -0.576477 66 74 93
25.7772 -0.332306 -0.577756 63 72 89
25.8122 -0.45798 -0.578706 58 66 87
25.8554 -0.542368 -0.579925 33 43 68
25.9443 -0.628155 -0.582504 70 70 94
36.89 16.1018 -1.02242 45 60 83
37.2632 16.1193 -1.03278 50 62 85
38.426 16.103 -1.06428 128 137 159
36.9678 11.4828 -0.972724 51 61 81
36.9548 11.3492 -0.971057 50 62 78
27.2932 -7.14556 -0.534895 107 84 52
27.1732 -7.25466 -0.532469 97 75 45
40.7928 13.7953 -1.10369 115 112 129
42.4607 13.9705 -1.15235 87 88 108
43.0344 14.0032 -1.16881 70 67 75
41.9091 11.455 -1.1129 50 58 75
41.9109 11.3116 -1.1117 54 63 83
31.7598 -7.20897 -0.648149 82 63 53
31.6327 -7.2872 -0.64528 74 55 42
43.5563 -7.15913 -0.949007 112 95 103
41.6264 -7.12069 -0.899429 131 125 119
41.5717 -7.31639 -0.898687 124 108 104
36.7789 -7.34007 -0.776354 118 93 89
49.9479 16.0309 -1.38388 60 61 79
50.5557 16.045 -1.40115 49 62 81
51.2428 15.9902 -1.42004 55 63 84
53.2633 15.9607 -1.47695 52 65 84
51.8312 -7.31306 -1.1619 132 117 114
46.774 -7.2963 -1.03194 118 107 105
53.9968 15.9897 -1.49803 52 63 82
54.7464 16.0186 -1.51957 51 62 85
55.4929 15.9464 -1.54016 52 57 79
56.2555 15.9683 -1.56205 46 50 70
56.7318 15.9064 -1.57506 55 66 77
57.4509 15.8096 -1.59473 65 71 90
51.4493 10.7963 -1.38229 68 71 90
51.4524 10.6258 -1.38117 73 84 104
54.6778 11.0987 -1.47794 46 58 79
61.647 -6.58751 -1.41328 95 72 71
61.5944 -6.87912 -1.41246 101 87 84
61.1533 -7.22434 -1.40173 119 103 106
60.1676 -7.59475 -1.37711 135 116 122
56.812 -7.3608 -1.29017 61 45 48
56.7856 -7.54106 -1.2899 128 113 117
16.6747 -7.2616 -0.342173 73 66 73
16.6031 -7.29487 -0.340544 76 68 80
16.6085 -7.3608 -0.34137 73 66 73
60.0219 15.8917 -1.66888 61 66 80
60.9272 15.8173 -1.6942 35 41 57
61.8452 15.8423 -1.72071 36 36 50
56.903 11.2601 -1.54363 64 64 85
58.8213 10.7606 -1.59614 65 72 88
58.1292 -8.65897 -1.32731 127 113 111
57.9941 -8.82757 -1.32431 72 60 61
56.7288 -9.46963 -1.29379 90 77 83
55.9066 -9.97466 -1.27444 96 85 90
55.5478 -10.0937 -1.26568 95 84 93
55.1884 -10.3014 -1.25726 94 84 95
54.9115 -10.4311 -1.25067 103 92 99
54.6598 -10.564 -1.24475 77 63 70
53.6568 -10.9932 -1.22091 102 92 100
53.3962 -11.1175 -1.21478 102 93 101
53.1957 -11.3411 -1.21065 102 91 100
52.9304 -11.4613 -1.20443 100 90 90
52.8112 -11.6116 -1.20207 75 59 73
50.5441 -11.9652 -1.1463 147 124 109
49.738 -11.9441 -1.12581 122 113 118
26.0426 -6.46273 -0.600997 101 89 89
25.957 -6.53043 -0.598922 84 66 59
25.9695 -6.66661 -0.600101 53 37 44
44.3942 -12.0336 -0.991664 96 72 58
43.6541 -12.0601 -0.973262 88 65 52
43.13 -12.0654 -0.960155 90 67 55
43.0832 -12.2003 -0.959773 101 75 52
42.2561 -12.188 -0.939024 104 78 54
41.8732 -12.2237 -0.929669 94 78 50
41.4482 -12.2448 -0.919189 87 79 48
40.4548 -12.0963 -0.893482 89 78 44
39.924 -12.1482 -0.880597 89 79 44
39.233 -12.0781 -0.862949 94 79 50
38.688 -12.0481 -0.849201 89 73 50
38.6299 -12.2328 -0.848987 67 54 60
38.3122 -12.2682 -0.841342 56 46 46
21.6681 -7.13809 -0.480472 78 66 54
21.6086 -7.23458 -0.479558 98 70 66
27.2076 -7.16367 -0.638737 84 59 38
37.6174 -12.646 -0.826764 99 69 67
37.1799 -12.6993 -0.816363 94 70 56
37.0916 -12.8014 -0.814924 98 75 59
36.4326 -12.7079 -0.798022 110 84 71
36.1576 -12.7428 -0.791517 106 73 63
35.7647 -12.7991 -0.782305 92 63 63
34.6697 -12.5391 -0.753487 90 60 59
34.6329 -12.6507 -0.753438 101 68 63
34.5495 -12.808 -0.752627 98 68 65
34.1333 -12.7802 -0.742243 98 67 64
33.7458 -12.7604 -0.732628 95 66 63
33.3704 -12.8036 -0.723842 93 68 62
33.0155 -12.7906 -0.715101 93 66 60
31.5536 -12.3512 -0.675983 98 65 65
31.3472 -12.445 -0.671759 92 61 62
31.8981 -12.7765 -0.687878 92 63 62
31.5895 -12.7721 -0.680373 91 63 69
31.261 -12.7577 -0.672307 97 71 76
30.8998 -12.7857 -0.663844 71 59 59
30.5962 -12.7767 -0.656446 56 45 60
30.3242 -12.7789 -0.649919 63 53 67
29.1847 -12.8591 -0.623339 38 26 36
29.2202 -12.9853 -0.62535 42 32 41
29.2332 -13.1023 -0.626747 43 35 48
29.5252 -13.343 -0.635957 55 46 52
28.2456 -12.9399 -0.601727 56 46 45
28.7044 -13.2556 -0.615635 63 54 54
27.274 -12.8737 -0.578071 64 60 75
27.0605 -12.8805 -0.573094 71 69 73
26.8147 -12.8708 -0.567199 77 73 74
20.3721 8.76377 -0.667842 48 64 86
20.6421 7.82339 -0.663233 68 80 94
36.7229 -7.21176 -0.914442 102 102 106
36.7421 -7.33739 -0.915566 100 91 99
31.7031 -7.24821 -0.768909 104 89 98
29.5013 -13.7291 -0.639086 58 51 58
43.5908 -7.03515 -1.11422 111 104 102
41.6899 -7.2105 -1.05929 92 87 95
59.3399 -6.09271 -1.57447 107 90 88
57.275 -6.06639 -1.51358 109 100 104
55.3935 -6.04693 -1.45811 108 98 107
54.6981 -6.14778 -1.43785 108 98 106
54.215 -6.35612 -1.42412 109 102 109
54.0171 -6.50739 -1.41866 102 97 105
53.7553 -6.64969 -1.41131 103 95 108
53.4568 -6.8723 -1.40312 95 88 95
53.206 -7.01248 -1.39613 94 89 92
52.8539 -7.13764 -1.38613 94 83 89
52.1617 -7.29874 -1.3663 90 87 94
51.7596 -7.41101 -1.35484 81 72 86
52.5476 -7.69336 -1.37882 76 64 83
52.4978 -7.94222 -1.37819 73 59 66
46.6913 -7.22467 -1.20567 82 76 84
46.6258 -7.36678 -1.20423 85 71 79
50.6942 -8.58193 -1.32767 64 51 59
50.035 -9.0457 -1.31028 104 94 101
49.7105 -9.15103 -1.30125 104 94 104
49.328 -9.32501 -1.29086 98 90 103
49.2522 -9.47318 -1.2893 69 56 66
48.3498 -10.0212 -1.26561 101 91 102
48.2583 -10.1627 -1.26365 100 90 100
47.9197 -10.3312 -1.25469 101 91 101
47.7063 -10.4446 -1.24908 73 58 70
47.5707 -10.5739 -1.24582 61 51 65
46.6207 -11.1461 -1.22153 117 110 118
46.4038 -11.2509 -1.21588 89 80 95
44.1975 -11.9208 -1.15659 113 99 98
43.5415 -11.8948 -1.13763 112 97 94
42.9099 -11.9448 -1.1199 131 111 104
42.3052 -11.9238 -1.10247 121 102 98
41.7069 -11.9007 -1.08522 121 107 107
41.127 -11.95 -1.06904 110 100 91
40.597 -11.9383 -1.05384 68 60 48
40.125 -11.9402 -1.04042 73 62 43
39.799 -11.9825 -1.03144 56 52 27
39.1214 -11.9854 -1.01222 90 81 48
38.7062 -11.9948 -1.0005 84 76 40
38.2454 -11.9876 -0.987378 74 66 50
37.7586 -12.0356 -0.973971 65 52 55
37.5178 -12.0916 -0.967591 85 79 64
36.3554 -12.3 -0.936468 89 71 57
26.1042 0.99506 -0.809241 61 52 72
25.8292 0.900876 -0.798583 140 119 151
25.751 0.8147 -0.795403 75 68 88
25.6407 0.603538 -0.790751 38 36 50
25.6454 0.520598 -0.790744 40 38 59
36.1527 -12.3607 -0.931266 84 68 52
36.1385 -12.5489 -0.93246 90 72 52
35.7221 -12.5341 -0.920643 89 70 51
35.5608 -12.6055 -0.916733 93 75 57
34.2401 -12.3292 -0.877359 84 64 55
34.3695 -12.4987 -0.882469 89 66 60
34.6204 -12.7131 -0.891382 95 69 64
33.3436 -12.433 -0.853253 90 68 60
33.7156 -12.6916 -0.865971 88 67 55
33.626 -12.7806 -0.864293 88 67 53
31.827 -12.2827 -0.809682 89 70 62
31.7705 -12.3776 -0.809004 93 70 62
31.518 -12.3965 -0.802184 92 64 61
31.3458 -12.4453 -0.797881 94 66 65
31.6798 -12.7509 -0.810087 92 67 60
31.2712 -12.705 -0.798358 94 72 60
29.722 -12.3635 -0.752298 61 50 56
29.6045 -12.4261 -0.749698 54 42 54
29.7322 -12.59 -0.754872 89 77 68
25.6703 0.39645 -0.791461 44 51 79
25.5567 0.311895 -0.787 41 52 82
25.6022 0.22961 -0.78858 40 55 88
25.6098 0.105357 -0.788692 38 52 87
25.6089 0.022481 -0.788535 39 52 86
25.6077 -0.0603832 -0.788378 40 51 81
25.6399 -0.350781 -0.789308 36 37 57
25.6973 -0.434627 -0.791415 39 34 54
25.8114 -0.561659 -0.795676 116 101 132
31.1375 -12.7672 -0.795284 91 73 64
28.6247 -12.7797 -0.72661 91 65 61
28.3404 -12.7634 -0.718699 91 63 65
28.0949 -12.7626 -0.712016 92 61 67
27.7603 -12.7738 -0.703077 93 63 63
27.519 -12.7711 -0.696514 92 63 62
27.2272 -12.7438 -0.688317 89 62 63
26.9811 -12.7883 -0.682187 94 68 76
26.7011 -12.7623 -0.674343 95 72 77
26.4738 -12.7594 -0.668194 97 73 81
25.9041 -0.647331 -0.79914 116 101 132
35.4246 16.0967 -1.30784 47 62 85
35.7603 16.1083 -1.31962 27 32 61
36.1347 16.1347 -1.33299 52 63 87
36.4713 16.1422 -1.34477 49 61 83
20.1002 8.82693 -0.752731 48 60 82
36.8464 16.0941 -1.35703 44 51 74
37.1911 16.1003 -1.36911 54 65 83
20.6393 7.80377 -0.75667 58 69 86
37.0245 11.5057 -1.2988 65 66 85
36.9123 11.3418 -1.29276 63 66 82
20.9683 8.82976 -0.786264 81 96 116
41.8328 11.4474 -1.47292 68 69 88
41.8346 11.304 -1.47142 72 79 92
47.5846 15.4801 -1.72903 121 119 138
47.664 15.3375 -1.73009 117 128 141
47.7716 15.2035 -1.7323 124 131 139
47.9176 14.9971 -1.73506 72 71 88
48.0949 14.4638 -1.73509 61 65 77
48.1579 14.315 -1.73562 69 71 87
48.2838 14.1843 -1.73866 66 72 89
48.3737 13.9591 -1.73937 72 73 89
48.4199 13.8049 -1.73929 71 76 91
48.5117 13.6634 -1.74104 70 72 92
48.5166 13.4976 -1.73936 71 75 90
48.8144 12.9934 -1.74477 40 34 49
48.8738 12.7587 -1.74449 75 78 94
48.8351 12.5823 -1.74122 74 77 94
48.6391 12.3669 -1.73181 74 79 95
48.7943 12.1574 -1.73539 75 81 97
48.8736 12.0112 -1.73683 78 84 100
48.9525 11.8646 -1.73827 76 81 100
49.0842 11.6475 -1.74102 81 84 103
49.1562 11.4987 -1.74224 78 84 100
49.2647 11.3579 -1.74489 78 81 98
49.2931 11.1986 -1.74443 78 83 102
49.2739 10.9464 -1.74141 81 82 102
49.3691 10.8019 -1.74361 79 81 100
49.4542 10.6548 -1.74543 81 82 102
49.5845 10.4343 -1.74832 83 89 105
49.6959 10.2918 -1.7512 80 87 106
49.8108 10.1494 -1.75423 63 68 87
50.5649 10.0492 -1.78139 56 62 80
51.5188 10.0656 -1.81695 69 69 89
52.5223 10.0855 -1.8544 62 63 84
53.554 10.0158 -1.89223 47 50 70
54.1567 9.94845 -1.91412 67 70 91
53.6075 9.67193 -1.89151 90 96 113
54.0231 9.56818 -1.9062 65 76 92
51.8386 6.05625 -1.80153 80 86 110
51.0984 4.81536 -1.76745 93 98 122
51.2344 4.58058 -1.77154 84 87 107
51.3069 4.42188 -1.77357 82 85 104
50.9597 4.06437 -1.75896 74 74 100
50.7426 3.80263 -1.74974 66 67 88
50.6437 3.63264 -1.74535 70 68 87
49.6799 2.60788 -1.70544 115 118 135
49.685 2.2899 -1.70468 99 94 106
16.658 -7.18907 -0.493341 92 68 66
16.6617 -7.28594 -0.494762 91 67 69
16.5809 -7.31533 -0.492319 93 74 70
25.7776 0.867876 -0.905235 44 41 60
25.8389 0.786115 -0.907579 26 21 39
25.6245 0.572522 -0.898091 36 33 52
25.631 0.489682 -0.898176 38 37 53
25.6099 0.364962 -0.897057 35 39 65
25.6178 0.282161 -0.897225 31 39 60
25.6174 0.199267 -0.897059 28 38 63
25.6189 0.0749195 -0.896944 28 40 64
25.6259 -0.00796564 -0.897113 30 37 65
26.0997 -6.499 -0.8281 95 88 101
25.962 -6.55418 -0.823443 65 53 55
21.6113 -7.06935 -0.668971 111 98 96
21.5747 -7.13445 -0.668305 116 105 100
21.5741 -7.24967 -0.669483 122 108 103
25.6365 -0.090913 -0.897448 25 30 50
25.647 -0.173922 -0.897784 32 31 47
25.6208 -0.29805 -0.896582 30 28 42
25.7323 -0.382655 -0.901182 27 28 46
25.7382 -0.590896 -0.901319 50 48 70
25.761 -0.674765 -0.902239 69 62 78
26.0848 -0.767704 -0.915782 89 90 110
48.3114 -3.49124 -1.6489 82 79 98
27.16 -7.08008 -0.871717 98 87 103
27.0922 -7.15564 -0.869833 93 84 103
48.2187 -3.8717 -1.64606 82 81 99
48.1198 -4.01852 -1.6426 80 77 94
48.0979 -4.17133 -1.64207 73 70 89
43.8639 -5.93922 -1.4878 108 97 98
42.8175 -6.00928 -1.4488 102 92 101
42.4756 -6.10058 -1.43633 101 91 100
42.25 -6.20655 -1.4283 97 91 103
31.6546 -7.25489 -1.0389 99 91 106
35.5472 16.136 -1.47542 49 65 89
35.9235 16.0955 -1.48911 51 65 90
36.2586 16.1029 -1.50208 52 66 84
36.9867 11.4149 -1.45763 64 70 87
47.8812 -5.38731 -1.63701 109 103 115
47.4166 -5.56595 -1.62009 78 71 84
47.6077 -5.74196 -1.62785 77 69 80
47.436 -5.87518 -1.62184 81 68 80
46.4971 -5.98711 -1.58694 110 96 92
45.1545 -5.96395 -1.53639 108 92 93
42.1168 -6.3248 -1.42381 100 92 107
41.9811 -6.51061 -1.41957 100 93 106
41.8333 -6.62497 -1.41455 104 96 109
42.0692 -6.7993 -1.4242 92 84 99
42.2364 -7.0335 -1.43161 106 95 108
42.2269 -7.1705 -1.43193 114 102 115
41.5546 -7.19501 -1.40693 114 107 115
42.2203 -7.51642 -1.4335 112 108 114
40.7333 -7.39087 -1.37731 111 104 117
40.6598 -7.5119 -1.37523 105 99 108
40.5544 -7.69382 -1.37235 111 100 113
36.7291 -7.22555 -1.2271 108 108 112
36.5448 -7.31141 -1.22076 99 91 105
36.6399 16.1281 -1.51715 30 34 46
36.9587 16.0541 -1.52813 35 23 45
42.9325 13.734 -1.72664 103 99 113
42.8371 13.5533 -1.72036 106 100 111
42.8382 13.3281 -1.7174 61 64 83
43.1759 12.9032 -1.72535 78 80 92
43.1058 12.7327 -1.72034 76 80 92
43.0293 12.5611 -1.71506 70 73 91
43.0943 12.4303 -1.71602 68 70 92
43.2281 12.244 -1.71912 74 79 100
43.2961 12.1135 -1.72024 79 85 105
43.4233 11.9988 -1.72397 71 76 95
41.9504 11.3837 -1.65707 74 80 100
43.5414 11.508 -1.72292 81 82 95
43.5997 11.2997 -1.7229 79 86 102
43.628 11.1582 -1.72242 75 80 95
43.6675 11.0194 -1.72245 75 79 96
43.7411 10.8148 -1.72319 72 79 98
43.8028 10.6812 -1.72423 73 80 98
43.8447 10.5428 -1.72442 73 81 98
43.9192 10.4119 -1.72605 73 80 99
44.0405 10.2173 -1.72897 85 91 109
40.4331 -7.80498 -1.36847 79 64 72
39.8987 -8.2998 -1.35163 100 92 102
39.725 -8.39666 -1.3458 103 94 99
39.5768 -8.56406 -1.34142 110 101 100
39.4006 -8.65831 -1.33552 75 59 63
39.3333 -8.7754 -1.33383 43 35 48
44.2037 10.1055 -1.73446 59 65 81
44.8383 10.097 -1.76029 56 63 79
45.6411 10.0446 -1.79262 66 69 86
46.4288 10.0591 -1.825 67 70 89
47.2561 10.077 -1.85905 70 73 92
48.084 10.0097 -1.89237 54 59 78
48.298 9.89253 -1.90003 61 64 83
47.9929 9.67158 -1.88543 86 88 103
48.2503 9.48227 -1.89429 78 80 101
48.0594 9.12696 -1.88324 60 66 85
47.9512 8.94818 -1.87721 64 71 89
47.9209 8.70531 -1.87389 62 68 92
47.821 8.52978 -1.86828 64 71 97
47.6595 8.34451 -1.86007 65 71 89
