-3.18001 3.96388 -1.83174 81 83 98
-3.0684 4.16528 -1.83996 83 84 100
-3.04263 4.16258 -1.83441 84 84 102
-2.92347 4.36446 -1.83963 90 96 112
-2.78523 4.5327 -1.83004 91 97 111
-2.67001 4.74346 -1.84046 91 97 113
-2.32602 5.25361 -1.84547 93 100 115
-2.18767 5.44717 -1.84064 90 100 112
-2.0118 5.69297 -1.84177 90 100 111
-5.63547 0.22473 -1.79655 76 85 102
-3.19254 3.8933 -1.82492 89 92 105
-3.16998 3.97666 -1.83503 82 86 98
-3.03095 4.17354 -1.83683 91 92 110
-2.91303 4.38027 -1.84432 93 96 111
-2.77135 4.54122 -1.8316 95 98 113
-2.64901 4.75759 -1.84349 90 100 113
-2.508 4.92238 -1.83089 87 95 108
-2.48929 4.91772 -1.82727 87 95 108
-2.44909 5.01844 -1.83428 86 96 108
-2.17117 5.45797 -1.84338 89 98 113
-5.6335 0.197994 -1.79523 81 88 104
-3.17574 3.90757 -1.82743 77 79 94
-3.14622 3.97786 -1.83098 86 89 101
-3.13122 3.98077 -1.82937 87 87 101
-3.01328 4.17106 -1.83287 93 94 112
-2.75685 4.54796 -1.83239 93 96 111
-2.62985 4.75164 -1.83905 91 100 113
-2.43389 5.02799 -1.83646 89 97 110
-2.30911 5.25927 -1.8462 94 101 117
-2.15274 5.45952 -1.84273 88 98 113
-5.64432 0.180626 -1.79852 81 88 105
-3.15852 3.90565 -1.82333 84 84 101
-3.11945 3.99017 -1.83103 92 91 105
-3.00374 4.18699 -1.83768 91 96 112
-2.89069 4.38689 -1.84358 92 95 110
-2.87389 4.38726 -1.84127 87 90 105
-2.73218 4.54836 -1.82938 93 96 113
-2.46579 4.92586 -1.82804 91 99 112
-2.42006 5.04291 -1.8408 94 102 115
-2.29094 5.25941 -1.84483 90 97 113
-1.98528 5.70449 -1.84445 92 102 114
-5.59858 0.161301 -1.78202 83 90 109
-3.147 3.91508 -1.825 82 84 98
-3.13624 3.92613 -1.82751 73 77 89
-3.09811 3.99602 -1.82943 88 90 105
-2.97803 4.18393 -1.83213 94 100 114
-2.85984 4.39442 -1.84208 85 88 103
-2.71763 4.55499 -1.83017 91 97 113
-2.61738 4.76686 -1.84355 91 99 112
-2.44999 4.93182 -1.8288 91 97 113
-2.13541 5.46655 -1.84412 90 100 112
-1.96683 5.709 -1.84515 92 101 116
-5.59633 0.134793 -1.78069 80 87 105
-3.08388 4.0004 -1.82864 76 79 94
-2.96837 4.19978 -1.83695 95 101 115
-2.70307 4.56157 -1.83096 91 97 113
-2.60153 4.77143 -1.84358 93 99 113
-2.43415 4.93774 -1.82956 87 96 111
-2.39302 5.03994 -1.83725 92 99 115
-2.26813 5.27779 -1.84976 92 99 115
-1.94577 5.6948 -1.83925 91 101 113
-5.60884 0.11749 -1.78465 81 86 105
-3.11841 3.93855 -1.82919 76 79 94
-3.10043 3.93476 -1.82426 77 78 96
-3.07518 4.01626 -1.83357 74 76 91
-2.95145 4.19875 -1.83378 95 98 113
-2.83611 4.39736 -1.83978 92 98 110
-2.68013 4.56698 -1.83024 91 98 112
-2.57654 4.77286 -1.84138 90 96 110
-2.37539 5.04031 -1.83585 92 98 112
-2.24954 5.27596 -1.8477 92 98 114
-2.10906 5.4733 -1.84485 90 99 112
-5.64581 0.100668 -1.79718 82 87 106
-3.08955 3.94569 -1.82677 78 77 93
-3.05297 4.02024 -1.83116 87 89 102
-2.92936 4.20386 -1.83222 94 97 112
-2.82404 4.40956 -1.84292 95 99 111
-2.56013 4.77553 -1.84067 91 99 112
-2.40823 4.93664 -1.82668 94 97 112
-2.36003 5.04965 -1.83803 92 98 112
-2.09025 5.47282 -1.84352 88 98 110
-5.64315 0.0828534 -1.79585 83 88 107
-3.06849 3.95133 -1.82515 83 82 100
-3.03791 4.02284 -1.82955 91 92 105
-2.91461 4.20776 -1.83145 95 98 113
-2.8099 4.41658 -1.84372 94 97 112
-2.6655 4.57345 -1.83103 91 99 110
-2.54479 4.7817 -1.84144 93 101 115
-2.38919 4.92983 -1.82233 92 98 112
-2.33831 5.03362 -1.83017 92 98 112
-2.23368 5.2869 -1.85052 90 98 111
-2.06798 5.45382 -1.83541 90 100 112
-3.05288 3.95229 -1.8227 83 83 101
-3.02438 4.02869 -1.82957 91 93 108
-2.90542 4.22519 -1.83706 93 97 112
-2.78349 4.41239 -1.83832 93 95 110
-2.65198 4.58341 -1.83335 90 98 109
-2.37468 4.94098 -1.82528 94 100 114
-2.20605 5.28306 -1.84708 86 94 107
-3.04037 3.9598 -1.82355 81 82 97
-3.01391 4.04113 -1.83286 90 89 107
-2.88532 4.23516 -1.8379 90 98 109
-2.76933 4.41929 -1.83912 93 96 112
-2.63562 4.58452 -1.83185 90 98 111
-2.52241 4.79177 -1.84298 92 100 113
-2.31721 5.05382 -1.83595 91 101 111
-2.18787 5.28287 -1.84571 89 97 110
-2.04505 5.47875 -1.84292 90 97 113
-3.02079 3.96852 -1.82358 86 90 102
-2.99395 4.04978 -1.8329 87 86 100
-2.97429 4.04221 -1.82639 77 77 91
-2.8698 4.23723 -1.83633 89 97 108
-2.75708 4.43133 -1.84226 92 98 112
-2.61208 4.58785 -1.83037 93 99 113
-2.50545 4.79248 -1.84152 90 97 113
-2.35103 4.94861 -1.82606 92 100 113
-3.01421 3.9892 -1.83104 85 90 102
-2.99185 3.97503 -1.82115 78 81 96
-2.96596 4.05952 -1.83213 76 79 94
-2.85291 4.23585 -1.83316 92 97 111
-2.59575 4.58883 -1.82887 93 96 113
-2.49105 4.80206 -1.84378 91 98 114
-2.33555 4.95604 -1.82755 90 100 112
-2.30044 5.05757 -1.83598 93 102 115
-2.17118 5.28997 -1.84714 92 98 112
-2.02659 5.47992 -1.84228 89 96 112
-2.84076 4.24633 -1.83558 95 98 113
-2.73647 4.44242 -1.84386 89 98 110
-2.7184 4.4388 -1.83999 90 100 112
-2.58316 4.60214 -1.83272 92 96 112
-2.28581 5.07034 -1.8396 92 100 113
-2.14219 5.27848 -1.8409 92 99 112
-2.0088 5.48473 -1.84299 90 97 113
-2.9722 3.98353 -1.82119 92 91 107
-2.9474 4.0713 -1.83381 77 80 97
-2.9315 4.07188 -1.83138 82 85 102
-2.82055 4.25603 -1.83642 92 98 114
-2.70476 4.44725 -1.84158 91 97 113
-2.46552 4.80118 -1.84084 90 97 113
-2.3196 4.96163 -1.82831 92 98 114
-2.25678 5.05764 -1.83247 92 102 114
-2.96614 4.00581 -1.82948 88 87 100
-2.94759 3.99973 -1.82372 84 84 96
-2.91783 4.07741 -1.8314 90 92 109
-2.80764 4.26473 -1.83804 95 98 116
-2.56113 4.61053 -1.83352 92 95 112
-2.44858 4.80172 -1.83938 91 97 113
-2.30362 4.96717 -1.82907 92 95 112
-2.12796 5.2983 -1.84722 90 98 112
-1.98105 5.48352 -1.841 90 97 113
-2.79143 4.26483 -1.83567 96 99 116
-2.69358 4.46261 -1.84627 93 96 113
-2.54581 4.61489 -1.83355 93 96 113
-2.43556 4.81651 -1.84389 92 98 112
-2.24124 5.06666 -1.83465 90 101 113
-2.11049 5.30155 -1.84725 89 96 112
-2.93993 4.01864 -1.83036 82 84 97
-2.89988 4.09067 -1.83389 93 92 108
-2.66662 4.45605 -1.84009 91 97 111
-2.5315 4.62276 -1.83511 90 97 113
-2.27817 4.96724 -1.82692 93 99 113
-2.22525 5.07382 -1.83612 90 100 112
-1.96415 5.49375 -1.84374 92 99 114
-2.91723 4.02022 -1.82709 82 84 98
-2.88542 4.09444 -1.8331 94 93 109
-2.77047 4.2726 -1.83571 98 101 116
-2.65411 4.46784 -1.84322 92 100 113
-2.41004 4.81536 -1.84095 90 98 110
-2.26175 4.97085 -1.82695 92 100 113
-2.09164 5.29738 -1.84448 90 99 114
-1.94506 5.49096 -1.84174 91 99 112
-2.90302 4.024 -1.82629 82 86 98
-2.88738 4.02438 -1.82383 88 91 103
-2.87166 4.09983 -1.83313 94 96 111
-2.85507 4.09847 -1.82988 95 99 111
-2.75683 4.27944 -1.83653 93 101 114
-2.63793 4.46915 -1.8417 89 96 112
-2.50631 4.62027 -1.83133 90 99 111
-2.39406 4.8193 -1.84098 89 96 112
-2.24572 4.97622 -1.82771 91 100 114
-2.20003 5.07719 -1.83545 88 96 108
-1.92721 5.49553 -1.84245 91 101 113
-2.74189 4.28281 -1.83576 92 97 115
-2.49096 4.62446 -1.83136 89 99 111
-2.37946 4.82858 -1.84324 92 99 115
-2.18398 5.08423 -1.83691 91 98 111
-2.06751 5.31127 -1.84802 89 96 112
-2.87238 4.04419 -1.82965 82 82 97
-2.83623 4.10979 -1.83155 96 99 114
-2.72335 4.29725 -1.83899 92 98 114
-2.61644 4.47799 -1.84251 90 98 111
-2.47509 4.62683 -1.83063 91 100 113
-2.36017 4.81987 -1.83805 91 99 114
-2.22068 4.97784 -1.82629 90 100 112
-2.04868 5.30696 -1.84526 92 99 115
-2.85396 4.03773 -1.82389 82 83 98
-2.83971 4.04131 -1.82309 92 94 109
-2.82452 4.1201 -1.83403 94 97 112
-2.70899 4.30224 -1.83902 93 99 113
-2.60437 4.49141 -1.84643 90 96 110
-2.46069 4.6345 -1.83218 90 98 111
-2.20463 4.98309 -1.82705 91 98 114
-2.16633 5.08394 -1.83551 87 93 107
-2.02604 5.28048 -1.83411 93 99 115
-1.89947 5.49394 -1.84046 93 100 116
-2.81001 4.12363 -1.83324 93 96 111
-2.69153 4.29855 -1.83505 92 98 112
-2.58757 4.49081 -1.84412 93 96 112
-2.33565 4.82194 -1.8366 90 100 112
-2.1874 4.98284 -1.82562 93 100 116
-2.14948 5.08723 -1.83554 92 101 113
-1.88158 5.49838 -1.84117 90 101 116
-2.8245 4.06096 -1.82891 95 94 108
-2.78964 4.13138 -1.83328 94 97 112
-2.67162 4.30933 -1.83669 92 96 113
-2.56483 4.49593 -1.84338 91 96 110
-2.438 4.64058 -1.83222 89 97 111
-2.00378 5.30516 -1.84184 90 98 111
-2.80818 4.05938 -1.82563 95 96 109
-2.7751 4.1348 -1.83249 94 97 112
-2.65541 4.30897 -1.83432 90 96 110
-2.55032 4.50221 -1.84419 93 96 111
-2.42019 4.63564 -1.82843 92 98 112
-2.32368 4.84186 -1.84335 91 99 112
-2.30449 4.83294 -1.83815 90 98 111
-2.16349 4.98964 -1.8264 101 107 119
-2.1242 5.09026 -1.83486 97 105 118
-1.8634 5.50091 -1.8412 91 101 113
-2.79655 4.06959 -1.82814 92 94 107
-2.76392 4.14667 -1.83578 94 97 112
-2.53411 4.50319 -1.84266 93 95 110
-2.40761 4.6503 -1.83305 94 97 112
-2.10731 5.09343 -1.83489 96 103 116
-1.98843 5.32094 -1.84676 88 97 112
-2.77957 4.06621 -1.82403 94 96 111
-2.74079 4.14741 -1.83255 92 98 114
-2.64281 4.31895 -1.83674 91 99 112
-2.5179 4.50411 -1.84113 89 92 107
-2.14737 4.99472 -1.82716 99 105 118
-2.09006 5.09472 -1.83421 96 103 118
-1.9706 5.32192 -1.84609 87 96 111
-2.76016 4.07547 -1.82489 99 99 115
-2.72687 4.15238 -1.83257 92 99 113
-2.6284 4.3237 -1.83676 89 97 110
-2.38438 4.65435 -1.83232 91 97 111
-2.28299 4.84738 -1.84193 92 100 113
-2.13122 4.99976 -1.82792 98 101 118
-2.74647 4.08046 -1.82492 98 100 116
-2.71491 4.16242 -1.83505 93 99 113
-2.60715 4.33074 -1.8368 93 98 112
-2.49675 4.5142 -1.84273 88 91 106
-2.36754 4.65281 -1.83006 93 98 112
-2.26732 4.85275 -1.8427 91 97 113
-1.94497 5.32791 -1.84684 91 100 115
-2.73406 4.08882 -1.8266 95 98 113
-2.59152 4.3319 -1.83523 96 98 113
-2.48272 4.52204 -1.84431 93 96 111
-2.35344 4.66197 -1.83238 93 96 111
-2.24824 4.84363 -1.83751 88 95 111
-2.10686 5.00449 -1.82796 98 102 117
-2.06619 5.1048 -1.8364 91 98 114
-2.71389 4.09618 -1.82664 93 99 112
-2.69565 4.17317 -1.83672 94 96 111
-2.57936 4.34346 -1.83845 95 98 113
-2.46594 4.52104 -1.842 93 99 113
-2.08963 5.00393 -1.82653 97 100 115
-2.05066 5.11512 -1.8393 89 98 113
-1.92683 5.3269 -1.84547 90 100 112
-2.69698 4.09249 -1.82253 94 98 110
-2.67975 4.17287 -1.8343 92 95 110
-2.33106 4.66936 -1.83319 95 101 115
-2.22826 4.86506 -1.84427 90 97 113
-2.03198 5.10891 -1.83575 89 98 113
-1.9104 5.33694 -1.8483 91 99 112
-2.68513 4.10242 -1.82503 92 95 110
-2.66576 4.17766 -1.83432 91 94 109
-2.55575 4.34331 -1.83529 94 97 116
-2.44521 4.53267 -1.84438 93 99 113
-2.3138 4.66585 -1.83016 94 99 112
-2.21169 4.86665 -1.84355 90 96 112
-2.07241 5.00332 -1.8251 93 99 113
-2.65174 4.18241 -1.83435 87 92 106
-2.54182 4.34954 -1.83612 96 98 117
-2.42951 4.53507 -1.84362 93 98 112
-2.05656 5.00996 -1.82659 90 100 112
-1.88332 5.3334 -1.84555 92 102 114
-2.66613 4.11299 -1.82672 95 94 110
-2.62986 4.18602 -1.83275 92 95 112
-2.52398 4.3435 -1.83135 96 101 117
-2.41327 4.53566 -1.84209 90 98 111
-2.30045 4.67845 -1.83401 91 99 113
-2.19514 4.8682 -1.84283 91 97 113
-2.00798 5.11874 -1.83794 91 98 114
-2.65233 4.1177 -1.82675 93 95 110
-2.61522 4.18894 -1.83196 92 95 112
-2.2862 4.68743 -1.83633 89 98 111
-2.17937 4.87331 -1.84361 90 98 111
-2.03246 5.01618 -1.82736 89 96 112
-1.98968 5.11422 -1.8351 90 97 113
-1.86546 5.33406 -1.84488 92 100 113
-2.64033 4.12752 -1.82925 98 102 114
-2.603 4.19871 -1.83444 93 97 114
-2.5081 4.36757 -1.83938 93 96 111
-2.48973 4.35966 -1.83381 90 96 108
-2.39241 4.54707 -1.84447 87 95 110
-2.2599 4.67832 -1.83026 91 99 112
-2.01492 5.01356 -1.8252 90 99 114
-1.97273 5.11698 -1.83513 90 98 111
-1.84841 5.34021 -1.84631 91 100 115
-2.62529 4.12872 -1.82763 92 95 110
-2.37667 4.54932 -1.84372 89 96 112
-2.15276 4.86548 -1.83843 91 97 111
-2.60373 4.13215 -1.82601 92 95 110
-2.58168 4.20381 -1.83366 93 101 116
-2.47894 4.37622 -1.83943 91 99 111
-2.24353 4.67817 -1.82876 90 100 112
-2.13392 4.85595 -1.83324 91 100 110
-1.99995 5.02553 -1.82888 90 99 114
-1.83131 5.34632 -1.84774 92 101 116
-2.56819 4.21003 -1.8345 91 99 112
-2.45374 4.3703 -1.83388 91 97 111
-2.36093 4.55151 -1.84297 90 98 114
-2.22841 4.68339 -1.82955 91 98 113
-1.94863 5.12656 -1.83733 92 100 113
-2.59221 4.14357 -1.82934 93 96 113
-2.55585 4.21967 -1.83698 95 99 114
-2.336 4.5485 -1.83912 88 95 111
-2.12312 4.88449 -1.84371 92 100 113
-1.97422 5.02234 -1.826 92 100 112
-1.93132 5.12736 -1.83664 91 99 112
-1.80454 5.34427 -1.84569 94 102 117
-2.57949 4.15151 -1.83102 93 99 113
-2.44177 4.38327 -1.8379 93 94 112
-2.20548 4.68842 -1.8296 90 98 112
-2.09846 4.88546 -1.84226 91 101 113
-1.95792 5.02687 -1.82677 92 98 112
-1.91343 5.12443 -1.83452 89 98 112
-2.55614 4.14954 -1.82692 91 99 112
-2.53445 4.22456 -1.8362 96 99 113
-2.42767 4.38918 -1.83872 94 97 114
-2.32466 4.56657 -1.84537 90 96 112
-2.19186 4.70074 -1.83345 89 99 111
-2.54165 4.1522 -1.82612 91 97 111
-2.51972 4.22719 -1.83541 93 97 109
-2.41353 4.39504 -1.83955 93 99 113
-2.30841 4.56682 -1.84384 92 96 112
-2.17394 4.69316 -1.82889 89 99 111
-2.08188 4.88666 -1.84155 92 100 113
-1.94074 5.02585 -1.82533 91 97 111
-1.89763 5.13434 -1.83742 92 101 113
-2.52999 4.16346 -1.82946 94 95 113
-2.50784 4.23844 -1.8387 93 96 111
-2.29216 4.56703 -1.84231 91 95 112
-2.06781 4.90054 -1.84605 95 103 114
-2.49193 4.23751 -1.83627 92 95 110
-2.39043 4.39583 -1.83719 93 99 111
-1.91654 5.03155 -1.82611 93 103 115
-1.87192 5.13437 -1.83603 92 102 114
-2.50779 4.16471 -1.82701 92 95 110
-2.37777 4.40689 -1.84041 92 98 112
-2.27057 4.57615 -1.8439 90 96 112
-2.15398 4.71242 -1.83504 91 99 112
-2.04346 4.90308 -1.84535 91 97 111
-1.89878 5.02673 -1.82321 92 100 113
-1.85377 5.12942 -1.83319 92 100 113
-2.49547 4.17416 -1.82952 91 97 111
-2.47105 4.24384 -1.83631 91 97 110
-2.36356 4.41261 -1.84124 91 97 111
-2.25293 4.57088 -1.84004 91 98 114
-2.13721 4.71013 -1.83278 95 102 116
-2.48148 4.17836 -1.82954 95 98 113
-2.45406 4.23931 -1.83225 89 97 110
-2.12342 4.72228 -1.83663 96 99 114
-2.02547 4.89681 -1.84165 90 96 110
-1.88413 5.04205 -1.82836 91 101 113
-1.83759 5.13731 -1.83537 91 99 112
-2.4426 4.25214 -1.83636 91 99 112
-2.33849 4.40609 -1.83568 90 98 111
-2.2408 4.58699 -1.84551 91 100 115
-2.00955 4.90143 -1.84243 90 98 111
-2.4598 4.18112 -1.82793 95 99 112
-2.41895 4.24953 -1.83231 92 98 112
-2.32572 4.41701 -1.8389 92 99 115
-2.21818 4.59232 -1.84555 91 99 112
-2.09851 4.71777 -1.83285 92 98 113
-1.86747 5.04447 -1.82839 92 100 113
-1.81164 5.13522 -1.83326 90 97 110
-2.4458 4.18522 -1.82795 94 100 114
-2.31193 4.42435 -1.84053 95 99 114
-2.08074 4.70986 -1.8283 93 99 115
-1.98621 4.90918 -1.84396 94 102 115
-2.41004 4.271 -1.84051 92 98 112
-2.20191 4.59223 -1.84402 94 100 116
-1.84183 5.04066 -1.82551 91 99 112
-1.79568 5.14484 -1.83617 90 98 113
-2.4365 4.20496 -1.83542 93 99 113
-2.41565 4.18631 -1.8247 93 99 113
-2.39309 4.26626 -1.83645 92 98 112
-2.28836 4.42288 -1.83737 94 100 114
-2.18479 4.58852 -1.84094 93 99 115
-2.06719 4.72368 -1.83291 92 99 115
-1.9696 4.91003 -1.84325 93 102 115
-2.27454 4.43012 -1.83899 97 102 117
-2.05151 4.72656 -1.83294 93 99 113
-1.95298 4.91083 -1.84253 94 104 116
-1.82776 5.06135 -1.83285 92 102 114
-1.77913 5.15072 -1.83763 95 103 116
-2.3991 4.20623 -1.83135 94 97 112
-2.37207 4.27215 -1.83649 94 98 112
-2.25885 4.43021 -1.83742 94 100 114
-2.16429 4.60257 -1.84487 93 95 113
-1.80903 5.04889 -1.82703 93 103 115
-2.38502 4.21015 -1.83137 96 99 114
-2.35621 4.27077 -1.83406 93 97 111
-2.14846 4.60411 -1.84412 92 93 111
-2.0287 4.73261 -1.83375 92 100 113
-1.93762 4.91889 -1.8448 95 105 117
-1.75317 5.14837 -1.83552 94 102 115
-2.3699 4.21052 -1.82975 93 99 113
-2.34496 4.28512 -1.83899 96 99 114
-2.24453 4.43559 -1.83825 93 101 114
-2.13096 4.59842 -1.84025 90 96 112
-1.7837 5.04664 -1.82488 91 101 113
-1.73514 5.14303 -1.83268 96 104 117
-2.01366 4.73902 -1.8353 91 101 113
-1.91142 4.90986 -1.83962 93 101 114
-2.35012 4.21976 -1.83144 92 98 112
-2.32185 4.28377 -1.83576 96 99 115
-2.22363 4.44448 -1.83988 89 97 110
-2.11721 4.60885 -1.84339 89 95 109
-1.99631 4.73264 -1.83151 92 99 115
-1.89601 4.9178 -1.84189 90 100 114
-1.76775 5.05429 -1.8271 90 97 113
-2.33697 4.22705 -1.83312 95 98 113
-2.3075 4.2875 -1.83579 94 97 114
-2.20838 4.44619 -1.83911 90 96 112
-1.75128 5.05821 -1.82786 91 98 113
-2.29411 4.2947 -1.83745 91 97 111
-2.1927 4.44608 -1.83754 91 97 111
-2.09326 4.60823 -1.8411 90 96 110
-1.97409 4.74209 -1.83385 94 100 115
-1.8791 4.91654 -1.84042 91 99 112
-2.32184 4.22727 -1.83149 92 98 112
-2.07783 4.61135 -1.84112 92 95 112
-2.27926 4.29658 -1.83666 91 97 109
-2.17004 4.4476 -1.83598 91 97 111
-1.95744 4.73923 -1.83158 93 99 113
-1.8559 4.92556 -1.8427 92 99 113
-1.72685 5.06307 -1.82864 92 99 112
-2.30195 4.23631 -1.83318 96 100 112
-2.28496 4.22938 -1.82824 95 99 111
-2.25618 4.29492 -1.83342 93 99 113
-2.15562 4.45272 -1.8368 90 98 111
-2.06397 4.62164 -1.84426 92 95 112
-1.9411 4.73814 -1.83008 91 99 112
-1.70905 5.0558 -1.82501 94 100 114
-2.13955 4.45065 -1.83443 91 99 112
-1.83928 4.92601 -1.84199 93 101 114
-2.27172 4.23648 -1.82992 94 97 112
-2.24367 4.3055 -1.83672 89 98 113
-2.04118 4.62618 -1.8443 92 96 110
-1.91849 4.74553 -1.83165 91 97 111
-1.82457 4.93925 -1.84649 94 100 114
-1.69319 5.06507 -1.82797 92 100 113
-2.25661 4.2365 -1.8283 94 100 112
-2.23113 4.31606 -1.84002 93 100 112
-2.02493 4.62554 -1.84277 93 96 111
-2.12011 4.46624 -1.83927 93 99 113
-1.90333 4.75162 -1.83321 91 99 112
-1.79776 4.92416 -1.83908 92 100 113
-2.23753 4.24879 -1.83164 93 100 113
-2.20758 4.31239 -1.83597 92 100 111
-2.10404 4.46406 -1.83689 92 98 114
-2.0102 4.63208 -1.84436 90 98 111
-2.22241 4.24869 -1.83001 93 100 114
-2.1927 4.31401 -1.83517 90 99 112
-2.0876 4.46003 -1.83372 91 97 113
-1.98553 4.62734 -1.84051 91 99 112
-1.88755 4.75401 -1.83324 90 100 112
-1.78245 4.93362 -1.84209 92 98 112
-2.20863 4.25386 -1.83086 92 100 112
-2.17871 4.31912 -1.83602 90 100 112
-1.87067 4.74904 -1.83021 93 101 112
-2.06838 4.4772 -1.83936 87 99 110
-1.97111 4.63557 -1.84287 92 100 111
-1.76658 4.93936 -1.84361 91 97 113
-2.18768 4.25887 -1.8309 92 98 110
-2.15655 4.32051 -1.83442 91 97 111
-1.95385 4.62929 -1.839 92 100 113
-1.84771 4.75429 -1.83102 92 98 112
-2.05346 4.48023 -1.83938 92 100 113
-1.74192 4.93869 -1.84216 91 101 113
-2.17468 4.26747 -1.83341 92 98 112
-2.14381 4.33084 -1.83772 95 99 113
-2.03669 4.47424 -1.83541 91 97 111
-1.83167 4.75469 -1.83028 92 98 112
-2.15789 4.2601 -1.82847 92 99 113
-2.12976 4.33581 -1.83856 91 97 111
-2.02288 4.48257 -1.83784 94 97 114
-1.93135 4.63515 -1.83982 95 98 115
-1.81717 4.76602 -1.83413 92 98 114
-1.72529 4.9388 -1.84145 92 102 114
-1.91516 4.63417 -1.83829 94 100 116
-1.7096 4.94621 -1.84371 93 100 114
-2.13568 4.25956 -1.82603 92 99 115
-2.10714 4.3352 -1.83614 92 100 113
-2.12343 4.27158 -1.83019 94 102 115
-2.09386 4.34362 -1.83862 92 99 112
-2.00194 4.4923 -1.84027 93 96 113
-1.90131 4.64583 -1.84221 91 99 112
-1.79313 4.76371 -1.83188 91 99 112
-1.69251 4.94253 -1.8415 94 99 114
-2.07609 4.33243 -1.83211 92 98 112
-1.98628 4.49153 -1.8387 92 95 112
-1.88642 4.65202 -1.84379 91 99 114
-1.77755 4.7676 -1.83267 92 100 111
-2.10912 4.27468 -1.83022 95 103 116
-2.06439 4.34789 -1.83786 92 100 113
-1.97235 4.49972 -1.84112 91 97 113
-1.8622 4.6485 -1.84072 89 97 110
-1.76149 4.76778 -1.83194 91 99 112
-1.66941 4.95442 -1.84528 92 100 115
-2.08924 4.28458 -1.83273 97 103 119
-1.65191 4.94693 -1.84158 93 101 114
-2.07374 4.28224 -1.83028 93 99 113
-2.04257 4.35054 -1.83708 91 101 113
-1.9496 4.50022 -1.83956 92 100 113
-1.84696 4.65276 -1.84152 90 100 112
-1.73863 4.77438 -1.83351 89 97 110
-1.93394 4.49929 -1.83799 90 98 111
-2.06016 4.28876 -1.83196 94 100 114
-2.0288 4.357 -1.83874 93 101 114
-1.91767 4.49471 -1.83482 91 99 112
-1.83261 4.66242 -1.84466 89 97 110
-1.72279 4.77628 -1.83354 89 98 110
-2.04395 4.28276 -1.82785 91 99 112
-2.01232 4.35093 -1.83467 93 101 114
-1.89498 4.49495 -1.83326 90 100 112
-1.80932 4.66412 -1.84392 89 97 110
-1.70672 4.7763 -1.8328 89 99 111
-2.02358 4.29061 -1.82954 92 100 113
-1.99237 4.36227 -1.83798 91 97 112
-2.00777 4.28627 -1.82626 94 100 114
-1.97522 4.3525 -1.83228 92 96 113
-1.88279 4.51373 -1.84048 90 98 111
-1.79343 4.66458 -1.84317 91 99 112
-1.68316 4.77715 -1.83208 90 98 111
-1.77783 4.66681 -1.8432 91 99 111
-1.99485 4.29617 -1.82959 94 100 114
-1.96282 4.36593 -1.83722 92 95 112
-1.86594 4.50536 -1.83571 90 98 111
-1.66771 4.78255 -1.83364 88 98 110
-1.85122 4.5096 -1.83653 90 97 110
-1.97403 4.30202 -1.83046 92 98 114
-1.94062 4.36632 -1.83562 92 99 115
-1.75648 4.68101 -1.84791 92 98 110
-1.65203 4.78608 -1.83443 88 98 110
-1.95862 4.29931 -1.828 91 97 113
-1.73811 4.6649 -1.84015 93 100 110
-1.63578 4.78404 -1.83293 92 101 113
-1.92637 4.37071 -1.83646 91 99 112
-1.8288 4.51135 -1.83577 92 100 113
-1.94491 4.3055 -1.82968 91 98 114
-1.91141 4.37146 -1.83567 91 99 112
-1.7225 4.66697 -1.84018 93 99 111
-1.81663 4.53178 -1.84379 91 97 111
-1.61274 4.79009 -1.8345 93 99 113
-1.92272 4.30397 -1.82724 91 98 114
-1.89813 4.38114 -1.83897 90 98 111
-1.79986 4.52319 -1.83902 91 98 112
-1.70818 4.67812 -1.8441 91 99 112
-1.90768 4.30289 -1.82561 92 100 113
-1.59684 4.79161 -1.83453 95 98 113
-1.87525 4.37765 -1.83573 93 99 115
-1.77795 4.52833 -1.83986 91 99 112
-1.68462 4.67742 -1.84258 92 100 113
-1.58045 4.78756 -1.83226 93 100 113
-1.89423 4.31073 -1.82811 91 99 112
-1.86157 4.38543 -1.83821 93 98 114
-1.76235 4.52687 -1.83829 91 99 112
-1.66872 4.67751 -1.84183 91 101 113
-1.87238 4.31075 -1.8265 94 100 114
-1.84564 4.3806 -1.83497 94 97 114
-1.74753 4.5308 -1.83911 89 97 110
-1.65379 4.68485 -1.84419 91 98 113
-1.86095 4.33106 -1.8348 95 98 115
-1.82254 4.37505 -1.83092 94 97 114
-1.7248 4.53027 -1.83755 91 99 112
-1.63023 4.68391 -1.84267 90 97 113
-1.84618 4.33158 -1.83399 92 100 113
-1.81032 4.39169 -1.83748 92 98 110
-1.83024 4.32487 -1.82988 94 102 115
-1.70997 4.53409 -1.83838 90 98 111
-1.61479 4.68749 -1.84348 90 99 114
-1.79681 4.4011 -1.84078 94 100 112
-1.69606 4.54514 -1.8424 88 99 111
-1.8081 4.32281 -1.82744 93 102 115
-1.59954 4.69285 -1.84506 94 100 114
-1.77285 4.38992 -1.83428 93 99 112
-1.79392 4.32677 -1.82829 90 101 113
-1.67239 4.53709 -1.83764 91 99 112
-1.57578 4.68983 -1.84276 92 100 113
-1.76043 4.40643 -1.84085 93 99 113
-1.65729 4.53894 -1.83767 91 99 112
-1.78051 4.33609 -1.83163 90 100 112
-1.74458 4.40127 -1.8376 91 97 113
-1.55968 4.68775 -1.84123 94 102 115
-1.64239 4.54257 -1.83849 91 99 112
-1.75812 4.33199 -1.82835 95 101 113
-1.72185 4.39705 -1.83437 91 98 114
-1.54539 4.70212 -1.84671 95 102 115
-1.74338 4.3322 -1.82755 95 101 114
-1.62833 4.55343 -1.84252 91 97 111
-1.72938 4.33778 -1.82923 94 102 115
-1.70872 4.40983 -1.8393 91 99 112
-1.60458 4.54324 -1.83696 92 98 111
-1.69373 4.40992 -1.83851 90 98 109
-1.59004 4.55036 -1.83938 89 96 112
-1.70779 4.33885 -1.82844 96 104 115
-1.67824 4.40636 -1.83608 91 99 112
-1.69305 4.33891 -1.82764 92 100 113
-1.57489 4.55196 -1.83941 89 98 113
-1.65752 4.4163 -1.83939 90 98 111
-1.67991 4.35157 -1.83263 93 101 114
-1.6418 4.41081 -1.83614 90 98 111
-1.55221 4.55064 -1.83785 88 99 112
-1.6649 4.34974 -1.831 93 101 116
-1.62799 4.41975 -1.83944 91 99 112
-1.53759 4.5576 -1.84027 87 96 111
-1.64371 4.35413 -1.83187 92 102 114
-1.52191 4.55357 -1.8379 89 97 113
-1.62852 4.35038 -1.82941 91 101 113
-1.60623 4.42223 -1.83948 91 98 112
-1.59123 4.42202 -1.83868 93 99 113
-1.49992 4.55931 -1.83954 91 99 112
-1.61478 4.35925 -1.83274 93 103 115
-1.57561 4.41632 -1.83544 93 99 113
-1.59313 4.3598 -1.83195 93 99 115
-1.55366 4.41675 -1.83466 89 98 110
-1.57817 4.35771 -1.83032 92 99 114
-1.53909 4.42 -1.8355 90 98 111
-1.56414 4.36462 -1.83283 92 100 113
-1.52356 4.41414 -1.83225 89 97 110
-1.54179 4.3577 -1.82873 94 100 114
-1.51028 4.43002 -1.83882 91 100 113
-1.52721 4.35907 -1.82876 94 97 114
-1.48777 4.4247 -1.83559 91 100 113
-1.51312 4.36584 -1.83126 93 99 113
-1.4723 4.41868 -1.83234 93 100 116
-1.49117 4.36231 -1.82882 93 101 114
-1.45886 4.43442 -1.83891 95 101 117
-1.47733 4.3726 -1.83298 91 100 112
-1.46257 4.37197 -1.83218 89 99 111
-1.4481 4.37492 -1.83303 88 98 110
-1.42591 4.36746 -1.82893 92 102 114
-6.17743 -14.7678 0.742704 76 85 59
-6.21704 -14.7344 0.742181 83 80 66
-6.18129 -14.3232 0.728872 96 99 78
-6.32501 -14.5444 0.737706 85 90 74
-6.94015 -7.30858 0.541539 91 76 59
-6.94733 -7.27119 0.540794 100 83 74
-6.97935 -7.23779 0.540733 93 74 70
-7.01355 -7.22951 0.541347 108 91 81
-6.42663 -15.0521 0.754892 108 99 76
-6.54136 -14.8693 0.750757 88 92 71
-6.56696 -14.8017 0.749013 85 83 64
-6.57274 -14.5637 0.741725 96 98 75
-6.54287 -14.3105 0.733479 98 96 71
-6.48383 -14.0567 0.724815 92 86 64
-7.05599 -7.2298 0.542368 92 73 63
-6.72738 -15.05 0.758934 86 83 64
-6.8692 -14.3833 0.740429 104 106 68
-6.83565 -14.1938 0.734137 98 100 59
-6.9371 -14.9589 0.759087 83 78 57
-6.91073 -14.7142 0.75118 93 88 66
-7.04205 -14.8824 0.758253 88 90 52
-7.01674 -14.4088 0.743391 118 120 76
-7.03731 -14.3369 0.741508 85 84 53
-7.2427 -14.6547 0.75428 88 86 54
-7.33427 -14.6702 0.756139 105 102 62
-7.31589 -14.5167 0.751203 90 81 43
-7.34488 -14.4621 0.749998 84 78 49
-7.50603 -14.6184 0.757217 79 74 60
-7.53417 -14.5615 0.755944 81 73 61
-7.46869 -14.2089 0.744303 89 91 61
-7.59397 -14.2903 0.74874 100 104 70
-6.22685 -14.8018 0.68596 85 92 72
-7.77788 -14.4282 0.755829 88 82 56
-8.00592 -14.6984 0.767595 106 93 61
-7.95111 -14.4851 0.760348 111 102 67
-7.98542 -14.4415 0.759616 104 93 52
-7.85504 -14.0392 0.745523 98 73 66
-6.92229 -7.2965 0.504711 135 120 81
-6.94752 -7.2559 0.504354 105 92 62
-6.97216 -7.2375 0.504478 98 93 60
-7.00228 -7.2248 0.504844 117 108 70
-7.07276 -7.23148 0.506488 114 100 67
-6.2858 -14.7495 0.685206 81 71 69
-6.40208 -14.7722 0.687241 71 67 59
-6.29236 -14.3219 0.673422 76 79 61
-6.33214 -14.0519 0.666463 83 77 59
-6.48438 -14.1024 0.669776 91 83 72
-8.25745 -14.675 0.771059 111 77 77
-6.55209 -14.6818 0.686585 79 75 68
-8.44297 -14.9055 0.780984 113 77 81
-8.34595 -14.6209 0.770952 127 82 85
-8.57508 -14.3946 0.768258 171 103 83
-8.55115 -14.2509 0.763654 176 98 78
-8.62448 -14.2236 0.764152 178 100 76
-8.35102 -13.1444 0.728112 110 97 64
-8.37407 -13.0449 0.725687 111 96 67
-8.3707 -12.9498 0.722914 105 95 57
-8.36363 -12.8498 0.719937 104 101 51
-8.39 -12.7591 0.717851 101 99 54
-8.44757 -12.762 0.719016 101 104 65
-8.5009 -12.7579 0.719909 94 96 56
-8.56847 -12.7754 0.721684 97 103 64
-8.64312 -12.7593 0.722653 93 98 58
-6.77845 -14.6425 0.688366 92 85 67
-6.90841 -14.7481 0.692933 85 79 65
-6.99493 -14.5184 0.687796 78 77 57
-6.93673 -14.2785 0.680493 98 103 60
-8.68387 -15.0656 0.78978 162 95 86
-8.76759 -15.1052 0.792374 169 97 82
-8.8871 -15.2069 0.797412 173 103 87
-8.92109 -15.1019 0.794924 176 110 93
-8.69999 -12.7595 0.72375 98 98 62
-8.76472 -12.771 0.725321 106 103 56
-8.84407 -12.7604 0.726561 108 99 56
-8.93375 -12.8077 0.729627 106 105 60
-7.22376 -14.6526 0.694505 88 88 58
-7.30164 -14.4119 0.689061 93 87 68
-9.23836 -15.1598 0.802186 187 110 87
-9.2493 -15.0714 0.799823 187 109 89
-9.02318 -14.5892 0.781843 126 83 62
-9.07444 -14.5203 0.780779 100 88 60
-9.28071 -14.7566 0.791316 102 85 58
-9.19918 -12.8949 0.737269 91 89 48
-7.52626 -15.979 0.734636 89 82 74
-7.35367 -14.7472 0.69883 108 109 69
-7.61985 -14.7686 0.703086 83 84 68
-7.85108 -15.1127 0.71557 91 96 75
-7.71625 -14.7327 0.703482 81 78 51
-7.75268 -14.6352 0.701391 87 82 61
-7.72317 -14.4679 0.696505 95 94 65
-7.89283 -14.6833 0.704692 88 86 65
-7.88477 -14.2887 0.694096 103 87 53
-7.88912 -14.1384 0.690186 108 86 66
-7.9377 -14.603 0.703206 107 97 71
-7.96337 -14.1704 0.692139 107 70 74
-8.05817 -14.2388 0.695362 109 70 77
-10.4723 -14.9764 0.820036 101 101 67
-10.6079 -15.0742 0.825411 109 106 69
-10.5069 -14.681 0.812536 113 109 74
-10.5346 -14.4793 0.807537 115 111 58
-10.6025 -14.4793 0.808905 122 116 64
-11.8966 -7.30529 0.674228 73 80 65
-11.9198 -7.24344 0.673816 75 81 58
-11.9622 -7.21886 0.674624 81 85 60
-11.9891 -7.18474 0.67482 93 99 54
-8.60571 -14.9555 0.722467 155 91 79
-8.5179 -14.6927 0.714247 169 98 80
-8.52356 -14.5972 0.71184 168 99 81
-8.58142 -14.5407 0.711259 166 94 79
-8.49332 -14.1844 0.700629 171 96 77
-8.54396 -14.1196 0.699744 178 102 79
-8.33937 -13.1622 0.67185 100 83 63
-8.36863 -13.073 0.670054 98 83 52
-8.36193 -12.973 0.6674 112 101 73
-8.35897 -12.8799 0.664989 101 105 69
-8.37772 -12.7775 0.662707 106 95 65
-8.4213 -12.7586 0.66296 99 100 62
-8.48011 -12.7629 0.664061 92 90 58
-8.54011 -12.7687 0.665223 102 98 59
-8.61695 -12.756 0.666211 112 110 66
-10.8268 -14.6962 0.819374 102 93 60
-10.921 -14.6816 0.820886 132 126 61
-12.0664 -7.15551 0.676581 81 86 47
-8.77558 -14.4092 0.710901 178 98 77
-8.85491 -14.4406 0.712973 179 103 80
-8.8994 -14.4134 0.712987 140 87 64
-8.67941 -12.7645 0.667494 93 87 61
-8.73864 -12.7677 0.668594 93 92 45
-8.81914 -12.7589 0.669764 94 86 62
-8.88761 -12.7747 0.671349 101 102 62
-11.2566 -15.0444 0.837605 116 112 60
-11.6563 -15.3887 0.855148 126 121 67
-11.2871 -14.7462 0.830167 100 92 59
-11.353 -14.7385 0.83133 92 88 58
-11.3996 -14.705 0.831405 86 71 53
-11.604 -14.8297 0.839031 84 67 48
-11.6888 -14.8444 0.841212 119 96 92
-5.44825 -12.9272 0.519738 71 65 65
-5.4925 -12.9221 0.520029 92 84 87
-9.27984 -14.8857 0.73124 123 106 81
-9.17184 -14.607 0.72235 117 108 82
-11.9584 -15.899 0.875179 133 127 85
-11.8338 -14.9361 0.846722 79 65 55
-12.1473 -15.1925 0.860189 103 87 76
-12.3141 -15.2094 0.864211 110 93 69
-5.53452 -12.9112 0.520184 83 73 80
-5.60515 -12.9122 0.520848 81 79 78
-5.65558 -12.9213 0.521501 90 89 89
-5.70228 -12.9209 0.521928 86 86 80
-5.76156 -12.8934 0.521911 100 94 101
-12.8849 -15.8267 0.892752 130 100 76
-5.80829 -12.8927 0.522337 89 78 85
-5.85903 -12.9009 0.522991 87 76 77
-5.92342 -12.9402 0.524415 101 95 96
-5.97469 -12.8933 0.523944 89 84 81
-10.2409 -14.5157 0.738145 103 103 71
-9.96421 -12.9265 0.694471 95 88 71
-13.0413 -15.8694 0.897251 145 109 87
-13.2112 -15.9778 0.90378 138 102 76
-13.0647 -15.3525 0.884313 110 102 64
-13.6071 -15.3095 0.895366 104 92 69
-6.95101 -7.35917 0.431443 117 109 66
-6.9449 -7.30702 0.43049 94 81 58
-6.9711 -7.29022 0.43063 94 80 64
-6.98772 -7.26306 0.430451 107 97 71
-7.03609 -7.24705 0.43096 118 108 77
-16.0643 -7.35651 0.800577 94 78 73
-16.111 -6.98719 0.796966 70 69 54
-16.1429 -6.9116 0.796954 88 92 68
-16.6321 -6.84876 0.811481 86 85 60
-17.5095 -6.21115 0.83167 136 121 106
-6.02247 -12.8936 0.524415 93 86 82
-6.07116 -12.8956 0.524932 105 97 96
-6.14014 -12.8882 0.525459 104 100 91
-6.18976 -12.8915 0.52602 88 85 77
-6.24115 -12.8983 0.526673 92 93 81
-10.4796 -14.6649 0.746042 97 87 63
-10.6922 -14.8691 0.754838 110 107 60
-10.5963 -14.5888 0.746254 94 84 51
-10.4685 -14.316 0.737295 124 119 71
-10.7083 -14.554 0.747424 78 76 35
-10.3901 -12.8967 0.701804 108 93 67
-10.5356 -12.915 0.70503 138 103 79
-10.6906 -12.9016 0.707717 144 107 80
-14.2274 -16.9568 0.951496 118 90 69
-14.3052 -16.9433 0.952861 89 73 54
-13.8728 -15.9617 0.917969 112 102 61
-14.2125 -16.2564 0.933125 109 100 61
-14.2004 -16.0891 0.928587 95 84 64
-13.6609 -15.2748 0.89571 90 78 61
-11.9335 -7.28042 0.624326 93 96 75
-11.9299 -7.22767 0.623411 129 134 93
-11.9568 -7.19362 0.623586 80 85 39
-12.0052 -7.14697 0.624127 87 95 58
-16.6413 -7.34293 0.8183 66 66 64
-16.6817 -7.29897 0.818963 124 115 98
-17.9685 -6.88506 0.854169 102 101 106
-17.4916 -6.54469 0.834943 165 150 137
-17.5879 -6.51862 0.837706 96 84 62
-17.718 -6.50449 0.84169 79 79 59
-17.6138 -6.40364 0.837196 96 98 77
-6.30698 -12.8827 0.527018 101 103 81
-6.35852 -12.889 0.52767 93 91 71
-6.40504 -12.8842 0.52805 118 118 94
-6.45933 -12.8956 0.528838 99 94 74
-6.52881 -12.886 0.529364 82 73 68
-10.8326 -14.5818 0.750352 128 122 66
-11.0706 -14.8107 0.760238 82 75 34
-11.1948 -14.8824 0.764247 111 102 55
-14.6127 -17.0412 0.96219 129 116 76
-11.1354 -12.8653 0.715647 117 102 69
-15.291 -16.8608 0.972913 91 80 55
-14.8995 -16.3201 0.950358 98 89 63
-15.1603 -16.5064 0.961029 97 95 62
-14.8405 -15.1262 0.919558 94 88 58
-14.8858 -15.0786 0.919492 95 90 54
-15.2731 -12.6229 0.872964 97 94 48
-6.57898 -12.8879 0.529925 115 106 80
-6.62568 -12.8823 0.530304 101 98 75
-6.70776 -12.897 0.531465 70 61 59
-6.75193 -12.8856 0.531708 75 65 57
-6.80149 -12.8848 0.532224 93 83 71
-11.6588 -15.4085 0.785465 118 114 60
-11.3619 -14.6749 0.762352 88 74 66
-11.6625 -14.8284 0.77165 107 90 82
-11.8425 -14.8212 0.774887 105 98 71
-15.295 -16.4991 0.963963 105 97 53
-15.5885 -15.6534 0.950213 103 96 64
-15.523 -15.4898 0.94471 98 93 56
-15.4609 -15.331 0.939411 103 97 63
-15.9634 -15.1589 0.947647 110 109 61
-16.1111 -15.2059 0.952402 91 90 42
-15.7729 -14.5603 0.929031 83 76 42
-15.7629 -14.4146 0.925435 93 83 47
-6.87952 -12.8895 0.533157 95 88 70
-6.9375 -12.9042 0.534081 95 86 71
-6.99193 -12.9115 0.534823 100 91 80
-7.03073 -12.8885 0.534793 106 89 65
-7.10929 -12.8918 0.535726 114 99 72
-12.0142 -15.731 0.799785 103 95 64
-12.0385 -14.8789 0.779993 100 83 66
-12.1394 -14.7684 0.779349 157 121 96
-17.504 -21.1275 1.13179 147 107 82
-17.005 -19.7502 1.0851 134 121 87
-16.2421 -15.8668 0.971151 95 83 78
-16.6727 -16.1917 0.989361 101 91 62
-16.3617 -15.7374 0.971022 109 100 59
-16.3054 -15.585 0.966061 111 104 61
-16.3514 -15.2913 0.960358 89 89 40
-16.288 -15.1364 0.955193 110 110 66
-17.0732 -15.4343 0.981759 98 100 60
-16.9229 -15.1532 0.971572 98 101 66
-17.0815 -15.1063 0.974555 126 112 52
-17.1859 -13.9113 0.951089 104 103 59
-21.925 -7.44602 0.987062 88 75 64
-22.0458 -7.4106 0.990564 82 72 56
-22.1946 -7.26837 0.993841 72 81 50
-22.0857 -7.0418 0.987965 83 86 64
-7.22069 -12.9084 0.537301 104 75 63
-7.39935 -12.9029 0.539217 135 81 73
-13.1213 -15.5292 0.816175 106 100 74
-6.90522 -7.30714 0.391523 115 100 67
-6.92868 -7.28752 0.391565 92 76 59
-6.93159 -7.24593 0.391039 91 78 65
-18.0546 -16.0778 1.02124 83 77 39
-17.661 -15.527 0.998808 158 150 87
-17.5247 -15.2608 0.989368 118 115 68
-17.8693 -15.4667 1.00282 111 111 59
-17.5763 -15.1147 0.987457 99 103 53
-17.5497 -14.949 0.983112 88 95 50
-17.4409 -14.7618 0.976177 97 100 51
-17.424 -14.6544 0.973386 100 99 49
-17.5531 -14.6243 0.976106 95 93 45
-17.8548 -14.6911 0.985472 100 98 51
-17.7584 -14.5183 0.979216 75 72 37
-17.4657 -14.0506 0.961478 109 107 66
-18.3665 -14.6893 0.998975 97 88 40
-18.2435 -14.358 0.98871 111 107 57
-18.1732 -14.2107 0.983743 75 71 39
-13.3331 -16.0346 0.832032 142 105 80
-13.4613 -16.0371 0.834594 111 94 73
-13.728 -15.2168 0.821222 104 89 66
-19.1065 -19.6609 1.13128 102 99 70
-6.97166 -7.22142 0.391236 106 103 72
-7.01548 -7.22331 0.391844 91 87 59
-13.9521 -13.1555 0.781433 105 103 58
-13.9912 -13.0699 0.780531 92 97 51
-13.9716 -12.9704 0.778045 97 101 62
-13.9719 -12.8903 0.776408 112 109 61
-13.9846 -12.7817 0.774475 102 98 60
-18.6046 -14.7394 1.00638 147 138 67
-18.6701 -14.463 1.00236 94 90 57
-19.6938 -15.1662 1.04454 132 133 93
-19.2663 -14.7384 1.02415 112 112 76
-19.2055 -14.5967 1.01959 95 89 52
-19.305 -14.5309 1.02095 119 114 58
-19.6127 -14.6693 1.03215 63 63 26
-19.7155 -13.0445 1.00328 81 73 62
-19.6523 -12.9145 0.999055 94 83 79
-19.6836 -12.8476 0.998703 110 91 84
-19.7832 -12.7815 1.00033 103 86 79
-16.055 -7.36713 0.736244 94 80 75
-16.0681 -7.3128 0.735928 112 95 86
-16.6499 -7.29812 0.751854 134 121 111
-16.1815 -6.94309 0.734578 88 97 76
-16.6128 -6.85434 0.745597 88 94 67
-17.4964 -6.55772 0.767241 205 196 190
-17.5686 -6.52241 0.768919 104 99 80
-17.6451 -6.42602 0.770094 88 93 71
-17.6066 -6.31884 0.767901 81 81 63
-17.505 -6.22091 0.764012 80 76 61
-26.8648 -7.65887 1.1493 64 63 54
-27.2664 -7.45195 1.16053 80 74 68
-26.7258 -7.16856 1.14031 72 71 58
-27.1699 -7.19731 1.15511 75 84 73
-27.207 -7.11612 1.15563 80 88 76
-7.91789 -14.0486 0.567679 105 72 84
-7.96021 -14.0227 0.567649 118 88 95
-14.4205 -16.8167 0.871475 104 91 67
-14.5868 -16.7998 0.874397 109 95 69
-14.1431 -16.1817 0.85143 97 82 51
-14.5214 -16.3599 0.863088 115 99 83
-14.6836 -16.0846 0.860206 106 99 69
-14.0651 -12.7761 0.776171 94 98 63
-14.1635 -12.7861 0.778595 99 109 76
-14.2896 -12.7802 0.781328 98 102 66
-21.4525 -15.4916 1.09915 118 114 79
-21.4159 -15.3127 1.0946 80 78 53
-17.9538 -6.88906 0.783729 101 101 106
-17.7176 -6.51498 0.773075 85 88 68
-32.0735 -7.38382 1.31807 118 109 81
-32.267 -7.32222 1.32399 108 96 74
-32.2754 -7.21784 1.32347 102 91 46
-32.0767 -7.06769 1.31578 143 129 84
-32.2493 -6.94703 1.32062 130 116 74
-33.2736 -6.95086 1.3546 97 97 99
-33.1995 -6.77244 1.35091 147 138 134
-33.0965 -6.6433 1.3466 109 102 100
-33.1692 -6.54986 1.34839 114 110 102
-33.1596 -6.386 1.34699 90 98 65
-6.07094 -14.5222 0.498038 110 56 44
-6.01841 -14.2632 0.49317 96 44 37
-8.29779 -15.0254 0.591263 102 84 83
-8.41773 -13.2503 0.558067 90 77 58
-8.36386 -13.0716 0.553987 104 89 64
-8.38005 -12.9621 0.552099 120 101 74
-8.37733 -12.8688 0.550292 104 88 62
-8.38051 -12.7858 0.548758 91 78 51
-8.46358 -12.7844 0.549779 111 101 67
-8.51806 -12.782 0.550427 98 86 63
-14.9565 -16.1322 0.866892 106 102 62
-14.7556 -15.1394 0.840925 101 96 64
-14.9124 -15.2067 0.845716 97 85 66
-14.8348 -15.0333 0.840323 96 72 63
-15.4973 -15.5641 0.865915 96 66 66
-15.441 -15.411 0.86143 101 71 69
-15.4716 -15.3461 0.860704 99 69 65
-15.3687 -12.7134 0.804901 127 120 71
-15.3538 -12.6209 0.802777 110 100 48
-22.7512 -16.929 1.16366 91 89 50
-22.8314 -16.8235 1.16372 89 91 59
-22.8849 -16.7533 1.16378 64 59 36
-23.0235 -16.7456 1.16743 73 74 45
-21.8446 -15.5192 1.11055 97 90 81
-36.5558 -6.80611 1.46275 99 111 68
-37.2301 -6.81153 1.48525 102 107 69
-41.8311 -6.981 1.6398 80 80 49
-42.1213 -6.62266 1.64749 105 101 55
-46.4391 -6.03976 1.78934 123 118 59
-47.2255 -5.99182 1.81553 86 77 32
-46.5537 -5.75767 1.79192 104 105 43
-46.7451 -5.6325 1.79781 116 110 39
-46.8675 -5.4234 1.80107 125 114 43
-47.1176 -5.30261 1.80899 137 126 45
-46.5833 -5.09404 1.79018 118 115 23
-46.8363 -4.89864 1.79797 150 148 41
-51.0355 -5.01649 1.93982 107 107 43
-50.9384 -4.76463 1.93569 117 122 56
-6.19436 -14.5689 0.499773 122 53 60
-6.36461 -14.6604 0.502649 115 63 60
-6.32363 -14.2502 0.495291 117 69 57
-6.30365 -14.0825 0.492264 89 45 43
-8.43182 -14.6677 0.58572 134 75 71
-8.50085 -14.5248 0.583717 168 93 74
-8.61986 -14.629 0.587141 165 91 76
-8.62853 -14.3831 0.582454 167 91 76
-8.63593 -14.1414 0.577857 177 104 83
-8.72447 -14.1906 0.579871 179 112 85
-8.57805 -12.7878 0.551303 104 92 75
-8.63705 -12.7916 0.552133 95 86 70
-8.72289 -12.792 0.553244 86 80 62
-8.7744 -12.7836 0.553756 94 86 63
-8.83705 -12.7916 0.554721 83 71 62
-8.91659 -12.7807 0.55556 83 76 66
-16.305 -15.9293 0.891146 122 79 73
-16.4384 -15.961 0.894723 116 78 70
-16.2011 -15.5824 0.881577 120 83 73
-16.2104 -15.3985 0.87794 119 90 74
-16.1018 -12.4613 0.817548 102 103 67
-16.1717 -12.4356 0.818755 88 96 55
-24.047 -16.9845 1.20047 82 76 64
-23.9397 -16.7405 1.19272 49 46 36
-23.8342 -16.5556 1.18619 127 113 89
-23.7393 -16.3796 1.18013 121 102 79
-24.304 -16.6046 1.20029 142 123 82
-24.5316 -16.6492 1.20755 138 125 82
-24.7762 -16.7038 1.21548 74 64 41
-24.2548 -16.2398 1.19196 82 75 62
-24.0995 -15.4891 1.17356 110 92 84
-24.1421 -15.4104 1.17334 91 79 65
-25.0444 -15.8258 1.20681 81 77 68
-25.0323 -15.709 1.20435 73 77 60
-25.2295 -15.7241 1.21031 80 89 72
-25.2553 -14.9838 1.19799 86 88 54
-25.1193 -14.7968 1.19078 83 88 67
-26.4279 -14.9127 1.23129 78 73 57
-26.5973 -14.8996 1.23609 83 84 72
-26.4984 -14.7354 1.23044 86 88 77
-26.2277 -14.4232 1.21725 66 69 60
-26.9613 -14.6107 1.24219 64 69 64
-26.5548 -14.2819 1.22472 62 69 65
-26.6882 -13.98 1.22391 71 57 53
-26.9247 -13.9441 1.23048 88 91 82
-26.8965 -13.823 1.22774 58 63 56
-27.1131 -13.8282 1.23437 65 68 59
-27.3587 -13.7929 1.24127 79 81 76
-27.4403 -13.7269 1.24274 76 77 65
-27.6218 -13.7105 1.24801 91 90 78
-27.9443 -13.4926 1.25459 73 70 63
-27.8328 -13.3313 1.2488 135 117 103
-28.4652 -13.255 1.26711 48 49 51
-42.5562 -7.30872 1.66591 100 105 68
-47.4318 -7.61435 1.83056 85 87 45
-46.7344 -7.12611 1.80459 88 91 60
-47.0037 -6.86566 1.81225 118 123 64
-47.4361 -6.70103 1.82592 109 115 58
-46.4928 -6.41833 1.79291 102 95 48
-46.4446 -6.26312 1.79055 120 111 64
-6.41524 -14.6541 0.502933 139 72 75
-6.53618 -14.4998 0.501239 106 53 49
-6.66734 -14.6777 0.505324 95 43 40
-8.92953 -14.433 0.587023 107 71 43
-16.6845 -16.4046 0.909452 129 82 79
-17.1918 -15.3 0.897897 95 101 60
-17.0986 -15.1216 0.892196 126 109 63
-16.976 -14.9187 0.885344 83 69 33
-17.1596 -14.9394 0.889956 102 103 74
-17.6126 -15.2402 0.906319 110 115 69
-17.4147 -14.9735 0.896496 98 103 61
-17.4159 -14.8336 0.893772 96 105 52
-17.3992 -14.7262 0.891283 93 97 54
-17.4751 -14.6978 0.892492 96 102 58
-17.8359 -14.8612 0.904073 104 102 63
-17.4786 -14.2878 0.884663 117 109 51
-17.2798 -13.9902 0.8743 93 78 33
-17.6275 -14.1828 0.886175 107 97 59
-17.8331 -14.258 0.892473 96 95 50
-27.4273 -15.9929 1.27903 74 80 59
-26.819 -15.5239 1.25314 85 89 71
-26.9801 -15.3936 1.25568 105 106 71
-27.7459 -15.1509 1.27439 72 75 68
-27.5666 -14.6632 1.26116 47 44 33
-27.5164 -14.5263 1.25747 132 113 102
-28.0361 -13.8084 1.2621 84 87 70
-28.0408 -13.6476 1.25984 71 74 64
-28.4588 -13.4691 1.27002 73 67 58
-28.3936 -13.3296 1.26599 70 68 64
-30.8244 -13.9513 1.34982 94 80 72
-31.1385 -13.977 1.3599 79 67 61
-31.3337 -13.2486 1.35606 83 94 72
-31.7301 -13.2417 1.36838 72 79 56
-31.6521 -12.9772 1.36248 81 86 63
-22.0296 -7.36493 0.904715 85 77 59
-22.0556 -7.29715 0.904813 86 83 66
-22.0975 -7.15822 0.904706 84 84 58
-47.4517 -8.99922 1.83958 89 102 66
-51.4569 -9.01071 1.9731 93 95 62
-47.4637 -7.77238 1.83252 94 95 62
-6.84646 -14.8977 0.510512 104 42 46
-6.92418 -14.9482 0.512 101 45 43
-6.76022 -14.461 0.502385 96 42 45
-6.94189 -14.6811 0.507611 95 42 49
-6.95208 -14.5839 0.50605 90 50 42
-7.0105 -14.5919 0.506672 104 72 59
-7.01807 -14.4316 0.50403 102 75 60
-9.45223 -15.1978 0.608086 101 84 59
-18.6859 -14.8007 0.922963 91 87 50
-18.5653 -14.611 0.916532 85 84 56
-18.659 -14.5914 0.918404 95 96 73
-19.155 -14.6476 0.931361 102 105 55
-19.2104 -14.4545 0.929172 112 108 62
-19.6789 -12.9293 0.914246 83 71 68
-19.7136 -12.8646 0.914053 123 104 97
-19.815 -12.7993 0.915562 105 85 78
-52.296 -11.117 2.01499 143 130 75
-51.4253 -9.1716 1.97303 92 99 68
-5.32141 -12.781 0.406728 198 83 107
-5.36891 -12.7854 0.407068 202 85 107
-5.41426 -12.7842 0.40732 199 83 107
-5.48053 -12.7764 0.40761 200 89 108
-7.17838 -14.5387 0.507193 91 51 46
-7.23821 -14.3763 0.504983 91 59 58
-7.25259 -14.2934 0.503721 103 74 70
-7.41127 -14.3346 0.505802 87 70 60
-10.1993 -14.5784 0.605833 95 90 68
-10.138 -14.3921 0.601568 99 94 73
-6.93089 -7.30913 0.351715 88 82 70
-6.93 -7.26296 0.351215 94 83 76
-6.97429 -7.24281 0.351457 84 75 56
-6.99487 -7.22 0.351429 92 88 63
-7.05923 -7.24365 0.352346 94 85 73
-19.3574 -14.7079 0.937354 114 119 66
-19.5602 -14.6238 0.94074 95 88 52
-19.4579 -14.1265 0.929319 114 112 68
-20.4907 -14.2076 0.956303 136 127 100
-11.9892 -7.31512 0.521215 89 90 63
-11.9733 -7.22891 0.519893 104 113 79
-11.9883 -7.18753 0.519705 71 73 58
-12.0476 -7.17303 0.520699 86 93 75
-50.0247 -14.4706 1.96853 101 93 72
-26.9241 -7.66122 1.04876 82 82 73
-26.8743 -7.5109 1.04607 79 68 62
-27.1803 -7.50466 1.05492 86 75 69
-27.1643 -7.40891 1.05368 139 132 122
-26.7964 -7.17376 1.04108 71 75 72
-27.1736 -7.18351 1.05217 67 76 71
-53.5397 -13.5968 2.07558 57 66 73
-48.8267 -12.2334 1.9092 146 149 141
-48.957 -12.1031 1.91239 73 67 60
-54.3935 -13.1802 2.10018 123 127 76
-51.6335 -12.338 2.00243 88 87 36
-52.2541 -12.3136 2.02269 104 100 64
-5.52672 -12.7766 0.40789 199 82 100
-5.57526 -12.7822 0.408259 194 82 102
-5.64093 -12.7718 0.40852 197 88 103
-5.68728 -12.7714 0.4088 200 94 109
-5.73369 -12.7708 0.40908 198 89 105
-7.55924 -15.2154 0.521823 100 46 46
-7.54814 -14.4959 0.5097 113 90 75
-10.2559 -14.3238 0.601873 90 83 50
-10.4917 -14.4694 0.607718 86 72 43
-10.5741 -14.4421 0.608329 130 121 79
-10.6151 -14.4046 0.608203 90 79 51
-10.7543 -14.5031 0.611899 111 106 74
-10.4272 -12.9169 0.578861 107 88 82
-10.8361 -12.8911 0.584373 120 99 77
-21.25 -15.6359 1.00019 110 95 52
-21.3062 -15.5754 1.00048 108 94 67
-21.6329 -15.456 1.00639 77 68 44
-21.3728 -15.1692 0.99493 74 68 50
-21.9434 -15.473 1.01437 74 75 57
-21.3911 -14.7358 0.987864 129 113 96
-21.5452 -14.6941 0.99101 171 157 125
-21.6566 -14.6718 0.993422 71 62 35
-21.594 -14.4339 0.987824 86 83 68
-21.6526 -14.3271 0.987515 85 80 66
-43.5051 -17.4642 1.7928 85 94 70
-43.7703 -17.412 1.80049 81 86 89
-44.4497 -17.5222 1.8233 106 110 122
-44.3336 -17.236 1.81607 158 159 165
-46.1251 -16.2905 1.86175 92 89 59
-46.5492 -16.195 1.87425 71 66 54
-47.6107 -16.3985 1.91054 100 91 84
-49.8485 -15.613 1.97416 89 87 67
-49.7259 -15.318 1.9672 67 61 38
-50.4834 -15.379 1.99235 90 82 65
-50.5363 -15.2221 1.99249 86 83 67
-50.118 -14.9245 1.97597 81 79 67
-50.0757 -14.6557 1.97198 93 78 62
-54.137 -14.0206 2.09881 74 84 75
-32.1523 -7.26887 1.19884 147 136 106
-32.1898 -7.17143 1.19928 138 131 85
-32.1918 -7.06613 1.19864 120 116 45
-33.1112 -6.61745 1.22297 126 122 90
-5.78489 -12.7811 0.409537 198 83 101
-5.85233 -12.7732 0.409856 202 85 106
-5.89892 -12.7721 0.410136 203 95 115
-5.94638 -12.7726 0.410445 199 95 109
-6.01561 -12.7675 0.410822 197 92 107
-7.82094 -14.751 0.516378 93 57 56
-7.96112 -14.9099 0.520276 97 67 61
-7.89516 -14.6714 0.515735 92 64 62
-7.98877 -14.7393 0.517712 89 59 59
-7.87048 -14.3519 0.510242 104 71 64
-7.87597 -14.2557 0.508714 99 67 59
-7.96263 -14.3109 0.510427 117 85 75
-7.92375 -14.0816 0.506309 100 59 67
-7.90351 -13.942 0.503837 90 57 54
-8.11556 -12.8738 0.488722 106 100 74
-8.30535 -13.0921 0.494128 107 94 74
-8.32976 -13.0413 0.493576 87 77 50
-8.31794 -12.8881 0.491033 93 77 61
-8.33832 -12.8323 0.490367 87 76 58
-8.35091 -12.7648 0.489437 86 73 58
-8.41553 -12.7348 0.489647 99 96 68
-11.2439 -15.031 0.628207 102 96 65
-11.3091 -14.7794 0.624561 128 112 79
-10.9278 -12.8794 0.585526 112 98 83
-10.9968 -12.881 0.586579 126 111 92
-11.0685 -12.8853 0.587723 108 95 78
-11.1541 -12.8645 0.588648 120 107 87
-11.2196 -12.8605 0.589564 108 93 68
-11.3021 -12.8759 0.591071 112 94 73
-11.3783 -12.8833 0.592352 97 80 64
-11.4617 -12.8577 0.593184 96 84 60
-22.7855 -16.935 1.06104 110 110 72
-24.2084 -16.2963 1.08509 75 73 55
-24.1929 -15.5294 1.07193 111 94 84
-24.175 -15.4118 1.06955 85 85 71
-24.4746 -15.4426 1.07772 81 84 64
-25.1682 -14.9105 1.08724 76 81 59
-25.2269 -12.9419 1.05992 63 66 58
-25.222 -12.8403 1.05839 66 65 63
-25.2904 -12.7263 1.05868 63 62 57
-36.9044 -7.49331 1.34054 123 111 95
-37.0609 -7.28346 1.34389 122 124 77
-36.9306 -6.95778 1.33812 81 94 64
-36.9259 -6.83712 1.33729 88 92 68
-42.1353 -6.70993 1.4915 115 109 85
-46.8967 -5.73961 1.62944 121 113 27
-46.1076 -5.49666 1.60488 160 150 57
-46.3147 -5.15299 1.60983 115 113 45
-6.06483 -12.7712 0.41119 197 88 104
-6.11663 -12.7801 0.411646 197 88 107
-6.18278 -12.7669 0.411905 200 96 107
-6.23139 -12.7681 0.412243 190 92 102
-6.27583 -12.7601 0.412434 185 90 105
-6.32625 -12.7646 0.412831 181 89 102
-8.44803 -14.6605 0.520729 175 93 87
-8.37821 -14.4312 0.516335 177 99 80
-8.31296 -14.2129 0.512166 175 101 82
-8.31104 -14.1078 0.510448 168 97 81
-8.4199 -14.0442 0.510489 173 102 86
-8.6483 -14.0822 0.513372 184 114 95
-8.47534 -12.741 0.490376 106 102 73
-8.53524 -12.7469 0.491105 99 93 69
-8.59088 -12.7458 0.491682 100 93 64
-8.67434 -12.743 0.492533 104 93 75
-8.73126 -12.743 0.493149 93 82 54
-8.79274 -12.7494 0.493915 96 84 60
-8.87661 -12.7453 0.494765 116 105 74
-11.4548 -15.2201 0.634541 114 103 72
-11.3495 -14.9792 0.628727 118 108 73
-11.5024 -14.9409 0.630167 129 117 78
-11.5231 -14.872 0.629221 126 105 79
-11.4478 -14.6775 0.62468 141 124 84
-11.5721 -14.6973 0.626792 112 92 70
-11.7941 -14.7943 0.631678 90 72 59
-11.9467 -14.7515 0.633115 111 89 74
-11.5434 -12.8703 0.594646 88 77 59
-11.6173 -12.8736 0.595835 102 87 70
-11.7276 -12.8764 0.597577 107 94 69
-11.8139 -12.8922 0.599175 107 99 70
-11.8977 -12.9046 0.600682 106 92 70
-25.5226 -15.9944 1.11352 64 63 58
-25.7415 -16.0203 1.11956 60 64 57
-25.3626 -15.6745 1.10427 53 61 48
-25.4138 -14.9495 1.09425 79 83 60
-25.9805 -15.1201 1.11168 72 78 66
-27.3419 -15.7999 1.1577 60 70 59
-26.9937 -15.4862 1.14381 77 85 70
-27.2202 -15.5038 1.15002 93 103 78
-26.5174 -14.9387 1.12306 63 69 54
-26.5268 -14.8352 1.12176 83 89 76
-26.4693 -14.6949 1.11817 83 93 79
-26.5883 -14.5985 1.11991 81 84 74
-26.7455 -14.5765 1.12377 70 71 66
-26.7147 -14.4519 1.12114 59 62 56
-26.6777 -14.2707 1.11755 116 108 99
-26.6686 -14.159 1.11572 172 155 137
-26.79 -14.1166 1.11836 176 158 134
-26.9609 -14.0995 1.1227 192 167 143
-27.0013 -13.9599 1.12183 70 67 62
-27.4412 -13.7026 1.13016 66 61 57
