-5.78221 4.78239 -1.84438 83 89 105
-5.23585 5.65643 -1.85038 82 86 103
-5.2095 5.67687 -1.85094 83 88 105
-4.97052 6.07756 -1.85524 79 88 101
-4.94652 6.08282 -1.85308 78 86 99
-4.69391 6.49348 -1.85636 82 85 104
-4.47289 6.91658 -1.86892 83 89 105
-4.45285 6.93219 -1.87046 85 89 106
-4.19765 7.37753 -1.88047 82 87 102
-3.88909 7.9118 -1.89107 80 87 101
-3.50914 8.5357 -1.89692 84 88 100
-3.23406 8.9375 -1.89653 89 91 104
-8.5342 0.358523 -1.79617 65 73 96
-8.48797 0.586613 -1.81858 69 78 95
-8.34863 0.73069 -1.80924 68 80 96
-8.0364 1.09108 -1.79496 69 78 95
-8.03593 1.11265 -1.79605 66 73 90
-7.50388 1.94172 -1.80565 73 82 97
-7.50117 1.9732 -1.80794 75 82 98
-6.72595 3.13662 -1.81359 68 75 93
-6.69555 3.15368 -1.80819 68 76 92
-6.70619 3.18333 -1.81597 68 75 93
-6.67635 3.21261 -1.81296 73 79 95
-6.67019 3.24404 -1.81654 72 77 91
-6.64617 3.2531 -1.81174 71 75 92
-6.64977 3.27899 -1.81712 68 74 90
-6.63028 3.30237 -1.81591 69 76 90
-6.61748 3.31824 -1.81531 67 76 89
-6.62239 3.34522 -1.82129 76 78 95
-6.6171 3.37764 -1.82546 77 80 97
-6.59445 3.3873 -1.82127 75 78 95
-6.583 3.40407 -1.82126 74 77 92
-6.58112 3.42703 -1.82485 68 70 85
-6.54183 3.4375 -1.81646 74 77 94
-6.52386 3.44992 -1.81406 70 72 90
-6.50906 3.46437 -1.81286 75 80 96
-6.49192 3.48912 -1.81285 71 77 93
-6.47541 3.50239 -1.81104 73 79 93
-6.4715 3.52416 -1.81403 69 72 89
-6.45781 3.57594 -1.82 73 79 93
-6.44266 3.59013 -1.8188 71 79 92
-6.42902 3.60536 -1.81819 67 75 88
-6.38507 3.63603 -1.81279 73 73 91
-6.37594 3.6544 -1.81398 76 76 94
-5.75617 4.80118 -1.84322 78 85 101
-5.7297 4.8044 -1.8386 78 85 103
-5.72299 4.82836 -1.84264 81 87 103
-5.1887 5.68622 -1.84983 81 89 103
-5.17766 5.70972 -1.85372 83 86 101
-4.923 6.1102 -1.85633 79 88 103
-4.90095 6.11857 -1.85525 82 85 102
-4.65889 6.50322 -1.85426 81 84 103
-4.64307 6.52435 -1.85742 83 86 103
-4.43191 6.94601 -1.87149 81 87 101
-4.16484 7.36568 -1.87456 84 87 102
-3.86389 7.92234 -1.89155 79 86 99
-3.48102 8.5412 -1.89648 85 88 103
-3.20465 8.94215 -1.8961 88 90 102
-8.55715 0.314386 -1.80148 68 80 102
-8.54955 0.336683 -1.79988 73 85 107
-8.47698 0.559004 -1.81542 67 79 95
-8.35662 0.687193 -1.80981 68 76 95
-8.36126 0.709796 -1.81197 73 82 100
-8.04469 1.01686 -1.79334 69 80 98
-8.05771 1.04054 -1.79834 71 79 100
-8.05362 1.06153 -1.79832 73 81 100
-7.54309 1.85656 -1.80859 73 80 98
-7.52798 1.88429 -1.80684 75 82 101
-7.51941 1.90327 -1.80625 66 74 93
-7.52906 1.92782 -1.81144 71 78 96
-6.87593 2.8747 -1.81311 70 79 93
-6.87018 2.92844 -1.81967 69 77 93
-6.86187 2.94693 -1.82026 68 75 91
-6.83373 2.96604 -1.81546 74 80 96
-6.84706 2.99624 -1.82383 76 79 96
-6.82348 3.00645 -1.81904 70 75 94
-6.82325 3.02942 -1.82262 74 80 99
-6.79815 3.05002 -1.81902 73 78 96
-6.78946 3.06833 -1.81961 66 73 89
-6.78067 3.08662 -1.8202 75 81 96
-6.76696 3.11354 -1.82079 72 78 92
-6.76134 3.13368 -1.82257 69 79 94
-6.7085 3.20822 -1.82075 71 77 94
-6.47765 3.56494 -1.823 69 75 91
-6.41433 3.63196 -1.81938 77 78 95
-6.36562 3.68415 -1.81697 65 68 85
-6.37483 3.71596 -1.82534 63 69 85
-6.34237 3.71742 -1.81755 68 76 89
-6.32251 3.7403 -1.81695 85 87 100
-6.30845 3.75512 -1.81634 87 89 104
-6.30805 3.78019 -1.82112 85 88 104
-6.29397 3.80751 -1.82291 80 83 100
-6.28123 3.82338 -1.8229 84 90 106
-6.27597 3.84503 -1.82589 81 88 104
-5.70069 4.85104 -1.84322 78 86 97
-5.68723 4.86798 -1.84437 80 88 101
-5.66592 4.87646 -1.84206 80 88 101
-5.65754 4.89895 -1.84552 81 87 101
-5.14563 5.72199 -1.8515 77 80 99
-5.12365 5.72954 -1.84983 74 77 96
-4.88088 6.13015 -1.85525 80 82 97
-4.61731 6.52671 -1.85479 82 88 102
-4.58841 6.54802 -1.85637 85 88 103
-4.40411 6.97362 -1.87507 84 90 104
-4.37728 6.97507 -1.87252 84 90 104
-4.15257 7.40388 -1.88246 83 86 101
-4.12128 7.39543 -1.87753 83 87 101
-3.83928 7.93464 -1.89249 80 88 101
-3.44299 8.56341 -1.89919 85 88 104
-3.17698 8.95431 -1.89742 88 92 103
-8.55165 0.280167 -1.7994 75 86 106
-8.48465 0.492527 -1.81587 69 80 98
-8.49781 0.520174 -1.81948 69 80 98
-8.36235 0.610343 -1.80879 72 80 99
-8.37107 0.63321 -1.81203 69 80 98
-8.36249 0.654578 -1.81038 70 78 99
-8.06353 0.965863 -1.79616 78 89 109
-8.05968 0.986864 -1.79615 69 80 98
-7.55719 1.76411 -1.80402 78 81 98
-7.56185 1.78684 -1.80748 76 83 99
-7.53785 1.81207 -1.80284 70 77 95
-7.54235 1.83483 -1.80629 75 82 100
-6.97899 2.70124 -1.81619 77 84 102
-6.95691 2.73536 -1.81498 71 80 97
-6.95007 2.76548 -1.81736 72 81 98
-6.9474 2.78669 -1.81974 72 81 98
-6.92761 2.79939 -1.81614 67 74 92
-6.91461 2.81544 -1.81494 72 77 96
-6.91241 2.84807 -1.81911 72 79 97
-6.89757 2.86316 -1.81731 70 77 95
-6.8852 2.91348 -1.82148 72 81 96
-6.26159 3.85969 -1.82529 79 86 102
-6.2426 3.88334 -1.82528 86 89 106
-6.23859 3.90613 -1.82887 83 86 103
-6.21805 3.91593 -1.82587 81 88 104
-6.19881 3.93939 -1.82586 79 86 103
-6.18861 3.95737 -1.82705 82 87 106
-6.17241 3.97054 -1.82585 80 85 104
-6.15143 3.99259 -1.82525 84 90 106
-6.14545 4.01409 -1.82823 78 84 100
-5.63103 4.91711 -1.84436 80 83 101
-5.61605 4.93246 -1.84494 80 86 102
-5.59332 4.93923 -1.84205 78 86 102
-5.10915 5.74815 -1.85206 73 76 93
-5.08603 5.75398 -1.84983 87 89 102
-5.06237 5.77856 -1.85206 113 115 128
-4.85307 6.1507 -1.85634 81 82 100
-4.82798 6.15388 -1.85363 83 86 103
-4.80877 6.16689 -1.85417 84 87 102
-4.56706 6.55873 -1.85638 82 85 101
-4.35697 6.99043 -1.87405 81 87 101
-4.09205 7.42567 -1.88198 82 88 102
-3.80267 7.95295 -1.89391 84 87 102
-3.4133 8.56306 -1.8974 84 87 102
-3.3856 8.57015 -1.89741 89 91 106
-8.54527 0.234663 -1.7968 79 88 105
-8.55138 0.257515 -1.79889 68 77 94
-8.5103 0.467224 -1.82129 72 83 101
-8.36694 0.588632 -1.80935 69 78 95
-8.07676 0.924643 -1.79787 68 81 100
-8.06543 0.944575 -1.79562 67 79 98
-7.5588 1.66879 -1.79599 111 105 101
-7.55427 1.74194 -1.80114 79 79 97
-7.03701 2.49629 -1.80432 68 77 93
-7.00169 2.55708 -1.80249 68 74 90
-7.03447 2.59402 -1.81685 72 77 97
-7.01339 2.60652 -1.81265 75 82 100
-7.00375 2.63513 -1.81383 65 72 91
-7.00156 2.65635 -1.81621 72 79 98
-6.99068 2.67351 -1.81561 73 80 98
-6.98343 2.72577 -1.82097 75 84 101
-6.12617 4.02466 -1.82584 85 91 107
-6.11567 4.04247 -1.82703 85 91 107
-6.09873 4.06793 -1.82822 83 86 101
-6.08078 4.07953 -1.82642 82 88 102
-6.07154 4.09847 -1.82821 81 89 102
-6.04563 4.11631 -1.82581 84 90 104
-6.03478 4.13393 -1.827 85 88 105
-5.57428 4.96565 -1.84436 80 90 102
-5.56167 4.9837 -1.84609 77 83 99
-5.54518 4.99742 -1.84609 74 80 96
-5.04026 5.78581 -1.85039 111 114 126
-5.02339 5.80102 -1.8515 105 109 120
-4.79146 6.18317 -1.8558 82 88 104
-4.54567 6.56938 -1.85638 84 87 102
-4.52511 6.58168 -1.85691 84 88 100
-4.31997 6.99846 -1.87202 87 90 105
-4.29477 7.00312 -1.87049 86 89 104
-4.07005 7.44038 -1.88347 83 88 104
-3.7767 7.96139 -1.89392 84 87 102
-3.75071 7.96974 -1.89393 83 86 101
-3.36031 8.58659 -1.89967 90 94 105
-8.54273 0.178121 -1.79526 74 82 101
-8.55287 0.201023 -1.79841 62 74 90
-8.50753 0.4 -1.81948 70 83 102
-8.50153 0.426507 -1.81858 70 81 103
-8.36914 0.533641 -1.80831 72 84 101
-8.37236 0.555957 -1.80992 72 84 100
-8.0873 0.87226 -1.79846 68 76 95
-8.07612 0.892282 -1.79622 75 84 103
-7.56991 1.59768 -1.79314 118 104 93
-7.56221 1.61685 -1.79255 118 104 93
-7.57038 1.65061 -1.79773 117 100 92
-7.08281 2.36401 -1.8002 108 108 120
-7.08161 2.38515 -1.80258 109 109 120
-7.06602 2.41096 -1.80137 110 110 120
-7.06819 2.43359 -1.80495 114 114 124
-7.06148 2.45251 -1.80554 122 120 134
-7.04035 2.47591 -1.80253 70 76 89
-6.02245 4.15028 -1.8276 84 87 104
-6.00495 4.17538 -1.82879 81 87 103
-5.99246 4.19165 -1.82938 82 88 104
-5.97995 4.2079 -1.82998 80 85 104
-5.97019 4.22665 -1.83177 81 88 104
-5.52328 5.02079 -1.84724 78 84 100
-5.50419 5.03151 -1.84608 81 87 102
-5.48505 5.04215 -1.84493 83 86 103
-5.46465 5.05128 -1.84319 80 81 101
-4.99529 5.81892 -1.8515 104 104 114
-4.97829 5.834 -1.85262 102 105 114
-4.75951 6.1967 -1.85472 79 85 101
-4.74207 6.21285 -1.85635 82 88 104
-4.49329 6.59744 -1.85691 85 90 102
-4.47178 6.60786 -1.85692 79 87 99
-4.2775 7.02529 -1.87407 85 91 105
-4.04448 7.44602 -1.88248 84 87 102
-3.71023 7.97658 -1.89253 83 88 100
-3.31573 8.58373 -1.89653 85 88 103
-8.55946 0.155979 -1.7995 77 85 104
-8.5115 0.373373 -1.81993 73 84 102
-8.37925 0.512297 -1.81049 70 80 98
-8.0832 0.850185 -1.79625 72 79 97
-7.58016 1.5476 -1.79202 124 106 93
-7.57571 1.57802 -1.79315 118 104 90
-7.12844 2.26417 -1.80085 77 82 102
-7.13555 2.31003 -1.80861 68 73 92
-7.12913 2.33971 -1.81039 115 115 129
-7.10862 2.353 -1.80619 115 115 128
-5.95653 4.25539 -1.83475 79 89 101
-5.94379 4.27154 -1.83535 81 89 102
-5.93239 4.28894 -1.83654 81 89 102
-5.90717 4.30724 -1.83474 83 86 103
-5.88727 4.31677 -1.83234 79 85 101
-5.87709 4.33533 -1.83413 80 87 103
-5.44742 5.08016 -1.84666 83 86 103
-5.42324 5.08475 -1.84319 78 81 99
-5.41257 5.10539 -1.84608 83 89 105
-4.95504 5.83934 -1.85039 102 105 114
-4.92777 5.85855 -1.85095 113 113 125
-4.71979 6.22061 -1.85527 79 85 99
-4.68863 6.23546 -1.85473 78 88 100
-4.45022 6.61822 -1.85692 76 86 98
-4.2467 7.04703 -1.87612 82 88 102
-4.00788 7.45793 -1.882 81 87 101
-3.97674 7.4489 -1.87707 85 89 104
-3.68779 7.99585 -1.89536 81 87 99
-3.2903 8.59997 -1.89879 83 86 101
-8.54916 0.133133 -1.79635 66 74 93
-8.50034 0.332705 -1.81677 69 80 99
-7.59155 1.45592 -1.78803 75 82 101
-7.5992 1.47864 -1.79206 73 85 98
-7.58949 1.50778 -1.79146 66 70 86
-7.15568 2.16815 -1.79731 126 103 88
-7.16422 2.20321 -1.80388 118 98 78
-7.14047 2.2155 -1.79848 121 104 94
-7.13804 2.23594 -1.80027 84 77 76
-5.85169 4.35333 -1.83233 79 86 102
-5.84967 4.37971 -1.83772 78 85 101
-5.82685 4.38635 -1.83412 81 90 105
-5.82463 4.41272 -1.8395 79 86 102
-5.38889 5.12675 -1.84665 80 90 102
-5.37681 5.14587 -1.84896 79 88 103
-5.35377 5.15162 -1.84607 81 87 103
-4.91264 5.87671 -1.85318 114 114 124
-4.8944 5.88994 -1.85374 111 111 124
-4.67008 6.24975 -1.85582 78 85 101
-4.65052 6.26231 -1.85636 80 86 100
-4.41654 6.63017 -1.85587 77 84 100
-4.39661 6.64383 -1.85693 80 85 101
-4.22217 7.05321 -1.8751 84 90 104
-4.19686 7.05754 -1.87357 86 89 104
-3.95459 7.46328 -1.87855 84 87 102
-3.66347 8.00949 -1.89678 83 87 99
-3.2625 8.60668 -1.8988 84 87 102
-8.50192 0.279251 -1.81632 72 83 103
-8.50992 0.306317 -1.81857 76 88 107
-7.62461 1.42146 -1.79499 120 123 133
-7.68066 1.55068 -1.8215 103 92 99
-7.19421 2.08695 -1.79916 120 110 107
-7.20685 2.12321 -1.80692 124 103 89
-7.16359 2.12862 -1.79494 124 103 86
-7.17038 2.15236 -1.79972 121 100 83
-6.61399 3.0397 -1.81468 72 76 94
-6.59974 3.07683 -1.81712 69 76 92
-6.56722 3.11454 -1.81464 70 73 90
-6.57133 3.13978 -1.82016 70 71 89
-6.54162 3.17916 -1.81892 72 75 92
-6.51505 3.20911 -1.81706 71 74 91
-6.50066 3.23469 -1.81766 71 76 93
-6.49289 3.25304 -1.81889 69 75 94
-6.477 3.26635 -1.81704 69 75 93
-6.47233 3.28668 -1.81949 72 78 94
-6.46719 3.3182 -1.82377 69 77 90
-6.45435 3.33343 -1.82315 74 80 94
-6.43504 3.3445 -1.82008 76 80 94
-6.41681 3.36769 -1.81945 84 88 103
-6.38018 3.42602 -1.82066 67 68 86
-6.36069 3.43672 -1.81758 71 73 91
-5.81124 4.44239 -1.84309 77 87 99
-5.7815 4.44216 -1.83651 81 89 102
-5.7749 4.46453 -1.84009 80 88 101
-5.74767 4.48062 -1.83769 79 87 100
-5.32865 5.17124 -1.84607 78 85 101
-5.31157 5.18426 -1.84607 79 85 101
-4.86486 5.90562 -1.85318 97 99 112
-4.84851 5.92199 -1.85485 76 79 92
-4.62104 6.28021 -1.8569 80 83 98
-4.3691 6.64181 -1.85325 80 88 101
-4.17233 7.06356 -1.87256 86 89 104
-3.92537 7.49471 -1.8835 86 88 103
-3.89163 7.4781 -1.87659 85 88 103
-3.63553 8.01194 -1.89537 84 88 100
-3.21752 8.60145 -1.89521 83 89 101
-8.50745 0.252688 -1.81722 69 80 100
-7.64279 1.3731 -1.79676 113 111 119
-7.6339 1.39214 -1.79559 114 111 118
-7.24255 2.03005 -1.80698 75 86 101
-7.21418 2.05173 -1.80097 69 79 93
-7.2141 2.07287 -1.80336 77 80 93
-6.77239 2.71489 -1.80684 71 73 94
-6.76304 2.73203 -1.80684 75 78 98
-6.76551 2.7551 -1.81113 75 79 98
-6.74656 2.7782 -1.80927 72 77 96
-6.73701 2.79527 -1.80926 76 80 97
-6.72738 2.81232 -1.80925 71 76 95
-6.71157 2.83695 -1.80863 71 79 96
-6.70519 2.85568 -1.80985 66 75 92
-6.70545 2.87796 -1.81352 72 78 94
-6.69892 2.89669 -1.81474 74 80 96
-6.68106 2.92028 -1.8135 73 76 95
-6.66102 2.93173 -1.80981 72 76 95
-6.66598 2.95675 -1.81533 70 75 94
-6.65617 2.98475 -1.81716 70 77 95
-6.64761 3.00248 -1.81777 67 75 93
-6.63899 3.0202 -1.81837 69 76 94
-6.61019 3.06016 -1.81713 68 74 90
-6.59417 3.09633 -1.81895 68 77 90
-6.56553 3.15925 -1.822 75 74 90
-6.54379 3.2035 -1.82382 69 72 89
-6.41493 3.39005 -1.82313 74 79 95
-6.40661 3.40824 -1.82435 75 79 98
-6.36637 3.46436 -1.82433 75 82 98
-6.36564 3.4878 -1.82862 70 77 93
-6.33111 3.49988 -1.82186 67 74 90
-6.32083 3.51681 -1.82247 68 75 91
-6.30893 3.53263 -1.82246 69 76 94
-6.28986 3.55521 -1.82184 69 76 92
-6.27319 3.56764 -1.81999 64 73 88
-6.27661 3.59435 -1.82613 68 76 89
-6.26653 3.62343 -1.82919 71 77 93
-6.24661 3.63351 -1.82611 71 77 93
-6.22974 3.64575 -1.82426 72 74 89
-6.20826 3.65456 -1.82058 71 74 89
-6.20542 3.68909 -1.82671 78 81 98
-5.73145 4.49351 -1.83709 79 86 102
-5.71519 4.50635 -1.83649 80 87 105
-5.69183 4.52619 -1.83589 84 90 106
-5.69014 4.55389 -1.84187 81 87 103
-5.29565 5.19872 -1.84665 78 85 101
-5.27268 5.22108 -1.8478 81 89 102
-5.24361 5.21889 -1.84202 77 86 99
-4.82812 5.93177 -1.8543 72 73 92
-4.80772 5.94148 -1.85374 74 75 96
-4.59769 6.28588 -1.85528 79 85 97
-4.57524 6.29316 -1.8542 82 88 100
-4.34195 6.66729 -1.85641 84 86 100
-4.31858 6.67377 -1.85536 81 87 100
-4.14048 7.08308 -1.87409 90 93 108
-4.11966 7.0978 -1.87563 86 90 102
-3.87266 7.50133 -1.88055 86 90 102
-3.59494 8.01822 -1.89397 83 87 100
-3.19284 8.6212 -1.89837 83 87 99
-8.50935 0.21263 -1.81722 77 85 103
-7.64117 1.29974 -1.79102 117 115 125
-7.65498 1.32343 -1.79679 111 109 120
-7.64601 1.35285 -1.79619 113 113 121
-7.25891 1.91989 -1.79986 73 79 101
-7.26473 1.94279 -1.80403 70 79 97
-7.25781 1.96153 -1.80402 72 81 98
-7.25676 1.99265 -1.807 77 86 103
-7.2587 2.01445 -1.80998 72 80 99
-6.84802 2.57837 -1.80814 74 79 98
-6.84252 2.59734 -1.80936 72 77 98
-6.81805 2.60742 -1.80383 74 81 99
-6.81004 2.63577 -1.80565 71 77 92
-6.80777 2.65631 -1.8081 71 77 93
-6.8003 2.67439 -1.80871 74 77 96
-6.78764 2.68995 -1.80747 75 78 97
-6.19755 3.70798 -1.82854 79 85 101
-6.18051 3.72002 -1.8267 75 81 97
-6.15907 3.74081 -1.82546 83 90 104
-6.14647 3.75616 -1.82546 80 86 102
-6.12932 3.76799 -1.82361 76 82 98
-6.12118 3.79901 -1.8279 82 88 104
-6.1084 3.81424 -1.82789 86 89 106
-6.0926 3.82708 -1.82666 83 89 105
-6.08419 3.84576 -1.8285 82 89 105
-6.05776 3.8625 -1.82542 83 86 103
-6.04333 3.87635 -1.8248 82 88 104
-5.67105 4.56386 -1.84007 81 87 103
-5.64347 4.57937 -1.83768 77 84 100
-5.63356 4.5988 -1.84007 80 87 103
-5.61305 4.60717 -1.83767 83 90 106
-5.23346 5.24069 -1.84549 79 88 102
-5.22087 5.25947 -1.8478 77 84 100
-4.77598 5.95345 -1.85208 79 82 101
-4.76039 5.97124 -1.85431 81 87 103
-4.55735 6.30884 -1.85583 82 88 102
-4.52764 6.32632 -1.85638 84 87 102
-4.29926 6.6889 -1.85695 86 88 103
-4.09579 7.10535 -1.87513 86 90 102
-3.83846 7.51972 -1.88204 85 90 102
-3.5676 8.02231 -1.89304 82 85 100
-3.54082 8.02817 -1.89257 80 86 100
-3.16453 8.62572 -1.89793 85 87 100
-8.51992 0.159381 -1.81902 72 78 102
-8.52052 0.186164 -1.81948 74 82 103
-7.67908 1.25519 -1.79915 72 79 98
-7.302 1.86055 -1.80648 71 78 96
-7.28262 1.87534 -1.80228 68 76 95
-7.28201 1.90644 -1.80525 76 84 104
-6.91695 2.45989 -1.81128 121 123 135
-6.90142 2.47441 -1.80881 105 108 125
-6.88935 2.49039 -1.80757 53 58 77
-6.87664 2.53798 -1.81062 71 81 93
-6.85574 2.54991 -1.80631 73 81 95
-6.03621 3.89613 -1.82725 83 89 105
-6.02579 3.92579 -1.83093 82 88 104
-6.00675 3.93591 -1.82847 80 86 102
-5.99207 3.94959 -1.82785 80 86 102
-5.97258 3.97184 -1.82785 80 86 102
-5.95926 3.98663 -1.82784 82 88 104
-5.60958 4.63347 -1.84305 80 86 102
-5.57522 4.64167 -1.83766 77 83 100
-5.56763 4.66377 -1.84125 79 87 100
-5.55479 4.68027 -1.84245 77 85 98
-5.19289 5.27545 -1.84664 83 89 105
-5.17549 5.28806 -1.84664 82 88 104
-5.15806 5.30062 -1.84664 82 89 105
-4.73988 5.98074 -1.85375 83 89 105
-4.506 6.33507 -1.85584 83 89 101
-4.26451 6.69838 -1.85537 83 85 100
-4.24909 6.72211 -1.85959 82 85 101
-4.06072 7.11742 -1.87462 85 88 103
-3.80753 7.51003 -1.87711 83 89 101
-8.51944 0.119241 -1.81857 76 83 108
-7.70538 1.21842 -1.80438 71 77 97
-7.69131 1.23666 -1.80147 72 79 98
-7.74172 1.29891 -1.82051 79 79 95
-7.28334 1.76131 -1.79097 78 86 101
-7.26607 1.77677 -1.78737 68 77 92
-7.31433 1.81225 -1.80531 81 90 105
-7.29585 1.83772 -1.8023 71 78 96
-6.94921 2.30491 -1.79969 66 67 87
-6.94992 2.32616 -1.80275 101 100 116
-6.94038 2.37467 -1.80641 114 112 125
-6.93908 2.39526 -1.80885 112 114 124
-6.93246 2.41363 -1.80946 114 117 126
-6.91849 2.43929 -1.80883 115 116 126
-5.94879 4.00383 -1.82906 82 90 103
-5.92325 4.02095 -1.8266 84 90 106
-5.92275 4.04675 -1.83212 82 88 104
-5.90344 4.05641 -1.82966 81 87 103
-5.88555 4.06725 -1.82782 82 88 104
-5.87407 4.09655 -1.8315 80 87 103
-5.5345 4.70355 -1.84364 78 85 101
-5.52278 4.72138 -1.84543 81 84 103
-5.49695 4.72364 -1.84064 83 89 105
-5.13222 5.31935 -1.84664 78 84 100
-5.11353 5.33024 -1.84607 80 86 102
-4.7109 5.99734 -1.85375 84 90 106
-4.69127 6.00834 -1.85376 85 90 106
-4.67258 6.02094 -1.85431 82 89 105
-4.48702 6.34886 -1.85692 83 87 99
-4.45091 6.35409 -1.85368 82 88 102
-4.22161 6.71952 -1.85591 84 86 101
-4.19497 6.71859 -1.85275 86 88 103
-4.04046 7.1337 -1.87667 86 89 106
-4.01286 7.13206 -1.87361 84 90 102
-3.78378 7.52029 -1.87761 81 91 101
-3.76382 7.54144 -1.88107 81 89 100
-3.50078 8.03587 -1.89164 78 84 100
-3.47731 8.05271 -1.894 85 88 105
-3.12222 8.63138 -1.89705 83 86 99
-3.09516 8.64138 -1.89796 83 85 97
-7.69818 1.14425 -1.79749 70 79 94
-7.71069 1.16729 -1.80268 69 78 93
-7.69868 1.19631 -1.80092 72 79 98
-7.32544 1.68078 -1.79581 80 81 84
-7.30835 1.69652 -1.79221 69 70 81
-7.31429 1.73958 -1.79817 68 75 92
-7.00989 2.20396 -1.80466 117 96 76
-6.99508 2.22932 -1.80341 117 107 99
-6.98549 2.24641 -1.80279 69 67 72
-6.96434 2.2798 -1.80093 71 77 93
-6.9962 2.3663 -1.82177 118 115 129
-5.86035 4.11105 -1.83149 80 87 103
-5.84374 4.12297 -1.83026 82 89 105
-5.81921 4.14075 -1.82841 80 90 102
-5.8124 4.16146 -1.83148 81 89 102
-5.80269 4.17961 -1.83332 84 87 104
-5.48279 4.75379 -1.84483 79 87 100
-5.46072 4.76011 -1.84184 78 86 99
-5.45256 4.78205 -1.84542 75 83 98
-5.10509 5.35491 -1.85069 81 86 105
-5.07333 5.36569 -1.8478 82 89 105
-5.05115 5.37176 -1.84549 81 87 101
-4.64436 6.03891 -1.85487 81 91 103
-4.43624 6.37627 -1.85747 81 84 101
-4.41273 6.38131 -1.85585 77 80 95
-4.16799 6.74515 -1.85644 82 84 99
-3.98344 7.15807 -1.87719 82 90 101
-3.71864 7.52826 -1.87417 83 89 101
-3.44826 8.05082 -1.89166 83 84 99
-3.0668 8.6456 -1.89752 85 89 102
-7.7327 1.12945 -1.80675 72 80 97
-7.3312 1.61049 -1.79106 122 105 95
-7.3345 1.63194 -1.79404 121 104 93
-7.32122 1.64881 -1.79164 119 105 92
-7.03124 2.11885 -1.80041 121 100 86
-7.0273 2.13806 -1.80162 120 103 84
-7.0199 2.16622 -1.80284 120 99 78
-7.01582 2.18543 -1.80405 120 99 78
-5.77932 4.19844 -1.83208 78 85 101
-5.76667 4.21394 -1.8327 79 85 101
-5.75119 4.22682 -1.83208 81 86 105
-5.74401 4.24745 -1.83514 83 89 105
-5.71758 4.26337 -1.83268 85 91 107
-5.43422 4.79255 -1.84423 77 85 100
-5.41584 4.81822 -1.84662 82 86 105
-5.38995 4.81993 -1.84183 79 84 101
-5.37898 4.83888 -1.84422 78 85 101
-5.03457 5.38549 -1.84607 85 88 105
-5.01906 5.40072 -1.84722 82 86 102
-4.62271 6.04636 -1.85376 81 87 101
-4.59264 6.03867 -1.84764 82 86 100
-4.38091 6.39472 -1.85531 80 83 98
-4.14988 6.76339 -1.85908 81 83 98
-3.9544 7.15264 -1.87311 82 90 101
-3.69919 7.55108 -1.87812 85 92 105
-7.72827 1.05594 -1.80102 76 85 102
-7.74488 1.07945 -1.80736 71 79 98
-7.72367 1.09674 -1.80215 67 76 93
-7.35075 1.56461 -1.79289 117 99 85
-7.34686 1.58407 -1.79348 110 98 82
-7.06385 2.01757 -1.79801 69 77 96
-7.07817 2.04312 -1.80537 71 78 97
-7.04586 2.05225 -1.79676 74 79 98
-7.03857 2.07018 -1.79675 81 84 100
-5.71022 4.28395 -1.83575 82 88 104
-5.69455 4.29664 -1.83513 80 86 102
-5.67068 4.31492 -1.8339 81 84 101
-5.65763 4.33013 -1.83451 80 86 102
-5.35908 4.86291 -1.84601 79 86 102
-5.34179 4.87453 -1.84541 80 87 103
-4.99164 5.41727 -1.84664 80 86 100
-4.97712 5.43395 -1.84838 83 91 104
-4.57846 6.05937 -1.85098 82 85 100
-4.55188 6.08029 -1.85266 80 86 100
-4.36081 6.40645 -1.85586 86 89 104
-4.33811 6.41295 -1.85478 86 90 102
-4.1209 6.75689 -1.85435 79 85 98
-3.93608 7.17402 -1.87669 85 91 105
-3.67899 7.57202 -1.88158 84 90 102
-3.41357 8.07679 -1.89543 81 87 101
-3.38666 8.08216 -1.89497 81 87 101
-7.7302 1.02521 -1.79989 71 80 95
-7.34592 1.49204 -1.78515 71 75 94
-7.34227 1.51146 -1.78574 77 73 87
-7.09446 1.92617 -1.79683 80 87 105
-7.07911 1.95145 -1.79497 78 86 105
-7.08293 1.97314 -1.79865 75 83 101
-7.07051 1.98933 -1.7968 72 79 98
-7.13861 2.13734 -1.8348 128 112 106
-5.64726 4.34797 -1.83635 77 82 101
-5.62047 4.36333 -1.83389 82 88 104
-5.6167 4.38779 -1.8388 83 86 103
-5.59402 4.39345 -1.83511 83 86 103
-5.32813 4.89047 -1.84661 83 90 108
-5.30184 4.90699 -1.84541 82 88 102
-5.28929 4.92429 -1.8472 81 87 101
-4.95922 5.44591 -1.84838 84 92 103
-4.93051 5.4606 -1.84722 81 87 103
-4.91254 5.47242 -1.84722 82 89 103
-4.53017 6.08743 -1.85155 82 88 103
-4.51207 6.10125 -1.85266 84 90 104
-4.30615 6.42601 -1.85424 83 86 101
-4.09284 6.78141 -1.85751 84 87 102
-4.06922 6.78708 -1.85646 84 87 102
-3.89932 7.18175 -1.87517 82 92 104
-3.87871 7.1976 -1.87722 80 90 102
-3.63457 7.56019 -1.87517 83 85 100
-3.35496 8.0706 -1.89027 82 88 102
-7.75525 0.966826 -1.80397 73 81 99
-7.75515 0.987557 -1.80512 71 83 99
-7.75689 1.00859 -1.80684 69 78 93
-7.38468 1.43051 -1.79178 112 117 126
-7.4597 1.57254 -1.82642 117 98 87
-7.11823 1.82249 -1.79259 63 72 89
-7.11347 1.8412 -1.7932 74 83 100
-7.1141 1.86162 -1.79564 70 77 95
-7.10626 1.88939 -1.79624 72 75 94
-7.09948 1.90749 -1.79623 68 73 91
-5.58472 4.41251 -1.83757 84 87 104
-5.56037 4.43023 -1.83633 83 86 103
-5.55358 4.45194 -1.84001 79 82 99
-5.52947 4.45594 -1.83572 80 86 102
-5.27545 4.9401 -1.8484 79 85 101
-5.25431 4.94701 -1.84601 81 87 103
-5.22662 4.96168 -1.84421 79 85 101
-4.8956 5.48576 -1.8478 83 86 103
-4.86566 5.49855 -1.84607 84 87 106
-4.48343 6.11851 -1.85322 79 85 101
-4.28931 6.44443 -1.85695 82 85 100
-4.26569 6.44897 -1.85533 81 83 98
-4.04784 6.79798 -1.85699 79 85 101
-3.85459 7.20439 -1.87671 81 89 102
-3.61486 7.5828 -1.87913 83 89 105
-3.58544 7.57593 -1.87519 78 85 101
-3.33229 8.0908 -1.89357 81 87 101
-7.76425 0.916386 -1.80401 75 82 100
-7.7719 0.938184 -1.80747 74 81 100
-7.40241 1.36368 -1.79182 114 114 124
-7.397 1.39278 -1.7924 110 109 117
-7.39921 1.41364 -1.79479 109 109 119
-7.15759 1.78424 -1.80061 72 79 95
-7.13563 1.8077 -1.79629 72 81 98
-6.47603 2.8672 -1.81255 68 76 91
-6.47123 2.88634 -1.81444 72 77 96
-6.46306 2.90363 -1.81507 68 73 92
-6.4437 2.92531 -1.81316 70 76 94
-6.44857 2.95007 -1.81884 69 75 94
-6.43526 2.96447 -1.81757 71 76 95
-6.41401 2.98501 -1.81503 72 76 92
-6.39243 2.99447 -1.81059 68 72 89
-6.40185 3.02219 -1.81817 73 76 95
-6.36898 3.0357 -1.81121 68 73 92
-6.37168 3.05958 -1.81626 68 75 91
-6.33538 3.0599 -1.80614 69 75 91
-6.32827 3.07783 -1.8074 71 72 90
-6.31141 3.10071 -1.80675 69 72 89
-6.33633 3.13863 -1.82065 68 73 92
-6.30163 3.13949 -1.81116 64 71 87
-6.27969 3.1592 -1.80862 69 75 91
-6.26902 3.17498 -1.80862 67 72 88
-6.25831 3.19074 -1.80861 72 75 92
-6.26482 3.22875 -1.81745 71 72 93
-6.23329 3.23102 -1.80923 73 75 93
-6.21607 3.2425 -1.80669 74 77 94
-6.20513 3.2581 -1.80669 70 73 90
-6.19535 3.28564 -1.8092 67 74 92
-6.17957 3.298 -1.8073 69 75 91
-6.17317 3.31668 -1.80919 72 78 92
-6.1662 3.34629 -1.81298 72 74 89
-6.14559 3.35529 -1.80918 77 76 92
-6.13119 3.36851 -1.80791 74 74 92
-6.12545 3.39913 -1.81232 76 77 95
-6.10475 3.40789 -1.80852 67 69 84
-6.11339 3.43743 -1.81674 70 72 85
-6.0818 3.43839 -1.80851 81 83 96
-6.06796 3.46338 -1.80977 72 78 90
-6.05788 3.47965 -1.8104 68 71 86
-6.05539 3.50149 -1.81418 72 75 90
-6.01988 3.51063 -1.80659 71 74 91
-6.00659 3.52451 -1.80595 82 83 101
-5.99629 3.54061 -1.80658 70 73 89
-5.98646 3.56872 -1.80973 73 77 96
-5.96998 3.58018 -1.80783 65 68 87
-5.5089 4.47749 -1.83633 79 86 102
-5.49399 4.49089 -1.83632 81 87 101
-5.48557 4.51114 -1.83939 82 88 102
-5.21263 4.97732 -1.8454 79 84 103
-5.19739 4.99144 -1.846 77 84 100
-5.17189 5.0088 -1.8454 80 89 102
-4.84864 5.51176 -1.84665 84 89 106
-4.83156 5.52492 -1.84723 82 89 103
-4.46433 6.13051 -1.85378 81 86 100
-4.44249 6.13736 -1.85267 79 85 101
-4.24458 6.45862 -1.85534 83 86 101
-4.01725 6.81689 -1.85858 80 88 101
-3.9906 6.8152 -1.85542 79 87 100
-3.83455 7.22193 -1.87927 83 86 101
-3.2941 8.10503 -1.89453 83 88 102
-7.77287 0.865886 -1.80405 67 76 93
-7.76791 0.89619 -1.80403 68 75 92
-7.41058 1.32501 -1.79125 117 115 126
-7.41303 1.34582 -1.79363 105 104 116
-7.16105 1.71491 -1.79451 72 75 90
-7.15939 1.74445 -1.79694 73 76 95
-7.15125 1.76216 -1.79632 77 84 101
-6.59211 2.55471 -1.79626 74 81 97
-6.59293 2.58645 -1.8013 68 74 93
-6.59763 2.60988 -1.80635 66 70 89
-6.59208 2.6283 -1.80761 75 82 99
-6.58402 2.65593 -1.80949 72 80 93
-6.57661 2.67348 -1.81012 73 80 96
-6.55902 2.68582 -1.80695 70 77 93
-6.55319 2.70418 -1.8082 71 78 94
-6.54978 2.73433 -1.81198 71 78 96
-6.54212 2.75181 -1.81261 70 79 96
-6.53438 2.76926 -1.81323 70 77 95
-6.52392 2.79586 -1.81448 73 80 96
-6.50605 2.80787 -1.81131 71 78 94
-6.50813 2.83067 -1.81573 72 79 95
-6.50567 2.86177 -1.82015 73 79 95
-5.95799 3.59504 -1.80782 70 73 88
-5.97149 3.62954 -1.81856 68 74 90
-5.92824 3.63203 -1.80781 66 72 88
-5.93997 3.66547 -1.81792 68 74 88
-5.90986 3.66616 -1.81033 80 83 98
-5.9156 3.70706 -1.82044 78 81 96
-5.8899 3.71109 -1.81474 98 103 118
-5.46342 4.53112 -1.83939 82 88 104
-5.44704 4.543 -1.83877 83 86 103
-5.43192 4.55622 -1.83877 84 87 104
-5.41932 4.57219 -1.83999 82 88 104
-5.16243 5.0303 -1.84899 79 86 101
-5.13644 5.03076 -1.84421 80 85 101
-4.79937 5.5342 -1.84434 81 89 100
-4.78433 5.55041 -1.84607 81 88 104
-4.41365 6.15431 -1.85323 83 89 103
-4.21324 6.47299 -1.85534 82 85 102
-4.19694 6.49292 -1.8586 78 81 98
-3.97351 6.83655 -1.85912 80 87 103
-3.79492 7.22194 -1.8757 83 86 102
-3.55187 7.59676 -1.87766 81 89 102
-3.26764 8.11192 -1.89453 79 85 99
-7.78394 0.846639 -1.80637 66 74 93
-7.45032 1.2831 -1.80026 58 57 73
-7.4585 1.30519 -1.80444 123 122 130
-7.19478 1.65446 -1.79885 122 107 95
-7.18795 1.6825 -1.79944 119 112 107
-6.65798 2.41936 -1.7957 116 115 127
-6.65099 2.44708 -1.79758 128 130 142
-6.64425 2.46476 -1.7982 85 89 102
-6.62887 2.47841 -1.79567 49 54 69
-6.62205 2.49603 -1.79629 69 75 92
-5.88194 3.72928 -1.81663 87 91 106
-5.85779 3.74637 -1.8141 84 87 102
-5.85994 3.77291 -1.82041 88 90 105
-5.83421 3.77658 -1.81472 84 88 103
-5.82452 3.79346 -1.81598 77 83 99
-5.80739 3.8163 -1.81661 81 88 104
-5.79033 3.827 -1.81471 76 79 96
-5.3969 4.59188 -1.83999 80 87 103
-5.38673 4.61057 -1.84245 80 86 102
-5.36629 4.61797 -1.83999 83 89 105
-5.11545 5.05386 -1.846 80 88 101
-5.10458 5.07376 -1.84899 79 85 99
-5.07744 5.07243 -1.8436 81 87 101
-5.05726 5.08009 -1.84181 81 87 103
-4.76816 5.56499 -1.84723 80 88 103
-4.74463 5.56829 -1.84434 80 87 103
-4.39442 6.16611 -1.85379 84 89 101
-4.37425 6.17615 -1.85379 84 87 102
-4.17244 6.4954 -1.85643 77 83 99
-3.94907 6.84005 -1.85754 80 86 102
-3.77544 7.24113 -1.87877 87 90 105
-3.74853 7.24035 -1.87623 84 89 102
-3.53363 7.62471 -1.8831 82 88 102
-3.50713 7.62677 -1.88163 82 88 102
-3.24368 8.12813 -1.89689 79 85 100
-7.792 0.796006 -1.80641 71 83 97
-7.79306 0.827102 -1.80812 74 83 100
-7.45611 1.24378 -1.79909 69 81 98
-7.4458 1.26187 -1.79728 71 77 99
-7.21254 1.59929 -1.79888 116 103 93
-7.20485 1.6172 -1.79825 118 104 93
-7.20076 1.63609 -1.79886 121 105 90
-6.72177 2.33427 -1.8027 117 117 128
-6.71194 2.3506 -1.80206 114 114 122
-6.6659 2.38162 -1.79255 110 109 123
-6.66975 2.40399 -1.79697 110 108 122
-5.78624 3.84869 -1.81849 83 85 100
-5.76883 3.87137 -1.81912 82 88 100
-5.74734 3.8782 -1.81532 80 88 101
-5.74015 3.89736 -1.81785 80 85 104
-5.72677 3.9236 -1.82037 82 87 106
-5.70093 3.92644 -1.81468 83 90 106
-5.35 4.6445 -1.84305 80 87 103
-5.33203 4.65459 -1.84183 77 87 99
-5.32032 4.67173 -1.84367 80 90 102
-5.04626 5.1166 -1.84899 74 80 96
-4.72066 5.58998 -1.84608 80 88 103
-4.70433 5.60438 -1.84723 81 89 100
-4.35754 6.19296 -1.85602 85 88 103
-4.32414 6.20097 -1.8538 80 86 102
-4.14012 6.50769 -1.8559 78 84 98
-4.11801 6.51522 -1.85536 82 85 100
-3.91603 6.85318 -1.85755 81 87 101
-3.8937 6.86184 -1.85755 80 86 100
-3.71552 7.25806 -1.87777 84 90 104
-3.47606 7.61397 -1.8762 82 88 102
-3.20229 8.13067 -1.89502 81 84 99
-7.78898 0.754384 -1.80355 70 81 99
-7.80097 0.776403 -1.80816 64 76 92
-7.45793 1.1937 -1.79613 74 81 97
-7.46456 1.21524 -1.79971 68 77 92
-7.23403 1.53522 -1.79954 101 91 95
-7.26881 1.56423 -1.81304 125 108 99
-7.21899 1.57117 -1.79828 121 106 93
-6.74281 2.20037 -1.79076 122 99 82
-6.7474 2.22257 -1.79517 121 109 102
-6.74665 2.25269 -1.79895 73 76 86
-6.71609 2.26029 -1.79072 75 81 94
-6.72992 2.3071 -1.80145 71 76 92
-6.76971 2.39674 -1.82608 110 108 120
-6.35493 2.83376 -1.8007 74 78 97
-6.3342 2.918 -1.80967 72 75 94
-6.3 2.93026 -1.80194 72 78 97
-6.28509 2.94308 -1.8 68 75 93
-6.27667 2.95967 -1.80064 70 76 92
-6.27306 2.97914 -1.8032 68 74 90
-6.25008 2.99766 -1.79998 71 78 93
-6.2431 3.01515 -1.80126 69 77 90
-6.23766 3.0336 -1.80318 72 78 94
-6.23059 3.06178 -1.80639 74 81 97
-6.21374 3.07328 -1.80381 68 74 91
-6.20006 3.0867 -1.80251 70 75 94
-6.18469 3.10976 -1.8025 70 75 94
-6.20605 3.14536 -1.81536 67 70 87
-6.16827 3.14346 -1.80442 74 77 94
-6.18143 3.1741 -1.81406 76 77 97
-6.14346 3.18265 -1.80505 69 72 89
-6.12022 3.21201 -1.80439 73 80 96
-6.11057 3.23891 -1.80696 70 75 93
-6.10272 3.25614 -1.80824 73 77 95
-6.0692 3.28956 -1.80565 74 78 94
-6.04685 3.31952 -1.80564 72 75 92
-6.03873 3.33661 -1.80692 68 74 90
-6.01081 3.37381 -1.8069 72 76 91
-5.70346 3.95434 -1.82163 82 89 105
-5.68323 3.96208 -1.81846 81 87 103
-5.66387 3.98307 -1.81846 84 87 104
-5.64643 3.99319 -1.81656 80 87 105
-5.64015 4.01347 -1.81971 81 88 104
-5.61776 4.03169 -1.81844 80 86 102
-5.29868 4.69241 -1.84428 82 88 102
-5.28557 4.70805 -1.8455 78 86 99
-5.26371 4.7136 -1.84243 81 88 104
-5.02939 5.12873 -1.84899 81 87 103
-5.00001 5.12396 -1.84241 84 90 105
-4.98859 5.16036 -1.84959 79 86 102
-4.68384 5.61228 -1.84608 82 88 102
-4.65858 5.63211 -1.84724 82 88 102
-4.30044 6.20393 -1.85158 81 84 102
-4.09828 6.52793 -1.85645 80 86 100
-3.87276 6.87402 -1.85861 82 88 104
-3.6906 7.26252 -1.87675 83 89 103
-3.44164 7.63248 -1.87819 80 86 100
-3.17233 8.12408 -1.89174 80 86 100
-7.80202 0.704339 -1.80532 75 83 102
-7.80734 0.735809 -1.80819 70 79 98
-7.48429 1.12827 -1.79977 67 76 91
-7.48928 1.14941 -1.80275 70 77 94
-7.48113 1.17808 -1.80213 63 70 86
-7.25112 1.47002 -1.79896 73 80 96
-7.24385 1.48808 -1.79834 73 82 97
-7.23281 1.50518 -1.79648 75 82 100
-6.76711 2.13949 -1.79016 122 101 80
-6.77018 2.16092 -1.79394 123 104 85
-6.76273 2.18818 -1.79519 124 99 80
-6.48864 2.54955 -1.79247 70 75 94
-6.4917 2.57162 -1.79696 74 81 97
-6.48281 2.58786 -1.79695 71 81 93
-6.4654 2.59985 -1.79373 70 77 93
-6.4557 2.62578 -1.795 69 76 92
-6.44834 2.64277 -1.79564 80 87 105
-6.47454 2.67702 -1.80914 69 76 92
-6.45943 2.70043 -1.80849 70 79 96
-6.4451 2.71395 -1.80655 69 78 95
-6.43743 2.73094 -1.80718 76 83 101
-6.43375 2.76039 -1.81103 70 77 93
-6.42427 2.77647 -1.81102 71 78 94
-6.4114 2.79072 -1.80973 70 77 93
-6.40847 2.81035 -1.81229 73 80 96
-6.39936 2.83708 -1.81421 73 76 93
-6.37492 2.86623 -1.81227 69 73 92
-6.36223 2.89101 -1.8129 69 74 93
-6.3474 2.90406 -1.81096 70 73 92
-6.11676 3.28816 -1.81852 76 79 96
-6.09391 3.32917 -1.82044 66 72 88
-6.0392 3.37091 -1.81398 68 74 90
-6.03485 3.41386 -1.82169 76 79 96
-5.98723 3.41412 -1.80882 69 70 88
-5.97569 3.42887 -1.80881 75 77 94
-5.98246 3.45696 -1.81653 68 74 88
-5.9486 3.46673 -1.80944 74 82 95
-5.95513 3.49488 -1.81716 72 78 90
-5.92516 3.49597 -1.80943 69 78 90
-5.92849 3.5219 -1.81586 68 74 90
-5.8841 3.54682 -1.80941 66 73 89
-5.60575 4.04678 -1.81907 82 87 106
-5.59231 4.06054 -1.81907 83 89 105
-5.578 4.08632 -1.82159 81 88 104
-5.57131 4.10652 -1.82475 81 88 104
-5.54808 4.11102 -1.82032 79 85 101
-5.24432 4.73692 -1.84427 80 87 100
-5.23228 4.75387 -1.84611 80 87 103
-4.96597 5.16461 -1.84659 78 86 99
-4.95233 5.18113 -1.84839 80 87 103
-4.63702 5.63823 -1.8455 85 91 104
-4.61847 5.64916 -1.84551 82 89 108
-4.28271 6.21883 -1.85325 77 83 99
-4.25431 6.2368 -1.85437 83 89 103
-4.06975 6.54865 -1.85862 83 89 103
-3.83607 6.87783 -1.85598 81 87 101
-3.67211 7.2851 -1.88084 84 90 104
-3.41796 7.64351 -1.87918 80 87 100
-3.14726 8.13626 -1.89316 77 85 96
-7.80414 0.663377 -1.8042 72 80 99
-7.81073 0.684633 -1.80707 70 78 97
-7.4889 1.07885 -1.79801 71 79 97
-7.4867 1.10857 -1.79919 67 74 90
-7.26565 1.40425 -1.79778 107 106 114
-7.26781 1.42456 -1.80022 107 110 118
-7.25141 1.44045 -1.79653 74 80 94
-6.83502 2.02495 -1.79655 76 84 102
-6.83891 2.0564 -1.8016 74 81 98
-6.82635 2.07182 -1.79969 66 67 75
-6.83148 2.09396 -1.8041 108 97 97
-6.82589 2.11205 -1.80473 122 105 96
-6.56713 2.46443 -1.80281 121 124 136
-6.56028 2.48169 -1.80345 55 58 74
-6.55629 2.5104 -1.80665 70 75 95
-6.54225 2.54488 -1.80792 67 74 92
-5.9186 3.54947 -1.81907 73 77 94
-5.89164 3.57624 -1.81777 65 72 88
-5.87845 3.60141 -1.81969 67 74 90
-5.83651 3.59258 -1.80682 69 76 92
-5.82739 3.60922 -1.80811 61 70 85
-5.83623 3.65177 -1.81968 68 75 91
-5.79735 3.64485 -1.80809 67 74 90
-5.77719 3.67676 -1.81002 74 80 96
-5.53758 4.1406 -1.82474 81 88 104
-5.51976 4.15021 -1.82284 80 86 102
-5.50463 4.16239 -1.82221 82 85 104
-5.48678 4.17187 -1.82031 79 86 102
-5.21894 4.76935 -1.84734 79 86 104
-5.19455 4.7717 -1.84304 82 87 106
-5.18211 4.80353 -1.84856 83 88 107
-4.93267 5.20662 -1.85138 78 87 102
-4.91441 5.21685 -1.85078 85 92 108
-4.89393 5.22391 -1.84899 82 90 103
-4.59601 5.6736 -1.8484 77 83 102
-4.57536 5.68114 -1.84724 83 88 103
-4.23476 6.24814 -1.85493 84 87 106
-4.04676 6.55419 -1.85754 81 87 101
-4.02454 6.56143 -1.857 82 88 102
-3.81506 6.88985 -1.85704 81 89 102
-3.79469 6.9036 -1.85863 80 87 103
-3.63183 7.28244 -1.87677 84 90 102
-3.38818 7.63407 -1.87475 77 85 98
-3.10876 8.14967 -1.89411 79 85 99
-7.82029 0.613507 -1.80713 80 88 107
-7.8099 0.633117 -1.8048 68 76 95
-7.50841 1.04206 -1.80163 69 78 95
-7.51558 1.06346 -1.80521 74 82 100
-7.28131 1.3388 -1.79721 112 113 118
-7.27627 1.35739 -1.7972 112 112 120
-7.2764 1.38697 -1.79963 110 109 118
-6.85804 1.99328 -1.79974 66 73 91
-6.8688 2.01729 -1.80605 74 82 100
-6.88755 2.16648 -1.83063 122 99 80
-6.6294 2.33036 -1.8016 116 116 127
-6.60939 2.37192 -1.80158 116 116 123
-6.60112 2.3885 -1.80157 118 116 127
-6.60315 2.40973 -1.80542 116 114 127
-6.581 2.42003 -1.80026 118 116 129
-6.58078 2.45032 -1.80475 118 119 129
-5.81163 3.68036 -1.81967 71 77 93
-5.7781 3.71348 -1.81837 57 62 77
-5.76417 3.72642 -1.81772 60 63 80
-5.75749 3.74533 -1.82029 66 69 88
-5.73612 3.76401 -1.819 81 87 103
-5.72348 3.77802 -1.81899 89 95 111
-5.46643 4.19197 -1.8203 81 87 103
-5.45655 4.20933 -1.82219 79 85 101
-5.44262 4.22264 -1.82219 79 84 103
-5.42204 4.24254 -1.82219 79 86 102
-5.1601 4.80863 -1.84549 78 84 102
-5.15018 4.82834 -1.84856 79 85 101
-5.12893 4.84976 -1.84979 82 89 105
-4.86852 5.24139 -1.84899 80 86 102
-4.8469 5.24673 -1.84659 81 87 103
-4.55569 5.69024 -1.84667 81 86 102
-4.53699 5.70092 -1.84667 81 84 102
-4.21766 6.2646 -1.85716 81 87 103
-4.18406 6.2719 -1.85494 79 85 97
-4.00536 6.57564 -1.85863 81 87 101
-3.6075 7.28845 -1.87626 84 88 102
-3.58439 7.29804 -1.87678 86 90 104
-3.35682 7.66335 -1.87969 82 87 103
-3.07888 8.14276 -1.89082 79 85 101
-7.8249 0.593336 -1.80772 70 78 97
-7.51611 0.993168 -1.80107 70 77 95
-7.5162 1.02327 -1.80284 71 80 95
-7.29372 1.32182 -1.79968 115 115 118
-6.87202 1.83943 -1.78591 72 78 95
-6.88881 1.86485 -1.79412 74 79 96
-6.90011 1.88855 -1.80043 72 78 94
-6.87906 1.90121 -1.79536 69 76 92
-6.89616 1.93693 -1.80483 73 80 98
-6.88214 1.952 -1.80229 73 80 98
-6.87881 1.97084 -1.80354 69 76 94
-6.67602 2.19002 -1.79588 120 101 85
-6.67007 2.2075 -1.79652 123 103 88
-6.65708 2.2221 -1.79458 114 106 95
-6.65275 2.25008 -1.79714 72 72 87
-6.6466 2.26752 -1.79777 74 77 99
-6.64096 2.31519 -1.80289 66 71 89
-6.70094 2.38193 -1.83118 115 115 123
-5.71513 3.79565 -1.82092 80 86 102
-5.695 3.81533 -1.82027 83 91 104
-5.67933 3.82675 -1.81898 82 90 103
-5.66936 3.84307 -1.82026 80 87 103
-5.65649 3.85688 -1.82026 83 89 105
-5.6389 3.87877 -1.8209 77 84 100
-5.41595 4.26387 -1.82598 77 83 97
-5.39522 4.27028 -1.82281 78 84 100
-5.38099 4.29677 -1.82597 81 89 102
-5.36151 4.3044 -1.82344 80 88 101
-5.10805 4.85612 -1.84733 78 88 100
-5.09196 4.86832 -1.84733 81 88 104
-5.06693 4.88505 -1.84671 83 86 103
-4.82963 5.25825 -1.84659 85 91 107
-4.8134 5.2713 -1.84719 80 86 102
-4.51318 5.72342 -1.84898 75 78 95
-4.16602 6.2865 -1.85661 81 87 99
-3.97347 6.58892 -1.85864 81 87 101
-3.76406 6.92323 -1.86074 82 88 104
-3.73949 6.92603 -1.85917 86 89 104
-3.55877 7.30025 -1.87525 82 90 103
-3.32495 7.64625 -1.87328 83 84 102
-3.0574 8.1698 -1.89601 79 85 99
-7.81953 0.541539 -1.80429 69 80 99
-7.81698 0.561859 -1.80427 72 83 101
-7.52382 0.954273 -1.80109 65 76 96
-7.51434 0.972811 -1.79928 66 73 92
-7.29092 1.22319 -1.79114 70 78 91
-7.2973 1.2538 -1.79542 71 76 95
-7.28509 1.27087 -1.79295 66 67 86
-7.33969 1.3022 -1.8126 117 116 123
-6.89234 1.77739 -1.78532 66 73 89
-6.88957 1.79614 -1.78657 69 76 92
-6.88855 1.81549 -1.78846 74 81 99
-6.70213 2.13114 -1.79592 121 103 86
-6.6911 2.14659 -1.79462 122 99 74
-6.68015 2.17181 -1.79461 128 110 92
-5.62874 3.895 -1.82218 81 87 103
-5.61571 3.90869 -1.82217 81 88 104
-5.59505 3.92789 -1.82153 81 87 103
-5.5805 3.94021 -1.82088 85 88 107
-5.56872 3.95503 -1.82152 84 87 104
-5.54649 3.97272 -1.82023 84 87 104
-5.3512 4.32154 -1.82533 80 86 102
-5.33821 4.33591 -1.82596 81 87 103
-5.31578 4.35396 -1.82533 81 89 102
-5.04955 4.89564 -1.8461 80 83 100
-5.03919 4.91514 -1.84917 78 85 101
-4.78454 5.28368 -1.8454 79 85 103
-4.76716 5.29502 -1.8454 77 84 100
-4.48854 5.72409 -1.84552 73 80 97
-4.46586 5.72796 -1.84321 81 88 104
-4.14547 6.29584 -1.85661 82 86 98
-4.12168 6.29816 -1.85439 81 87 101
-3.95116 6.59592 -1.8581 84 90 104
-3.92957 6.60462 -1.85811 86 88 101
-3.71894 6.93958 -1.86076 82 85 100
-3.52657 7.32081 -1.87781 83 89 103
-3.30597 7.67367 -1.87872 79 83 98
-7.83205 0.501443 -1.80663 69 81 98
-7.82583 0.521505 -1.80546 69 78 99
-7.53835 0.906451 -1.80292 74 83 100
-7.5215 0.923915 -1.79872 71 80 97
-7.3206 1.18995 -1.79793 68 77 94
-7.30112 1.20568 -1.793 73 82 99
-6.90941 1.73394 -1.78598 70 74 93
-6.90318 1.75157 -1.78596 65 73 89
-6.75772 2.01457 -1.79792 73 81 97
-6.7488 2.03092 -1.79726 72 80 96
-6.74194 2.05772 -1.79853 74 82 100
-6.73113 2.07334 -1.79724 71 71 83
-6.72909 2.09231 -1.79916 116 105 104
-6.79242 2.14647 -1.82617 120 101 85
-5.53597 3.98873 -1.82151 83 86 101
-5.52264 4.00215 -1.82151 81 89 102
-5.51616 4.02198 -1.82472 82 88 102
-5.49226 4.0381 -1.82278 81 84 103
-5.30656 4.37239 -1.82785 79 87 100
-5.28566 4.37831 -1.82469 81 87 103
-5.26818 4.40168 -1.82658 80 84 103
-5.25237 4.41303 -1.82595 81 84 101
-5.02172 4.92564 -1.84855 81 89 104
-4.9976 4.94354 -1.84855 79 85 101
-4.98007 4.95391 -1.84794 77 83 99
-4.75397 5.31263 -1.84779 84 91 107
-4.7313 5.33424 -1.84959 80 86 102
-4.44857 5.76177 -1.84957 85 91 106
-4.41915 5.75388 -1.84321 102 106 121
-4.09121 6.31195 -1.8544 83 86 101
-3.89531 6.61223 -1.85649 83 87 99
-3.69435 6.94222 -1.85918 83 86 101
-3.50275 7.32833 -1.87782 82 90 103
-3.26639 7.6747 -1.87626 78 86 99
-3.01507 8.16766 -1.8932 83 87 99
-2.98885 8.17559 -1.89368 83 86 101
-7.83132 0.470637 -1.8055 72 84 100
-7.53933 0.856597 -1.80057 72 81 98
-7.53255 0.885555 -1.79994 64 76 92
-7.31083 1.13928 -1.7912 69 76 94
-7.31207 1.16872 -1.79364 74 81 99
-6.93454 1.65386 -1.78539 120 107 99
-6.94308 1.67594 -1.79044 117 106 102
-6.92795 1.6909 -1.78727 65 63 70
-6.79081 1.95803 -1.80117 75 82 99
-6.77007 1.97985 -1.79729 79 88 105
-6.77192 2.00012 -1.8005 71 80 97
-6.29633 2.53131 -1.77811 71 80 95
-6.22356 2.77774 -1.79907 71 77 93
-6.22058 2.79693 -1.8017 70 77 93
-6.211 2.81235 -1.80169 72 79 95
-6.18882 2.83067 -1.79839 72 80 93
-6.17294 2.89487 -1.8056 70 73 92
-6.16144 2.90917 -1.80494 70 77 95
-6.15474 2.92638 -1.80625 68 75 91
-6.13374 2.94526 -1.8036 68 75 91
-6.1237 2.96043 -1.8036 67 74 90
-6.10401 2.96957 -1.79964 68 77 92
-6.10508 2.99167 -1.80424 67 74 92
-6.10452 3.02339 -1.81016 70 76 92
-6.07834 3.02831 -1.80357 66 72 88
-6.03951 3.02493 -1.79171 69 75 91
-6.07031 3.07707 -1.81079 72 78 92
-6.02041 3.06621 -1.79433 71 77 91
-6.01158 3.08208 -1.79498 79 85 99
-6.00255 3.10845 -1.7976 67 73 89
-5.992 3.12322 -1.7976 67 71 90
-5.97673 3.1348 -1.79562 68 69 89
-5.99572 3.16965 -1.80812 69 70 88
-5.96609 3.20434 -1.80679 72 75 89
-5.86556 3.28866 -1.79621 68 74 90
-5.86054 3.30747 -1.79884 66 73 89
-5.47878 4.05138 -1.82278 80 85 104
-5.46797 4.06724 -1.82406 80 85 104
-5.44798 4.08704 -1.82406 80 85 104
-5.43705 4.10283 -1.82534 82 88 104
-5.24033 4.42854 -1.82721 80 86 102
-5.21877 4.44752 -1.82721 78 85 101
-5.20914 4.46577 -1.82974 81 89 102
-4.96595 4.96875 -1.84917 80 86 102
-4.94049 4.98488 -1.84855 79 84 103
-4.71166 5.34224 -1.84839 82 85 102
-4.69408 5.35335 -1.84839 83 89 105
-4.40405 5.77079 -1.84553 104 110 121
-4.07376 6.32805 -1.85663 82 85 102
-4.04916 6.32837 -1.85385 81 86 102
-3.87515 6.62432 -1.85757 80 86 100
-3.66017 6.95237 -1.85866 80 86 100
-3.63754 6.96026 -1.85867 79 86 102
-3.47889 7.33578 -1.87783 83 91 104
-3.23888 7.67216 -1.8738 82 88 102
-2.95997 8.17207 -1.89133 82 85 100
-7.84531 0.430518 -1.80842 70 79 99
-7.84121 0.450783 -1.80783 68 79 96
-7.54429 0.817327 -1.79999 73 80 98
-7.53523 0.836043 -1.79818 68 75 94
-7.34379 1.10632 -1.79921 79 85 103
-7.32267 1.12198 -1.79367 69 76 94
-6.96949 1.5766 -1.78861 118 103 93
-6.96558 1.59492 -1.78923 116 104 91
-6.94702 1.60901 -1.78479 118 101 91
-6.95137 1.63937 -1.7892 117 105 93
-6.7888 1.82173 -1.78387 72 80 95
-6.81522 1.85938 -1.79672 69 77 93
-6.80857 1.87656 -1.79671 68 76 92
-6.80364 1.89433 -1.79735 69 77 94
-6.78851 1.91817 -1.7954 66 73 91
-6.79595 1.94028 -1.80054 75 82 99
-6.35649 2.49158 -1.78999 71 78 96
-6.32712 2.50678 -1.78339 72 78 96
-6.32209 2.57477 -1.79324 70 77 93
-6.32991 2.59924 -1.79982 77 83 99
-6.31263 2.61058 -1.79652 74 80 98
-6.30696 2.62804 -1.79783 68 75 92
-6.29212 2.65064 -1.79716 68 76 91
-6.28301 2.66628 -1.79715 72 79 95
-6.27715 2.68369 -1.79846 76 82 99
-6.26535 2.70797 -1.7991 70 77 95
-6.26596 2.72902 -1.80305 71 78 96
-6.25495 2.74366 -1.80238 71 77 95
-6.25434 2.77437 -1.80764 72 79 97
-6.20352 2.86037 -1.80826 73 79 95
-6.19699 2.87767 -1.80957 73 78 96
-5.98621 3.19605 -1.81075 72 75 91
-5.96607 3.22656 -1.81139 76 79 91
-5.94545 3.2453 -1.80941 71 74 91
-5.9314 3.25773 -1.80809 70 76 92
-5.91731 3.27011 -1.80676 66 73 89
-5.91489 3.3018 -1.81268 68 74 90
-5.85088 3.32294 -1.7995 66 72 88
-5.82991 3.34104 -1.79751 71 74 91
-5.85189 3.38012 -1.81199 69 75 89
-5.83295 3.38879 -1.80869 66 72 86
-5.8132 3.40791 -1.80737 70 71 89
-5.8122 3.43014 -1.81197 70 72 87
-5.73653 3.47518 -1.80142 73 76 92
-5.71449 3.48098 -1.7968 72 75 90
-5.422 4.11462 -1.8247 79 86 102
-5.40851 4.14086 -1.82791 84 90 104
-5.38666 4.1459 -1.82405 84 87 102
-5.3688 4.15485 -1.82211 82 85 102
-5.35761 4.17045 -1.8234 80 85 104
-5.19691 4.48118 -1.831 80 86 101
-5.18337 4.49513 -1.83163 82 88 104
-5.15902 4.511 -1.83036 81 89 102
-4.9274 5.00114 -1.85039 79 85 101
-4.9131 5.01585 -1.85162 79 86 102
-4.66287 5.36193 -1.8454 80 90 102
-4.64216 5.36809 -1.84361 81 89 102
-4.37977 5.79277 -1.84784 110 115 126
-4.35325 5.78957 -1.84322 105 109 120
-4.02244 6.35058 -1.85664 81 86 100
-3.85201 6.62923 -1.8565 80 86 100
-3.61423 6.96627 -1.85815 79 87 101
-3.44347 7.34681 -1.87784 80 87 100
-3.2196 7.69939 -1.87924 79 85 99
-2.93634 8.19123 -1.89464 81 84 101
-7.84247 0.379103 -1.80615 71 82 103
-7.83089 0.398929 -1.80324 70 81 102
-7.55209 0.76853 -1.80003 65 73 93
-7.5533 0.798568 -1.80181 68 75 93
-7.34679 1.03865 -1.79558 66 78 92
-7.35016 1.05871 -1.79802 68 78 90
-7.33665 1.07584 -1.79493 68 76 89
-6.96309 1.5265 -1.78168 104 96 97
-6.81355 1.74348 -1.78263 69 76 89
-6.81711 1.77324 -1.78712 70 78 91
-6.80172 1.7875 -1.78389 68 75 91
-6.80428 1.80756 -1.7871 78 84 100
-6.43475 2.28097 -1.78088 71 76 95
-6.43571 2.33051 -1.78876 115 114 127
-6.40409 2.38495 -1.78741 110 109 121
-6.4043 2.40497 -1.79069 112 111 122
-6.40444 2.42503 -1.79398 113 113 123
-6.40791 2.44676 -1.79858 118 120 132
-6.39219 2.46904 -1.79725 81 86 104
-6.38195 2.48413 -1.79658 59 68 84
-5.81261 3.45355 -1.81724 65 68 83
-5.77768 3.46098 -1.80933 86 91 106
-5.77048 3.47858 -1.8113 71 72 92
-5.70909 3.51126 -1.80206 69 75 88
-5.69433 3.5228 -1.80074 70 77 93
-5.67956 3.53428 -1.79942 74 77 94
-5.66505 3.55738 -1.80073 71 72 90
-5.67203 3.58672 -1.80928 67 70 87
-5.63965 3.58369 -1.80006 78 82 98
-5.3398 4.19245 -1.82468 79 88 103
-5.32848 4.20797 -1.82596 82 90 103
-5.31972 4.22619 -1.82853 82 88 102
-5.14164 4.52056 -1.8291 81 89 102
-5.13538 4.54297 -1.83352 81 86 105
-5.10591 4.55283 -1.82972 80 87 103
-4.88178 5.02409 -1.84794 80 88 101
-4.86515 5.03561 -1.84794 79 87 100
-4.8507 5.05016 -1.84917 80 87 103
-4.62655 5.38221 -1.84481 83 84 102
-4.60783 5.39146 -1.84421 84 87 104
-4.33889 5.808 -1.84611 106 109 118
-4.31981 5.81803 -1.84611 104 104 114
-3.9986 6.35247 -1.85441 83 87 100
-3.82203 6.64716 -1.85813 78 84 98
-3.80315 6.66261 -1.8603 78 87 99
-3.58185 6.9815 -1.85921 78 85 101
-3.42072 7.35776 -1.87886 77 85 98
-3.1785 7.69438 -1.8753 84 88 105
-7.82342 0.357638 -1.7998 61 72 92
-7.5603 0.729686 -1.80066 69 79 98
-7.55906 0.74947 -1.80124 69 80 97
-7.36199 0.99259 -1.79745 75 82 98
-7.34117 1.00862 -1.79191 69 78 93
-6.98923 1.48541 -1.78614 78 84 102
-6.98691 1.51367 -1.78802 74 75 90
-7.07443 1.57678 -1.82214 118 97 87
-6.85047 1.73585 -1.79358 67 74 88
-6.48597 2.23527 -1.79013 70 73 79
-6.4678 2.24688 -1.78617 74 79 93
-6.44953 2.26799 -1.78352 71 78 97
-6.46453 2.31422 -1.79536 76 78 93
-6.45666 2.36008 -1.79994 111 110 120
-5.6408 3.61994 -1.80861 72 73 91
-5.62865 3.63364 -1.80861 71 74 91
-5.60495 3.63756 -1.80334 63 66 83
-5.59561 3.6536 -1.80465 82 83 101
-5.57618 3.6727 -1.80399 82 84 99
-5.56673 3.68868 -1.8053 80 83 98
-5.2898 4.2358 -1.82403 77 84 100
-5.28092 4.25393 -1.8266 84 91 107
-5.26935 4.26932 -1.82788 78 85 101
-5.09089 4.56509 -1.82972 79 85 101
-5.08682 4.59034 -1.83541 80 86 102
-4.83397 5.06159 -1.84917 80 85 103
-4.81367 5.08482 -1.85162 83 86 105
-4.57859 5.4028 -1.84242 81 87 103
-4.56284 5.41674 -1.84361 82 88 102
-4.28971 5.8296 -1.84496 100 101 113
-3.97864 6.36306 -1.85497 79 84 98
-3.77993 6.66729 -1.85922 79 85 99
-3.56101 6.99462 -1.86079 77 85 99
-3.39735 7.36679 -1.87938 82 86 101
-3.15649 7.71212 -1.87827 79 84 100
-2.89535 8.1942 -1.89324 81 89 102
-7.84103 0.307419 -1.80389 70 81 101
-7.8354 0.327606 -1.80272 67 78 100
-7.56067 0.699911 -1.79948 71 80 97
-7.36222 0.953771 -1.79502 68 75 93
-7.35839 0.972578 -1.79501 70 77 95
-7.00533 1.40303 -1.78366 107 107 115
-7.0071 1.43223 -1.7868 109 114 127
-7.01466 1.45346 -1.79122 59 70 86
-6.87581 1.65738 -1.79299 118 101 90
-6.87703 1.67689 -1.79555 126 113 108
-6.8619 1.6915 -1.79232 68 66 69
-6.52242 2.14362 -1.7882 124 102 86
-6.50622 2.15625 -1.7849 126 107 86
-6.51252 2.17841 -1.79016 124 103 88
-6.50491 2.20431 -1.79146 119 100 85
-6.49201 2.2183 -1.78948 119 107 98
-6.50137 2.40103 -1.82035 115 115 123
-5.57711 3.72197 -1.81583 72 78 92
-5.55171 3.736 -1.81253 70 73 88
-5.53497 3.74569 -1.81055 82 85 100
-5.53087 3.7666 -1.8145 84 87 104
-5.48429 3.78605 -1.80725 83 84 102
-5.24582 4.28548 -1.82659 78 87 102
-5.23284 4.29941 -1.82723 80 87 103
-5.22239 4.31607 -1.82916 82 88 104
-5.06452 4.60863 -1.83541 79 85 101
-5.05174 4.62368 -1.83667 83 88 102
-5.0365 4.63577 -1.83667 84 85 103
-5.01642 4.64196 -1.83414 81 84 102
-4.79683 5.09614 -1.85162 80 85 104
-4.77666 5.10276 -1.84978 80 86 102
