-5.78905 -6.03767 -1.68733 133 125 132
-8.19386 -4.19912 -1.88066 73 82 97
-8.21827 -4.18011 -1.8837 74 83 98
-8.23359 -4.14022 -1.88281 73 82 97
-8.24052 -4.11211 -1.88149 76 84 97
-8.27167 -4.09635 -1.88628 76 84 97
-8.27437 -4.05012 -1.88233 75 82 98
-9.06503 -3.08171 -1.8983 79 83 94
-9.05718 -3.04785 -1.89448 81 85 94
-9.07143 -3.02147 -1.89573 80 83 92
-9.64857 -2.14952 -1.88717 83 92 107
-9.64872 -2.11808 -1.88594 82 91 106
-10.2125 -1.40148 -1.89434 75 88 112
-10.2181 -1.35342 -1.89432 74 89 112
-11.0411 -0.00118797 -1.8734 87 99 123
-3.38545 -8.6204 -1.59118 152 138 129
-3.41183 -8.61055 -1.59118 144 131 122
-3.88438 -8.0535 -1.60926 134 131 138
-3.90807 -8.04028 -1.60886 133 129 136
-4.38242 -7.52262 -1.63152 133 128 135
-4.42178 -7.51162 -1.63355 129 124 130
-4.93288 -6.91177 -1.6546 116 101 96
-4.96928 -6.91947 -1.6605 137 123 112
-4.98459 -6.89652 -1.65839 137 124 115
-5.5912 -6.17591 -1.67996 137 131 135
-5.62586 -6.15794 -1.68214 142 133 138
-5.64695 -6.14389 -1.683 139 129 137
-5.66927 -6.13123 -1.6843 137 127 135
-5.6851 -6.11119 -1.68342 138 129 136
-8.29669 -4.02975 -1.88494 74 84 96
-8.30148 -4.00065 -1.88317 73 83 93
-8.31064 -3.95785 -1.88097 76 84 96
-8.32922 -3.93555 -1.8827 77 83 95
-8.3372 -3.9081 -1.88181 76 82 94
-8.34859 -3.88231 -1.8818 78 85 95
-9.1033 -2.98512 -1.89993 80 83 90
-9.07463 -2.94469 -1.89148 81 85 94
-9.10718 -2.92415 -1.89694 78 82 91
-9.12293 -2.89812 -1.89861 80 82 93
-9.69789 -2.0816 -1.89444 76 85 102
-9.69782 -2.05005 -1.8932 82 91 108
-9.7206 -2.02338 -1.89683 78 89 107
-10.2234 -1.32161 -1.89468 77 89 113
-10.2267 -1.28953 -1.89466 77 89 111
-3.35708 -8.62461 -1.59007 162 148 137
-3.86146 -8.06844 -1.61004 136 133 142
-4.34128 -7.55706 -1.63356 139 132 139
-4.35955 -7.53556 -1.63153 139 132 139
-4.87685 -6.94363 -1.65335 107 94 86
-4.9011 -6.93386 -1.65461 121 108 102
-5.47525 -6.25261 -1.67562 138 131 138
-5.49783 -6.2406 -1.67692 139 129 137
-5.51785 -6.22552 -1.67735 139 130 137
-5.55391 -6.20946 -1.67997 136 130 134
-5.57005 -6.18976 -1.67909 137 131 135
-8.37301 -3.84687 -1.88353 76 82 94
-8.37539 -3.81684 -1.88133 75 81 93
-8.39711 -3.79583 -1.88393 75 81 95
-8.40344 -3.75197 -1.8813 77 84 94
-8.425 -3.73079 -1.8839 77 84 94
-9.13005 -2.85368 -1.89733 79 83 94
-9.12506 -2.82118 -1.89436 79 83 94
-9.7292 -1.97778 -1.89681 78 91 108
-9.68663 -1.93758 -1.88665 80 91 111
-10.2221 -1.2565 -1.89308 76 91 114
-10.2271 -1.20838 -1.89306 82 96 122
-3.31704 -8.6391 -1.59006 162 147 131
-3.79713 -8.09114 -1.60887 131 127 141
-3.81617 -8.06744 -1.60613 133 130 141
-4.27056 -7.56472 -1.62788 141 134 141
-4.29996 -7.56415 -1.63072 139 129 138
-4.80059 -6.99103 -1.65251 126 113 105
-4.83373 -6.97106 -1.65293 128 115 107
-4.86129 -6.96631 -1.65546 133 121 109
-5.3773 -6.3109 -1.67128 137 128 133
-5.39382 -6.2917 -1.6704 136 130 134
-5.42142 -6.28603 -1.67345 138 132 136
-5.44033 -6.26971 -1.67344 140 134 138
-8.40919 -3.69272 -1.87733 78 85 95
-8.4484 -3.67939 -1.8843 78 82 93
-8.4541 -3.63542 -1.88167 79 81 94
-8.45928 -3.6069 -1.88034 79 81 95
-8.48405 -3.58689 -1.88382 75 81 93
-9.16211 -2.75502 -1.89811 77 82 92
-9.15114 -2.72088 -1.89388 77 84 94
-9.1588 -2.69232 -1.89386 76 82 94
-9.69759 -1.90844 -1.88785 81 92 111
-9.70847 -1.87925 -1.88904 80 91 109
-10.2125 -1.17431 -1.88953 81 96 119
-10.227 -1.14353 -1.89185 78 92 115
-3.74387 -8.10424 -1.60692 134 130 141
-3.77405 -8.10581 -1.60965 135 132 143
-4.21259 -7.59604 -1.62788 138 133 139
-4.24575 -7.57383 -1.62707 141 134 142
-4.75719 -7.01794 -1.6521 134 124 122
-4.77624 -7.00043 -1.65125 130 117 112
-5.30517 -6.3609 -1.66955 139 133 136
-5.32917 -6.35106 -1.67129 144 138 141
-5.3483 -6.33504 -1.67128 139 133 137
-8.50001 -3.54745 -1.8838 77 84 94
-8.51925 -3.52492 -1.88597 76 83 93
-8.51329 -3.49173 -1.88202 79 83 93
-8.5432 -3.45812 -1.8855 77 81 92
-9.18182 -2.65269 -1.89637 75 83 94
-9.21182 -2.63045 -1.90141 76 84 95
-9.70486 -1.83147 -1.88659 78 90 112
-9.70781 -1.80075 -1.88616 79 91 113
-10.247 -1.09701 -1.89495 78 90 114
-3.68242 -8.13317 -1.60731 134 131 142
-3.70408 -8.11517 -1.60575 132 129 140
-4.16014 -7.60856 -1.62504 141 135 139
-4.18323 -7.59625 -1.62504 138 135 141
-4.67077 -7.04908 -1.64748 151 142 145
-4.69941 -7.04665 -1.65042 156 145 150
-4.72702 -7.04246 -1.65295 152 141 144
-5.19241 -6.41953 -1.66389 133 128 132
-5.22657 -6.40231 -1.66563 136 132 138
-5.25066 -6.39278 -1.66737 139 134 140
-5.27113 -6.37855 -1.6678 139 132 139
-8.54597 -3.42868 -1.88373 77 81 93
-8.56129 -3.40439 -1.88503 79 81 93
-8.56568 -3.37567 -1.8837 78 80 92
-9.18346 -2.59165 -1.89338 77 83 95
-9.7126 -1.77038 -1.88614 81 93 116
-9.75271 -1.73072 -1.89302 86 98 121
-10.2184 -1.06168 -1.88869 79 94 117
-10.2267 -1.03017 -1.88984 78 93 113
-3.65458 -8.13666 -1.60575 133 129 140
-4.10268 -7.64074 -1.62545 137 134 140
-4.13789 -7.62253 -1.62545 135 128 136
-4.5914 -7.09075 -1.6458 140 135 139
-4.61281 -7.07704 -1.64579 147 141 146
-4.65671 -7.07455 -1.65043 147 142 145
-5.13409 -6.46588 -1.66391 143 137 141
-5.15475 -6.45204 -1.66434 136 129 136
-5.17183 -6.43349 -1.66346 135 128 134
-9.24664 -2.50138 -1.90176 80 84 95
-9.23285 -2.46698 -1.8971 81 85 96
-9.76304 -1.70123 -1.89422 84 96 118
-9.77137 -1.67135 -1.89501 84 96 118
-10.2111 -0.98018 -1.88592 82 97 120
-10.225 -0.949173 -1.88824 80 93 117
-3.58986 -8.15763 -1.60458 136 130 142
-3.61469 -8.14714 -1.60458 132 126 138
-4.05013 -7.65246 -1.62262 143 137 146
-4.0725 -7.63876 -1.62221 139 136 143
-4.53013 -7.11301 -1.64285 140 135 141
-4.56686 -7.09939 -1.64454 139 134 141
-5.05702 -6.50822 -1.66086 139 130 133
-5.07664 -6.49308 -1.66086 139 130 133
-5.0997 -6.48258 -1.66216 138 129 134
-7.02816 -5.50718 -1.88874 142 136 145
-7.04 -5.48201 -1.88737 148 142 151
-7.0548 -5.45923 -1.88691 143 136 143
-7.08879 -5.43395 -1.88961 133 126 133
-7.1019 -5.40982 -1.8887 141 134 140
-7.11337 -5.38448 -1.88733 154 148 152
-7.1325 -5.36502 -1.88822 139 136 145
-7.14752 -5.32512 -1.8855 95 92 101
-7.16024 -5.30084 -1.88458 103 101 112
-7.19161 -5.29053 -1.88909 113 107 117
-7.21402 -5.25624 -1.88863 111 108 117
-7.21868 -5.226 -1.88545 112 111 119
-7.23264 -5.20269 -1.88499 119 117 128
-7.25779 -5.17049 -1.88543 71 71 83
-7.28104 -5.15388 -1.88768 83 81 94
-7.30428 -5.13717 -1.88992 101 97 111
-7.31317 -5.11021 -1.8881 103 103 115
-7.33311 -5.07423 -1.88719 90 88 102
-7.34817 -5.05169 -1.88717 103 102 110
-7.35195 -5.02133 -1.88399 99 96 107
-7.37947 -4.9907 -1.88534 77 75 88
-7.39749 -4.9702 -1.88623 91 88 105
-7.41543 -4.94963 -1.88712 90 89 105
-7.45399 -4.89358 -1.88755 72 74 89
-7.44248 -4.85345 -1.8803 76 79 94
-7.49103 -4.85299 -1.88978 78 78 92
-7.51786 -4.82157 -1.89113 87 89 104
-7.51412 -4.78679 -1.88614 78 79 97
-8.66155 -3.15434 -1.88708 89 93 102
-8.67242 -3.12814 -1.8875 82 89 99
-9.26622 -2.42964 -1.90214 78 86 97
-9.25215 -2.39534 -1.89748 77 87 97
-9.27016 -2.36934 -1.9 78 86 97
-9.77767 -1.6411 -1.8954 84 96 117
-9.78446 -1.59519 -1.89538 84 96 118
-3.56276 -8.16261 -1.60341 137 131 143
-3.98551 -7.66966 -1.61977 139 136 142
-4.01308 -7.66672 -1.6218 139 134 139
-4.49204 -7.14819 -1.64497 133 128 130
-4.51062 -7.12979 -1.6437 132 129 133
-4.96206 -6.56759 -1.6587 139 133 135
-4.97961 -6.5496 -1.65782 138 132 134
-4.99936 -6.53471 -1.65781 140 131 134
-5.02479 -6.52765 -1.65999 141 132 133
-6.7723 -5.82365 -1.88888 122 117 114
-6.78091 -5.79526 -1.88616 122 116 114
-6.79676 -5.77325 -1.88569 122 117 115
-6.83335 -5.75093 -1.88885 126 117 122
-6.84461 -5.72498 -1.88703 126 120 124
-6.85874 -5.70151 -1.88611 122 117 120
-6.88317 -5.66876 -1.88565 124 122 125
-6.90906 -5.65518 -1.88836 119 119 121
-6.91844 -5.62781 -1.88608 121 118 125
-6.93675 -5.60787 -1.88652 120 118 123
-6.9728 -5.58461 -1.88968 119 113 123
-6.97432 -5.55098 -1.88515 111 108 115
-6.99087 -5.52961 -1.88513 124 122 125
-7.53646 -4.76891 -1.88839 74 79 99
-7.55799 -4.73407 -1.88838 75 84 101
-7.56703 -4.70767 -1.88701 75 86 104
-7.58753 -4.68849 -1.8888 71 80 97
-7.60468 -4.66716 -1.88969 79 88 105
-7.61743 -4.62688 -1.88742 74 81 97
-7.64105 -4.60949 -1.89012 77 84 100
-7.65631 -4.58694 -1.89055 76 85 102
-7.66528 -4.5445 -1.88738 76 84 103
-7.68703 -4.52584 -1.88962 75 84 101
-7.70875 -4.50709 -1.89187 71 80 97
-7.71727 -4.46451 -1.88869 76 85 102
-7.7321 -4.44168 -1.88913 74 83 100
-8.67404 -3.09856 -1.88573 87 92 102
-8.68656 -3.07296 -1.88659 78 82 92
-8.68727 -3.02793 -1.88351 79 82 89
-9.26156 -2.33658 -1.8966 78 86 97
-9.25645 -2.28944 -1.89321 77 87 99
-9.79439 -1.5655 -1.89657 90 101 121
-9.8023 -1.53546 -1.89736 88 99 121
-3.4979 -8.18281 -1.60223 132 129 140
-3.52501 -8.17807 -1.6034 134 128 140
-3.9267 -7.69869 -1.61977 138 132 142
-3.9605 -7.6778 -1.61896 139 136 143
-4.40978 -7.18435 -1.64245 129 128 133
-4.43448 -7.17629 -1.64371 131 130 135
-4.45417 -7.15973 -1.64286 134 132 137
-4.91865 -6.61396 -1.66133 143 134 139
-4.9386 -6.59927 -1.66132 142 133 138
-6.28934 -5.95825 -1.82615 127 116 111
-6.32677 -5.95805 -1.83247 127 117 111
-6.37129 -5.9644 -1.84106 126 116 111
-6.42104 -5.95674 -1.84828 123 113 110
-6.45727 -5.95455 -1.85415 115 105 103
-6.50631 -5.96419 -1.86409 109 99 97
-6.54553 -5.96428 -1.87087 123 113 108
-6.58841 -5.94884 -1.87583 127 116 115
-6.63491 -5.95508 -1.88487 123 112 111
-6.6628 -5.94402 -1.88802 117 106 104
-6.69276 -5.91609 -1.88892 129 118 114
-6.70611 -5.89174 -1.88755 131 121 119
-6.7339 -5.88034 -1.89071 130 122 124
-6.73838 -5.84813 -1.88663 128 122 122
-7.75867 -4.4256 -1.89273 76 84 103
-7.75647 -4.39295 -1.88865 74 82 101
-7.77961 -4.35894 -1.88954 73 81 102
-7.77375 -4.32442 -1.88455 72 80 100
-7.80685 -4.31181 -1.88996 75 82 100
-7.82792 -4.27657 -1.8904 73 81 99
-7.82852 -4.24584 -1.88722 74 84 101
-7.84952 -4.22631 -1.88947 75 85 100
-7.86191 -4.20206 -1.88945 75 82 98
-8.70692 -3.00485 -1.88612 81 84 91
-8.70812 -2.97525 -1.88435 81 84 91
-8.73227 -2.93848 -1.88695 80 85 91
-8.72586 -2.90634 -1.88344 80 85 91
-9.28176 -2.26512 -1.89741 79 88 103
-9.29179 -2.23703 -1.89823 75 87 103
-9.28426 -2.18946 -1.89442 75 87 101
-9.80666 -1.48912 -1.89694 83 96 120
-9.80467 -1.45753 -1.8957 71 83 107
-3.47797 -8.20569 -1.60497 133 130 141
-3.87735 -7.71624 -1.61856 138 135 146
-3.89997 -7.70307 -1.61815 138 133 146
-4.38117 -7.18556 -1.6395 137 134 141
-4.8414 -6.65519 -1.65872 148 139 140
-4.85706 -6.63433 -1.65696 147 138 139
-4.90086 -6.63178 -1.66221 145 136 139
-5.82539 -5.96435 -1.75026 138 124 115
-5.86871 -5.95472 -1.75568 140 126 117
-5.91896 -5.97058 -1.76653 137 124 115
-5.94496 -5.96101 -1.76923 137 123 114
-6.00072 -5.96315 -1.77872 132 118 107
-6.03634 -5.96297 -1.7846 133 119 106
-6.07337 -5.964 -1.79092 138 124 114
-6.11046 -5.96485 -1.79724 138 124 113
-6.15836 -5.95755 -1.80402 137 126 114
-6.1942 -5.95661 -1.80989 137 124 115
-6.23565 -5.96095 -1.81757 128 118 109
-7.87733 -4.16377 -1.88853 77 86 103
-7.89296 -4.14125 -1.88942 70 78 97
-7.90508 -4.11686 -1.88941 75 84 101
-7.93737 -4.08737 -1.89301 70 79 94
-7.932 -4.0539 -1.88847 73 82 96
-7.93692 -4.02583 -1.88665 78 86 100
-8.75626 -2.88671 -1.88867 80 85 89
-8.7486 -2.83915 -1.88384 81 84 91
-8.76404 -2.8144 -1.88557 79 82 89
-9.3074 -2.16441 -1.8982 80 89 104
-9.30951 -2.13445 -1.89733 79 87 103
-9.8045 -1.42626 -1.89487 76 88 112
-9.8006 -1.3788 -1.89282 73 85 109
-3.41354 -8.22702 -1.60418 135 129 141
-3.45152 -8.2121 -1.60419 132 129 140
-3.8514 -7.72222 -1.61734 138 135 142
-4.30442 -7.23059 -1.6395 134 129 136
-4.33692 -7.23648 -1.64414 133 125 136
-4.35783 -7.22191 -1.64371 139 133 143
-4.76816 -6.70196 -1.65786 148 141 139
-4.79057 -6.69099 -1.65872 147 142 140
-4.82894 -6.68085 -1.66178 146 140 141
-5.55722 -5.96755 -1.7078 146 137 138
-5.60668 -5.96681 -1.71549 139 131 129
-5.64426 -5.97139 -1.72226 117 107 105
-5.6793 -5.97293 -1.72813 112 100 99
-5.70645 -5.96573 -1.73129 120 108 99
-5.75491 -5.96253 -1.73852 139 126 113
-5.79547 -5.96919 -1.7462 141 127 116
-7.96712 -3.99515 -1.8898 75 84 99
-7.96137 -3.96178 -1.88526 74 84 96
-7.98513 -3.94323 -1.88841 74 84 96
-8.00537 -3.92283 -1.89066 76 86 96
-8.0054 -3.87712 -1.88612 76 84 97
-8.02721 -3.85744 -1.88882 75 83 94
-8.77757 -2.78898 -1.88687 79 84 92
-8.77248 -2.75754 -1.88379 77 81 90
-9.32052 -2.09122 -1.89774 80 89 106
-9.32813 -2.0625 -1.89814 79 91 107
-9.79439 -1.34675 -1.89077 71 86 109
-9.75512 -1.31021 -1.88183 73 88 111
-3.38844 -8.23687 -1.60418 135 131 143
-3.79381 -7.75373 -1.61816 139 134 140
-3.81168 -7.73014 -1.61531 139 135 141
-4.25297 -7.26904 -1.64119 139 134 141
-4.27115 -7.24961 -1.6395 140 135 141
-4.72541 -6.7269 -1.65699 145 139 139
-4.74679 -6.71447 -1.65742 147 142 140
-5.40901 -6.00308 -1.69065 140 135 139
-5.42828 -5.98823 -1.6911 140 135 139
-5.45781 -5.98499 -1.69516 140 134 136
-5.49543 -5.97188 -1.69877 142 137 137
-5.53279 -5.97704 -1.70555 140 135 135
-8.04547 -3.83597 -1.89061 78 85 95
-8.05908 -3.79693 -1.88969 77 84 94
-8.07011 -3.77198 -1.88968 77 85 94
-8.08461 -3.74864 -1.89057 77 83 94
-8.09602 -3.70863 -1.88919 76 83 93
-8.79382 -2.71958 -1.88596 74 80 92
-8.77359 -2.68352 -1.87939 76 83 93
-8.81651 -2.6672 -1.88767 79 83 95
-9.328 -2.0321 -1.89685 81 90 107
-9.33351 -2.00294 -1.89683 79 89 106
-9.7603 -1.27991 -1.88221 80 95 118
-9.75958 -1.23329 -1.88098 84 96 122
-3.36541 -8.25213 -1.60536 134 131 142
-3.76781 -7.75942 -1.61694 139 134 140
-4.18623 -7.27966 -1.63614 139 134 141
-4.2253 -7.27131 -1.63867 139 133 138
-4.64932 -6.76903 -1.65525 149 143 145
-4.67295 -6.76013 -1.65656 147 143 142
-4.69231 -6.74461 -1.65612 145 140 140
-5.33463 -6.08471 -1.69339 136 129 137
-5.34024 -6.05381 -1.68886 136 130 136
-5.35583 -6.03475 -1.68795 140 134 138
-5.379 -6.0245 -1.68975 142 135 142
-8.11563 -3.68761 -1.89144 79 86 96
-8.12989 -3.66408 -1.89233 77 84 94
-8.12985 -3.6341 -1.8896 78 85 95
-8.15138 -3.59868 -1.89094 76 83 93
-8.16894 -3.57656 -1.89273 79 83 95
-8.82255 -2.62437 -1.88634 73 81 94
-8.83178 -2.59751 -1.88676 76 83 93
-8.82413 -2.56561 -1.88325 76 83 94
-9.34393 -1.95955 -1.89724 76 87 105
-9.35112 -1.93073 -1.89764 79 90 108
-9.36396 -1.90302 -1.89931 82 93 111
-9.75482 -1.20173 -1.87933 79 91 115
-9.75965 -1.17141 -1.87972 77 92 115
-3.29657 -8.26151 -1.60223 133 130 139
-3.32243 -8.25379 -1.60262 136 130 142
-3.71538 -7.80281 -1.62059 135 130 139
-3.73513 -7.78299 -1.61856 135 130 137
-4.14391 -7.30767 -1.63699 138 135 143
-4.16323 -7.29026 -1.63572 140 137 143
-4.55936 -6.7888 -1.64783 134 129 133
-4.58717 -6.7868 -1.65089 142 137 141
-4.60768 -6.77319 -1.65088 141 135 139
-5.22214 -6.14009 -1.68618 127 120 128
-5.25387 -6.121 -1.68753 140 135 141
-5.27471 -6.10818 -1.68843 145 139 145
-5.29801 -6.09827 -1.69023 140 134 139
-8.1775 -3.55047 -1.89226 77 83 95
-8.1897 -3.51089 -1.89134 76 82 95
-8.20701 -3.48857 -1.89314 78 81 96
-8.22963 -3.46844 -1.89628 78 82 94
-8.85374 -2.54476 -1.88847 77 83 95
-8.84607 -2.49805 -1.88408 78 84 96
-8.8568 -2.4716 -1.88494 77 83 94
-9.3835 -1.86135 -1.90182 77 88 105
-9.37503 -1.8294 -1.89885 82 94 111
-9.76425 -1.12554 -1.8797 84 97 123
-3.2428 -8.27116 -1.60028 136 134 139
-3.27609 -8.28386 -1.60496 135 132 139
-3.66087 -7.80814 -1.61694 140 137 144
-3.68928 -7.80822 -1.61938 141 138 145
-4.08078 -7.32416 -1.63361 136 130 140
-4.11902 -7.31468 -1.63572 135 131 138
-4.51055 -6.82729 -1.64915 134 130 131
-4.53634 -6.8222 -1.65133 136 131 135
-5.13708 -6.20853 -1.68575 135 129 136
-5.15808 -6.17625 -1.68303 139 132 139
-5.18274 -6.16831 -1.68529 140 133 140
-5.19631 -6.14669 -1.68347 136 129 136
-8.23425 -3.42565 -1.89356 80 85 91
-8.24593 -3.40086 -1.89399 81 84 90
-8.25572 -3.37528 -1.89398 85 88 93
-8.85431 -2.44141 -1.88274 77 83 95
-8.8874 -2.40633 -1.88796 79 85 96
-9.3703 -1.79825 -1.89672 76 88 104
-9.38937 -1.7564 -1.89923 79 90 110
-9.77079 -1.09539 -1.88049 80 92 116
-9.76363 -1.06368 -1.87844 86 98 122
-3.20518 -8.28691 -1.60066 135 132 138
-3.62787 -7.83124 -1.61856 137 132 140
-4.03546 -7.34631 -1.6332 136 134 140
-4.0604 -7.3396 -1.63446 136 133 143
-4.46408 -6.84549 -1.64697 143 137 143
-4.4868 -6.8356 -1.64784 137 132 137
-5.05196 -6.23748 -1.67853 136 131 139
-5.08765 -6.22391 -1.68124 138 132 139
-5.11721 -6.22238 -1.6853 136 129 136
-8.33546 -3.27408 -1.90295 84 87 92
-8.31183 -3.22044 -1.89344 83 87 90
-8.88657 -2.37662 -1.88619 78 84 95
-8.90444 -2.35202 -1.8888 79 85 97
-8.89577 -2.30545 -1.88441 77 85 98
-9.38247 -1.72493 -1.89668 77 89 110
-9.39085 -1.69626 -1.8975 80 92 114
-9.76966 -1.01798 -1.87883 84 98 124
-3.18056 -8.29794 -1.60105 137 131 143
-3.57562 -7.84135 -1.61613 139 134 141
-3.60174 -7.83634 -1.61735 141 134 142
-3.98286 -7.38272 -1.63488 136 133 139
-3.99896 -7.35882 -1.63193 137 135 140
-4.38992 -6.88954 -1.64654 135 132 139
-4.41375 -6.88158 -1.64785 134 132 137
-4.43656 -6.87187 -1.64872 139 134 138
-4.97028 -6.3096 -1.67991 140 135 139
-4.9845 -6.28851 -1.67809 143 137 139
-5.00845 -6.2599 -1.67628 135 129 133
-5.03559 -6.25566 -1.67944 133 126 133
-8.31197 -3.19115 -1.89116 82 84 88
-8.33932 -3.17229 -1.89567 82 83 88
-8.31744 -3.1347 -1.88797 83 83 91
-8.34221 -3.10003 -1.89066 77 82 88
-8.90403 -2.27826 -1.88483 75 84 98
-8.91596 -2.25201 -1.88612 75 85 98
-8.92026 -2.22378 -1.88567 76 85 100
-9.40301 -1.66822 -1.89917 82 94 118
-9.41378 -1.62473 -1.89999 84 98 120
-9.65638 -1.27357 -1.89901 73 85 109
-9.76227 -0.986346 -1.87678 77 89 113
-9.76643 -0.955943 -1.87717 80 94 120
-3.51102 -7.85619 -1.61369 138 132 144
-3.5379 -7.85322 -1.61531 142 137 147
-3.93369 -7.39724 -1.63278 136 133 142
-3.95432 -7.38217 -1.63194 137 134 141
-4.33135 -6.91157 -1.64392 137 132 138
-4.35916 -6.91055 -1.64698 138 134 141
-4.89395 -6.34871 -1.6763 137 130 136
-4.92527 -6.32983 -1.67721 136 130 136
-4.93959 -6.30886 -1.67539 136 131 137
-8.3675 -3.0802 -1.89471 79 82 91
-8.38362 -3.05689 -1.89651 78 81 90
-8.39707 -3.01782 -1.89649 79 83 92
-8.92793 -2.18164 -1.88521 77 86 101
-8.94524 -2.15665 -1.88781 78 87 104
-9.41414 -1.59462 -1.89913 78 90 116
-9.4125 -1.5642 -1.89785 87 99 121
-9.66341 -1.23538 -1.89947 76 88 112
-9.66646 -1.20969 -1.89945 72 87 110
-9.76273 -0.924755 -1.87593 74 88 114
-9.76226 -0.878475 -1.8751 79 91 115
-3.48123 -7.85182 -1.61044 134 131 140
-3.8927 -7.40045 -1.6294 139 133 144
-4.28553 -6.93018 -1.64218 139 134 140
-4.31041 -6.92429 -1.64393 138 133 139
-4.86027 -6.3841 -1.67812 140 134 138
-4.87599 -6.36486 -1.67676 140 134 138
-8.39649 -2.98847 -1.89421 79 83 92
-8.39582 -2.95914 -1.89194 79 82 91
-8.41066 -2.92064 -1.89237 77 81 92
-8.93978 -2.12603 -1.88517 78 87 104
-8.96972 -2.08923 -1.88996 78 87 104
-9.4305 -1.52184 -1.90036 83 95 117
-9.65598 -1.18201 -1.8961 77 92 115
-9.65692 -1.15607 -1.89561 79 91 115
-9.76803 -0.848218 -1.87589 78 93 116
-3.42818 -7.89496 -1.6145 132 129 139
-3.44712 -7.8723 -1.61166 136 133 143
-3.85378 -7.43541 -1.63236 138 133 140
-3.87027 -7.41182 -1.62941 137 131 142
-4.23063 -6.95808 -1.64131 139 135 141
-4.25167 -6.94562 -1.64131 139 134 140
-4.78674 -6.42654 -1.67587 141 136 141
-4.80718 -6.41383 -1.67632 140 135 141
-4.83102 -6.40578 -1.67813 139 134 140
-8.42631 -2.89704 -1.89416 79 85 96
-8.44928 -2.87589 -1.89776 75 82 91
-8.44451 -2.84527 -1.89458 78 85 93
-8.96023 -2.05773 -1.88645 76 88 104
-8.96581 -2.02982 -1.88643 78 87 104
-9.44021 -1.49322 -1.9016 78 90 112
-9.40734 -1.45805 -1.89358 74 86 108
-9.66534 -1.1181 -1.89654 79 91 117
-9.66033 -1.09135 -1.89462 78 92 118
-9.77373 -0.817925 -1.87668 79 93 119
-9.75326 -0.770032 -1.87179 75 91 117
-3.40057 -7.89572 -1.61247 139 136 145
-3.79358 -7.45633 -1.63067 137 132 140
-3.81531 -7.44345 -1.63025 137 134 143
-4.17552 -6.98552 -1.64044 139 134 140
-4.20285 -6.95857 -1.63826 139 137 141
-4.71616 -6.47288 -1.67498 137 132 138
-4.73786 -6.462 -1.67588 131 126 132
-4.75504 -6.44469 -1.67497 136 130 134
-8.43848 -2.79975 -1.89004 74 80 92
-8.47416 -2.78263 -1.89681 76 80 92
-8.48942 -2.7587 -1.8986 77 81 93
-8.97065 -1.98706 -1.88554 77 89 106
-8.97981 -1.95996 -1.88639 79 91 107
-9.42679 -1.41586 -1.89651 75 87 109
-9.41682 -1.38438 -1.89354 76 88 110
-9.66675 -1.06618 -1.89556 78 92 117
-9.67089 -1.02762 -1.89554 81 93 117
-9.76065 -0.739903 -1.87299 84 96 120
-9.76016 -0.709143 -1.87257 84 96 122
-3.37795 -7.90914 -1.61328 138 135 143
-3.76427 -7.45325 -1.6273 140 136 143
-4.13218 -7.00817 -1.64001 138 133 140
-4.15247 -6.99432 -1.63957 140 135 141
-4.63308 -6.50067 -1.66911 138 132 136
-4.66472 -6.50455 -1.67408 138 133 139
-4.69777 -6.48848 -1.67544 139 134 140
-8.47181 -2.7096 -1.89135 77 81 92
-8.49616 -2.68854 -1.8954 77 81 92
-8.51115 -2.66445 -1.89719 76 82 94
-8.97367 -1.92947 -1.88375 75 87 103
-9.00171 -1.90646 -1.88898 76 87 105
-9.4145 -1.35406 -1.89225 77 89 111
-9.41787 -1.32458 -1.89223 80 92 116
-9.6598 -1.00021 -1.89218 77 92 115
-9.67171 -0.975699 -1.89455 84 99 122
-9.75281 -0.662525 -1.87052 80 94 120
-3.32004 -7.94058 -1.6149 137 135 140
-3.34279 -7.92732 -1.61409 137 135 140
-3.71387 -7.49467 -1.63067 137 134 141
-3.73325 -7.47673 -1.62899 137 135 142
-4.07489 -7.03135 -1.63826 138 135 142
-4.09246 -7.01253 -1.63651 140 135 140
-4.55532 -6.53548 -1.66551 139 133 137
-4.5847 -6.5365 -1.66957 143 134 140
-4.61459 -6.51602 -1.66957 145 136 141
-6.53591 -5.38023 -1.88648 153 151 156
-6.55799 -5.3652 -1.88836 126 124 129
-6.58897 -5.35759 -1.89307 103 102 107
-6.60654 -5.33861 -1.89353 104 104 112
-6.60401 -5.28586 -1.88501 111 109 121
-6.62137 -5.26682 -1.88547 115 111 125
-6.63115 -5.24157 -1.88357 119 116 125
-6.65661 -5.21223 -1.88403 98 96 107
-6.66921 -5.18935 -1.88307 87 87 97
-6.69388 -5.17614 -1.88589 92 92 103
-6.69873 -5.14711 -1.88257 94 93 107
-6.72683 -5.11982 -1.88398 108 104 118
-6.74368 -5.10035 -1.88444 113 109 124
-6.78964 -5.10345 -1.89387 113 109 123
-6.77136 -5.04014 -1.88111 111 109 122
-6.78952 -5.02168 -1.88204 109 107 120
-6.80144 -4.99845 -1.88108 109 107 120
-6.83202 -4.97289 -1.88343 110 108 121
-6.85466 -4.95769 -1.88578 112 110 123
-6.85387 -4.92502 -1.88104 100 96 113
-6.90144 -4.92814 -1.89094 82 81 99
-6.93018 -4.90084 -1.89282 72 77 96
-6.93537 -4.87267 -1.88997 67 74 92
-6.95781 -4.85699 -1.89232 73 78 98
-6.97046 -4.81807 -1.88947 73 80 99
-6.98166 -4.79436 -1.88851 76 82 104
-7.00709 -4.78069 -1.89181 75 83 102
-7.01769 -4.74052 -1.88849 74 82 101
-7.0382 -4.72332 -1.89036 77 85 104
-7.04748 -4.69834 -1.88893 76 84 103
-7.07431 -4.68538 -1.89269 75 83 102
-7.10367 -4.6581 -1.89504 73 84 102
-7.11109 -4.63187 -1.89314 72 83 103
-7.12002 -4.60672 -1.89171 71 82 100
-7.13285 -4.56842 -1.88933 74 85 103
-7.15944 -4.55494 -1.89309 74 85 103
-7.16809 -4.52969 -1.89166 74 82 101
-7.18213 -4.4923 -1.88976 76 84 103
-7.20694 -4.47747 -1.89305 78 87 104
-7.20549 -4.44586 -1.88879 74 83 100
-7.23018 -4.43088 -1.89208 76 85 102
-7.25194 -4.39843 -1.89253 79 86 104
-7.26003 -4.37298 -1.8911 82 90 109
-7.27795 -4.35362 -1.8925 78 86 105
-8.51903 -2.62358 -1.89627 76 82 94
-8.52826 -2.59765 -1.8967 76 83 91
-8.53554 -2.57111 -1.89668 77 84 94
-8.98879 -1.85994 -1.88415 74 86 108
-9.0033 -1.83391 -1.88632 73 85 106
-9.01201 -1.80663 -1.88717 77 90 110
-9.40768 -1.27825 -1.88884 72 84 108
-9.40695 -1.24827 -1.88798 85 97 121
-9.67543 -0.937103 -1.89453 78 93 116
-9.66981 -0.910483 -1.89261 83 95 117
-9.75986 -0.632328 -1.87171 77 91 117
-9.75123 -0.601079 -1.86967 82 96 122
-3.29517 -7.94826 -1.6145 135 133 139
-3.66432 -7.50729 -1.62857 139 134 140
-3.6846 -7.49127 -1.6273 140 135 141
-4.02856 -7.04816 -1.63652 139 137 140
-4.04989 -7.03635 -1.63652 141 139 144
-4.51055 -6.55423 -1.66325 137 130 138
-4.53563 -6.54896 -1.66551 138 131 138
-6.36414 -5.59017 -1.88753 116 113 122
-6.37951 -5.56937 -1.88705 116 113 122
-6.39771 -5.55112 -1.88751 113 107 117
-6.4159 -5.51523 -1.88514 150 145 151
-6.44266 -5.50458 -1.88843 148 143 148
-6.4563 -5.48226 -1.88747 143 136 144
-6.47846 -5.45 -1.88652 143 138 144
-6.49483 -5.43013 -1.88651 144 142 146
-6.51704 -5.41528 -1.88838 152 150 155
-7.306 -4.32495 -1.89485 78 87 104
-7.30219 -4.29235 -1.89011 77 86 103
-7.32655 -4.2768 -1.8934 76 85 102
-7.32754 -4.24721 -1.89008 79 88 105
-7.36015 -4.22114 -1.89385 75 87 102
-7.36258 -4.19252 -1.891 76 88 104
-7.3733 -4.1688 -1.89051 77 89 105
-7.39216 -4.13461 -1.89049 77 89 105
-7.40268 -4.1108 -1.89001 77 86 103
-7.40975 -4.08505 -1.88857 78 87 104
-8.54086 -2.544 -1.89622 78 83 93
-8.565 -2.50795 -1.89936 76 83 93
-9.02723 -1.76602 -1.8889 76 89 106
-9.41775 -1.21979 -1.88965 77 89 113
-9.66796 -0.884329 -1.89163 79 91 113
-9.6699 -0.858607 -1.89162 81 93 115
-9.74248 -0.569885 -1.86762 80 93 119
-3.23215 -7.96619 -1.61327 137 134 141
-3.25775 -7.96055 -1.61408 136 133 140
-3.63055 -7.52499 -1.62899 137 134 141
-3.97463 -7.07737 -1.63652 137 135 140
-3.99247 -7.05883 -1.63477 135 133 138
-4.43977 -6.59898 -1.66281 138 131 138
-4.46385 -6.59236 -1.66462 139 132 138
-4.48791 -6.58565 -1.66642 139 135 139
-6.21956 -5.73741 -1.88525 136 131 135
-6.23543 -5.71704 -1.88477 132 128 129
-6.2583 -5.70331 -1.88665 116 114 116
-6.27595 -5.66658 -1.8838 116 114 119
-6.30438 -5.65797 -1.88757 119 116 123
-6.31428 -5.63206 -1.88519 121 119 128
-6.35013 -5.61224 -1.88849 113 110 119
-7.43501 -4.05448 -1.89045 74 81 100
-7.44356 -4.02962 -1.88949 75 82 101
-7.45375 -4.00567 -1.889 76 85 102
-7.46896 -3.98449 -1.88993 75 84 100
-7.49548 -3.95446 -1.89227 74 83 100
-7.50542 -3.93036 -1.89179 76 85 101
-7.5067 -3.90166 -1.88894 74 83 98
-8.55889 -2.47751 -1.89618 77 83 95
-8.56204 -2.4498 -1.89526 76 84 95
-8.5614 -2.40666 -1.89253 74 83 96
-9.02998 -1.7375 -1.88845 79 93 112
-9.0231 -1.70712 -1.88581 79 91 113
-9.05054 -1.68336 -1.89103 80 92 114
-9.43225 -1.17671 -1.89173 69 84 107
-9.42344 -1.14576 -1.88919 81 95 118
-9.66339 -0.819015 -1.88921 81 95 118
-9.67476 -0.794271 -1.89158 79 92 116
-9.74423 -0.524027 -1.8676 79 94 117
-3.20254 -7.96072 -1.61002 139 136 145
-3.58248 -7.5406 -1.62772 140 138 143
-3.60612 -7.53194 -1.62815 140 138 144
-3.91431 -7.09398 -1.63346 139 135 142
-3.94782 -7.07853 -1.6339 139 137 142
-4.38542 -6.62502 -1.66101 141 131 140
-4.38661 -6.58241 -1.65286 138 132 137
-6.07145 -5.88068 -1.88297 130 122 112
-6.08645 -5.85939 -1.88201 124 116 104
-6.11653 -5.85313 -1.88625 154 144 132
-6.14616 -5.82779 -1.88719 122 116 110
-6.15263 -5.79812 -1.8834 119 115 114
-6.17289 -5.78202 -1.88433 116 112 112
-6.18612 -5.75909 -1.8829 119 114 118
-7.54146 -3.87588 -1.89364 74 83 98
-7.54082 -3.84624 -1.89032 74 83 98
-7.54867 -3.82112 -1.88936 76 85 99
-7.5607 -3.78341 -1.88793 76 85 96
-7.58738 -3.76795 -1.89216 77 85 96
-7.59149 -3.74096 -1.89026 76 84 95
-8.57746 -2.3826 -1.89477 77 87 99
-8.57279 -2.35281 -1.89204 76 86 98
-9.05945 -1.64137 -1.89145 88 100 122
-9.41839 -1.11533 -1.88748 72 86 111
-9.43849 -1.08778 -1.89125 76 88 114
-9.66869 -0.767772 -1.88965 80 95 118
-9.67141 -0.729174 -1.88963 81 96 119
-9.75087 -0.493759 -1.86879 81 95 121
-9.74179 -0.462668 -1.86675 79 95 120
-3.16573 -7.97439 -1.61002 141 136 143
-3.55089 -7.56327 -1.62941 138 135 142
-3.87035 -7.11491 -1.63303 140 135 142
-3.89015 -7.10013 -1.63215 138 132 143
-4.32679 -6.64396 -1.65739 138 132 136
-4.33864 -6.595 -1.64925 140 132 139
-5.81855 -5.91246 -1.84478 123 112 105
-5.86316 -5.92291 -1.85421 125 114 108
-5.89448 -5.91909 -1.85893 127 116 111
-5.94468 -5.93473 -1.87025 130 120 115
-5.97735 -5.91307 -1.87213 124 114 105
-6.01422 -5.91429 -1.87874 135 125 115
-6.03615 -5.90008 -1.88014 124 115 106
-7.60419 -3.71834 -1.89071 76 84 95
-7.63658 -3.69078 -1.89495 77 83 95
-7.63869 -3.66285 -1.89257 78 85 95
-7.65463 -3.64176 -1.89397 79 86 96
-7.66926 -3.60534 -1.89348 77 83 95
-8.58858 -2.31428 -1.89338 75 85 97
-8.59497 -2.28753 -1.89336 74 85 97
-8.6107 -2.26324 -1.89561 75 86 98
-9.07907 -1.61592 -1.89492 81 92 114
-9.05067 -1.58175 -1.88748 85 96 116
-9.41938 -1.04088 -1.88618 78 94 119
-9.414 -1.01054 -1.88447 71 85 111
-9.68443 -0.70446 -1.89247 81 95 119
-9.6684 -0.677186 -1.88816 78 90 114
-9.74694 -0.416981 -1.86754 74 88 111
-3.11064 -7.97389 -1.60596 139 135 141
-3.13948 -7.97788 -1.6088 138 135 141
-3.49955 -7.57116 -1.62646 138 133 140
-3.52171 -7.5592 -1.62603 135 132 139
-3.84101 -7.13871 -1.63477 138 138 140
-4.26859 -6.68531 -1.65831 142 137 141
-4.28364 -6.66438 -1.65604 140 135 139
-4.30778 -6.65836 -1.65785 141 136 140
-5.5561 -5.92204 -1.80233 134 121 114
-5.5792 -5.91091 -1.80421 133 120 112
-5.62188 -5.92127 -1.81317 133 120 111
-5.6542 -5.91994 -1.81836 133 118 111
-5.70513 -5.91981 -1.82686 130 117 109
-5.74681 -5.92807 -1.83535 129 116 108
-5.77667 -5.92334 -1.83959 125 115 106
-7.66577 -3.57489 -1.88969 80 82 94
-7.69024 -3.55781 -1.89345 77 79 93
-7.68131 -3.52489 -1.88824 79 83 95
-7.70592 -3.49328 -1.89059 77 84 94
-7.71434 -3.46859 -1.8901 77 84 94
-8.60186 -2.23251 -1.89197 78 87 101
-8.61898 -2.19423 -1.89376 79 89 101
-9.06678 -1.54107 -1.88964 90 102 121
-9.06883 -1.51246 -1.88919 82 95 114
-9.41825 -0.981225 -1.88488 82 94 120
-9.66877 -0.638422 -1.88766 80 92 116
-9.74934 -0.386469 -1.86792 79 91 115
-9.74381 -0.355634 -1.86669 81 94 117
-3.0812 -7.96795 -1.60271 138 135 142
-3.4685 -7.59527 -1.62856 137 134 142
-3.79253 -7.15038 -1.63216 138 136 141
-3.81676 -7.14459 -1.63347 137 136 141
-4.20874 -6.70148 -1.65424 138 133 139
-4.23892 -6.70577 -1.65876 139 134 136
-5.33238 -5.92657 -1.76648 136 123 113
-5.36426 -5.92657 -1.77167 134 121 112
-5.39491 -5.92496 -1.77638 132 119 111
-5.44524 -5.92666 -1.78488 130 115 108
-5.47085 -5.91886 -1.7877 132 117 110
-5.50551 -5.92112 -1.79383 134 120 111
-7.73681 -3.45034 -1.89339 78 83 94
-7.75934 -3.41756 -1.89526 76 83 93
-7.77814 -3.39749 -1.8976 78 85 95
-7.75786 -3.35998 -1.88956 77 82 93
-8.63066 -2.16879 -1.8951 77 87 97
-8.62904 -2.14004 -1.89327 76 86 98
-9.05158 -1.48061 -1.88437 77 91 117
-9.07107 -1.44043 -1.8874 72 83 105
-9.43167 -0.937873 -1.88696 77 91 117
-9.41623 -0.906656 -1.88315 79 93 117
-9.67765 -0.613282 -1.88955 80 93 119
-9.66326 -0.586358 -1.88571 80 92 118
-9.66037 -0.560355 -1.88474 76 88 112
-9.73869 -0.309548 -1.86545 78 90 114
-3.0431 -7.97734 -1.60189 137 134 144
-3.42011 -7.60977 -1.6273 141 136 143
-3.43938 -7.59086 -1.62519 136 133 140
-3.73947 -7.18121 -1.63303 138 135 140
-3.77422 -7.16838 -1.63391 142 140 145
-4.15871 -6.73392 -1.65469 141 136 142
-4.19249 -6.72055 -1.65605 140 135 141
-5.14011 -5.922 -1.73487 136 124 113
-5.18602 -5.92102 -1.74195 136 123 114
-5.22017 -5.92467 -1.74808 136 123 114
-5.25061 -5.9237 -1.7528 135 122 113
-5.2899 -5.93296 -1.76082 135 122 111
-7.77465 -3.32467 -1.89001 80 83 90
-7.78608 -3.30135 -1.89047 80 83 91
-7.81885 -3.2872 -1.89659 72 72 75
-7.81053 -3.25533 -1.89185 72 73 75
-8.63818 -2.09969 -1.89326 78 87 104
-8.64768 -2.07368 -1.89414 75 84 99
-8.65711 -2.04762 -1.89503 79 88 103
-9.05742 -1.40936 -1.88345 74 86 109
-9.06674 -1.38199 -1.88475 76 88 112
-9.41431 -0.876778 -1.88229 85 98 121
-9.6679 -0.522161 -1.88614 72 87 110
-9.74075 -0.27903 -1.86584 85 97 121
-3.39479 -7.6142 -1.62603 141 136 143
-3.69501 -7.20098 -1.6326 143 138 144
-3.71933 -7.19553 -1.63391 138 133 140
-4.11028 -6.74473 -1.65108 133 128 134
-4.12863 -6.72927 -1.65017 136 131 136
-4.97131 -5.91992 -1.70799 120 110 100
-5.00625 -5.92612 -1.71459 131 118 109
-5.04127 -5.93216 -1.7212 139 127 115
-5.07837 -5.92132 -1.72497 138 125 114
-5.11478 -5.92849 -1.73205 138 125 116
-7.82684 -3.21974 -1.89231 83 86 86
-7.82721 -3.19172 -1.88993 82 86 89
-7.85437 -3.17488 -1.89464 82 85 90
-7.89188 -3.14787 -1.90076 79 82 89
-8.67973 -2.02459 -1.89908 81 90 105
-8.68263 -1.9827 -1.8977 80 89 104
-9.06829 -1.3534 -1.88429 83 95 116
-9.44087 -0.834491 -1.88733 67 82 103
-9.42704 -0.803595 -1.88394 70 85 108
-9.66482 -0.496169 -1.88517 75 89 115
-9.65971 -0.470082 -1.88372 79 93 119
-3.338 -7.64207 -1.62687 139 134 141
-3.36117 -7.63242 -1.62687 140 135 142
-3.66097 -7.21517 -1.63215 144 142 146
-4.05987 -6.77639 -1.65154 137 132 139
-4.08607 -6.77461 -1.65425 136 131 138
-4.84458 -5.9284 -1.69007 151 143 141
-4.87086 -5.92451 -1.69337 148 140 135
-4.89957 -5.92358 -1.69761 130 121 115
-4.93072 -5.92556 -1.7028 115 105 96
-7.87219 -3.11172 -1.89319 81 84 91
-7.88296 -3.08802 -1.89364 79 82 89
-7.9003 -3.05275 -1.89457 77 80 89
-7.9091 -3.02824 -1.89455 77 81 92
-8.68609 -1.95521 -1.89723 78 87 104
-8.68184 -1.92603 -1.89496 80 89 106
-9.08145 -1.31208 -1.88602 78 91 110
-9.05964 -1.28009 -1.88032 76 89 108
-9.06856 -1.25262 -1.88161 82 93 111
-9.417 -0.773096 -1.88139 77 91 117
-9.40882 -0.742814 -1.87926 80 94 120
-9.65714 -0.431278 -1.88274 75 90 113
-3.31627 -7.65527 -1.62772 142 137 143
-3.61794 -7.23797 -1.63259 138 135 136
-3.64069 -7.22926 -1.63303 139 137 140
-4.01611 -6.79495 -1.65018 134 132 138
-4.03467 -6.77976 -1.64928 135 132 141
-4.75997 -5.95119 -1.68159 139 133 134
-4.78384 -5.94458 -1.68394 141 135 135
-4.80419 -5.93324 -1.68488 149 140 138
-7.92142 -3.0051 -1.89548 78 80 92
-7.93549 -2.9826 -1.89688 79 82 91
-7.94873 -2.94565 -1.89686 77 81 90
-8.68235 -1.88377 -1.89313 81 90 105
-8.70455 -1.86033 -1.89718 78 90 106
-9.06389 -1.20882 -1.87941 81 93 115
-9.40749 -0.698254 -1.8784 83 97 123
-9.65571 -0.40546 -1.88224 77 90 114
-9.65612 -0.379743 -1.88222 79 94 117
-3.2513 -7.66251 -1.62392 136 133 144
-3.26734 -7.63497 -1.6197 138 135 142
-3.58294 -7.25 -1.63172 141 135 138
-3.95875 -6.81389 -1.64747 134 131 141
-3.98398 -6.81081 -1.64973 134 131 140
-4.69508 -5.99938 -1.68114 138 132 134
-4.71322 -5.98524 -1.68113 138 132 135
-4.73366 -5.97416 -1.68206 139 134 138
-7.95355 -2.9196 -1.8959 78 82 91
-7.95463 -2.8922 -1.89399 77 81 90
-7.96744 -2.85514 -1.89398 77 81 89
-8.70951 -1.83318 -1.89716 76 88 104
-8.70767 -1.79047 -1.89488 80 91 109
-9.08033 -1.18233 -1.88245 71 83 105
-9.07737 -1.15321 -1.88112 76 91 114
-9.41465 -0.669139 -1.87964 86 98 124
-9.65699 -0.341164 -1.88219 83 98 121
-9.6514 -0.315202 -1.88074 88 100 124
-3.22239 -7.65723 -1.62054 139 133 146
-3.53336 -7.25804 -1.62866 139 132 139
-3.55775 -7.25317 -1.62997 141 135 139
-3.9419 -6.83228 -1.64928 134 131 138
-4.62626 -6.04209 -1.67927 133 127 131
-4.65369 -6.04075 -1.68304 135 130 134
-4.68036 -6.01816 -1.68256 138 134 135
-7.98109 -2.83239 -1.89538 79 82 89
-7.97822 -2.80366 -1.89253 79 82 89
-8.00159 -2.77038 -1.89534 76 80 89
-8.72198 -1.76522 -1.89713 79 90 110
-8.73237 -1.73914 -1.89846 76 87 107
-9.08188 -1.11068 -1.8811 78 90 112
-9.41784 -0.639725 -1.88005 80 92 118
-9.41797 -0.595274 -1.8796 73 85 111
-9.65152 -0.289492 -1.88072 78 90 113
-3.19129 -7.68194 -1.62307 140 134 144
-3.51131 -7.26818 -1.62866 133 129 131
-3.88345 -6.84883 -1.64612 142 136 143
-3.90593 -6.8409 -1.64702 138 133 140
-4.57318 -6.0671 -1.67645 140 134 138
-4.60226 -6.04804 -1.67691 133 128 132
-6.47369 -4.75906 -1.87264 75 82 108
-6.49673 -4.7302 -1.87313 81 85 110
-6.51381 -4.71242 -1.8741 76 87 107
-6.53398 -4.69684 -1.87607 78 86 109
-6.54887 -4.66202 -1.87408 76 87 107
-6.56577 -4.64403 -1.87506 75 86 106
-8.02414 -2.75067 -1.8991 76 80 93
-8.02647 -2.72383 -1.89767 76 80 92
-8.0177 -2.69321 -1.8934 76 80 91
-8.73695 -1.7119 -1.89845 79 91 113
-8.73835 -1.6699 -1.89707 79 91 113
-9.07676 -1.08136 -1.87933 77 89 111
-9.07154 -1.05208 -1.87757 81 93 115
-9.20397 -0.820045 -1.87131 76 90 116
-9.41701 -0.565608 -1.87916 79 91 117
-9.66319 -0.264193 -1.88355 88 100 122
-9.65384 -0.225273 -1.88115 79 93 119
-3.13639 -7.67812 -1.61801 136 133 140
-3.1652 -7.68374 -1.62138 137 133 142
-3.4549 -7.29141 -1.62822 137 135 140
-3.47391 -7.2743 -1.62647 137 132 137
-3.83668 -6.8873 -1.64883 138 135 138
-3.87005 -6.8739 -1.64974 142 137 143
-4.51262 -6.12112 -1.67836 136 130 134
-4.53747 -6.096 -1.67693 136 129 136
-4.55254 -6.07761 -1.67551 137 127 136
-6.18618 -5.17203 -1.87831 99 101 116
-6.1971 -5.14925 -1.87681 92 89 106
-6.20406 -5.10698 -1.87135 88 87 103
-6.22367 -5.09159 -1.87283 73 76 91
-6.25372 -5.08472 -1.87777 84 86 99
-6.26322 -5.0448 -1.8733 102 102 114
-6.28268 -5.02916 -1.87477 106 106 118
-6.30512 -5.01587 -1.87724 104 103 117
-6.31091 -4.98918 -1.87425 110 109 123
-6.34561 -4.9696 -1.87821 71 76 96
-6.35881 -4.94883 -1.8777 75 81 103
-6.37345 -4.92922 -1.87769 76 81 101
-6.39725 -4.9009 -1.87817 79 84 106
-6.39489 -4.86818 -1.87271 78 84 108
-6.42311 -4.85903 -1.87715 77 85 108
-6.44505 -4.82928 -1.87714 78 86 109
-6.45314 -4.80473 -1.87515 72 83 105
-6.47974 -4.79407 -1.8791 73 84 106
-6.58894 -4.63045 -1.87802 76 87 105
-6.60734 -4.61342 -1.87949 74 85 105
-6.61859 -4.57611 -1.8765 72 83 105
-6.63752 -4.52963 -1.874 75 82 108
-6.69517 -4.49448 -1.88141 77 83 107
-6.6827 -4.45648 -1.87346 75 81 105
-6.72219 -4.40896 -1.87542 73 84 102
-6.73839 -4.39026 -1.8764 75 86 104
-6.75128 -4.36939 -1.87638 77 85 104
-6.77903 -4.34325 -1.87885 76 84 103
-6.7869 -4.31912 -1.87735 75 86 104
-6.82378 -4.26955 -1.8788 77 85 106
-6.81497 -4.23506 -1.87235 76 82 104
-6.86519 -4.23742 -1.88373 76 82 104
-6.86347 -4.16396 -1.87379 82 89 107
-6.87565 -4.14267 -1.87378 80 88 105
-8.03875 -2.65895 -1.89574 84 87 96
-8.04813 -2.63459 -1.8962 80 83 92
-8.04824 -2.60714 -1.89429 78 82 93
-8.7542 -1.64477 -1.89976 83 95 119
-8.74891 -1.61569 -1.89749 81 93 115
-9.07978 -1.02441 -1.87886 79 91 113
-9.0798 -0.981422 -1.87797 78 90 114
-9.20498 -0.783104 -1.87079 77 92 115
-9.20849 -0.758776 -1.87127 80 95 118
-9.43158 -0.536789 -1.88209 82 96 122
-9.64981 -0.199446 -1.88017 81 95 121
-3.10831 -7.67422 -1.61505 139 137 144
-3.42969 -7.29412 -1.62647 138 136 141
-3.79507 -6.90952 -1.64884 139 137 142
-3.81231 -6.89153 -1.64702 140 138 141
-4.44692 -6.14693 -1.67413 138 132 136
-4.46665 -6.1352 -1.67459 136 130 134
-4.48632 -6.1234 -1.67506 137 130 134
-5.97983 -5.36511 -1.87 148 142 146
-6.0173 -5.36624 -1.87742 155 153 156
-6.03588 -5.33332 -1.87543 115 112 119
-6.0214 -5.28772 -1.86501 101 98 107
-6.07624 -5.30388 -1.87838 115 113 124
-6.08865 -5.26562 -1.87441 116 116 128
-6.12033 -5.2609 -1.87985 111 109 123
-6.12865 -5.23574 -1.87736 106 104 118
-6.13981 -5.2131 -1.87586 90 89 103
-6.17667 -5.19605 -1.88031 84 83 99
-6.93284 -4.10511 -1.88168 76 85 102
-6.97319 -3.97187 -1.87417 78 90 106
-6.96063 -3.92222 -1.86524 80 89 104
-8.05415 -2.5678 -1.89286 75 82 92
-8.08357 -2.54994 -1.89851 80 87 97
-8.07968 -2.52126 -1.89566 78 82 91
-8.76326 -1.57609 -1.89928 84 97 116
-8.77117 -1.5494 -1.90016 82 91 108
-9.07039 -0.951785 -1.87533 79 91 115
-9.21191 -0.734431 -1.87175 78 93 116
-9.20757 -0.709391 -1.87023 79 95 120
-9.42731 -0.492093 -1.88081 85 98 123
-9.41434 -0.461864 -1.87784 78 90 114
-9.66314 -0.174062 -1.88348 78 92 118
-9.65724 -0.135314 -1.88202 77 92 116
-3.05362 -7.70717 -1.61758 137 134 141
-3.07564 -7.69478 -1.61674 141 138 147
-3.37459 -7.32029 -1.62691 141 140 145
-3.39377 -7.3034 -1.62516 142 140 145
-3.768 -6.90838 -1.64567 141 138 144
-4.38899 -6.16384 -1.66941 141 131 139
-4.41635 -6.16359 -1.67319 138 131 138
-5.8741 -5.50017 -1.87304 114 109 117
-5.89906 -5.47313 -1.87303 148 146 151
-5.91819 -5.45768 -1.87401 146 144 148
-5.93019 -5.43556 -1.87251 143 141 143
-5.95347 -5.42394 -1.87498 140 136 138
-5.97809 -5.3965 -1.87497 144 139 143
-7.00877 -3.89308 -1.87264 77 87 102
-7.04174 -3.813 -1.87062 76 84 103
-7.09364 -3.77096 -1.87752 80 89 104
-8.08493 -2.49556 -1.89517 81 84 93
-8.09771 -2.45843 -1.89562 75 79 88
-8.75979 -1.51938 -1.89653 85 96 116
-9.05702 -0.921807 -1.87182 76 89 113
-9.06625 -0.879929 -1.87311 77 92 115
-9.21576 -0.673081 -1.87171 72 86 111
-9.41493 -0.43231 -1.87782 83 95 119
-9.64128 -0.109325 -1.87819 75 89 115
-3.02559 -7.70296 -1.61463 137 135 140
-3.3308 -7.34126 -1.62734 139 134 141
-3.34787 -7.3191 -1.62428 142 137 144
-3.72148 -6.94774 -1.64884 136 131 137
-3.74417 -6.94039 -1.64974 136 134 139
-4.34921 -6.20782 -1.67273 137 130 136
-4.37673 -6.18665 -1.67225 142 136 140
-5.7768 -5.62685 -1.87707 121 116 123
-5.78532 -5.60101 -1.87408 120 115 122
-5.80618 -5.58734 -1.87556 122 117 124
-5.81868 -5.5655 -1.87406 117 114 124
-5.84534 -5.54008 -1.87455 115 112 121
-5.86186 -5.52216 -1.87454 118 112 122
-7.12404 -3.73131 -1.87997 75 84 99
-7.10397 -3.69305 -1.87104 76 85 100
-7.14277 -3.67141 -1.87746 77 85 98
-7.16031 -3.65271 -1.87943 77 87 99
-8.1139 -2.4361 -1.89797 79 83 92
-8.09846 -2.40409 -1.89228 80 84 95
-8.11825 -2.36909 -1.89463 79 83 95
-8.76603 -1.47835 -1.89651 78 90 112
-8.75249 -1.44814 -1.89242 73 86 105
-9.06815 -0.851591 -1.87309 75 90 113
-9.23821 -0.650213 -1.87719 83 95 119
-9.21046 -0.623383 -1.86967 85 97 121
-9.40369 -0.402281 -1.87528 79 93 117
-9.66402 -0.0839418 -1.88388 78 92 118
-9.65179 -0.0580615 -1.881 75 89 115
-2.98944 -7.71393 -1.6142 136 133 140
-3.29984 -7.36269 -1.62909 138 133 140
-3.66339 -6.96405 -1.64612 138 133 140
-3.70048 -6.95851 -1.64884 138 133 141
-4.27846 -6.24636 -1.67086 139 132 140
-4.30618 -6.22552 -1.67038 136 129 137
-4.32292 -6.20938 -1.66943 132 125 132
-5.66603 -5.72351 -1.87414 117 111 118
-5.68313 -5.70618 -1.87413 119 113 118
-5.69683 -5.66767 -1.86966 116 113 114
-5.70692 -5.64336 -1.86717 122 118 124
-5.74428 -5.64644 -1.8746 125 119 123
-7.18703 -3.59694 -1.8794 78 84 95
-7.19224 -3.57199 -1.8779 80 86 98
-7.19909 -3.54789 -1.87689 78 84 96
-7.22703 -3.52019 -1.88035 79 86 96
-7.21456 -3.48673 -1.87389 77 86 95
-7.23159 -3.46761 -1.87586 76 84 93
-8.12488 -2.34384 -1.89461 78 84 96
-8.13329 -2.31912 -1.89506 78 86 97
-8.76577 -1.42235 -1.89466 72 85 105
-8.7636 -1.39406 -1.89329 75 90 113
-9.07965 -0.824157 -1.87525 83 99 122
-9.06514 -0.780011 -1.8713 78 90 112
-9.22018 -0.587119 -1.87165 73 87 113
-9.20185 -0.561227 -1.86663 79 93 119
-9.43199 -0.358952 -1.88115 76 90 116
-9.42639 -0.329147 -1.87987 81 95 121
-9.6589 -0.0195089 -1.88287 81 93 117
-2.96474 -7.71869 -1.61335 138 134 142
-3.27239 -7.3594 -1.62603 140 135 142
-3.61198 -6.96585 -1.64115 138 133 137
-3.64066 -6.97112 -1.64522 137 132 138
-4.24671 -6.28162 -1.67371 135 130 136
-4.25948 -6.25909 -1.67087 137 130 137
-5.54553 -5.791 -1.86477 127 117 115
-5.60805 -5.78653 -1.87516 128 121 117
-5.60663 -5.7498 -1.86821 124 118 118
-5.70531 -5.79929 -1.89497 120 114 118
-7.24507 -3.44676 -1.87683 75 83 92
-7.26912 -3.417 -1.87929 80 81 93
-7.28597 -3.39763 -1.88126 81 83 94
-8.1471 -2.28223 -1.89599 77 85 96
-8.1628 -2.25954 -1.89833 76 85 96
-8.156 -2.23048 -1.89501 77 85 98
-8.76346 -1.35212 -1.89192 74 86 110
-8.76491 -1.32445 -1.89145 78 93 114
-9.07254 -0.752172 -1.8726 75 87 110
-9.22204 -0.537966 -1.87161 74 88 114
-9.20434 -0.499916 -1.86659 74 89 114
-9.41874 -0.299316 -1.87817 81 94 118
-2.94386 -7.73444 -1.61504 137 134 142
-3.25147 -7.37231 -1.6269 135 132 139
-3.59681 -6.98855 -1.64432 140 136 141
-4.19545 -6.30811 -1.6723 136 134 139
-4.23178 -6.30083 -1.6756 137 132 139
-5.47952 -5.89919 -1.87323 119 109 103
-5.48938 -5.85554 -1.86678 138 125 117
-5.50163 -5.8331 -1.86479 132 121 115
-5.52828 -5.82623 -1.86825 128 121 115
-8.17153 -2.2077 -1.89735 77 85 98
-8.17173 -2.167 -1.89497 76 86 96
-8.77591 -1.29819 -1.89324 81 93 115
-9.06627 -0.723157 -1.87083 73 87 110
-9.06379 -0.694497 -1.86994 77 90 112
-9.22627 -0.476601 -1.87207 79 91 117
-9.19794 -0.450428 -1.86455 81 93 119
-9.41336 -0.254798 -1.87688 86 98 122
-3.18795 -7.37706 -1.62253 140 137 146
-3.21816 -7.38794 -1.62733 138 135 144
-3.54768 -7.02315 -1.64657 139 132 139
-3.56139 -6.99703 -1.6425 140 135 140
-4.15504 -6.32965 -1.67137 137 131 137
-4.17116 -6.3123 -1.66994 137 132 137
-5.34924 -5.95375 -1.86089 125 114 108
-5.37345 -5.9447 -1.86336 123 113 110
-5.4118 -5.95147 -1.87128 125 116 110
-5.41953 -5.90509 -1.86384 115 105 94
-5.44237 -5.8943 -1.86581 124 114 103
-8.17772 -2.14157 -1.89496 78 87 101
-8.18174 -2.11563 -1.89447 77 87 99
-8.77338 -1.25596 -1.89141 76 88 112
-8.77065 -1.22775 -1.89004 87 99 123
-9.06612 -0.651973 -1.86992 81 93 115
-9.19461 -0.425712 -1.86353 69 83 109
-9.40744 -0.225106 -1.8756 82 94 120
-9.40922 -0.195591 -1.876 82 94 120
-3.16763 -7.39154 -1.62384 141 136 142
-3.52154 -7.02276 -1.64386 135 133 141
-4.10346 -6.35536 -1.66996 134 129 136
-4.12981 -6.35477 -1.67326 137 130 138
-5.21404 -5.96305 -1.83961 129 118 112
-5.24701 -5.9648 -1.84555 129 117 113
-5.28257 -5.96934 -1.85248 128 117 110
-5.31992 -5.95686 -1.85644 129 119 111
-8.19651 -2.07889 -1.89587 82 92 104
-8.20974 -2.05531 -1.89774 77 87 99
-8.21913 -2.0307 -1.89866 77 87 100
-8.78716 -1.20216 -1.89318 79 91 115
-8.78426 -1.17393 -1.89181 79 91 115
-9.05566 -0.622777 -1.86728 77 89 113
-9.07422 -0.595654 -1.87119 79 92 115
-9.2208 -0.390106 -1.87 74 88 115
-9.20763 -0.364928 -1.86648 79 94 120
-9.39749 -0.151092 -1.87345 83 97 123
-3.10484 -7.39736 -1.6199 137 134 141
-3.12385 -7.37942 -1.61771 138 133 140
-3.46721 -7.04615 -1.64341 141 136 142
-3.48441 -7.02729 -1.64114 144 139 145
-4.05371 -6.38398 -1.6695 136 129 137
-4.08415 -6.36753 -1.66997 137 129 139
-5.03024 -5.96574 -1.80942 131 118 109
-5.07593 -5.96516 -1.81685 127 114 107
-5.10864 -5.96757 -1.82279 129 116 110
-5.1402 -5.96835 -1.82823 131 118 110
-5.17553 -5.97342 -1.83516 127 116 112
-8.22032 -1.99044 -1.89676 78 87 104
-8.20879 -1.96069 -1.89249 74 82 101
-8.76567 -1.12981 -1.88637 77 91 117
-8.77802 -1.10359 -1.88861 77 89 114
-9.06638 -0.552449 -1.86899 80 95 118
-9.21177 -0.340523 -1.86746 80 94 120
-9.40101 -0.121607 -1.87428 76 92 118
-3.07964 -7.3988 -1.61815 138 133 140
-3.44271 -7.049 -1.6416 138 133 139
-3.98757 -6.40634 -1.66573 142 133 138
-4.00406 -6.38945 -1.66431 141 135 139
-4.02837 -6.38592 -1.66667 136 129 136
-4.8982 -5.97019 -1.78864 133 120 111
-4.93061 -5.97345 -1.79458 133 120 111
-4.96878 -5.96453 -1.79903 133 119 110
-5.00009 -5.96596 -1.80447 129 116 108
-6.06114 -4.85429 -1.86853 78 88 113
-6.09652 -4.83738 -1.87314 79 86 112
-6.10185 -4.81137 -1.87005 83 90 116
-6.11608 -4.79264 -1.87004 83 90 116
-6.14073 -4.76688 -1.87105 78 88 113
-6.15332 -4.74682 -1.87053 77 87 112
-6.17189 -4.73151 -1.87205 81 88 114
-6.18716 -4.6983 -1.86999 80 85 114
-6.19799 -4.67692 -1.86896 82 90 113
-6.21485 -4.66024 -1.86997 75 86 106
-6.23932 -4.64936 -1.87354 74 85 107
-6.24492 -4.60889 -1.86841 73 84 106
-6.26621 -4.5955 -1.87096 76 87 109
-6.27512 -4.57276 -1.86941 74 86 108
-6.30814 -4.55299 -1.8735 74 85 107
-6.30601 -4.52213 -1.86836 72 83 103
-6.32088 -4.50386 -1.86886 75 86 106
-6.34117 -4.47467 -1.86885 73 84 106
-6.36999 -4.46643 -1.87396 71 82 104
-6.38156 -4.44569 -1.87343 74 87 106
-6.38521 -4.41933 -1.87035 72 88 104
-6.40037 -4.38648 -1.8688 70 82 104
-6.42116 -4.37229 -1.87135 73 85 107
-6.43084 -4.3503 -1.87031 75 86 108
-6.44244 -4.31509 -1.86773 75 86 108
-6.47263 -4.30721 -1.87336 76 87 107
-6.46931 -4.27641 -1.86822 72 83 103
-6.48531 -4.24432 -1.86718 73 84 102
-6.50738 -4.23075 -1.87024 73 84 102
-6.51336 -4.20641 -1.86818 74 85 103
-6.54019 -4.19587 -1.87278 73 84 102
-6.5493 -4.15926 -1.86969 84 91 117
-6.55501 -4.13485 -1.86763 80 84 109
-6.56872 -4.11566 -1.86813 80 86 108
-8.21978 -1.9365 -1.89389 78 87 104
-8.22883 -1.91181 -1.89481 79 88 105
-8.77674 -1.07568 -1.88768 75 86 104
-9.07697 -0.524676 -1.87115 77 89 113
-9.20085 -0.303255 -1.86444 87 101 126
-9.20094 -0.278711 -1.86442 74 88 114
-9.39856 -0.0920537 -1.87384 77 91 117
-9.39212 -0.0624961 -1.87255 75 87 111
-3.05851 -7.41113 -1.61902 137 135 140
-3.38505 -7.06462 -1.63933 139 134 140
-3.40875 -7.06021 -1.64069 140 135 139
-3.95599 -6.42062 -1.66479 139 130 135
-4.76231 -5.9659 -1.76587 133 121 110
-4.79205 -5.96675 -1.77082 131 119 107
-4.82903 -5.9766 -1.77874 134 120 111
-4.86827 -5.96981 -1.78369 133 120 111
-5.8841 -5.09033 -1.87173 78 86 109
-5.90427 -5.06074 -1.8707 79 85 107
-5.93233 -5.05414 -1.8753 78 84 106
-5.92843 -5.01946 -1.86862 80 85 105
-5.9681 -5.02283 -1.87733 84 86 109
-5.9718 -4.97901 -1.87065 82 83 108
-5.98802 -4.96197 -1.87115 80 83 105
-6.01744 -4.95612 -1.87627 80 86 108
-6.02213 -4.91352 -1.87011 76 82 106
-6.03372 -4.89258 -1.86907 79 86 112
-6.04821 -4.87408 -1.86906 81 89 112
-6.62951 -4.11215 -1.88144 79 87 106
-6.63176 -4.08549 -1.87835 79 88 105
-6.62082 -4.05065 -1.87116 81 90 105
-6.63756 -4.03326 -1.87269 84 93 110
-6.65563 -4.00248 -1.87267 83 90 106
-6.66072 -3.97789 -1.87061 84 91 109
-6.67397 -3.9583 -1.87111 89 96 114
-6.68673 -3.92436 -1.86956 82 91 106
-6.70147 -3.90567 -1.87057 80 89 104
-6.71617 -3.88691 -1.87158 78 89 105
-7.51411 -2.84805 -1.8839 76 80 89
-8.22375 -1.87027 -1.89149 79 87 106
-8.23636 -1.8464 -1.89336 75 86 104
-8.76539 -1.03273 -1.88405 79 91 113
-8.79293 -1.00815 -1.88991 73 85 109
