-9.14537 11.8764 -1.94418 115 109 118
-8.63945 12.8184 -1.94907 124 116 103
-8.5894 12.8261 -1.94647 125 119 106
-8.52998 12.864 -1.94706 121 115 108
-7.67902 14.1374 -1.93851 90 90 102
-7.61152 14.1677 -1.93852 87 85 96
-7.22984 14.8935 -1.94513 91 90 96
-7.17917 14.905 -1.94405 90 89 97
-6.12365 16.1361 -1.90888 77 81 92
-6.07209 16.1514 -1.90886 77 81 92
-16.2915 0.762356 -1.93964 91 103 127
-16.2862 0.808878 -1.93944 96 108 132
-16.2952 0.879584 -1.94159 85 92 114
-15.6171 1.6945 -1.93234 90 102 118
-15.6324 1.74174 -1.93569 95 104 121
-15.6319 1.78708 -1.93666 94 105 122
-15.6264 1.85449 -1.93738 79 89 109
-14.69 3.72761 -1.9788 80 88 107
-14.6868 3.77192 -1.98038 84 92 111
-14.6683 3.81191 -1.97953 81 89 108
-14.6456 3.87314 -1.97903 83 92 109
-14.6685 3.92525 -1.98486 82 94 110
-14.6609 3.96851 -1.98583 83 95 111
-11.2024 10.2644 -2.06189 89 95 103
-11.1322 10.257 -2.05368 94 94 106
-11.0717 10.2593 -2.04761 93 95 107
-10.995 10.2441 -2.03788 90 94 105
-10.9173 10.2594 -2.03153 91 93 105
-10.8531 10.2564 -2.02454 89 91 103
-10.7863 10.2501 -2.01695 88 90 102
-10.7075 10.2628 -2.01029 78 82 94
-10.6384 10.2529 -2.00208 69 75 87
-10.5773 10.2515 -1.9957 70 74 86
-10.4989 10.2628 -1.98904 89 91 103
-10.4407 10.2637 -1.98327 104 105 117
-9.11046 11.906 -1.94509 116 113 119
-9.06788 11.924 -1.9439 113 112 118
-9.01185 11.9623 -1.94422 114 111 117
-8.97874 11.9949 -1.94572 110 108 113
-8.49451 12.8971 -1.9488 124 118 107
-8.45795 12.9284 -1.95025 120 111 102
-8.41356 12.9459 -1.94938 120 111 106
-7.57259 14.2022 -1.9407 91 91 99
-7.51989 14.2059 -1.93823 90 91 96
-7.45841 14.25 -1.94042 90 93 101
-7.1028 14.9201 -1.94218 80 81 86
-7.05426 14.9368 -1.94191 91 92 95
-5.994 16.1703 -1.90834 78 81 92
-5.94067 16.1796 -1.90758 80 81 89
-16.2909 0.645429 -1.93828 93 106 131
-16.2947 0.715726 -1.93956 92 104 128
-15.6452 1.53932 -1.93324 95 106 126
-15.6434 1.58439 -1.93392 94 107 126
-15.6336 1.62856 -1.9334 96 110 130
-14.73 3.42395 -1.97135 84 91 108
-14.724 3.46718 -1.97232 82 90 108
-14.7105 3.53075 -1.97303 79 90 106
-14.7023 3.57346 -1.97371 78 90 106
-14.7111 3.62079 -1.97711 81 90 107
-14.6854 3.68121 -1.976 84 93 110
-10.3681 10.248 -1.97414 92 96 107
-10.3206 10.2602 -1.97081 107 111 122
-10.2439 10.2714 -1.96445 115 117 125
-10.1938 10.2801 -1.9605 118 117 123
-10.1489 10.2946 -1.95778 109 106 114
-10.0968 10.3332 -1.95721 102 99 110
-10.0673 10.3654 -1.95814 101 97 109
-8.92958 12.0024 -1.94273 110 108 113
-8.88572 12.0181 -1.94124 104 102 107
-8.82923 12.0555 -1.94156 106 103 112
-8.34207 12.9622 -1.9465 120 113 104
-8.30519 12.9931 -1.94795 114 108 100
-8.26726 13.0222 -1.94911 112 105 101
-7.40252 14.2459 -1.93685 90 93 103
-7.35298 14.2563 -1.93547 87 89 97
-7.00714 14.9569 -1.94216 91 91 93
-6.93709 14.9878 -1.94269 81 81 86
-6.88553 14.9966 -1.94135 75 74 80
-16.2937 0.482027 -1.93711 96 108 132
-16.2865 0.551823 -1.93667 93 105 129
-16.3036 0.599186 -1.93962 92 106 132
-15.6501 1.38162 -1.93088 90 102 124
-15.6546 1.42727 -1.93244 93 105 127
-15.6551 1.47255 -1.93342 93 104 125
-14.7858 3.19244 -1.97006 79 87 106
-14.7767 3.2348 -1.97043 79 88 105
-14.7426 3.27105 -1.96686 83 92 107
-14.7467 3.31662 -1.96935 83 92 109
-14.7281 3.3788 -1.96916 88 97 112
-10.0287 10.3869 -1.95693 101 99 110
-9.96729 10.4144 -1.95423 104 103 113
-9.92478 10.431 -1.95211 106 104 116
-9.89105 10.4581 -1.95212 103 101 111
-9.842 10.5001 -1.95246 108 107 113
-8.79258 12.0826 -1.94217 107 104 114
-8.7496 12.0995 -1.94097 108 105 115
-8.6958 12.1414 -1.94219 106 105 110
-8.21522 13.0743 -1.9523 115 108 107
-8.16675 13.0839 -1.95027 106 98 95
-8.13215 13.1196 -1.95259 103 95 93
-6.82908 14.9921 -1.93814 91 89 95
-16.2671 0.318151 -1.93192 71 86 108
-16.2863 0.38848 -1.93521 96 107 132
-16.2881 0.435184 -1.93587 99 111 134
-15.6591 1.22457 -1.9294 150 160 174
-15.6563 1.26942 -1.92978 158 169 187
-15.6591 1.33734 -1.93139 89 103 132
-14.7823 2.92612 -1.95933 92 103 119
-14.7973 2.97354 -1.96334 87 99 114
-14.7803 3.03598 -1.96315 89 101 117
-14.7756 3.07917 -1.96413 86 98 114
-14.8054 3.13043 -1.97056 88 97 114
-9.79809 10.5147 -1.95004 103 101 112
-9.76659 10.5445 -1.95066 98 96 109
-9.74736 10.5896 -1.95434 106 107 112
-9.69643 10.6294 -1.95437 102 100 111
-8.6486 12.1512 -1.9398 106 107 111
-8.61566 12.1845 -1.9416 106 105 110
-8.5533 12.2122 -1.94042 108 106 117
-8.07028 13.1537 -1.95289 103 99 98
-8.03806 13.1944 -1.95607 104 101 103
-7.07602 14.3623 -1.93435 90 91 97
-6.76296 15.0334 -1.94026 83 79 78
-6.71136 15.0415 -1.93892 75 72 77
-6.65774 15.0439 -1.93678 77 75 80
-16.2926 0.272004 -1.93528 144 156 170
-15.6663 1.06755 -1.92792 161 173 189
-15.6601 1.11207 -1.92771 150 161 180
-15.6617 1.17973 -1.92902 127 139 153
-14.7813 2.72831 -1.95205 94 102 123
-14.7738 2.77057 -1.95242 86 96 121
-14.7815 2.81605 -1.95521 90 101 122
-14.7846 2.88257 -1.95805 92 103 122
-13.286 5.81627 -2.01626 119 122 134
-13.2704 5.85538 -2.01696 116 120 131
-13.2599 5.89711 -2.01861 115 119 128
-13.237 5.93263 -2.01802 118 122 133
-13.2134 5.99112 -2.01906 120 124 134
-13.1972 6.03007 -2.01976 119 123 132
-13.1896 6.07351 -2.02205 122 125 133
-13.146 6.1218 -2.01956 114 113 124
-13.1242 6.15782 -2.01929 107 107 120
-13.1039 6.1947 -2.01934 93 95 109
-13.0877 6.25736 -2.02199 89 92 106
-13.0775 6.29976 -2.02396 92 95 110
-13.0621 6.33933 -2.02497 79 85 98
-13.0534 6.38266 -2.02727 74 80 92
-13.0327 6.44338 -2.02928 72 78 92
-13.0305 6.49057 -2.03286 70 75 94
-13.0058 6.52523 -2.03226 69 74 93
-12.9809 6.5839 -2.03362 76 78 101
-12.9628 6.62231 -2.03431 75 80 100
-12.9564 6.66758 -2.03725 78 84 102
-12.9189 6.71913 -2.03636 77 86 101
-12.9071 6.76139 -2.03834 77 86 103
-12.8884 6.79963 -2.03902 77 86 104
-12.8639 6.85892 -2.04071 81 88 104
-12.8448 6.89705 -2.04139 81 88 104
-12.8273 6.93615 -2.0424 82 89 105
-12.8063 6.97317 -2.04277 82 91 107
-12.7792 7.03117 -2.04413 82 89 105
-12.7646 7.07222 -2.04578 82 88 104
-12.7465 7.11115 -2.04678 87 88 106
-12.7137 7.16578 -2.04718 84 87 104
-12.7036 7.20991 -2.04979 84 87 104
-12.6734 7.24125 -2.04855 83 88 102
-12.6466 7.29986 -2.05023 84 88 103
-12.636 7.34393 -2.05284 84 87 104
-12.6104 7.37824 -2.05256 83 89 104
-12.5747 7.4312 -2.05263 82 88 103
-12.5554 7.4697 -2.05363 85 86 105
-12.5343 7.50706 -2.05432 84 87 102
-12.5229 7.55101 -2.05693 83 86 100
-12.488 7.60468 -2.05732 85 87 103
-12.4697 7.64411 -2.05865 83 85 101
-12.4497 7.68238 -2.05965 84 87 103
-12.4238 7.74253 -2.06197 83 87 103
-12.397 7.77615 -2.06169 83 86 104
-12.3829 7.81882 -2.06398 84 86 103
-12.3451 7.87074 -2.06404 84 86 101
-12.3259 7.90987 -2.06537 83 87 100
-9.66086 10.6543 -1.95408 103 100 111
-9.61913 10.6712 -1.95226 104 102 105
-9.56417 10.7058 -1.95138 105 102 109
-9.52113 10.7208 -1.94925 120 113 119
-9.4805 10.7388 -1.94774 127 120 122
-8.5191 12.2436 -1.94192 104 104 112
-8.48277 12.2714 -1.94282 107 106 113
-8.42107 12.3002 -1.94194 105 103 111
-7.98397 13.1928 -1.9523 103 99 98
-7.92264 13.228 -1.95289 100 95 100
-7.87484 13.2383 -1.95115 99 93 103
-7.02262 14.3623 -1.9316 93 94 98
-6.97517 14.3769 -1.93104 90 91 95
-6.58315 15.062 -1.9357 85 84 87
-6.53555 15.0808 -1.93595 82 81 86
-15.666 0.91017 -1.92555 138 142 164
-15.6681 0.955249 -1.92652 149 156 175
-15.6646 1.02242 -1.92695 131 142 161
-14.7901 2.46841 -1.94465 92 100 119
-14.7794 2.53158 -1.94506 91 99 118
-14.7724 2.5738 -1.94543 89 98 115
-14.7828 2.61939 -1.94853 88 96 115
-14.7852 2.66355 -1.95042 89 97 116
-13.5015 5.1567 -2.00092 98 100 113
-13.4635 5.20821 -1.99876 103 105 119
-13.4571 5.25085 -2.00074 107 109 123
-13.4524 5.29431 -2.00304 113 114 126
-13.4384 5.33378 -2.00373 117 117 130
-13.4159 5.39212 -2.00446 124 124 136
-13.4143 5.43722 -2.0074 121 125 132
-13.4017 5.47744 -2.00842 124 128 135
-13.3749 5.534 -2.0085 127 129 139
-13.3691 5.57748 -2.0108 123 125 136
-13.3596 5.6193 -2.01246 117 123 133
-13.3393 5.67907 -2.01383 117 122 133
-13.3259 5.71917 -2.01485 120 123 133
-13.3124 5.75924 -2.01586 121 125 138
-12.3097 7.95129 -2.06733 83 86 101
-12.2729 8.00404 -2.06772 82 85 100
-12.2532 8.04302 -2.06904 80 86 100
-12.2192 8.07137 -2.06747 82 85 100
-12.2024 8.11259 -2.06944 82 85 100
-12.1679 8.16725 -2.07047 82 85 100
-12.1524 8.20959 -2.07275 81 86 100
-12.1288 8.24592 -2.07343 82 85 100
-12.089 8.29667 -2.07349 81 83 98
-12.0683 8.33525 -2.07482 82 85 100
-12.0474 8.37379 -2.07614 82 85 100
-12.0055 8.42294 -2.07588 78 86 99
-11.9843 8.46133 -2.0772 79 85 99
-11.9584 8.49597 -2.07755 81 84 101
-9.42766 10.7758 -1.94747 107 102 107
-9.39049 10.7983 -1.94687 108 105 111
-9.35444 10.8222 -1.94658 112 109 118
-9.30477 10.8633 -1.94721 107 104 113
-8.38255 12.3244 -1.94224 108 107 114
-8.34198 12.345 -1.94194 108 107 114
-8.31404 12.3878 -1.94554 108 105 112
-7.82528 13.245 -1.94884 102 99 105
-7.75928 13.2706 -1.94797 98 96 98
-7.71148 13.2804 -1.94624 100 98 102
-6.20617 11.6884 -1.64332 92 93 97
-6.13213 11.6186 -1.62971 95 94 100
-6.90288 14.3947 -1.92966 87 91 94
-6.86184 14.4255 -1.93157 92 95 100
-6.80993 14.4285 -1.92937 95 95 101
-6.48592 15.0937 -1.93541 85 84 90
-6.43298 15.0972 -1.93353 76 78 86
-15.6619 0.752868 -1.92288 95 107 129
-15.6724 0.798325 -1.92504 98 109 131
-15.6617 0.864991 -1.92428 94 102 125
-14.7843 2.27246 -1.93766 89 101 117
-14.7899 2.31665 -1.93985 87 100 116
-14.7779 2.37944 -1.93996 89 98 117
-14.7792 2.42302 -1.94154 92 100 119
-13.6164 4.68822 -1.98774 74 77 91
-13.6025 4.74934 -1.98944 78 82 95
-13.5904 4.7891 -1.99014 82 85 95
-13.5726 4.82665 -1.98987 85 86 100
-13.5767 4.87297 -1.99346 88 90 104
-13.5528 4.93031 -1.99355 95 98 112
-13.5455 4.97223 -1.99521 100 102 115
-13.5381 5.01416 -1.99687 113 111 126
-13.5208 5.07439 -1.99824 116 112 128
-13.5076 5.114 -1.99894 117 117 127
-11.9354 8.53302 -2.07855 79 85 99
-11.8912 8.5804 -2.07797 80 86 98
-11.8648 8.61477 -2.07832 81 84 101
-11.8445 8.65409 -2.07996 82 85 102
-11.8028 8.70354 -2.08002 83 85 100
-11.7806 8.74146 -2.08134 82 85 100
-11.7673 8.78697 -2.08459 83 85 100
-11.7205 8.83223 -2.08368 83 85 100
-11.6933 8.86611 -2.08403 85 84 100
-11.678 8.91023 -2.08696 83 85 100
-9.2603 10.8758 -1.94479 112 109 118
-9.22403 10.8993 -1.94449 112 109 116
-9.18767 10.9226 -1.9442 114 111 118
-9.12823 10.9502 -1.94239 114 111 117
-8.24509 12.4037 -1.94256 107 105 108
-8.20331 12.4222 -1.94196 107 104 108
-8.1615 12.4405 -1.94136 101 97 103
-7.6654 13.2936 -1.94508 102 99 107
-7.62531 13.319 -1.94594 100 97 108
-6.07951 11.6489 -1.63087 95 95 106
-6.04962 11.6824 -1.63375 95 94 102
-6.73679 14.4437 -1.92772 91 92 97
-6.3647 15.133 -1.93512 82 82 91
-6.31367 15.1417 -1.93404 67 66 75
-15.676 0.663911 -1.9239 95 107 131
-15.665 0.708206 -1.9228 91 103 126
-14.7932 2.07998 -1.93339 94 103 122
-14.7877 2.12215 -1.93377 89 97 116
-14.8015 2.16744 -1.93717 88 97 114
-14.7903 2.23027 -1.93728 89 99 117
-13.6857 4.31794 -1.97599 86 88 104
-13.6805 4.35982 -1.97765 83 86 100
-13.6752 4.40171 -1.97931 81 84 97
-13.6572 4.46084 -1.98004 83 83 101
-13.6534 4.50342 -1.98203 81 81 99
-13.6457 4.54465 -1.98337 80 79 96
-13.6307 4.60508 -1.98474 82 81 96
-13.6246 4.64701 -1.9864 89 88 102
-11.6381 8.9615 -2.08766 83 87 99
-11.6061 8.99125 -2.08705 84 86 99
-11.5828 9.02873 -2.08836 85 84 100
-11.5565 9.06353 -2.08904 86 85 101
-11.5173 9.1156 -2.09005 84 88 100
-11.4863 9.14626 -2.08976 84 88 100
-11.464 9.18477 -2.0914 84 87 102
-11.4183 9.23113 -2.09113 84 87 102
-11.4014 9.27485 -2.09406 87 89 103
-9.09289 10.9749 -1.9424 112 109 116
-9.05517 10.9962 -1.9418 109 106 115
-8.99435 11.0215 -1.93969 114 111 118
-8.96105 11.049 -1.94031 111 108 115
-8.10578 12.4799 -1.94257 107 103 109
-8.06192 12.4944 -1.94138 106 103 107
-8.02367 12.5193 -1.94198 102 97 101
-7.55904 13.3437 -1.94508 97 96 101
-7.52553 13.3831 -1.94825 97 96 101
-7.47418 13.385 -1.94536 97 97 105
-6.69264 14.4666 -1.92853 93 92 97
-6.64703 14.4856 -1.92879 90 89 94
-6.26388 15.154 -1.93349 84 83 90
-6.19707 15.1946 -1.93587 77 77 83
-15.6711 0.506901 -1.92152 96 110 130
-15.6785 0.551976 -1.92309 103 116 136
-15.6798 0.596854 -1.92377 86 101 124
-14.8072 1.8889 -1.93034 89 100 118
-14.8081 1.93191 -1.93162 87 98 116
-14.8011 1.97381 -1.93169 88 99 121
-14.7986 2.0378 -1.93302 87 97 118
-13.7774 4.00186 -1.9723 76 81 100
-13.7658 4.04131 -1.97268 73 77 96
-13.7672 4.08509 -1.9753 64 69 88
-13.7619 4.14833 -1.97797 69 72 88
-13.748 4.18712 -1.97802 73 75 92
-13.7172 4.22007 -1.97519 82 83 98
-13.7049 4.25938 -1.97557 79 78 94
-11.3743 9.30915 -2.09473 86 88 101
-11.3309 9.35778 -2.0951 84 86 99
-11.3078 9.39596 -2.09674 80 82 94
-11.276 9.42594 -2.09644 71 73 86
-11.2292 9.4714 -2.09617 71 76 86
-11.1986 9.5025 -2.09619 88 92 102
-11.1735 9.53899 -2.09751 110 113 125
-8.92764 11.0764 -1.94093 113 111 116
-8.86433 11.0978 -1.93821 118 113 120
-8.84078 11.1396 -1.94157 115 110 117
-7.9554 12.5354 -1.93929 109 105 104
-7.91237 12.5512 -1.93839 108 104 101
-7.86839 12.5651 -1.93719 112 107 105
-7.40765 13.4089 -1.94449 98 98 106
-7.35472 13.4067 -1.94101 97 97 105
-6.57443 14.5019 -1.92742 86 82 84
-6.51915 14.4946 -1.92384 82 78 78
-6.47815 14.5261 -1.92602 76 71 77
-6.15459 15.2291 -1.93852 71 70 79
-6.10275 15.2353 -1.93717 74 74 83
-15.6528 0.349812 -1.91736 93 106 129
-15.6488 0.394365 -1.91715 91 103 127
-15.6663 0.439617 -1.92021 95 107 131
-14.818 1.74061 -1.92826 90 101 121
-14.8311 1.78511 -1.93136 94 105 122
-14.8187 1.82628 -1.93053 94 103 124
-13.7987 3.66558 -1.95801 83 90 108
-13.7995 3.70846 -1.96031 83 88 108
-13.8171 3.75655 -1.96551 78 81 104
-13.8195 3.80014 -1.96814 83 89 106
-13.8119 3.86211 -1.97016 84 90 106
-13.797 3.90044 -1.9699 80 84 103
-13.8007 3.94475 -1.97284 68 71 91
-11.1483 9.57543 -2.09882 111 109 122
-11.1036 9.62305 -2.09919 138 137 147
-11.0837 9.66487 -2.10179 129 129 134
-11.0511 9.69413 -2.1015 115 113 118
-10.9933 9.72872 -2.09897 82 78 85
-10.9522 9.74926 -2.09674 84 79 86
-10.9262 9.78514 -2.09805 79 76 84
-8.80261 11.1601 -1.94097 112 106 116
-8.75011 11.1972 -1.9413 114 111 115
-8.72386 11.2355 -1.94405 114 110 116
-8.67778 11.244 -1.94131 115 111 117
-7.81192 12.6031 -1.9384 108 102 101
-7.76783 12.6167 -1.9372 113 104 101
-7.72553 12.6336 -1.9366 117 110 104
-7.31908 13.442 -1.94361 100 99 105
-7.24584 13.4508 -1.94043 98 97 103
-7.20915 13.4841 -1.94274 98 99 103
-6.42696 14.5296 -1.92409 76 74 79
-6.36551 14.5765 -1.92737 88 91 96
-6.0245 15.2413 -1.93476 70 74 84
-15.6788 0.283395 -1.9208 124 137 149
-14.8272 1.59238 -1.92618 95 107 126
-14.831 1.6355 -1.92777 93 104 122
-14.821 1.67697 -1.92724 91 102 122
-13.8717 3.43206 -1.95795 82 89 108
-13.841 3.46583 -1.95481 80 88 109
-13.8237 3.52433 -1.9549 80 88 104
-13.8553 3.5759 -1.96234 78 87 103
-13.8186 3.60775 -1.95823 77 84 103
-10.8791 9.83035 -2.09809 85 82 95
-10.8474 9.86038 -2.09812 95 91 105
-10.8264 9.90169 -2.10071 88 84 99
-10.7734 9.94072 -2.09947 91 92 102
-10.7534 9.98332 -2.10239 97 98 93
-10.7158 10.0072 -2.10113 97 99 96
-8.64041 11.2657 -1.94101 116 114 119
-8.58092 11.2921 -1.93951 111 109 112
-8.54878 11.3217 -1.94073 115 113 117
-7.68408 12.6522 -1.9363 113 109 104
-7.62177 12.6789 -1.93571 123 116 104
-7.16027 13.4902 -1.94071 99 100 104
-7.0902 13.5053 -1.93868 98 97 103
-6.31362 14.5778 -1.92516 89 90 95
-6.2715 14.6069 -1.92707 97 96 102
-5.98226 15.2772 -1.93768 74 74 84
-5.92917 15.279 -1.93579 76 76 85
-14.8563 1.4465 -1.92744 90 103 122
-14.841 1.48745 -1.926 90 102 124
-14.8334 1.52921 -1.92577 88 99 121
-13.9021 3.1874 -1.95147 84 90 112
-13.8975 3.24918 -1.9535 91 98 117
-13.8826 3.28734 -1.95292 80 90 108
-13.8828 3.32954 -1.9549 83 91 110
-13.8757 3.39084 -1.95661 82 87 107
-10.6821 10.0353 -2.10082 74 74 85
-10.6366 10.0823 -2.10151 76 73 89
-10.6013 10.1086 -2.10089 78 75 91
-10.5647 10.1334 -2.09994 80 79 91
-10.516 10.177 -2.09998 83 83 94
-8.5208 11.3579 -1.94318 112 109 116
-8.46944 11.397 -1.94411 107 106 112
-8.42846 11.413 -1.9429 113 112 117
-7.57842 12.6935 -1.93481 118 110 102
-7.53156 12.701 -1.93271 121 114 104
-7.48119 12.7518 -1.93631 124 118 106
-7.04216 13.5128 -1.93694 97 97 107
-6.19473 14.6101 -1.92404 91 92 96
-6.15051 14.6333 -1.92512 90 89 94
-5.85615 15.3012 -1.93578 76 77 86
-5.80541 15.3101 -1.93496 69 70 82
-14.8641 1.29837 -1.92566 91 102 122
-14.8552 1.34003 -1.92513 90 101 121
-14.8498 1.40325 -1.92554 94 107 126
-13.9063 2.91699 -1.94047 87 98 122
-13.9154 2.96077 -1.94374 86 96 117
-13.8995 2.99859 -1.94285 89 96 117
-13.892 3.05923 -1.94423 84 94 112
-13.9025 3.10366 -1.94782 86 97 114
-13.8976 3.1443 -1.94884 82 91 111
-12.598 5.93355 -2.02355 86 89 107
-12.5934 5.99926 -2.02833 74 77 95
-12.5771 6.03628 -2.02905 80 83 98
-12.5659 6.07608 -2.03078 108 112 123
-12.5449 6.13341 -2.03253 128 131 136
-12.4765 6.14179 -2.02316 126 129 136
-12.4786 6.18902 -2.02758 109 109 120
-12.4502 6.24218 -2.02799 79 79 94
-12.428 6.27593 -2.02769 82 82 98
-12.4074 6.31059 -2.02774 85 87 105
-12.3969 6.35107 -2.0298 84 88 107
-12.3779 6.40981 -2.03223 83 90 108
-12.3892 6.46321 -2.03866 83 90 108
-12.3883 6.50974 -2.04274 81 88 104
-12.3601 6.56355 -2.04349 82 89 105
-12.3436 6.60105 -2.04454 83 90 108
-12.3203 6.63444 -2.04424 80 87 103
-12.3066 6.6972 -2.04802 83 91 104
-12.2745 6.72531 -2.04604 82 92 104
-12.2558 6.76158 -2.04675 82 92 104
-12.2354 6.79676 -2.04713 83 91 104
-12.219 6.85835 -2.05057 81 89 102
-12.2032 6.8966 -2.05195 83 89 105
-12.189 6.93589 -2.05367 83 89 105
-12.152 6.98464 -2.05307 83 89 104
-12.1457 7.0292 -2.05647 83 89 105
-12.1161 7.05869 -2.05517 83 89 105
-12.0835 7.11033 -2.05557 84 90 106
-10.4739 10.1956 -2.09775 76 75 89
-10.441 10.2244 -2.09777 80 82 94
-10.3789 10.2526 -2.09459 83 83 97
-10.3327 10.2662 -2.09138 84 85 101
-10.2776 10.2693 -2.08593 84 87 100
-10.2037 10.2831 -2.07984 84 89 104
-10.1423 10.2782 -2.07278 91 90 104
-10.0797 10.2714 -2.06538 83 83 93
-8.38009 11.4171 -1.93955 112 111 114
-8.33465 11.4657 -1.94231 107 105 115
-8.2842 11.466 -1.93835 109 106 116
-8.24928 11.4915 -1.93896 109 106 117
-7.44284 12.7767 -1.9372 123 114 104
-7.39328 12.7783 -1.9342 122 114 103
-6.10366 14.6488 -1.92511 96 96 99
-5.7535 15.3151 -1.93361 68 69 81
-5.70331 15.3256 -1.93306 69 70 81
-14.8743 1.15063 -1.92448 91 104 122
-14.858 1.19167 -1.92274 92 104 126
-14.8474 1.25433 -1.92225 94 103 128
-13.8862 2.66461 -1.92725 91 98 116
-13.8885 2.70626 -1.92924 90 98 117
-13.8651 2.76278 -1.92774 90 103 120
-13.8727 2.84706 -1.93236 87 98 121
-12.8892 5.16312 -2.00706 87 92 111
-12.8829 5.20402 -2.00913 84 90 109
-12.8717 5.26459 -2.0119 84 93 108
-12.8364 5.29235 -2.00858 84 93 109
-12.8474 5.3415 -2.01401 83 90 107
-12.8297 5.37743 -2.01406 84 90 106
-12.8141 5.43627 -2.01616 85 90 109
-12.805 5.47634 -2.01789 85 91 109
-12.7922 5.5147 -2.01895 86 89 106
-12.767 5.56918 -2.01936 85 91 107
-12.7504 5.60573 -2.01975 84 90 104
-12.7407 5.64573 -2.02148 85 91 107
-12.7201 5.70265 -2.0229 85 91 107
-12.7066 5.74085 -2.02396 85 90 109
-12.6929 5.77903 -2.02501 85 90 109
-12.6704 5.81269 -2.02439 85 91 107
-12.649 5.86939 -2.02581 87 93 107
-12.6349 5.90745 -2.02686 85 91 107
-12.075 7.15377 -2.05864 83 89 105
-12.0533 7.18846 -2.05901 86 89 104
-12.0037 7.22879 -2.05605 85 88 103
-12.0159 7.28657 -2.06349 86 89 104
-11.9711 7.3055 -2.05916 83 90 104
-11.9602 7.34773 -2.06189 84 90 104
-11.9278 7.39983 -2.06262 84 87 102
-11.931 7.45222 -2.06838 85 87 102
-11.8762 7.46377 -2.06202 85 88 103
-11.8689 7.53384 -2.06815 85 89 101
-11.8363 7.56106 -2.0665 86 88 101
-11.8164 7.59739 -2.06755 85 87 102
-11.7908 7.65471 -2.06996 85 88 103
-11.7674 7.68861 -2.07034 84 87 102
-11.7503 7.72713 -2.07206 85 88 103
-11.7192 7.78073 -2.07346 83 86 101
-11.6923 7.81206 -2.07316 83 86 101
-11.6684 7.84568 -2.07353 82 85 100
-11.657 7.88879 -2.0766 83 85 100
-10.0185 10.2658 -2.05832 86 89 98
-9.94634 10.2797 -2.05255 84 90 101
-9.88789 10.2765 -2.04613 83 89 101
-9.82956 10.2731 -2.0397 85 91 103
-9.75268 10.2797 -2.03265 86 92 104
-9.69331 10.2741 -2.0259 84 92 103
-9.64153 10.2775 -2.02108 88 94 108
-8.19514 11.526 -1.93928 110 109 118
-8.15797 11.5478 -1.93929 114 113 119
-7.33469 12.8126 -1.93511 123 113 103
-7.29608 12.837 -1.936 125 115 106
-7.2574 12.8614 -1.9369 125 117 105
-6.21338 11.6301 -1.70198 103 100 106
-6.15977 11.6076 -1.69569 96 95 101
-6.81323 13.6351 -1.94067 98 98 106
-6.0362 14.6793 -1.92619 92 92 93
-5.98984 14.6964 -1.92645 92 92 94
-5.62951 15.3449 -1.93278 65 62 75
-14.8573 1.00102 -1.91937 88 103 125
-14.8689 1.04422 -1.92187 87 100 122
-14.8571 1.10681 -1.92108 90 103 120
-13.87 2.47699 -1.91766 90 101 119
-13.9146 2.62958 -1.93039 93 100 119
-13.0193 4.67906 -1.99295 80 88 106
-13.0202 4.72213 -1.99603 84 93 110
-13.0044 4.75856 -1.99608 86 92 110
-12.9976 4.7987 -1.99781 86 90 109
-12.985 4.85778 -1.99991 90 93 113
-12.9633 4.89182 -1.99896 90 95 112
-12.9706 4.9381 -2.00338 87 94 111
-12.9446 4.99173 -2.00313 87 93 111
-12.9298 5.02872 -2.00351 87 92 111
-12.9293 5.072 -2.00659 87 94 112
-12.9009 5.12463 -2.006 87 93 111
-11.611 7.93124 -2.07497 84 86 101
-11.5914 7.96825 -2.07635 82 85 100
-11.5733 8.00643 -2.07807 83 86 101
-11.5346 8.05451 -2.07813 83 86 101
-11.5053 8.084 -2.07749 82 85 100
-11.499 8.13184 -2.0819 83 86 101
-11.4428 8.16598 -2.07825 83 86 101
-11.4331 8.21129 -2.08198 82 85 100
-11.4033 8.24044 -2.08134 83 84 102
-11.3833 8.30403 -2.08578 83 86 101
-11.3487 8.32922 -2.08412 84 86 101
-9.565 10.2829 -2.01402 89 93 105
-9.50598 10.2765 -2.00727 86 90 102
-9.45199 10.276 -2.00181 84 86 101
-9.39198 10.2675 -1.99474 78 80 94
-9.31961 10.2761 -1.98865 78 80 94
-9.26833 10.2779 -1.98383 83 84 98
-9.2135 10.2748 -1.97804 87 89 101
-8.12379 11.5746 -1.9402 117 114 122
-8.07641 11.5792 -1.93716 108 105 113
-8.0258 11.6198 -1.9387 110 107 114
-7.20416 12.9075 -1.9399 128 115 106
-7.15286 12.9047 -1.9363 132 122 113
-6.1057 11.6344 -1.69628 104 103 108
-6.07131 11.6569 -1.69747 104 104 110
-6.04358 11.6958 -1.70136 102 101 109
-6.73908 13.6394 -1.93719 96 96 106
-6.69457 13.6549 -1.9369 96 96 104
-6.65076 13.672 -1.93689 98 98 104
-5.94098 14.7058 -1.92562 97 97 99
-5.86838 14.7205 -1.92451 102 102 104
-14.872 0.854058 -1.9194 95 107 127
-14.8729 0.917515 -1.92043 89 102 121
-14.873 0.959834 -1.92111 86 101 122
-13.9459 2.30819 -1.92377 93 101 122
-13.959 2.35152 -1.92736 89 96 115
-13.9275 2.38635 -1.92358 93 98 117
-13.8863 2.43945 -1.91888 91 100 118
-13.1255 4.31786 -1.98604 78 81 96
-13.1091 4.35392 -1.98576 81 84 101
-13.095 4.41172 -1.98719 78 83 98
-13.095 4.45395 -1.98993 79 86 101
-13.0856 4.49272 -1.99099 81 89 104
-13.0598 4.54621 -1.99041 80 88 107
-13.0611 4.58923 -1.99348 85 93 110
-13.0476 4.6265 -1.99387 89 95 111
-11.3322 8.36944 -2.08651 83 85 100
-11.3005 8.39697 -2.08553 84 86 101
-11.2585 8.44252 -2.08525 84 86 101
-11.237 8.47875 -2.08663 83 85 100
-11.2095 8.50979 -2.08666 84 86 101
-11.1714 8.55877 -2.08738 82 85 100
-11.1585 8.60256 -2.09078 84 86 101
-11.1305 8.63337 -2.09081 84 86 101
-11.0771 8.66895 -2.08816 83 84 102
-9.14142 10.2822 -1.97195 93 96 104
-9.08681 10.2786 -1.96616 109 111 118
-9.02993 10.2715 -1.95973 118 120 125
-8.96056 10.2811 -1.95428 119 118 125
-8.90978 10.2814 -1.94946 111 111 117
-8.85556 10.2767 -1.94367 108 107 112
-7.98834 11.6411 -1.9387 111 108 114
-7.95973 11.6776 -1.94145 111 110 115
-7.8968 11.6972 -1.93932 116 114 119
-7.11554 12.9322 -1.93779 131 123 112
-7.05288 12.958 -1.93749 122 116 113
-6.5803 13.6846 -1.93486 95 94 102
-6.53712 13.7032 -1.93514 91 92 98
-5.8195 14.7295 -1.92367 100 99 104
-5.77586 14.7553 -1.9253 101 100 105
-14.869 0.769403 -1.91774 97 109 133
-14.8755 0.812011 -1.91933 89 101 124
-13.9342 2.16371 -1.91712 86 96 115
-13.9265 2.20294 -1.91719 94 104 125
-13.9516 2.24816 -1.92271 91 99 120
-13.1748 4.18893 -1.98584 48 55 73
-13.1411 4.23958 -1.98358 53 58 72
-13.1361 4.27973 -1.98531 85 89 102
-11.0666 8.71525 -2.09224 84 87 103
-11.0427 8.74971 -2.09327 82 87 102
-11.0085 8.77488 -2.09195 81 87 101
-10.9778 8.83099 -2.0947 85 85 101
-10.9433 8.8559 -2.09338 86 85 101
-10.9161 8.88738 -2.09374 87 87 102
-10.8847 8.94319 -2.09649 85 87 102
-10.8557 8.97315 -2.09651 84 86 101
-8.78529 10.2836 -1.93789 105 104 110
-8.7498 10.3039 -1.93726 108 106 112
-8.70963 10.3178 -1.93534 115 112 121
-8.67173 10.3347 -1.93406 111 108 115
-7.85714 11.7146 -1.93871 114 111 118
-7.82328 11.7422 -1.93994 113 111 120
-7.7746 11.787 -1.94239 116 115 120
-7.01612 12.9871 -1.93928 118 112 103
-6.9617 12.9763 -1.93448 116 109 102
-6.91689 12.987 -1.93328 115 109 106
-6.49887 13.7346 -1.93744 102 101 107
-6.42684 13.7428 -1.93483 104 103 108
-5.72806 14.7678 -1.925 106 104 107
-5.66273 14.8061 -1.92746 98 96 100
-14.8733 0.621991 -1.91656 89 101 125
-14.8625 0.663649 -1.91542 92 104 128
-14.8733 0.706351 -1.91762 93 105 127
-13.9163 1.97872 -1.90849 91 102 122
-13.8995 2.0163 -1.90695 92 103 123
-13.949 2.10546 -1.91766 90 99 121
-10.841 9.01655 -2.09991 84 87 102
-10.7775 9.04224 -2.09524 83 87 99
-10.7667 9.0896 -2.09964 83 87 99
-10.7316 9.11373 -2.09832 84 88 100
-10.6919 9.16207 -2.09938 84 87 102
-10.6622 9.19144 -2.0994 87 88 100
-8.62325 10.371 -1.9344 110 108 113
-8.58637 10.3892 -1.93345 113 111 117
-8.54945 10.4073 -1.93249 116 113 120
-7.73183 11.7988 -1.94086 113 111 114
-7.69192 11.8157 -1.94025 110 108 113
-6.85556 13.0155 -1.93358 108 104 103
-6.38976 13.7776 -1.93771 102 103 103
-6.3407 13.7809 -1.93567 105 104 106
-5.61591 14.822 -1.92771 110 108 110
-5.56734 14.8321 -1.92715 117 115 117
-14.876 0.474634 -1.91538 96 108 132
-14.8677 0.516451 -1.91455 92 105 128
-14.8592 0.558226 -1.91371 91 104 129
-13.9672 1.84553 -1.91273 97 105 126
-13.978 1.88754 -1.91568 95 101 123
-13.9264 1.91992 -1.90838 92 103 124
-10.6366 9.22487 -2.10044 87 89 105
-10.611 9.25824 -2.10147 87 87 105
-10.565 9.3005 -2.10118 88 87 102
-10.5418 9.33648 -2.10289 87 85 102
-10.506 9.35978 -2.10156 88 87 102
-10.4733 9.41564 -2.10464 85 86 99
-8.49836 10.4399 -1.93219 113 110 120
-8.46132 10.4576 -1.93123 113 108 119
-8.42424 10.4753 -1.93027 110 104 116
-8.36954 10.5024 -1.929 108 104 115
-7.64369 11.8617 -1.94301 112 111 116
-7.60266 11.8766 -1.94209 106 105 113
-7.56626 11.9 -1.9427 106 105 113
-6.2965 13.7969 -1.93566 96 90 94
-6.2278 13.8133 -1.9345 79 77 81
-5.49105 14.8336 -1.92439 123 122 119
-14.8633 0.369079 -1.91245 94 106 132
-14.8665 0.432238 -1.91348 90 102 126
-13.9648 1.64418 -1.90694 93 101 122
-13.9482 1.70207 -1.90576 93 103 126
-13.94 1.74105 -1.90551 94 101 127
-10.4428 9.44435 -2.10466 86 85 99
-10.3959 9.45593 -2.10064 86 86 100
-10.3626 9.51142 -2.10371 76 75 91
-10.3386 9.54693 -2.10542 67 70 84
-10.309 9.57665 -2.10578 73 75 90
-8.33347 10.5213 -1.92837 110 110 115
-8.29406 10.5353 -1.92676 116 113 120
-8.24565 10.5716 -1.92742 105 102 111
-7.49622 11.9053 -1.93844 114 111 118
-7.46247 11.9337 -1.93996 110 110 116
-7.41491 11.9357 -1.93691 109 110 115
-6.18485 13.8328 -1.93507 78 76 81
-6.14116 13.8502 -1.93534 76 74 79
-5.44085 14.8376 -1.923 120 115 111
-14.8732 0.327264 -1.91359 90 105 128
-14.0136 1.53002 -1.91186 89 101 121
-14.002 1.56873 -1.91096 98 106 125
-14.0001 1.60867 -1.91167 91 102 121
-10.2697 9.62612 -2.1075 76 78 91
-10.2117 9.62531 -2.10078 102 110 121
-10.1939 9.6677 -2.10417 128 137 146
-10.152 9.68392 -2.1015 143 145 150
-10.1054 9.72546 -2.10154 126 122 122
-10.0687 9.74718 -2.10021 96 92 99
-10.0358 9.77317 -2.09989 83 80 90
-8.21478 10.5984 -1.9284 105 104 112
-8.17522 10.6119 -1.92679 108 107 115
-8.141 10.6336 -1.9268 105 103 114
-8.09101 10.6676 -1.92714 112 110 115
-7.38099 11.9638 -1.93844 111 112 117
-7.32357 11.9927 -1.93844 108 107 113
-6.54656 13.0959 -1.92695 105 101 100
-6.50897 13.1235 -1.92874 104 102 102
-6.07822 13.8826 -1.93678 104 105 107
-6.03043 13.8885 -1.93532 104 104 109
-14.0126 1.38958 -1.9084 94 103 125
-14.0034 1.42858 -1.90783 102 111 131
-14.0078 1.46917 -1.9095 101 112 132
-13.3319 2.69543 -1.93354 137 137 144
-13.3302 2.73449 -1.93494 136 134 144
-12.0324 5.42768 -1.99812 84 91 107
-11.9953 5.45114 -1.99428 83 90 106
-12.0052 5.49895 -1.99997 83 90 108
-11.9818 5.55073 -2.00075 84 91 107
-11.9687 5.58673 -2.00185 82 89 105
-11.9485 5.619 -2.00154 82 89 105
-11.9369 5.65588 -2.00299 82 89 105
-11.9145 5.70833 -2.00412 84 92 105
-11.8991 5.74326 -2.00487 84 93 106
-11.8733 5.77244 -2.0035 85 91 105
-11.8469 5.82275 -2.00393 85 93 106
-11.838 5.86137 -2.00609 84 94 106
-11.8136 5.89126 -2.00507 86 94 107
-11.7968 5.94719 -2.00761 86 89 106
-11.7739 5.9779 -2.00695 80 83 100
-11.7542 6.01051 -2.00699 82 85 102
-11.7395 6.04604 -2.00809 105 107 122
-11.7253 6.10381 -2.01133 124 124 134
-11.6951 6.13022 -2.00925 125 125 135
-11.6665 6.15752 -2.00753 123 121 134
-11.6299 6.20184 -2.00618 80 80 94
-11.6129 6.23606 -2.00693 73 75 88
-11.5957 6.27024 -2.00767 84 86 99
-11.5937 6.336 -2.01374 83 89 107
-11.5712 6.36702 -2.01343 85 89 105
-11.5636 6.40742 -2.01629 84 87 106
-11.5342 6.45641 -2.01671 84 90 105
-11.5213 6.49361 -2.01851 84 90 104
-11.5082 6.5308 -2.02031 83 89 103
-11.4918 6.56583 -2.02141 84 90 104
-11.4583 6.61236 -2.02112 85 88 105
-11.4251 6.6364 -2.01869 83 89 103
-11.4329 6.68761 -2.02508 85 88 105
-11.402 6.73605 -2.02549 82 88 104
-11.367 6.7587 -2.0227 84 89 106
-11.3692 6.80672 -2.02804 82 89 105
-11.3411 6.85712 -2.02916 83 91 104
-11.3203 6.88954 -2.02955 83 89 105
-11.2849 6.91176 -2.02676 82 88 104
-11.2816 6.95647 -2.03103 83 89 103
-9.99533 9.82154 -2.10161 84 82 92
-9.95835 9.84287 -2.10028 80 78 87
-9.94861 9.89518 -2.10603 87 86 93
-9.89714 9.93131 -2.10505 88 86 95
-8.05659 10.689 -1.92714 113 108 112
-8.01373 10.6969 -1.92457 108 103 109
-7.96133 10.727 -1.92427 111 108 115
-7.2921 12.0259 -1.94088 109 108 115
-7.25247 12.0432 -1.94057 113 112 120
-6.46832 13.1438 -1.92933 113 110 111
-6.41341 13.1886 -1.93262 105 103 108
-5.98394 13.898 -1.93444 104 103 108
-14.0179 1.2502 -1.90623 87 96 121
-14.019 1.29028 -1.90726 91 102 124
-14.014 1.32975 -1.90733 92 103 125
-13.3086 2.51388 -1.92218 149 145 142
-13.408 2.63333 -1.94348 140 141 150
-13.3834 2.66747 -1.94086 132 132 140
-12.2153 4.74421 -1.97219 88 95 111
-12.212 4.78374 -1.9747 86 93 110
-12.2015 4.82008 -1.97581 86 93 111
-12.1814 4.87252 -1.97659 86 92 111
-12.1813 4.91373 -1.97981 84 91 109
-12.1668 4.94839 -1.98021 86 91 110
-12.1621 5.00823 -1.98417 85 92 108
-12.1509 5.04452 -1.98527 84 93 108
-12.1252 5.07404 -1.98356 83 92 109
-12.1244 5.11536 -1.98678 83 91 108
-12.1117 5.17185 -1.98932 82 91 108
-12.0946 5.20548 -1.98937 83 90 108
-12.0862 5.2434 -1.99118 83 90 106
-12.0799 5.30337 -1.99513 82 91 106
-12.0412 5.32629 -1.99094 83 91 106
-12.0394 5.36771 -1.99416 83 90 106
-11.2543 7.00769 -2.0325 84 90 104
-11.2346 7.04101 -2.03324 83 89 103
-11.1956 7.06048 -2.02975 85 88 103
-11.1805 7.12063 -2.03404 84 87 102
-11.1715 7.16191 -2.03725 84 90 104
-11.1482 7.19269 -2.03729 84 87 102
-11.1133 7.23873 -2.03735 84 90 104
-11.1039 7.27996 -2.04056 84 90 102
-11.0754 7.30698 -2.03953 83 89 103
-11.0385 7.3515 -2.03923 86 89 104
-11.0161 7.38308 -2.03962 84 85 103
-11.0045 7.423 -2.04248 84 87 104
-10.9849 7.4569 -2.04357 84 85 103
-10.9473 7.50098 -2.04327 85 86 104
-10.9306 7.53718 -2.04507 83 89 103
-9.85988 9.95228 -2.10372 89 85 99
-9.82515 9.97611 -2.10307 90 90 96
-9.77844 10.0176 -2.10344 91 91 101
-9.74606 10.0442 -2.10346 80 81 93
-9.71615 10.0737 -2.10415 80 83 91
-7.92778 10.7496 -1.92459 113 110 119
-7.88693 10.7605 -1.92266 111 108 115
-7.84142 10.8017 -1.92461 112 110 115
-7.19469 12.0715 -1.94058 113 112 117
-7.15319 12.0849 -1.93966 112 111 113
-7.1134 12.1017 -1.93935 109 107 110
-6.36323 13.1846 -1.92932 104 104 102
-6.32945 13.2228 -1.9329 95 93 95
-5.91749 13.9204 -1.93443 106 106 108
-5.86967 13.9258 -1.93297 106 105 110
-14.0256 1.11128 -1.9047 89 102 121
-14.035 1.15204 -1.90701 89 102 122
-14.0226 1.19079 -1.9058 85 97 119
-13.3709 2.38992 -1.92766 149 147 153
-13.3606 2.42694 -1.92739 148 142 145
-13.354 2.4842 -1.92849 152 144 141
-12.3349 4.32957 -1.96138 88 98 110
-12.3186 4.36312 -1.96108 88 95 111
-12.3113 4.40032 -1.96254 89 96 112
-12.2987 4.45537 -1.96438 88 96 109
-12.2838 4.48955 -1.96443 88 94 112
-12.2743 4.52596 -1.96554 88 94 110
-12.2628 4.58171 -1.96773 89 95 111
-12.2584 4.62043 -1.9699 89 95 110
-12.2484 4.65683 -1.971 88 93 112
-12.2419 4.69479 -1.97281 86 91 110
-10.903 7.56477 -2.04439 84 86 101
-10.8756 7.61708 -2.04657 86 88 103
-10.8523 7.6482 -2.04695 87 89 104
-10.835 7.68421 -2.04875 87 89 104
-10.8101 7.73881 -2.05162 86 89 104
-10.7758 7.76097 -2.04953 85 87 102
-10.7566 7.79558 -2.05098 84 86 101
-10.7249 7.84489 -2.05244 84 86 101
-10.7024 7.87685 -2.05318 85 84 100
-10.6783 7.90748 -2.05356 84 86 101
-9.67477 10.0895 -2.1018 104 103 110
-9.64004 10.1455 -2.10554 117 113 114
-9.58728 10.1473 -2.10017 84 82 86
-9.54578 10.1626 -2.09782 79 82 89
-7.80557 10.8207 -1.92429 115 113 118
-7.7717 10.8429 -1.92462 111 109 114
-7.05534 12.1293 -1.93936 111 110 115
-7.02312 12.1619 -1.94179 111 111 113
-6.30043 13.2738 -1.93858 104 99 104
-6.24045 13.3069 -1.94008 103 101 101
-5.82313 13.9348 -1.93209 111 109 113
-5.74907 13.9339 -1.9286 112 111 111
-14.0357 0.972701 -1.90381 89 101 123
-14.0317 1.01221 -1.90388 86 99 118
-14.0279 1.07162 -1.90431 86 99 116
-12.4345 3.99032 -1.95488 73 80 96
-12.4295 4.04763 -1.95779 76 80 97
-12.4122 4.08083 -1.95713 77 79 96
-12.4261 4.12575 -1.96247 76 79 96
-12.4803 4.18621 -1.97557 94 96 113
-12.3715 4.20428 -1.95873 95 102 115
-12.3702 4.24367 -1.96125 90 96 110
-12.3487 4.27519 -1.95989 89 96 108
-10.6541 7.93804 -2.05394 85 87 100
-10.6173 7.9831 -2.05434 85 87 100
-10.5957 8.01606 -2.05543 83 86 101
-10.5771 8.05157 -2.05723 83 86 101
-10.5441 8.1002 -2.05869 84 86 101
-10.5163 8.12777 -2.05836 84 86 101
-10.5002 8.16573 -2.06086 88 87 101
-10.4549 8.20353 -2.0595 87 86 100
-9.51424 10.2228 -2.10257 84 84 96
-9.4763 10.2424 -2.10124 87 85 100
-9.44198 10.2665 -2.10092 79 82 87
-9.35968 10.263 -2.09185 83 84 94
-9.3229 10.2836 -2.09085 86 89 99
-7.71968 10.8735 -1.92463 114 111 119
-7.68262 10.8903 -1.92399 108 105 113
-7.6525 10.919 -1.9256 107 104 111
-7.61333 10.9322 -1.92432 111 109 117
-6.98141 12.1747 -1.94087 115 113 117
-6.92552 12.2071 -1.94179 113 113 115
-6.20191 13.3337 -1.94186 102 100 102
-6.15708 13.3437 -1.94095 112 109 110
-5.70744 13.9576 -1.93003 110 108 109
-5.66147 13.9679 -1.92944 112 110 110
-14.0388 0.873475 -1.90267 93 105 128
-14.0278 0.932291 -1.90182 92 104 126
-13.3674 1.982 -1.91256 154 148 149
-12.5017 3.70036 -1.94776 78 87 102
-12.4948 3.73704 -1.94887 79 86 104
-12.4818 3.79108 -1.95001 78 87 104
-12.469 3.8258 -1.95006 78 87 103
-12.4784 3.86832 -1.95434 81 88 104
-12.4481 3.9164 -1.95231 79 86 104
-12.4404 3.95303 -1.95342 78 85 103
-10.4297 8.23345 -2.05988 85 87 100
-10.403 8.26197 -2.0599 84 88 100
-10.3718 8.3126 -2.06207 83 87 99
-10.3434 8.3396 -2.06174 84 86 101
-10.3005 8.35308 -2.05788 86 85 101
-10.282 8.38929 -2.06002 84 86 101
-10.2544 8.44355 -2.06325 85 87 102
-10.2128 8.45794 -2.05974 86 85 101
-9.25941 10.2699 -2.08243 84 87 99
-9.19199 10.2839 -2.0774 85 87 100
-9.13242 10.2743 -2.07 85 85 97
-9.07656 10.2691 -2.06361 91 91 102
-9.02555 10.2699 -2.05856 93 93 101
-8.96086 10.2857 -2.05421 93 92 100
-7.56186 10.9638 -1.92465 114 113 119
-7.53043 10.9904 -1.92594 113 112 118
-6.89708 12.2483 -1.94575 109 108 111
-6.85681 12.2643 -1.94544 110 105 114
-6.80251 12.2496 -1.93995 107 105 110
-6.09465 13.3706 -1.94154 89 79 87
-6.05175 13.3859 -1.94153 80 73 81
-5.61607 13.98 -1.92914 118 116 114
-5.54626 13.9912 -1.92768 115 112 111
-14.0345 0.734171 -1.89985 96 107 128
-14.0359 0.793791 -1.90092 86 98 122
-14.0364 0.833556 -1.90163 92 104 128
-13.4105 1.91179 -1.91746 150 144 145
-13.3764 1.94491 -1.91283 161 151 150
-12.546 3.44361 -1.93997 78 86 104
-12.5082 3.4894 -1.93618 80 87 105
-12.5394 3.53801 -1.94434 79 86 102
-12.5218 3.57107 -1.94334 78 88 103
-12.5264 3.6307 -1.94765 77 87 100
-12.5067 3.66306 -1.94629 77 86 101
-10.2094 8.50898 -2.06577 86 85 101
-10.1684 8.55071 -2.06582 84 87 102
-10.1238 8.56193 -2.0616 85 87 102
-10.1114 8.60469 -2.06551 84 86 101
-10.0728 8.64874 -2.06626 84 87 102
-10.0266 8.6581 -2.06169 84 88 100
-8.89353 10.2639 -2.04444 96 96 106
-8.84865 10.2719 -2.04108 89 92 103
-8.77835 10.2788 -2.03504 91 91 101
-8.71733 10.2641 -2.02696 90 90 102
-8.67033 10.2682 -2.02292 89 87 101
-7.49501 11.0101 -1.92594 109 108 113
-7.4364 11.0291 -1.92402 116 115 117
-7.39512 11.0381 -1.92209 111 109 113
-6.73562 12.2578 -1.9369 109 108 113
-6.68968 12.2607 -1.93445 112 110 115
-6.34094 11.836 -1.85303 113 110 113
-6.18446 11.5779 -1.80699 119 114 118
-6.00483 13.3899 -1.93972 76 72 74
-5.5014 14.0048 -1.92766 116 114 115
-5.45416 14.0107 -1.92649 115 113 114
-14.0484 0.655597 -1.90098 94 106 128
-14.0395 0.694789 -1.9001 92 105 125
-13.4203 1.73996 -1.91381 143 143 153
-13.3866 1.7735 -1.90918 140 143 152
-13.4475 1.85966 -1.92205 141 143 148
-12.5816 3.24329 -1.93473 78 86 107
-12.5705 3.27829 -1.93479 79 86 108
-12.5763 3.31836 -1.93801 80 88 108
-12.5653 3.37255 -1.93916 84 91 108
-12.5388 3.40287 -1.93639 83 92 108
-10.0221 8.70909 -2.06772 85 87 100
-9.98975 8.73216 -2.06668 85 87 100
-9.93117 8.75603 -2.06248 84 87 102
-9.92886 8.8098 -2.06922 84 87 102
-9.90714 8.84385 -2.07101 85 88 101
-9.84142 8.86005 -2.06504 86 86 101
-8.6015 10.2756 -2.01722 82 80 93
-8.54776 10.2696 -2.01116 95 94 107
-8.49754 10.2683 -2.00611 90 92 102
-8.44855 10.2683 -2.0014 90 91 101
-8.37111 10.2615 -1.99299 88 88 102
-7.36525 11.0678 -1.92402 113 111 117
-7.31215 11.0965 -1.92403 115 113 118
-6.64377 12.2633 -1.93201 112 110 113
-6.58576 12.2906 -1.93231 112 110 113
-6.12578 11.594 -1.80577 103 100 107
-6.08993 11.613 -1.80637 102 99 106
-6.05936 11.6447 -1.8091 109 109 113
-5.94083 13.4123 -1.93971 76 76 74
-5.89326 13.4141 -1.9376 92 94 93
-5.39403 14.0534 -1.92994 119 116 115
-14.0358 0.516262 -1.89721 94 106 128
-14.0293 0.555561 -1.89664 90 102 123
-14.0424 0.595804 -1.89927 89 102 122
-13.4431 1.64711 -1.91498 159 158 171
-13.3922 1.67849 -1.90734 145 145 157
-12.5964 2.98151 -1.92341 85 97 111
-12.6013 3.02069 -1.92629 84 96 111
-12.5823 3.07221 -1.92567 85 92 110
-12.5945 3.1136 -1.92995 86 95 112
-12.5857 3.14918 -1.93036 86 93 108
-12.5825 3.18637 -1.93183 89 96 113
-9.83034 8.90529 -2.06965 87 86 102
-9.80554 8.93626 -2.07073 87 86 101
-9.75041 8.96322 -2.06759 86 85 103
-9.72676 8.99541 -2.06902 87 86 101
-9.70697 9.03188 -2.07152 88 87 102
-8.32566 10.2658 -1.98929 92 93 105
-8.27469 10.2619 -1.9839 87 87 96
-8.20768 10.2687 -1.97853 72 72 84
-8.1569 10.2642 -1.97314 67 68 83
-7.27078 11.1051 -1.9221 112 111 119
-7.23872 11.1309 -1.92339 109 109 113
-7.177 11.1434 -1.9205 114 114 117
-5.8528 13.4362 -1.93879 110 110 110
-5.7816 13.4374 -1.93548 108 106 108
-5.34389 14.0495 -1.92732 113 109 110
-5.29994 14.0663 -1.92788 115 111 112
-14.0313 0.417184 -1.89542 94 106 130
-14.0441 0.477006 -1.89809 97 109 132
-12.5765 2.75116 -1.90862 73 78 97
-12.5948 2.84932 -1.91652 88 96 115
-12.5945 2.88683 -1.91834 90 96 117
-12.5913 2.9424 -1.92054 91 98 116
-9.67015 9.07856 -2.07332 86 88 103
-9.6381 9.10184 -2.07264 87 86 100
-9.61259 9.13231 -2.07371 89 87 101
-9.58435 9.15978 -2.07409 88 88 100
-9.54027 9.19864 -2.07412 86 90 100
-8.10952 10.2645 -1.96876 70 73 87
-8.04823 10.2785 -1.96507 77 85 95
-7.9977 10.2734 -1.95969 88 91 102
-7.94729 10.268 -1.9543 108 109 118
-7.14202 11.1637 -1.92082 117 115 118
-7.10333 11.177 -1.91985 112 109 116
-7.06822 11.1971 -1.92017 118 115 126
-5.73472 13.4405 -1.93367 114 111 113
-5.69285 13.4584 -1.93426 117 113 115
-5.23048 14.0779 -1.92671 123 119 118
-14.0377 0.279023 -1.89516 95 107 132
-14.0433 0.338468 -1.89655 91 103 127
-14.0354 0.377774 -1.89567 97 109 133
-12.6579 2.60292 -1.91575 149 147 156
-12.6255 2.65115 -1.91233 132 130 138
-12.624 2.68811 -1.91379 136 135 143
-12.6051 2.72087 -1.91209 142 145 157
-9.5118 9.22591 -2.07449 87 90 99
-9.48455 9.25457 -2.07522 89 89 101
-9.43873 9.29148 -2.0749 90 86 101
-9.41252 9.32143 -2.07598 89 87 101
-7.88189 10.2745 -1.94926 105 107 112
-7.84018 10.282 -1.94657 116 119 122
-7.79639 10.286 -1.9432 118 118 126
-7.74419 10.2764 -1.93713 114 113 121
-7.01992 11.235 -1.92211 115 115 117
-6.98372 11.2531 -1.92211 114 113 119
-6.3055 12.3986 -1.93106 114 112 117
-5.6497 13.4724 -1.93424 118 113 116
-5.57981 13.4763 -1.93154 112 109 110
-5.18807 14.1 -1.92814 123 119 118
-5.14392 14.1163 -1.9287 121 120 119
-14.0252 0.199775 -1.89245 96 106 131
-14.0335 0.239414 -1.89412 93 105 129
-12.6508 2.43403 -1.90704 151 127 103
-12.6212 2.46451 -1.90322 146 128 113
-12.6009 2.51538 -1.90191 88 90 96
-9.38879 9.35428 -2.07776 89 89 102
-9.34507 9.39374 -2.07815 89 86 102
-9.30578 9.40843 -2.07569 80 80 97
-9.28676 9.44704 -2.07889 71 75 86
-7.71363 10.3369 -1.94322 110 110 115
-7.66152 10.3269 -1.93715 107 105 113
-7.63852 10.3637 -1.94053 102 99 106
-6.95013 11.2763 -1.92307 114 114 116
-6.89958 11.3102 -1.92437 115 112 119
-6.26484 12.4127 -1.93075 118 113 116
-6.22563 12.4304 -1.93104 118 114 115
-6.18342 12.4406 -1.93012 115 114 113
-5.52878 13.4656 -1.92763 114 113 113
-5.485 13.4772 -1.92731 118 117 115
-12.6877 2.23856 -1.9053 91 98 120
-12.6779 2.27345 -1.90501 90 101 121
-12.6968 2.31432 -1.90999 91 92 104
-12.7079 2.35371 -1.91357 127 115 113
-12.7016 2.40798 -1.91472 151 130 109
-9.23882 9.48151 -2.07821 73 76 90
-9.21192 9.51092 -2.07929 74 75 88
-9.18743 9.5433 -2.08107 81 87 99
-9.16031 9.57258 -2.08215 104 108 120
-7.57741 10.3751 -1.93684 104 99 106
-7.54596 10.3983 -1.93751 106 100 111
-7.50729 10.4095 -1.93583 102 99 108
-6.86578 11.3332 -1.92533 112 111 117
-6.83883 11.3704 -1.92888 113 112 120
-6.1223 12.4603 -1.9295 114 110 108
-5.41763 13.4878 -1.9258 116 115 113
-5.36332 13.4652 -1.9201 122 121 119
-12.6814 2.10865 -1.8991 99 111 127
-12.6835 2.14577 -1.90092 86 93 111
-12.6913 2.18408 -1.9038 89 99 117
-11.2365 5.1255 -1.97642 85 92 108
-11.2115 5.2521 -1.98403 82 89 107
-11.2026 5.34794 -1.99161 84 90 106
-11.1918 5.38258 -1.99314 83 89 105
-11.167 5.51141 -2.0015 85 91 107
-11.1436 5.53929 -2.00041 85 91 107
-11.1199 5.58728 -2.00122 81 88 104
-11.115 5.62574 -2.00425 83 88 107
-11.0913 5.65341 -2.00316 82 87 106
-11.0879 5.69286 -2.00656 85 90 109
-11.0752 5.74762 -2.00999 87 90 107
-11.0545 5.77712 -2.00965 86 92 107
-11.0355 5.80757 -2.00969 85 91 105
-11.0104 5.85515 -2.01049 84 91 106
-10.986 5.8824 -2.00941 85 93 106
-10.9633 5.91059 -2.00869 86 94 107
-10.9377 5.95788 -2.0095 88 91 110
-10.9198 5.98901 -2.00991 81 85 103
-10.9133 6.0274 -2.01293 77 82 98
-10.8772 6.0682 -2.01149 98 103 114
-10.8572 6.09811 -2.01153 118 122 128
-10.8322 6.12477 -2.01044 120 123 132
-10.8219 6.16095 -2.01271 120 123 132
-10.7902 6.20446 -2.01239 111 110 122
-10.7681 6.23303 -2.01205 87 85 99
-10.7492 6.26369 -2.01246 80 79 94
-9.11428 9.60949 -2.08218 111 113 122
-9.0894 9.64163 -2.08396 132 134 142
-9.06437 9.67373 -2.08574 138 137 142
-9.01054 9.70094 -2.08365 121 114 121
-8.97555 9.72047 -2.0826 104 94 102
-7.45828 10.4405 -1.93618 109 108 113
-7.42559 10.4616 -1.93652 113 112 117
-7.38682 10.4724 -1.93484 114 111 118
-6.81617 11.4623 -1.9408 115 114 119
-6.81689 11.558 -1.95498 113 110 118
-6.0851 12.4831 -1.93071 120 119 116
-6.03632 12.4763 -1.92705 117 115 115
-5.31669 13.4669 -1.91828 120 120 121
-12.6855 1.92666 -1.89316 149 125 101
-12.6735 1.9792 -1.89291 156 136 118
-12.6702 2.01513 -1.89367 96 92 92
-11.4369 4.50141 -1.95585 90 93 110
-11.4236 4.55277 -1.95778 88 91 108
-11.4208 4.58997 -1.96044 86 93 109
-11.4162 4.6264 -1.96272 85 94 109
-11.4129 4.68273 -1.9669 86 96 108
-11.3919 4.71172 -1.96582 86 93 110
-11.3869 4.74818 -1.9681 86 93 109
-11.3781 4.78297 -1.96964 86 92 107
-11.3528 4.82919 -1.96933 84 93 106
-11.3349 4.85964 -1.969 84 93 107
-11.3328 4.89781 -1.97202 85 92 108
-11.2946 4.93771 -1.9691 84 91 107
-11.2992 4.97937 -1.97362 85 91 107
-11.3002 5.01936 -1.9774 83 90 106
-11.2633 5.05984 -1.97485 83 90 106
-11.2569 5.09627 -1.97713 83 90 106
-11.2339 5.18377 -1.98134 82 89 107
-11.2392 5.22664 -1.98624 84 91 109
-11.22 5.29689 -1.98968 84 91 107
-11.198 5.42667 -1.99841 84 90 106
-11.1886 5.48249 -2.00221 84 91 107
-10.7252 6.31233 -2.01401 79 81 98
-10.7077 6.34398 -2.01479 87 89 106
-10.6933 6.37778 -2.01632 85 91 105
-10.6606 6.42068 -2.016 85 88 105
-10.6475 6.45552 -2.0179 85 91 105
-10.6376 6.49259 -2.02055 85 91 103
-10.5996 6.53183 -2.0191 85 91 105
-10.5877 6.5677 -2.02138 86 89 104
-10.5693 6.59902 -2.02215 86 89 104
-10.554 6.63258 -2.02368 86 87 105
-10.5233 6.67711 -2.02411 83 89 105
-10.5125 6.71405 -2.02675 83 89 105
-10.4826 6.73705 -2.02491 83 89 105
-10.4545 6.78362 -2.02609 84 90 106
-10.4354 6.8146 -2.02686 83 90 103
-10.4146 6.84436 -2.02726 82 90 103
-10.3892 6.89304 -2.02918 82 90 103
-8.93687 9.73523 -2.0805 110 106 107
-8.89008 9.7711 -2.08052 84 78 87
-8.85252 9.78711 -2.07877 84 79 93
-8.82209 9.81235 -2.07913 85 82 95
-7.33353 10.496 -1.93384 113 111 117
-7.2898 10.498 -1.93047 117 115 120
-6.82557 11.6715 -1.97238 113 110 117
-5.97437 12.4934 -1.92613 114 109 104
-5.93416 12.5083 -1.92612 116 108 105
-5.24777 13.471 -1.91587 120 115 119
-5.21185 13.5083 -1.91975 125 119 122
-12.7223 1.85997 -1.89726 142 132 129
-12.6981 1.89237 -1.89416 146 125 109
-11.5617 4.11927 -1.94712 93 99 113
-11.5359 4.16491 -1.94608 90 96 110
-11.5291 4.19974 -1.94761 89 97 110
-11.5132 4.23081 -1.94728 88 96 109
-11.5062 4.26562 -1.94882 89 97 110
-11.4905 4.31555 -1.95001 91 97 111
-11.4886 4.35267 -1.95267 89 95 111
-11.4704 4.38282 -1.95196 89 95 111
-11.4595 4.43501 -1.95427 89 95 109
-11.4411 4.46505 -1.95357 89 95 109
-10.3728 6.92624 -2.03071 83 90 104
-10.3532 6.95702 -2.03148 83 91 104
-10.3209 7.0007 -2.03191 83 91 104
-10.3073 7.03618 -2.03418 83 89 105
-10.2827 7.06316 -2.03383 86 89 106
-10.2596 7.09127 -2.03386 86 89 105
-10.2297 7.137 -2.03503 84 90 104
-10.2063 7.16495 -2.03505 81 87 103
-10.1814 7.1916 -2.03471 86 89 106
-10.1525 7.23826 -2.03625 87 89 104
-10.1303 7.26723 -2.03665 88 88 104
-8.77612 9.84926 -2.07952 91 88 97
-8.73958 9.86642 -2.07811 94 93 101
-8.72539 9.91339 -2.08343 95 94 104
-7.26767 10.5374 -1.93452 114 112 117
-7.22098 10.5339 -1.93013 110 108 113
-7.17329 10.5671 -1.93116 116 113 120
-6.81171 11.7869 -1.9885 114 112 116
-5.89112 12.5158 -1.92489 116 111 108
-5.83111 12.5378 -1.92488 121 112 104
-5.16576 13.5113 -1.91824 125 121 120
-12.7275 1.697 -1.89276 143 142 150
-12.7155 1.73147 -1.89177 145 145 155
-12.6975 1.76496 -1.88972 103 104 120
-11.6664 3.86177 -1.94639 76 85 100
-11.6809 3.9044 -1.95203 77 86 101
-11.6761 3.95842 -1.95509 74 80 98
-11.6243 3.97583 -1.94729 77 83 99
-11.6054 4.00579 -1.94622 75 81 97
-11.6001 4.05963 -1.94928 74 81 99
-11.5828 4.09021 -1.94857 73 78 95
-10.1126 7.2999 -2.03817 86 88 103
-10.0757 7.34001 -2.03784 86 88 103
-10.0531 7.36877 -2.03824 87 86 104
-10.0306 7.39746 -2.03864 86 85 103
-9.99764 7.44101 -2.03943 89 88 106
-9.98075 7.47466 -2.04133 85 86 104
-9.95484 7.50058 -2.04097 86 88 103
-9.94069 7.53673 -2.04362 85 88 103
-9.8953 7.56955 -2.04142 85 87 102
-8.69806 9.943 -2.08485 97 93 103
-8.64914 9.97619 -2.08453 88 86 92
-8.61924 10.0024 -2.08524 109 110 109
-8.58117 10.0174 -2.08349 123 118 114
-7.1286 10.5667 -1.92745 112 110 115
-7.11169 10.6161 -1.93352 111 109 114
-6.81557 11.8937 -2.0046 115 114 117
-6.82046 12.0042 -2.02136 118 117 119
-5.78939 12.5486 -1.92426 120 113 104
-5.74699 12.5574 -1.92333 105 97 93
-5.10499 13.5432 -1.92032 119 115 115
-5.05885 13.5459 -1.9188 123 119 119
-12.8007 1.58048 -1.90204 87 98 118
-12.8046 1.61749 -1.90386 127 126 144
-12.7771 1.64994 -1.90005 144 142 155
-11.7182 3.58591 -1.9363 75 84 101
-11.7097 3.61958 -1.9371 78 84 103
-11.6972 3.67006 -1.93829 75 83 99
-11.6866 3.70304 -1.93871 76 83 100
-11.6759 3.73598 -1.93913 76 83 101
-11.6743 3.77228 -1.94141 76 85 102
-11.6702 3.82609 -1.94447 76 85 102
-9.88087 7.60559 -2.04406 89 88 104
-9.84722 7.62466 -2.04184 88 87 101
-9.81609 7.67008 -2.04337 89 87 101
-9.79396 7.69942 -2.04414 87 87 102
-9.77462 7.73134 -2.04566 88 87 103
-9.73426 7.76852 -2.04496 87 88 103
-9.71179 7.79764 -2.04573 86 85 101
-8.54339 10.066 -2.08669 111 105 91
-8.50746 10.084 -2.08564 107 98 96
-8.47149 10.1018 -2.08459 98 97 105
-7.04934 10.6228 -1.92948 116 113 120
-7.01128 10.634 -1.92813 112 111 117
-6.9807 10.659 -1.92948 114 112 116
