7.83291 -0.649131 -1.76753 71 70 87
7.81417 -0.674634 -1.76362 69 68 83
7.81754 -0.715263 -1.76497 78 77 97
7.80832 -0.741387 -1.76324 73 70 89
7.99613 -2.32226 -1.78813 73 74 90
7.9915 -2.34997 -1.78857 84 86 103
7.98951 -3.43527 -1.77551 71 69 83
7.96861 -3.4579 -1.77309 72 68 84
7.73293 2.75957 -1.78229 75 76 94
7.68046 1.23774 -1.75732 75 79 99
7.69279 1.19881 -1.75868 63 61 82
7.69539 1.17199 -1.75827 67 65 85
7.7095 1.14677 -1.76048 71 75 91
7.82034 -0.769315 -1.76633 69 67 88
7.80901 -0.795221 -1.76416 70 71 89
7.8215 -0.836804 -1.7677 76 75 91
7.82933 -0.864534 -1.76991 74 74 88
7.82159 -0.890745 -1.76862 74 75 95
7.99244 -2.37924 -1.79028 78 79 100
7.97821 -2.41893 -1.78946 79 81 97
7.95668 -3.49975 -1.77393 66 63 82
7.72423 2.83133 -1.78557 66 68 89
7.72646 2.80213 -1.78392 73 76 95
7.68051 1.29224 -1.75945 65 68 86
7.67956 1.26484 -1.75816 66 71 91
7.80651 -0.929668 -1.76603 71 70 87
7.81597 -0.95766 -1.76868 71 68 85
7.8273 -0.985933 -1.77176 73 70 91
7.97139 -2.44606 -1.78948 78 75 94
7.95512 -2.47045 -1.78739 75 73 94
7.9917 -3.54515 -1.78411 62 61 77
7.66126 2.885 -1.77664 67 71 90
7.69225 2.85067 -1.78048 63 68 86
7.64676 1.4504 -1.75839 98 97 115
7.64087 1.40845 -1.75538 97 99 117
7.65568 1.38366 -1.75759 91 100 115
7.80791 -1.02429 -1.7683 56 57 75
7.82674 -1.05357 -1.77313 62 62 80
7.81262 -1.07891 -1.77053 61 62 80
7.8274 -1.10784 -1.77449 66 67 85
7.94048 -2.50991 -1.78657 85 82 99
7.97412 -3.56916 -1.78249 71 68 83
7.65983 2.94445 -1.78078 74 74 92
7.65505 2.91281 -1.77745 68 66 87
7.62022 1.54134 -1.75654 70 68 89
7.67994 1.51126 -1.76837 98 97 115
7.63369 1.47543 -1.75661 101 102 120
7.81132 -1.14647 -1.7719 58 59 79
7.81043 -1.17344 -1.77236 66 67 88
7.81525 -1.20122 -1.77413 67 68 83
7.95771 -2.54417 -1.79208 76 73 94
7.92806 -2.56445 -1.78703 83 79 99
7.9655 -3.59684 -1.78291 72 70 83
7.63953 2.98234 -1.77947 65 73 89
7.58863 1.65856 -1.75509 103 89 86
7.60607 1.63457 -1.75774 109 95 91
7.60111 1.5925 -1.75473 71 68 85
7.80068 -1.23992 -1.77198 71 74 91
7.79179 -1.26575 -1.77069 73 70 91
7.79821 -1.29383 -1.77289 75 77 92
7.92828 -2.59369 -1.78874 77 78 94
7.93846 -3.63262 -1.7805 71 68 85
7.93863 -3.66403 -1.78295 68 65 82
7.66134 3.05042 -1.78908 72 74 95
7.62931 3.00883 -1.77943 58 67 84
7.65318 1.76866 -1.77463 107 93 86
7.58404 1.71262 -1.75678 103 89 86
7.5902 1.68637 -1.75681 100 89 87
7.79092 -1.33352 -1.77249 74 71 90
7.78944 -1.36046 -1.77295 81 80 96
7.78788 -1.3874 -1.77341 82 81 100
7.7939 -1.41559 -1.77562 66 67 87
7.90372 -2.63006 -1.78581 76 77 98
7.89066 -2.65518 -1.78456 71 70 88
7.92431 -3.6893 -1.78215 71 70 84
7.65643 3.07898 -1.79031 66 71 90
7.55277 1.80226 -1.75448 58 56 81
7.56301 1.77693 -1.75539 72 67 71
7.78221 -1.45457 -1.77434 64 63 79
7.78994 -1.48314 -1.77698 79 78 98
7.78414 -1.50942 -1.77657 76 77 95
7.90281 -2.73239 -1.79178 82 79 98
7.91303 -3.73178 -1.7834 65 62 76
7.64139 3.14937 -1.79275 64 70 89
7.6502 3.12216 -1.79236 63 68 87
7.5433 1.89676 -1.75743 68 73 92
7.52155 1.86411 -1.75091 71 76 95
7.55288 1.84361 -1.75662 68 75 91
7.76243 -1.54655 -1.7731 76 78 96
7.76794 -1.57483 -1.77531 81 79 100
7.89687 -2.75986 -1.79222 84 80 97
7.89313 -3.75458 -1.78137 66 64 80
7.62515 3.17382 -1.79145 60 65 87
7.53034 1.96292 -1.75822 61 63 88
7.54674 1.93907 -1.76044 68 66 87
7.76377 -1.60137 -1.77533 66 71 84
7.76461 -1.64261 -1.77711 76 75 93
7.889 -2.7867 -1.79224 82 77 97
7.86178 -2.82195 -1.78889 83 74 95
7.61478 3.21558 -1.79266 66 68 89
7.51811 2.01554 -1.7586 78 81 100
7.53467 1.99177 -1.76081 83 82 99
7.76789 -1.67062 -1.77888 77 76 93
7.76915 -1.69829 -1.78021 72 72 92
7.75043 -1.73576 -1.77762 82 83 104
7.85926 -2.85055 -1.79017 73 69 86
7.54177 3.24869 -1.7808 62 71 86
7.57464 3.23084 -1.78589 69 73 90
7.48171 2.10369 -1.75587 73 76 94
7.51927 2.08544 -1.76288 81 82 100
7.53038 2.06031 -1.76379 78 81 100
7.74385 -1.76183 -1.7772 70 72 85
7.72193 -1.78468 -1.77329 67 69 90
7.83631 -2.87222 -1.78681 79 75 91
7.83828 -2.91728 -1.79021 79 73 85
7.5292 3.28942 -1.78159 70 76 90
7.48777 2.17503 -1.76146 100 89 94
7.74188 -1.81633 -1.77899 76 74 92
7.72645 -1.85431 -1.77727 68 70 90
7.817 -2.93941 -1.78727 76 70 89
7.46131 2.23783 -1.75963 98 84 80
7.47257 2.19896 -1.75968 95 81 75
7.7214 -1.88069 -1.77729 76 75 93
7.72578 -1.90919 -1.7795 81 77 96
7.81961 -2.96989 -1.78982 70 63 79
7.54109 2.31656 -1.78183 97 88 83
7.46281 2.26633 -1.76178 98 84 81
7.68905 -1.94221 -1.77297 74 76 96
7.73115 -1.9795 -1.78393 84 86 104
7.81861 -2.02779 -1.80538 108 107 124
7.8032 -3.03828 -1.79113 74 70 87
7.42187 2.35304 -1.75862 76 78 98
7.44688 2.3321 -1.76258 77 72 82
7.68293 -2.03721 -1.7761 114 112 126
7.80179 -3.06748 -1.79284 74 72 83
7.80027 -3.09671 -1.79454 69 62 80
7.42586 2.41067 -1.76335 67 68 88
7.66974 -2.06159 -1.77437 114 111 128
7.67351 -2.09012 -1.77657 111 108 125
7.66962 -2.11678 -1.77703 114 112 126
7.77911 -3.13371 -1.79288 71 69 83
7.41252 2.47737 -1.76502 94 94 113
7.42479 2.45273 -1.76592 94 96 112
7.63773 -2.15025 -1.77181 75 72 91
7.75908 -3.15599 -1.79036 70 65 85
7.40016 2.50196 -1.76411 98 93 113
7.62423 -2.17436 -1.77008 72 71 87
7.65773 -2.21078 -1.77928 74 77 89
7.76273 -3.18725 -1.79333 76 72 87
7.39906 2.5727 -1.76883 106 108 123
7.3949 2.54287 -1.7658 93 96 111
7.51457 0.561331 -1.77762 68 69 89
7.53265 0.536245 -1.78127 61 66 85
7.5215 0.509338 -1.77813 63 66 85
7.52388 0.483275 -1.77816 64 65 85
7.54243 0.444959 -1.78181 68 69 88
7.52515 0.417909 -1.77732 73 76 92
7.53308 0.392097 -1.7787 64 62 83
7.53954 0.353111 -1.77965 70 72 90
7.52391 0.326363 -1.77561 71 73 88
7.5335 0.300563 -1.77744 67 68 89
7.54147 0.261604 -1.77884 65 67 80
7.5275 0.2351 -1.77525 71 72 88
7.53291 0.209127 -1.77618 68 69 87
7.54407 0.183233 -1.77846 71 73 94
7.53398 0.143902 -1.77579 65 64 84
7.52936 0.117763 -1.77446 59 61 80
7.53439 0.0917395 -1.77539 69 70 90
7.54334 0.052659 -1.77724 67 72 85
7.54429 0.0265608 -1.77727 67 68 89
7.55488 0.000439175 -1.77955 75 76 96
7.54003 -0.0386365 -1.77598 76 77 95
7.53875 -0.0646914 -1.77555 69 68 86
7.55294 -0.0909476 -1.77874 76 75 91
7.53572 -0.129797 -1.77471 79 82 97
7.53999 -0.155935 -1.77564 70 71 92
7.55196 -0.182288 -1.77838 69 67 89
7.54049 -0.20806 -1.77569 70 70 89
7.54219 -0.247217 -1.77618 69 68 86
7.64052 -2.24795 -1.77756 76 73 100
7.61921 -2.26995 -1.77408 85 88 105
7.73753 -3.22257 -1.79082 70 67 84
7.72456 -3.24744 -1.78999 68 65 82
7.37143 2.63512 -1.76743 74 75 94
7.38271 2.59603 -1.76705 73 74 94
7.48125 0.781597 -1.77512 78 80 95
7.49148 0.74316 -1.77652 81 84 101
7.50234 0.717818 -1.77836 74 77 95
7.5112 0.692263 -1.77974 69 70 90
7.50547 0.652453 -1.77753 67 67 84
7.52188 0.627413 -1.78072 69 70 85
7.5188 0.600932 -1.77939 61 60 79
7.53829 -0.27314 -1.7753 68 70 87
7.54405 -0.299418 -1.77668 68 69 89
7.54725 -0.33868 -1.77762 68 74 88
7.54696 -0.364753 -1.77765 71 71 95
7.54855 -0.390916 -1.77812 82 83 101
7.54161 -0.429697 -1.7768 71 71 87
7.54297 -0.455852 -1.77728 73 77 91
7.54427 -0.482023 -1.77776 71 68 89
7.62602 -2.29956 -1.77716 88 83 103
7.7315 -3.28015 -1.79381 72 69 86
7.36231 2.66075 -1.7674 75 80 97
7.45483 0.949705 -1.77404 67 65 84
7.44891 0.922756 -1.77181 77 80 95
7.46032 0.897707 -1.77364 67 68 86
7.46721 0.859039 -1.77414 61 63 83
7.47456 0.833492 -1.77507 65 73 91
7.49539 0.809205 -1.77916 71 69 90
7.54549 -0.508193 -1.77823 69 67 88
7.53993 -0.546993 -1.77737 69 69 90
7.54288 -0.573303 -1.77829 73 74 93
7.53216 -0.598605 -1.77605 61 61 84
7.5553 -0.639618 -1.78197 80 77 99
7.53661 -0.664232 -1.77792 67 65 86
7.61591 -2.33859 -1.77719 74 72 87
7.59249 -2.3598 -1.77327 75 72 92
7.70928 -3.30136 -1.79086 72 68 83
7.35303 2.71504 -1.76952 71 74 93
7.37527 2.69376 -1.7726 71 76 95
7.43144 1.10486 -1.77386 74 78 91
7.42987 1.07829 -1.77254 63 64 84
7.43181 1.03906 -1.77168 67 69 86
7.43777 1.01347 -1.77216 71 72 90
7.44171 0.987622 -1.77218 86 87 105
7.54696 -0.691244 -1.78066 75 72 90
7.53667 -0.729586 -1.77889 67 66 84
7.55067 -0.757045 -1.78253 71 70 88
7.53162 -0.781386 -1.77848 72 69 88
7.53382 -0.80776 -1.77941 73 70 87
7.60459 -2.39107 -1.77766 78 82 101
7.5885 -2.41431 -1.77549 75 74 92
7.68724 -3.33772 -1.7892 66 63 80
7.33169 2.77958 -1.76987 76 78 93
7.35041 2.75719 -1.77208 76 78 93
7.39827 1.219 -1.77057 83 82 100
7.40287 1.19326 -1.7706 58 60 75
7.40159 1.1667 -1.76927 79 80 98
7.40395 1.12756 -1.76841 76 75 93
7.52882 -0.846524 -1.77899 75 76 96
7.53276 -0.873116 -1.78037 66 65 83
7.53466 -0.899523 -1.7813 79 81 96
7.52923 -0.938257 -1.78088 67 66 81
7.58721 -2.45589 -1.77771 72 73 93
7.58029 -2.48178 -1.77773 69 67 88
7.68296 -3.36606 -1.79048 69 68 84
7.67318 -3.39217 -1.79049 70 67 84
7.33681 2.81024 -1.77333 66 69 86
7.34732 1.30354 -1.76233 71 70 84
7.38491 1.28299 -1.77004 75 73 94
7.39551 1.24501 -1.77099 72 74 89
7.5174 -0.963059 -1.77864 77 74 93
7.52288 -0.989922 -1.78048 64 62 83
7.52669 -1.0298 -1.78232 78 82 94
7.56581 -2.50539 -1.77599 77 76 93
7.66336 -3.43353 -1.79179 67 64 81
7.31473 2.87468 -1.77368 62 68 87
7.29698 2.83941 -1.76717 66 68 89
7.34351 1.39525 -1.76539 99 99 117
7.32561 1.36586 -1.76 59 57 79
7.53776 -1.05751 -1.78551 52 54 71
7.52557 -1.08218 -1.78327 69 71 89
7.52507 -1.12162 -1.78421 69 68 85
7.51655 -1.14672 -1.78287 64 65 83
7.54544 -2.54124 -1.77383 69 67 88
7.55685 -2.57276 -1.77822 72 71 87
7.64796 -3.4573 -1.79053 68 65 82
7.29385 2.89617 -1.77103 55 62 82
7.37532 1.52036 -1.77836 97 99 112
7.32336 1.48432 -1.76484 96 95 111
7.32686 1.45846 -1.76441 98 97 115
7.33252 1.41983 -1.76401 98 96 115
7.52722 -1.17457 -1.78606 67 68 85
7.51662 -1.19936 -1.78427 69 68 88
7.5271 -1.24055 -1.78793 69 70 90
7.54955 -2.59853 -1.77824 66 62 83
7.64509 -3.48634 -1.79223 70 69 83
7.28664 2.93696 -1.77272 66 72 88
7.34481 1.5414 -1.77246 93 90 107
7.52205 -1.26616 -1.7875 68 68 89
7.51118 -1.29084 -1.78571 78 76 97
7.49047 -1.3271 -1.78212 72 73 93
7.53248 -2.63538 -1.77696 78 75 92
7.54352 -2.66705 -1.78135 70 65 86
7.64197 -3.5307 -1.79522 68 68 80
7.25545 2.9836 -1.77004 68 77 94
7.26559 2.95828 -1.77007 67 70 89
7.28393 1.66258 -1.76462 105 92 88
7.28292 1.62256 -1.76241 75 67 78
7.5082 -1.35644 -1.78712 71 75 92
7.50282 -1.38196 -1.78669 61 58 75
7.51925 -2.68734 -1.77743 68 64 81
7.60657 -3.54579 -1.78932 71 68 83
7.59623 -3.57164 -1.78933 68 66 80
7.24961 3.02499 -1.77216 74 81 98
7.26218 1.71137 -1.76231 105 92 86
7.27976 1.68837 -1.76505 104 90 89
7.48938 -1.41935 -1.78491 59 60 78
7.49337 -1.44651 -1.78674 75 74 94
7.50686 -1.47545 -1.79083 77 75 92
7.4931 -2.7069 -1.77307 71 66 85
7.51065 -2.75512 -1.78009 76 72 86
7.6001 -3.60377 -1.79272 70 68 82
7.227 3.07481 -1.77166 65 71 87
7.25017 3.05445 -1.77475 70 76 92
7.2709 1.80668 -1.76943 61 60 74
7.27352 1.78047 -1.76855 109 99 98
7.27036 1.75303 -1.76632 104 89 86
7.49536 -1.49986 -1.78904 70 66 91
7.49668 -1.54 -1.79089 75 78 91
7.49264 -1.5658 -1.79091 76 76 90
7.48616 -2.77512 -1.77617 75 68 84
7.22557 3.10356 -1.77381 66 69 88
7.23776 1.86616 -1.76528 67 66 84
7.25009 1.84216 -1.76667 64 65 83
7.48278 -1.59045 -1.78957 61 66 85
7.47793 -1.62944 -1.79006 78 79 99
7.47271 -2.79877 -1.77487 80 76 88
7.20462 3.13921 -1.77245 61 70 87
7.26978 1.9274 -1.77606 64 66 81
7.22916 1.89099 -1.7648 70 73 92
7.4717 -1.65478 -1.78962 66 66 86
7.473 -1.68168 -1.791 73 76 92
7.47315 -2.84146 -1.77796 74 70 87
7.45581 -2.86373 -1.77579 77 73 87
7.23246 2.01285 -1.77279 63 66 81
7.2282 1.9848 -1.77011 63 70 85
7.25602 1.96455 -1.77511 73 75 93
7.46582 -1.72023 -1.79103 70 71 92
7.4574 -1.74509 -1.79015 71 70 89
7.46603 -1.77367 -1.79333 69 71 87
7.44393 -2.88786 -1.77493 77 73 87
7.21292 2.0755 -1.77226 74 74 91
7.24097 2.05551 -1.77726 67 66 84
7.45364 -1.79765 -1.79154 61 62 80
7.44391 -2.93055 -1.77802 78 74 92
7.19801 2.09875 -1.77042 75 76 96
7.43832 -1.83436 -1.78976 71 70 88
7.43525 -1.86038 -1.79023 75 74 92
7.43778 -1.88773 -1.79206 78 77 95
7.42815 -2.95328 -1.77629 75 72 86
7.42699 -2.98129 -1.77805 73 69 84
7.42964 -1.92608 -1.7921 75 76 94
7.43384 -1.95393 -1.79438 80 83 100
7.40562 -3.00189 -1.775 71 67 82
7.1587 2.21028 -1.76893 97 81 81
7.16077 2.18368 -1.7676 67 60 71
7.44362 -1.98322 -1.79802 81 82 102
7.41227 -3.04729 -1.77984 71 69 82
7.23264 2.32676 -1.7932 102 88 87
7.132 2.27074 -1.76704 99 86 79
7.14365 2.2468 -1.76797 97 86 80
7.29199 0.217086 -1.7875 60 59 79
7.27823 0.179422 -1.78376 68 65 82
7.26988 0.154407 -1.78141 72 74 89
7.27114 0.129647 -1.78144 54 52 76
7.27249 0.092505 -1.78147 73 69 93
7.26387 0.0676246 -1.77913 64 62 83
7.2765 0.0429983 -1.78199 73 74 90
7.26771 0.0181723 -1.77964 70 72 88
7.43125 -2.02064 -1.79714 114 113 128
7.38041 -2.03464 -1.7863 115 112 129
7.39438 -3.06912 -1.77767 69 68 80
7.39462 -3.09782 -1.77987 68 66 80
7.15534 2.34564 -1.77734 95 91 100
7.25061 0.588355 -1.78432 66 64 86
7.25606 0.551376 -1.78483 70 71 89
7.25278 0.526207 -1.78344 74 77 96
7.25717 0.501591 -1.78393 65 63 91
7.26414 0.464696 -1.78491 72 74 93
7.26059 0.439575 -1.78352 68 64 81
7.25889 0.414595 -1.7826 64 69 85
7.27127 0.377963 -1.78499 64 66 81
7.25773 0.352423 -1.78124 67 72 90
7.26738 0.328031 -1.78315 72 76 97
7.26725 0.303179 -1.7827 67 67 87
7.26555 0.265882 -1.78179 73 70 92
7.26911 0.241189 -1.78228 68 69 89
7.27824 -0.0189234 -1.78204 70 70 93
7.26342 -0.0436613 -1.77828 70 69 90
7.28541 -0.0684894 -1.7835 57 53 73
7.27999 -0.105612 -1.78212 69 71 94
7.28237 -0.130404 -1.78261 77 79 98
7.28662 -0.155238 -1.78357 60 57 76
7.28468 -0.192372 -1.78314 75 78 94
7.28873 -0.21724 -1.7841 71 71 92
7.27524 -0.241656 -1.78081 64 62 83
7.2772 -0.266454 -1.78131 72 70 91
7.2786 -0.303638 -1.78181 68 70 85
7.28424 -0.328606 -1.78325 82 80 98
7.2898 -0.353607 -1.78469 82 80 100
7.36725 -2.05807 -1.7845 114 111 128
7.35266 -2.09458 -1.78318 112 109 128
7.38257 -3.13633 -1.78033 71 69 84
7.10417 2.35803 -1.76693 76 77 90
7.22807 0.748675 -1.78323 72 70 91
7.23121 0.723981 -1.78325 88 86 104
7.23429 0.699281 -1.78327 64 60 84
7.25662 0.676305 -1.78802 63 63 81
7.24701 0.637994 -1.78475 76 75 93
7.24595 0.612937 -1.78383 80 82 101
7.28109 -0.390414 -1.78283 76 77 92
7.28258 -0.415256 -1.78332 68 71 84
7.2898 -0.44041 -1.78523 65 67 82
7.29425 -0.477895 -1.78668 77 80 97
7.27607 -0.501626 -1.78245 73 73 91
7.27914 -0.526593 -1.78341 75 70 91
7.28018 -0.551451 -1.7839 76 75 95
7.35439 -2.12188 -1.785 113 112 127
7.33535 -2.14361 -1.78185 100 99 112
7.359 -3.15583 -1.77684 65 63 77
7.08754 2.42134 -1.76775 71 75 91
7.19504 0.920148 -1.7807 72 80 91
7.19872 0.89554 -1.78072 67 70 87
7.20813 0.871588 -1.78216 77 75 96
7.20914 0.834194 -1.78125 74 73 89
7.21641 0.809964 -1.78222 69 74 94
7.21975 0.785301 -1.78224 78 80 93
7.28411 -0.588958 -1.78535 82 80 99
7.2811 -0.613554 -1.7849 73 72 88
7.27605 -0.637982 -1.78397 74 75 94
7.27763 -0.675363 -1.78495 65 66 84
7.27435 -0.69991 -1.78449 63 62 79
7.34988 -3.18092 -1.77686 70 69 83
7.10033 2.48021 -1.77491 103 102 120
7.08654 2.44846 -1.76952 105 107 122
7.17402 1.03025 -1.77964 67 70 89
7.1723 1.00493 -1.77825 72 73 90
7.17625 0.980385 -1.77827 71 71 86
7.18013 0.955829 -1.7783 66 69 84
7.2671 -0.724096 -1.7831 82 79 96
7.27406 -0.762009 -1.78549 71 68 85
7.28403 -0.787823 -1.78834 77 80 97
7.29196 -0.813511 -1.79073 65 69 84
7.27087 -0.836268 -1.78602 69 66 88
7.32183 -2.20716 -1.78235 70 70 84
7.3438 -2.24026 -1.78916 77 76 92
7.34105 -3.22068 -1.7782 74 73 87
7.07848 2.51461 -1.7726 97 96 114
7.14432 1.11385 -1.77578 73 74 94
7.15247 1.08994 -1.77675 66 71 88
7.15669 1.06544 -1.77677 67 70 89
7.2657 -0.873074 -1.78557 72 74 89
7.26757 -0.898161 -1.78654 81 78 97
7.2655 -0.922823 -1.78656 69 67 87
7.33382 -2.26444 -1.78827 70 71 89
7.32204 -2.3017 -1.78785 77 75 95
7.3245 -3.2428 -1.77646 64 61 81
7.33495 -3.27587 -1.78129 66 65 79
7.15177 2.59347 -1.79466 96 99 116
7.06974 2.53943 -1.77257 99 102 119
7.12246 1.23604 -1.77565 75 76 96
7.13288 1.20002 -1.77663 72 70 94
7.13938 1.17588 -1.77713 77 78 97
7.14963 1.15229 -1.77857 77 81 93
7.26571 -0.960259 -1.78753 71 68 87
7.26344 -0.984911 -1.78755 72 72 89
7.26111 -1.00955 -1.78757 64 67 84
7.31746 -2.32742 -1.78832 78 77 95
7.31095 -2.35258 -1.78833 74 73 92
7.31845 -3.31263 -1.78087 67 64 81
7.07426 2.59622 -1.77792 79 82 99
7.06967 1.3026 -1.76613 71 72 91
7.07649 1.27867 -1.76663 72 70 91
7.12344 1.2614 -1.77704 72 75 95
7.25898 -1.04675 -1.78807 82 79 95
7.26414 -1.0724 -1.78998 56 55 71
7.2596 -1.09678 -1.78952 74 75 93
7.25321 -1.13343 -1.78908 64 64 82
7.30435 -2.39139 -1.78927 77 76 90
7.30524 -3.33609 -1.78001 68 67 81
7.02985 2.6508 -1.77242 73 74 92
7.06484 2.63465 -1.77878 68 71 88
7.05613 1.38811 -1.76699 97 98 116
7.06322 1.36423 -1.76749 66 68 86
7.25808 -1.15914 -1.79099 73 75 88
7.25712 -1.18404 -1.79148 67 66 79
7.25992 -1.20951 -1.79291 68 65 85
7.30321 -2.4182 -1.79064 78 77 93
7.30014 -2.44445 -1.79157 76 74 95
7.28478 -3.35646 -1.7774 69 69 81
7.02808 2.67796 -1.7742 70 73 92
7.02449 1.47018 -1.7636 98 101 118
7.04518 1.44898 -1.7674 97 98 116
7.04483 1.4237 -1.76601 97 96 113
7.24148 -1.24434 -1.78963 70 72 87
7.23832 -1.26889 -1.78965 67 68 87
7.25808 -1.29716 -1.79534 73 72 91
7.2691 -2.46199 -1.7857 77 75 93
7.2786 -3.38283 -1.77829 70 68 81
7.03649 2.75043 -1.78179 73 74 94
7.04958 2.72696 -1.78272 77 80 97
7.01289 1.53084 -1.764 106 104 121
7.1213 1.52734 -1.78952 93 99 113
7.23542 -1.33118 -1.79111 73 72 90
7.2492 -1.35864 -1.79538 68 67 85
7.27495 -2.50477 -1.7898 78 77 90
7.279 -2.53334 -1.79253 68 65 82
7.26878 -3.42236 -1.77962 71 69 83
6.99025 2.76227 -1.77273 70 73 90
7.01009 1.61877 -1.76816 76 73 92
7.01859 1.55729 -1.76681 70 68 89
7.23995 -1.38221 -1.79398 66 69 86
7.23029 -1.41833 -1.79306 62 63 79
7.2476 -1.44665 -1.79828 65 62 81
7.26442 -2.55595 -1.79074 75 73 88
7.26776 -3.45102 -1.78182 71 67 82
6.9984 2.80693 -1.77809 65 73 86
6.99997 1.66735 -1.76858 109 92 82
6.99085 1.63996 -1.76483 109 95 90
7.23044 -1.46874 -1.79499 68 69 86
7.23229 -1.49432 -1.79642 61 62 81
7.26423 -2.59704 -1.79348 76 72 87
6.98634 2.85873 -1.77983 79 85 101
6.97773 2.82757 -1.77535 64 72 88
6.97355 1.72487 -1.76568 104 91 85
6.97411 1.69957 -1.76429 105 92 86
7.2145 -1.52886 -1.79361 55 60 76
7.2295 -1.55705 -1.79836 75 77 92
7.21773 -1.58002 -1.79648 72 71 85
7.231 -2.61338 -1.78716 70 68 82
7.23652 -2.64258 -1.79034 68 64 81
6.97285 2.88195 -1.7789 68 71 91
6.9637 1.78615 -1.76703 96 88 93
6.97292 1.75018 -1.76707 105 92 86
7.20907 -1.6163 -1.79603 63 64 85
7.21044 -1.64191 -1.79747 62 61 83
7.22481 -2.67988 -1.79037 75 73 87
6.96117 2.94796 -1.78197 67 68 88
6.973 2.92413 -1.78246 73 71 93
6.97135 1.83914 -1.77217 65 67 81
6.96285 1.81148 -1.76842 65 64 80
7.20412 -1.66593 -1.79701 71 70 90
7.19315 -1.70171 -1.79609 61 64 83
7.21536 -2.70407 -1.78993 75 71 88
7.20583 -2.72822 -1.78949 78 71 87
-6.40324 16.163 0.805356 91 84 76
-6.7096 15.5752 0.78901 95 86 85
-7.15122 15.697 0.798514 94 87 78
-7.09237 15.8447 0.802712 94 83 80
-6.96498 16.8735 0.835772 87 77 75
-6.90331 16.8691 0.834908 95 87 84
-7.96003 11.3169 0.669001 84 79 83
-7.92008 11.3727 0.670023 82 77 81
-7.35711 15.3516 0.789673 88 86 81
-7.37542 15.7545 0.803296 104 99 79
-7.24314 15.5657 0.795305 91 85 70
-7.26739 16.5466 0.828387 97 95 78
-7.36571 16.9763 0.843998 92 84 82
-7.2397 17.2225 0.850758 92 84 81
-7.09376 17.6058 0.861995 90 83 76
-7.10685 17.9235 0.8729 92 85 77
-8.02019 11.3349 0.670628 79 74 80
-7.88521 15.2422 0.793298 101 105 76
-7.66296 15.9586 0.813852 88 85 79
-7.54314 16.559 0.832251 96 92 77
-7.48916 16.7351 0.837448 89 80 72
-7.46411 17.4143 0.859894 91 86 83
-8.24807 14.1922 0.764613 84 79 83
-8.27284 14.3557 0.770252 87 82 86
-8.29576 14.5177 0.77582 86 81 85
-8.19228 14.4811 0.773055 87 78 81
-8.09879 14.948 0.786779 89 83 83
-8.04749 15.151 0.792642 112 113 89
-8.18285 16.0515 0.824039 104 100 69
-8.04382 16.5132 0.837311 95 88 86
-7.82696 16.7361 0.841812 99 92 76
-8.38757 15.0031 0.792886 89 81 79
-8.61147 15.7211 0.819496 86 80 84
-8.49059 15.6584 0.81566 90 82 82
-8.45521 16.3184 0.83665 82 81 60
-8.58162 17.1064 0.864264 92 84 79
-8.27385 16.911 0.853573 89 83 83
-6.29995 15.8023 0.73118 92 85 77
-9.13302 14.3298 0.78336 85 81 82
-9.07553 14.3337 0.782515 88 79 84
-9.00129 14.3602 0.782111 85 81 82
-8.90764 14.297 0.778555 84 80 81
-8.92534 14.439 0.783342 79 77 78
-8.85822 14.4789 0.783507 83 81 84
-8.81186 14.5029 0.783515 83 76 83
-8.78955 14.5729 0.785378 83 77 81
-8.77425 14.657 0.78781 88 79 84
-8.87976 15.0336 0.801522 85 77 82
-8.81258 15.0204 0.800032 83 78 82
-8.74989 16.482 0.846262 102 104 82
-8.84739 17.9486 0.895655 91 87 88
-9.27166 14.3103 0.785107 88 77 82
-9.6276 15.1043 0.816077 83 78 82
-6.96324 15.6905 0.734763 100 103 79
-6.81703 15.446 0.725798 114 119 96
-6.76766 15.4638 0.725792 94 92 74
-6.7235 15.5729 0.728608 91 81 77
-9.3086 23.2708 1.07894 87 80 73
-7.99959 11.3478 0.622336 83 77 78
-7.93202 11.3574 0.62153 86 82 83
-7.33321 15.4688 0.732344 101 98 84
-7.33212 15.9813 0.747637 101 103 74
-7.31886 16.0996 0.751025 107 117 75
-7.08789 15.6443 0.734766 107 118 77
-7.20159 17.0839 0.779346 92 84 81
-7.19853 17.2499 0.784329 96 88 85
-7.07994 17.1725 0.780744 91 83 80
-6.93164 16.9169 0.771457 92 84 80
-7.01542 17.527 0.790826 87 80 72
-6.97564 17.6874 0.7953 92 83 74
-7.6499 16.0415 0.753138 90 86 80
-7.56464 16.1998 0.756853 104 104 69
-7.37834 15.8757 0.74501 97 97 68
-11.3794 14.8428 0.840175 90 84 90
-11.1441 14.9536 0.838928 85 79 83
-11.1762 15.157 0.845667 86 82 88
-11.2228 17.2989 0.912174 100 87 79
-11.1663 17.391 0.91406 88 78 82
-11.0622 17.3373 0.910581 86 80 83
-8.34047 14.4625 0.715728 85 80 84
-8.24317 14.3809 0.712022 86 84 87
-8.1665 14.5153 0.714859 91 81 80
-8.11145 14.5191 0.714223 85 79 78
-8.07697 14.5662 0.715124 88 84 83
-7.94647 14.5892 0.714053 82 77 80
-7.99074 15.1238 0.730264 94 99 81
-7.92897 15.3104 0.734949 107 112 92
-7.95344 16.49 0.770102 79 74 71
-7.80793 19.6907 0.86461 93 84 77
-13.0628 11.3213 0.779651 87 89 80
-13.071 11.4013 0.781896 86 91 72
-13.0429 11.4467 0.782365 95 100 80
-12.9494 11.4645 0.780519 85 88 69
-12.8926 11.4816 0.779567 69 71 51
-12.84 11.5027 0.778828 72 73 68
-11.9021 15.238 0.86224 88 82 89
-11.5928 15.0505 0.850554 85 78 85
-11.4869 15.2565 0.854633 82 77 83
-11.8886 18.1764 0.951141 111 104 97
-11.4638 17.5843 0.925277 118 108 95
-8.68659 14.8642 0.73215 85 78 85
-8.48291 14.633 0.722634 82 77 79
-8.40545 15.7104 0.752841 87 84 80
-8.18803 16.0363 0.759591 93 88 65
-8.16949 16.6387 0.777136 91 86 82
-8.29845 17.0977 0.792303 88 82 80
-12.8217 15.7885 0.897008 79 74 78
-12.569 15.7045 0.889396 94 84 93
-12.0852 16.2522 0.896056 89 82 89
-12.2218 17.3921 0.933094 83 77 79
-12.1854 17.4571 0.934397 84 78 78
-12.1234 17.5426 0.935864 83 76 83
-12.0642 17.5717 0.935669 84 77 88
-12.0731 17.7113 0.940107 79 74 81
-12.127 17.9892 0.949627 78 72 72
-9.06958 14.2977 0.721594 85 79 83
-8.9488 14.347 0.72118 82 78 79
-8.99917 14.5509 0.727716 80 74 80
-8.95918 14.5877 0.728173 82 79 84
-8.89826 14.7547 0.732044 85 81 85
-8.99719 15.0609 0.742226 82 77 83
-8.89073 15.03 0.739816 86 82 84
-8.84089 16.8685 0.792407 84 83 79
-8.88023 17.774 0.819496 90 82 79
-8.59881 17.2751 0.801256 94 87 85
-8.86743 18.1376 0.830066 89 82 79
-13.5993 15.0721 0.893006 83 82 77
-13.6565 15.3387 0.90176 79 73 81
-13.3618 15.2206 0.892033 84 79 84
-13.507 15.5026 0.903171 90 82 82
-13.3712 15.4819 0.899672 88 80 91
-13.2922 15.841 0.908299 82 77 84
-13.0395 15.872 0.903929 86 81 87
-13.009 15.9364 0.905169 81 76 83
-13.4276 17.1722 0.949881 88 83 91
-13.1819 17.2285 0.94664 88 81 88
-13.3197 17.7844 0.965884 84 81 85
-12.9098 18.0298 0.965364 82 76 79
-12.8531 18.1301 0.967334 86 80 83
-13.2606 18.8934 0.998145 83 77 81
-9.65783 15.2513 0.757414 82 77 81
-9.48841 15.2297 0.754251 80 76 77
-14.699 15.6864 0.934558 86 84 73
-14.7068 15.9487 0.941997 91 88 77
-13.9355 15.3807 0.909053 83 82 82
-14.0944 16.032 0.930863 85 80 85
-14.0305 16.4264 0.940712 86 81 87
-13.9511 16.4318 0.939179 89 87 90
-13.8471 16.4584 0.937745 86 81 88
-13.7925 16.7139 0.943966 87 82 88
-13.6223 17.5626 0.965296 84 76 81
-13.6706 19.0653 1.01109 82 76 81
-9.88091 15.5368 0.768855 84 79 83
-9.61835 18.8993 0.86198 81 78 69
-68.203 8.29942 2.52816 92 101 74
-66.3594 8.27858 2.46518 96 105 79
-66.2055 8.46629 2.46117 95 109 76
-65.8849 8.63095 2.45135 79 91 67
-62.9786 8.53893 2.35179 77 88 71
-63.0555 8.74736 2.35585 82 93 79
-61.7779 8.76047 2.3125 75 84 78
-58.1645 8.69397 2.18923 84 93 72
-58.6727 8.95614 2.20843 91 99 68
-18.63 11.322 0.930045 78 80 73
-18.3204 11.2356 0.919366 88 87 75
-18.4008 11.3663 0.924388 82 85 66
-18.1698 11.2903 0.9162 72 76 60
-18.1186 11.4495 0.918095 86 90 73
-18.1692 11.5621 0.921917 104 105 79
-16.3415 15.3009 0.962628 78 83 69
-16.0168 15.115 0.949927 112 118 100
-15.9088 15.1961 0.949458 100 93 90
-15.9516 15.3371 0.954198 83 81 68
-15.9458 15.4772 0.957765 81 78 79
-15.9457 15.5755 0.960372 78 81 74
-15.6416 16.0486 0.965959 83 82 80
-15.3839 15.863 0.954982 81 76 83
-15.4909 16.1359 0.964873 92 90 83
-15.4724 16.2181 0.966695 97 94 85
-15.46 16.3079 0.968872 83 79 77
-15.5849 16.6088 0.979974 97 95 82
-15.4215 16.6319 0.976929 84 82 77
-61.8734 9.06584 2.31793 94 101 84
-59.0675 9.2037 2.22368 86 89 64
-57.6749 9.25456 2.17685 116 114 52
-57.436 9.39659 2.16985 116 112 49
-57.3345 9.56068 2.16771 114 108 47
-57.8663 9.92586 2.18863 110 103 57
-57.612 10.0637 2.18114 94 86 50
-58.2531 10.363 2.20528 105 97 48
-52.5951 9.75094 2.00904 116 109 59
-52.3615 9.87291 2.00221 105 106 55
-52.2178 10.0112 1.99856 111 114 60
-52.0087 10.2185 1.99335 129 123 51
-52.0597 10.3949 1.99665 115 101 41
-44.5065 9.48739 1.73445 107 102 60
-44.2172 10.062 1.73034 104 103 51
-44.1705 10.2644 1.73081 118 117 63
-43.9606 10.3561 1.72474 110 114 55
-43.3279 10.3426 1.70349 116 114 48
-33.4163 10.0274 1.37188 92 91 63
-33.4269 10.1971 1.37433 80 72 69
-33.3977 10.2991 1.37466 119 115 88
-33.4043 10.4128 1.3763 74 72 52
-33.375 10.5707 1.37736 127 92 88
-23.4915 11.2615 1.07362 89 91 81
-23.1868 11.4125 1.06699 87 89 76
-23.246 11.7532 1.07491 92 96 79
-22.8952 11.6535 1.06249 88 91 75
-18.2287 14.8758 0.999265 68 71 64
-18.2125 14.9567 1.00082 83 89 74
-18.1187 15.0166 0.999863 88 98 83
-17.9768 14.9856 0.995458 84 87 77
-17.9897 15.0928 0.99843 83 90 76
-17.82 15.0829 0.993851 78 83 69
-17.9398 15.2885 1.002 79 80 72
-17.8468 15.3003 0.999936 99 98 93
-17.1758 14.9173 0.97341 99 102 95
-17.1616 14.9987 0.975101 57 63 50
-16.748 14.7489 0.958444 100 104 88
-16.6103 16.3812 0.997525 88 86 87
-16.4586 16.3746 0.993772 86 81 90
-16.2828 16.2889 0.987352 82 76 85
-16.9548 17.2866 1.02986 92 88 91
-16.8687 17.3018 1.02828 85 84 82
-16.6185 18.4401 1.05386 78 76 79
-11.5597 15.0914 0.784197 84 79 81
-11.5441 15.328 0.790274 86 79 85
-11.4285 15.2608 0.78646 87 81 85
-11.2425 15.0865 0.778553 85 78 85
-11.3911 16.8927 0.83041 84 78 81
-11.255 17.3448 0.840809 123 121 98
-11.3154 17.7723 0.853716 78 73 78
-10.9492 17.2561 0.833576 86 81 86
-58.2363 10.6373 2.207 114 107 59
-52.4757 10.6477 2.01293 132 116 57
-54.6585 11.3642 2.09289 138 122 70
-52.0239 10.9701 2.00073 118 107 65
-52.8559 11.7449 2.03602 123 119 59
-53.816 12.1373 2.072 101 99 47
-43.6421 10.6317 1.71696 119 108 51
-43.6193 10.7675 1.71763 125 115 55
-43.2654 10.8181 1.70639 124 115 57
-44.6945 11.4047 1.76019 120 112 66
-43.7199 11.2914 1.72659 125 112 69
-42.8678 11.2047 1.69737 119 106 67
-44.6624 11.9078 1.76465 121 113 75
-41.713 11.2349 1.65945 119 110 62
-41.7401 11.3796 1.66199 120 113 58
-38.1269 11.117 1.53977 117 111 97
-38.6291 11.5252 1.5612 105 105 77
-33.2022 10.7368 1.37387 151 115 137
-33.357 11.0702 1.38328 122 81 109
-33.3477 11.1799 1.38444 108 69 77
-33.3089 11.336 1.38528 161 152 158
-33.3137 11.4512 1.38699 118 117 125
-33.3088 11.5632 1.38836 112 119 137
-29.7338 11.2443 1.269 89 86 82
-28.3632 11.499 1.22928 87 82 74
-28.0012 11.4447 1.21701 93 86 71
-28.1834 11.774 1.22789 72 72 64
-27.9686 11.8809 1.22284 80 80 69
-20.2215 15.2405 1.06051 78 83 77
-19.8464 15.0364 1.04571 77 79 76
-19.8246 15.1161 1.04699 77 77 75
-19.7964 15.7871 1.06212 77 79 74
-18.9054 15.2715 1.02643 73 78 74
-18.8806 15.3479 1.02764 71 72 75
-13.0438 11.3602 0.720341 93 96 92
-13.0173 11.407 0.720831 65 71 62
-12.9555 11.4553 0.720584 89 92 78
-12.9044 11.478 0.71999 94 95 84
-17.6275 16.4965 1.02495 87 95 79
-12.1507 15.5802 0.807691 86 82 83
-11.9479 15.3949 0.79915 91 86 87
-11.9731 16.354 0.825337 86 79 87
-11.6772 16.0147 0.811099 93 86 94
-11.6488 16.0828 0.812463 83 78 84
-11.4666 16.7167 0.826774 80 75 82
-11.4325 16.8401 0.829625 81 76 82
-11.5479 17.7203 0.855892 98 98 78
-59.4068 13.0446 2.26809 111 103 51
-43.1183 12.2653 1.71771 96 99 75
-42.6059 12.2563 1.70072 98 101 75
-42.2223 12.4932 1.69093 111 111 92
-31.3838 13.6855 1.35878 77 75 80
-22.3155 14.7385 1.10693 81 83 68
-22.918 15.5188 1.14071 90 85 86
-21.9949 14.9573 1.10268 87 86 78
-21.8268 15.1842 1.103 87 88 83
-21.671 15.2188 1.09947 83 86 72
-21.7517 15.3799 1.10528 85 86 77
-21.7982 15.5163 1.10962 78 85 79
-21.731 15.5675 1.10892 68 74 69
-21.3897 15.8154 1.10526 68 70 61
-22.068 16.4542 1.13828 75 79 71
-22.0592 16.5542 1.14035 79 82 77
-20.829 16.0357 1.09532 77 78 73
-20.8418 16.2016 1.09955 83 84 80
-21.025 16.4584 1.11048 77 78 74
-20.2064 15.8795 1.07511 73 73 71
-20.9012 16.6195 1.11104 78 80 77
-20.1937 16.2284 1.08311 77 79 76
-13.3653 15.3161 0.823324 126 128 114
-13.2646 15.6937 0.831109 84 83 89
-13.1683 16.0372 0.838224 87 82 87
-12.9627 15.8658 0.829947 84 78 86
-12.8587 15.8302 0.827101 86 80 86
-12.7773 15.8768 0.826834 85 80 84
-12.4097 15.7359 0.816459 87 83 85
-12.8286 18.089 0.886944 85 81 83
-12.7719 18.1271 0.88703 78 73 80
-12.1663 17.6052 0.862682 85 78 85
-56.6508 16.0438 2.20807 96 100 74
-40.5984 14.8271 1.66862 81 89 97
-39.5182 14.626 1.63108 114 113 92
-38.9109 15.2828 1.62122 71 71 71
-31.3489 13.7841 1.35929 87 83 88
-32.019 14.2085 1.38712 84 81 76
-32.0414 14.3953 1.39088 81 81 82
-30.2694 14.9839 1.34627 80 81 73
-29.9739 15.6421 1.34912 82 84 73
-29.9483 15.7455 1.35025 92 89 85
-29.9766 15.879 1.35356 78 79 71
-29.627 15.8609 1.34272 92 93 87
-25.2571 15.0529 1.1978 71 69 69
-25.5484 15.3425 1.21209 66 64 63
-26.1145 15.9752 1.24133 84 80 70
-24.3507 15.9458 1.19022 88 89 73
-23.6417 15.7716 1.16648 86 83 77
-23.4508 15.7946 1.16162 90 84 86
-23.4673 16.1785 1.17046 92 92 81
-23.0852 16.0061 1.15605 91 91 86
-22.4335 16.3661 1.14618 76 78 72
-22.7518 16.7205 1.16291 76 81 76
-14.4674 14.7371 0.830832 82 77 83
-13.5863 15.1459 0.823286 88 80 85
-13.524 15.1676 0.822619 84 76 86
-13.4789 15.3591 0.826611 76 75 74
-13.4265 15.5445 0.830346 86 81 88
-13.886 16.3431 0.859604 84 82 87
-13.2919 15.8332 0.835229 85 80 86
-13.3067 17.1128 0.869027 90 83 89
-13.3105 17.5278 0.880129 83 73 82
-13.5491 18.1189 0.900128 88 78 86
-13.3586 19.1813 0.925616 83 78 84
-13.5793 19.6676 0.942587 83 76 82
-13.5698 20.0022 0.951608 84 78 82
-6.53651 15.308 0.596537 90 82 79
-6.29613 15.9058 0.608521 93 84 75
-41.9323 15.8433 1.72591 95 94 87
-39.6469 15.4412 1.64701 96 96 84
-38.8876 15.4803 1.62342 95 103 110
-40.7027 16.3726 1.69451 96 92 90
-38.6511 16.1446 1.62608 96 94 80
-39.5046 16.8711 1.66434 93 88 88
-34.2863 15.6997 1.48226 80 80 72
-34.15 15.8255 1.48013 84 85 78
-33.8402 15.9297 1.47231 81 81 72
-33.9272 16.0998 1.47789 83 83 73
-36.3111 17.481 1.57498 78 79 66
-33.7929 16.3529 1.4781 75 80 66
-35.0126 17.3 1.53199 81 82 73
-33.4261 17.0661 1.47947 75 78 65
-31.0537 16.782 1.40268 98 95 88
-29.4714 16.008 1.34081 98 96 91
-32.2361 17.7705 1.45661 78 82 68
-30.529 17.0372 1.39184 76 78 67
-29.8612 16.7694 1.36688 82 82 74
-29.5577 16.7715 1.35793 74 76 75
-29.5967 16.9155 1.36187 72 70 66
-29.5307 16.9971 1.36151 93 90 83
-29.0842 16.9081 1.34662 88 84 73
-28.9399 16.94 1.34301 87 84 67
-28.7174 16.9231 1.33615 75 77 65
-28.6146 17.0384 1.33544 69 68 66
-30.0803 18.3316 1.40408 95 90 84
-18.3131 11.3037 0.845754 87 86 74
-18.1688 11.2849 0.841716 84 83 70
-29.2916 18.1416 1.37738 86 85 71
-18.1127 11.4408 0.843247 77 80 69
-18.0676 11.4879 0.843007 85 87 72
-27.8842 17.954 1.33308 77 82 67
-15.4598 15.9453 0.880763 80 77 72
-15.4088 16.0407 0.882053 84 80 82
-15.1682 15.9713 0.87544 85 82 71
-15.2774 16.2516 0.884577 112 113 93
-14.7301 15.8194 0.862833 84 80 69
-15.1083 16.4203 0.885373 82 73 81
-14.7249 16.278 0.874195 81 75 79
-14.5066 16.17 0.867177 87 78 86
-14.8894 18.1689 0.925698 82 76 83
-8.09238 11.4016 0.525051 79 75 74
-8.01754 11.3598 0.523255 83 78 84
-7.99328 11.4018 0.523854 79 74 80
-6.91089 15.6503 0.607512 88 88 75
-6.79974 15.5013 0.603153 80 78 67
-6.74337 15.5001 0.602658 92 85 74
-6.55618 16.2649 0.618853 91 81 79
-68.2902 8.08802 2.2805 117 120 89
-68.4667 8.43045 2.2879 99 109 80
-63.2759 7.97353 2.12736 90 103 79
-62.7483 8.1015 2.11211 93 105 83
-62.7435 8.29718 2.11319 94 106 86
-62.7444 8.59207 2.11509 88 101 87
-58.4882 8.81946 1.98757 88 96 81
-50.8101 18.3229 2.04625 106 122 145
-52.1041 18.9835 2.09712 72 80 88
-39.6575 18.1059 1.68905 79 79 73
-35.9942 20.0721 1.61225 76 80 65
-16.9344 15.0192 0.890452 96 98 84
-16.1059 14.9644 0.87097 70 78 59
-16.5293 15.637 0.895901 76 71 66
-15.9199 15.1083 0.870331 78 74 69
-15.8424 15.1241 0.869043 75 76 68
-16.0926 15.4816 0.882862 80 79 74
-15.9472 15.4761 0.879632 93 96 90
-15.9128 15.5382 0.880383 88 91 82
-16.6064 16.3775 0.915118 89 83 88
-16.4752 16.3926 0.912718 82 75 82
-15.7999 16.0177 0.889556 84 79 83
-15.5399 15.8319 0.879652 84 77 84
-15.915 17.0995 0.918444 85 82 71
-15.7069 17.2401 0.917778 85 79 87
-15.8344 20.3498 1.00015 88 78 86
-7.31747 15.6689 0.611437 88 82 88
-7.25281 15.6509 0.610455 93 85 82
-7.15078 15.7579 0.61202 89 87 75
-7.13219 15.8608 0.614216 95 89 86
-7.10182 15.9337 0.61563 90 89 82
-6.9599 16.6755 0.631548 86 79 73
-6.8599 16.817 0.634031 89 80 79
-6.80559 17.285 0.644472 92 83 75
-62.6549 8.77598 2.11356 76 92 79
-62.8913 9.00734 2.12224 76 92 76
-62.3017 9.21432 2.10576 76 87 71
-58.3942 8.98851 1.98588 94 99 69
-58.3563 9.25803 1.98662 107 112 69
-58.3872 9.44714 1.9889 103 104 58
-57.7197 9.51829 1.96924 96 99 59
-57.468 9.65716 1.96266 103 103 60
-57.3227 9.90388 1.96009 110 108 60
-58.0124 10.2101 1.98321 109 110 53
-52.5476 9.97181 1.81676 103 96 59
-52.3896 10.1076 1.81311 113 108 71
-52.5933 10.3993 1.8216 135 124 56
-52.3794 10.5229 1.8162 149 134 67
-44.5367 10.0394 1.57727 153 136 72
-44.399 10.1502 1.57417 131 117 52
-43.5959 10.3115 1.55173 122 120 62
-43.2985 10.3786 1.54352 116 116 56
-42.7076 10.4392 1.52653 120 117 57
-41.8346 10.4897 1.5011 119 117 56
-41.7568 10.6731 1.5006 122 111 58
-33.4092 10.1032 1.24883 97 105 72
-33.4031 10.2124 1.24989 75 74 64
-33.4081 10.3254 1.25132 100 98 84
-33.3994 10.4341 1.25232 76 70 66
-33.3775 10.5945 1.25354 124 79 86
-33.1836 10.7532 1.24978 122 67 80
-33.3515 11.0915 1.25869 134 100 100
-29.7222 11.256 1.1565 89 88 80
-28.4004 11.5288 1.12276 104 101 91
-28.0364 11.4731 1.11172 95 93 80
-28.2139 11.6501 1.11922 80 77 69
-27.8915 11.7596 1.11173 84 82 70
-23.4129 11.3581 0.981744 78 80 68
-23.1836 11.4152 0.97642 75 79 67
-23.0332 11.6437 0.976056 65 70 60
-18.5764 15.0848 0.92925 76 78 75
-18.3508 15.0795 0.923914 72 76 65
-18.1102 15.0095 0.916834 74 76 71
-17.9546 15.0615 0.914417 72 81 61
-17.8325 15.0943 0.912359 68 74 56
-17.9152 15.2665 0.918086 74 77 66
-17.9647 15.4097 0.922413 94 96 86
-17.6645 15.277 0.91265 75 76 70
-17.5631 15.2793 0.910419 69 72 66
-17.722 15.5266 0.919583 81 84 76
-17.8883 15.7834 0.929131 84 88 75
-16.7605 16.9138 0.931249 80 73 80
-16.4746 18.2725 0.958868 80 72 82
-8.00576 15.2414 0.608182 82 78 80
-7.82132 15.7596 0.618087 95 103 72
-59.0685 10.5884 2.01792 97 93 47
-59.2666 10.9072 2.02636 83 78 50
-56.6789 10.5987 1.94603 104 99 60
-52.2435 10.6617 1.81329 129 118 63
-52.186 10.9001 1.81358 117 106 61
-52.0589 11.0396 1.81097 133 120 81
-51.8475 11.1599 1.80568 112 102 56
-51.9436 11.4316 1.81094 122 104 52
-52.9237 11.8242 1.84372 135 115 56
-43.2702 10.7221 1.54596 116 114 53
-41.6353 10.7767 1.49804 109 102 51
-41.7413 10.9414 1.50283 127 119 65
-42.0144 11.3596 1.51516 111 105 72
-41.9373 11.4758 1.51409 109 104 62
-43.2029 12.1908 1.55888 91 90 70
-42.5779 12.2904 1.54157 88 92 76
-38.167 11.162 1.39986 86 86 83
-38.6367 11.5616 1.41803 101 108 85
-33.3364 11.1993 1.25956 88 70 64
-33.3379 11.3131 1.26099 126 113 115
-33.3097 11.4732 1.26215 121 121 133
-33.3047 11.5852 1.26339 124 132 153
-21.9937 14.8638 1.00713 81 75 77
-21.7702 15.0492 1.00523 86 87 82
-21.9806 15.3049 1.01554 77 79 70
-21.813 15.3317 1.01194 71 78 60
-21.7463 15.3829 1.01133 78 81 70
-21.9026 15.6028 1.0196 71 76 71
-21.8158 15.7936 1.02135 72 77 71
-21.2212 15.5376 1.00165 75 80 74
-20.414 15.7016 0.985677 79 80 72
-20.6605 16.0583 0.999086 75 77 68
-20.7688 16.2523 1.00577 76 78 67
-20.7443 16.3366 1.007 75 75 67
-20.6084 16.3791 1.00471 79 78 73
-19.6589 15.7751 0.969444 78 80 75
-8.64372 14.6229 0.60103 84 80 82
-8.32101 14.7361 0.6001 82 77 74
-8.26274 14.7948 0.600801 102 95 90
-8.34524 15.0894 0.608192 85 79 79
-8.44557 15.4262 0.616707 83 81 79
-8.13014 15.0675 0.605523 83 77 80
-8.33553 15.6413 0.620397 83 77 78
-8.17915 16.1031 0.629231 83 82 71
-8.03986 16.0623 0.626981 100 102 82
-7.96936 16.6211 0.63898 91 89 70
-7.84391 16.4646 0.634282 111 109 95
-7.85934 16.6542 0.63873 89 85 81
-7.81762 16.7802 0.641231 90 83 87
-33.73 14.2273 1.31081 88 85 80
-31.1946 13.7346 1.23275 72 67 74
-32.048 14.2451 1.26405 84 80 78
-25.3101 15.2046 1.09806 73 70 64
-26.0147 15.9259 1.12948 79 81 73
-25.1205 16.1049 1.10989 90 97 79
-24.5112 16.0153 1.09272 83 83 73
-24.6314 16.2618 1.1005 88 91 72
-24.2571 16.1088 1.08811 84 85 72
-24.328 16.2674 1.09297 81 80 72
-23.9607 16.1691 1.08185 88 82 84
-23.478 16.0371 1.06721 76 76 68
-23.5273 16.2335 1.07231 88 88 85
-22.7157 16.3256 1.05415 76 77 71
-23.0971 17.1673 1.08065 77 81 67
-22.2607 16.6163 1.04905 78 82 68
-22.0404 16.5487 1.04235 76 79 68
-21.6889 16.427 1.03137 81 82 74
-21.5588 16.4281 1.02828 78 79 71
-21.5264 16.5082 1.02918 78 79 71
-8.92094 14.5887 0.60332 83 77 84
-8.90425 14.7258 0.606129 84 78 84
-8.85247 14.7411 0.605893 84 79 80
-8.72719 14.6143 0.601744 81 75 79
-8.77606 14.9991 0.610721 84 77 83
-8.74965 15.0657 0.611902 83 77 82
-8.74185 15.2299 0.615443 86 84 85
-8.71702 15.302 0.616769 87 82 80
-8.80881 15.6127 0.624601 82 77 76
-8.46152 16.1171 0.632297 81 76 80
-8.41867 16.2976 0.635921 84 78 82
-8.59939 17.2143 0.658289 94 98 76
-8.24999 16.9209 0.648366 100 101 69
-55.9421 15.6307 1.97025 104 102 79
-53.6743 15.4264 1.90133 78 81 63
-39.4365 14.2892 1.47378 111 126 149
-41.4605 15.556 1.54808 76 80 68
-40.1324 15.6762 1.5118 84 84 70
-39.0365 15.371 1.47655 99 99 99
-37.6474 15.1382 1.434 95 94 98
-37.2377 15.1002 1.42188 88 90 76
-33.5678 14.7046 1.31316 99 94 98
-33.5609 15.3819 1.32303 79 78 70
-33.444 15.5127 1.32178 78 79 73
-33.299 15.5671 1.31861 79 80 72
-33.6187 15.8491 1.33174 85 85 73
-31.5258 14.939 1.26011 85 86 73
-30.0415 15.7002 1.23188 78 79 63
-29.9072 15.7441 1.229 84 81 74
-31.1213 16.7208 1.2779 73 69 69
-29.4376 15.8922 1.21889 104 99 102
-30.6699 16.8959 1.26882 80 84 72
-30.4015 16.8637 1.26113 76 82 70
-30.1974 16.8672 1.25577 75 79 71
-29.8575 16.7896 1.24542 75 77 72
-29.5968 16.8166 1.23901 62 62 63
-29.2395 16.7235 1.22795 83 80 71
-29.1107 16.7657 1.2253 104 99 88
-28.7849 16.7467 1.21641 76 73 66
-28.8931 16.9323 1.22255 93 94 80
-28.7828 16.9842 1.22059 85 87 72
-28.5203 17.0001 1.21403 82 79 72
-26.0744 16.0753 1.13377 84 85 73
-9.24919 14.6952 0.60933 82 77 83
-9.44734 15.2263 0.623097 86 82 81
-9.50779 15.4544 0.628731 86 79 86
-9.20541 15.0083 0.615634 83 76 83
-50.9654 18.4428 1.85762 119 134 155
-50.7889 18.7322 1.85622 82 84 70
-50.7608 18.9886 1.85871 75 82 67
-38.0325 16.3961 1.46253 92 88 87
-36.8769 16.692 1.43463 83 81 81
-39.8673 18.2463 1.54086 77 77 69
-36.3117 17.5156 1.43158 75 78 69
-36.5537 17.7759 1.44228 76 79 70
-37.4 18.3463 1.4744 78 84 72
-33.3179 17.0372 1.34231 81 85 68
-32.1723 17.1198 1.31276 81 80 75
-29.5739 17.7832 1.25559 78 77 69
-28.666 17.8817 1.2339 76 77 63
-8.02297 11.325 0.471458 81 79 80
-7.98143 11.3377 0.471264 82 78 79
-9.82794 15.6295 0.636166 80 75 82
-9.21585 18.3177 0.689058 88 90 69
-6.69919 15.5569 0.539773 107 103 91
-6.58229 15.7028 0.54181 98 90 85
-6.43237 15.671 0.540194 91 83 81
-6.42229 16.2394 0.551246 89 80 74
-50.3082 20.2434 1.86245 85 87 75
-10.7502 15.395 0.642202 83 78 82
-7.01618 15.8871 0.54839 94 90 76
-6.83311 15.5412 0.540396 89 83 71
-6.76112 15.4969 0.539032 89 80 71
-6.72877 15.9631 0.54787 103 94 89
-6.68927 16.2655 0.5535 89 84 81
-6.66575 16.5426 0.558751 89 81 76
-6.53793 16.4183 0.555495 89 80 75
-13.1384 11.4284 0.599688 81 84 71
-13.0671 11.4323 0.598566 77 84 66
-13.0504 11.4888 0.59929 71 70 67
-11.8056 15.4074 0.65607 84 79 85
-11.498 15.1662 0.647031 83 77 80
-11.5315 15.3719 0.651716 84 80 81
-11.5723 15.5388 0.655695 85 79 83
-11.5273 16.4701 0.674519 81 78 81
-11.1522 17.1122 0.683531 80 72 77
-11.2989 17.684 0.697514 87 78 83
-7.52375 15.999 0.554252 94 93 78
-7.24355 15.5805 0.544115 84 83 72
-7.2169 16.0389 0.552757 101 101 79
-7.14197 15.9942 0.551353 90 89 69
-12.6639 15.887 0.677452 101 102 86
-12.4376 15.8362 0.673332 98 99 84
-12.289 15.7326 0.669207 91 91 79
-12.3759 16.8566 0.693434 84 79 83
-11.8225 16.1892 0.67242 82 76 80
-12.2179 17.0253 0.694892 85 79 85
-11.7361 17.1016 0.690413 86 81 80
-11.5752 17.708 0.701311 73 67 67
-11.3363 17.8807 0.702173 83 79 79
-11.405 18.1352 0.708445 82 78 79
-11.2445 18.0505 0.704761 86 82 78
-8.33607 14.7283 0.53678 85 78 78
-8.27695 14.7853 0.537331 88 82 69
-8.20826 14.7623 0.536307 80 76 76
-8.09132 14.6361 0.532934 83 81 82
-8.05005 14.73 0.534348 84 82 77
-8.1893 15.1561 0.543536 84 74 80
-8.13667 15.1689 0.543333 80 74 78
-8.05688 15.1851 0.542975 84 82 80
-8.14864 15.5203 0.550061 88 85 85
-7.98317 15.2809 0.544173 86 82 81
-7.99098 15.6325 0.550898 87 89 79
-7.87592 15.8482 0.55408 103 113 79
-7.69507 16.2062 0.559517 102 105 82
-7.57248 16.2736 0.55989 85 81 72
-7.46773 16.3116 0.559841 91 96 72
-7.61734 16.9407 0.573063 101 105 78
-10.5969 24.4365 0.840545 89 83 75
-14.1034 15.0431 0.68171 102 97 92
-13.7935 15.0151 0.676493 82 73 81
-13.6083 15.2298 0.677887 87 80 80
-13.4767 15.314 0.677595 80 75 82
-13.8696 15.9074 0.694945 93 90 89
-13.4567 15.4894 0.680736 74 69 70
-13.6329 15.8661 0.6907 86 81 86
-13.6853 16.0375 0.694833 85 80 87
-13.5799 16.6506 0.705526 76 74 75
-13.3593 16.4627 0.698674 115 116 100
-13.0193 16.1092 0.686841 89 85 79
-12.8908 16.0935 0.684748 79 73 72
-13.0071 16.8638 0.701953 77 72 72
-13.2215 17.2862 0.713458 87 78 84
-8.86602 14.4501 0.536424 80 75 77
-8.80904 14.5091 0.536981 83 79 81
-8.82611 14.6553 0.53983 83 77 81
-8.74537 14.6134 0.538315 84 75 80
-8.76986 14.834 0.542617 83 77 79
-8.74851 14.9094 0.543819 85 80 82
-8.73395 14.9991 0.54535 82 78 79
-8.65172 15.013 0.544875 81 80 79
-8.61426 15.0579 0.545375 87 83 81
-8.14639 16.1309 0.561607 93 101 77
-8.03884 16.5286 0.568326 93 94 70
-7.97289 16.5921 0.569034 87 90 65
-7.94536 16.6764 0.570432 95 100 75
-11.3546 24.5294 0.849514 91 87 74
-18.3241 11.3593 0.692637 84 87 76
-18.163 11.3293 0.689097 91 93 73
-18.1219 11.4176 0.689608 83 83 67
-18.0884 11.4727 0.689781 86 87 73
-14.7327 15.4284 0.69866 84 82 85
-14.6125 15.3893 0.696072 87 85 84
-15.0833 16.0832 0.716465 98 94 86
-14.2928 15.7118 0.697397 84 74 82
-14.2247 15.7311 0.696752 82 73 76
-14.1699 15.8169 0.697599 90 81 82
-14.3376 16.2303 0.70811 82 78 75
-14.4752 17.1641 0.728435 85 80 87
-14.0259 16.6922 0.712661 85 80 86
-13.841 16.614 0.708477 106 107 94
-13.6963 16.5323 0.704801 86 83 73
-13.2214 18.8995 0.746806 85 81 83
-13.2562 19.0874 0.751178 74 69 75
-9.1831 14.5419 0.541104 84 80 79
-9.39994 15.3409 0.557781 78 76 77
-8.95395 15.8766 0.563623 88 84 71
-8.62725 17.7899 0.59699 91 89 71
-16.6862 14.5089 0.713575 81 81 73
-16.6455 14.5628 0.713827 90 92 79
-16.7915 14.7941 0.720346 102 102 85
-16.9005 15.3763 0.73246 83 88 76
-16.8315 15.4057 0.731835 79 80 73
-16.1581 14.9756 0.713018 76 77 67
-16.7909 15.7094 0.73661 72 72 62
-16.4182 15.4306 0.725477 92 95 78
-15.8654 15.202 0.712339 87 90 73
-16.5593 16.1762 0.741333 87 89 76
-16.4664 16.4387 0.744686 96 90 94
-16.1695 16.3247 0.737871 86 85 84
-15.4323 15.6681 0.714044 85 84 82
-15.5707 16.0234 0.722853 95 95 84
-15.4071 16.0949 0.721661 82 81 79
-15.7973 17.2945 0.75045 85 75 86
-14.8202 19.0003 0.770007 81 82 75
-14.41 19.3177 0.770929 79 74 78
-14.0055 19.6466 0.772413 77 73 75
-8.03051 11.3261 0.417534 77 73 74
-8.00844 11.3715 0.418006 83 79 80
-13.9429 19.824 0.775297 83 79 80
-9.7726 15.7969 0.569658 77 76 75
-9.54156 15.4876 0.561806 81 80 77
-33.4625 10.1161 0.996619 68 66 64
-33.4461 10.2776 0.997713 87 86 89
-23.4506 11.2949 0.794304 81 84 71
-23.5458 11.565 0.79963 75 83 72
-23.2325 11.4902 0.792262 77 85 74
-23.0307 11.6036 0.789574 76 77 69
-18.9129 15.3329 0.766144 67 70 59
-18.9193 15.7843 0.773888 68 72 70
-18.4764 15.4871 0.761142 68 70 69
-18.0987 15.3901 0.752966 70 69 66
-18.1216 15.5091 0.755409 75 74 72
-18.2129 15.6922 0.760135 88 86 87
-13.1463 11.4177 0.535879 68 67 66
-18.0182 15.6601 0.756258 81 81 76
-13.0422 11.3896 0.534003 90 91 84
-13.0212 11.4418 0.534497 93 96 85
-18.0083 16.6729 0.773948 80 81 71
-16.9628 16.0852 0.746203 71 68 58
-16.9347 16.2093 0.747998 84 86 70
-16.5691 16.3931 0.745475 84 76 89
-16.8134 16.9199 0.759098 87 84 85
-16.6847 17.3773 0.765617 99 100 94
-8.29816 11.6832 0.424814 77 72 74
-10.9611 15.7126 0.580001 85 79 83
-10.7801 15.8102 0.579866 82 76 80
-6.32892 15.3177 0.466248 85 80 76
-6.41072 15.9726 0.476884 87 79 76
-6.36959 16.0195 0.477401 90 81 76
-69.1724 8.24884 1.7936 86 97 80
-69.0864 8.56258 1.7932 83 91 76
-66.6555 8.46438 1.73697 76 87 73
-63.9151 8.30974 1.67337 77 87 77
-63.7275 8.48448 1.66999 73 83 74
-63.5674 8.76161 1.6678 73 82 79
-62.833 8.85548 1.6515 72 78 76
-64.1498 9.24647 1.68376 83 85 81
-61.6718 9.17281 1.62671 70 76 69
-61.3853 9.32246 1.62101 84 90 83
-58.8355 9.5758 1.56429 86 91 73
-59.0384 9.98269 1.57135 111 114 66
-44.8916 10.32 1.25314 96 92 62
-44.7874 10.5119 1.25222 99 99 70
-44.7165 10.6392 1.25159 97 100 70
-43.2417 10.4177 1.21681 97 101 64
-43.2901 10.64 1.21961 100 104 54
-42.6003 10.7418 1.20496 102 104 64
-42.1391 10.8276 1.19533 116 113 66
-38.1723 11.2164 1.11037 91 92 80
-38.1628 11.3402 1.11125 89 91 80
-33.4262 10.3827 0.998231 78 78 80
-33.423 10.4933 0.999175 78 74 80
-33.3989 10.6532 1.00013 131 92 103
-33.1595 10.7966 0.996221 131 92 110
-33.3644 11.0349 1.00296 139 83 97
-33.3646 11.1478 1.00404 136 88 91
-33.3569 11.2583 1.00494 90 68 80
-33.3404 11.4225 1.00617 119 117 126
-33.3224 11.5297 1.00683 73 62 71
-29.7303 11.1552 0.925299 100 99 83
-29.6554 11.2289 0.924455 91 92 78
-28.2322 11.5077 0.897018 87 86 71
-28.0923 11.5479 0.894491 85 86 68
-28.1596 11.6773 0.897356 95 97 76
-27.959 11.74 0.893809 83 81 70
-21.8199 14.6923 0.808968 69 71 66
-21.7646 15.0971 0.814119 81 85 71
-21.8977 15.2958 0.819672 79 85 71
-22.1531 15.5875 0.828947 75 81 67
-22.0339 15.6519 0.827739 82 84 79
-21.9329 15.6784 0.82628 80 83 76
-21.3306 15.5738 0.813531 74 85 72
-21.2871 15.6416 0.813809 80 88 77
-21.1904 15.7184 0.813268 77 83 71
-21.1167 15.7622 0.812625 79 84 71
-21.2021 15.9329 0.81692 82 85 75
-20.1889 16.0767 0.801086 71 72 67
-19.4237 15.626 0.780043 77 80 74
-19.7669 16.1769 0.795319 71 76 72
-19.382 15.942 0.784621 74 79 72
-19.4732 16.1246 0.789301 72 78 70
-17.9423 17.747 0.792343 81 76 88
-11.5281 14.9841 0.573355 113 109 106
-11.479 15.0148 0.573337 88 79 82
-11.4181 15.1828 0.575583 82 76 80
-6.74637 15.2573 0.4676 90 90 60
-6.72061 15.4131 0.469868 79 72 66
-6.80676 15.8067 0.476437 86 76 67
-6.69753 15.8194 0.476028 90 79 73
-6.64167 15.902 0.477012 97 87 85
-62.1939 9.93804 1.64301 83 94 78
-60.0726 9.97143 1.59484 110 113 80
-59.5308 10.3505 1.58481 122 117 65
-59.4009 10.5158 1.58287 122 109 63
-59.6791 10.7556 1.5907 101 97 50
-58.3179 10.7829 1.55994 101 96 58
-56.5548 10.6294 1.51893 96 90 59
-56.244 10.7487 1.51265 109 100 66
-56.2801 11.0249 1.51529 118 110 66
-58.7706 11.9003 1.57756 127 123 77
-53.3546 10.9497 1.44854 98 94 51
-52.6182 11.0475 1.43257 107 104 66
-52.9588 11.7166 1.44498 105 97 59
-53.3376 11.9745 1.45537 104 102 65
