-15.8574 3.64439 -1.82702 76 88 104
-15.8719 3.69697 -1.83087 76 87 105
-15.8229 3.75761 -1.82666 76 87 105
-15.8352 3.80979 -1.83024 77 89 105
-15.8262 3.85646 -1.83085 76 88 104
-15.8037 3.8995 -1.82957 77 88 106
-15.8092 3.97465 -1.83319 76 88 104
-12.2129 11.3441 -1.95091 88 90 104
-12.1668 11.3686 -1.94908 82 87 100
-12.1412 11.4144 -1.95131 81 82 99
-12.0909 11.4344 -1.94866 80 78 95
-12.0416 11.4913 -1.94984 74 70 85
-11.9993 11.5195 -1.94881 76 71 86
-11.9637 11.5549 -1.94914 88 82 95
-11.3537 12.7635 -1.95634 94 94 107
-11.3103 12.7922 -1.95587 90 89 103
-11.268 12.8224 -1.95567 91 93 108
-11.1994 12.8604 -1.95418 92 93 108
-11.1582 12.8918 -1.95424 87 88 104
-9.16662 14.511 -1.851 100 102 117
-9.11834 14.5326 -1.85056 101 105 117
-9.06528 14.5452 -1.84888 101 105 116
-9.00282 14.5403 -1.84473 101 105 114
-8.65852 15.0616 -1.83766 91 95 107
-8.5927 15.0495 -1.83287 90 96 110
-8.52611 15.0951 -1.8344 84 91 107
-7.00975 16.0478 -1.73734 93 102 119
-6.95442 16.055 -1.73602 86 97 113
-6.24179 16.7793 -1.70544 72 83 102
-16.5387 2.20483 -1.81178 69 80 102
-16.6055 2.33726 -1.82347 63 75 98
-16.5347 2.37558 -1.81517 57 66 90
-15.9042 3.36398 -1.82336 73 81 100
-15.9163 3.4396 -1.82752 77 86 103
-15.8873 3.48133 -1.82516 72 84 100
-15.9044 3.53417 -1.82928 76 88 105
-15.858 3.59577 -1.82533 79 88 106
-11.9218 11.62 -1.95195 129 123 131
-11.8764 11.6449 -1.95038 131 125 135
-11.8284 11.6666 -1.94827 133 126 133
-11.7792 11.724 -1.94972 125 123 128
-11.7442 11.7601 -1.95033 125 120 126
-11.7209 11.8094 -1.95337 123 120 125
-11.1084 12.9121 -1.95245 78 75 92
-11.0298 12.9367 -1.94884 92 87 103
-11.0051 12.9896 -1.95259 104 100 115
-10.961 13.0172 -1.95212 123 119 125
-10.8929 13.0552 -1.95089 136 131 138
-8.92416 14.5595 -1.84233 102 106 118
-8.87301 14.575 -1.84115 97 103 116
-8.82826 14.6026 -1.84169 98 104 117
-8.46048 15.0824 -1.82961 92 100 113
-8.41396 15.1089 -1.83014 89 97 110
-8.33928 15.1375 -1.8295 85 93 106
-6.8732 16.0691 -1.7345 83 94 110
-6.81462 16.0665 -1.73205 84 96 112
-6.7574 16.0674 -1.73005 78 89 107
-16.544 1.98601 -1.80779 70 82 104
-16.5475 2.05952 -1.80973 73 85 107
-16.5401 2.10732 -1.8098 69 78 101
-16.5366 2.15565 -1.8104 71 77 97
-15.9531 3.06064 -1.81994 72 83 101
-15.9369 3.10539 -1.8192 72 83 101
-15.9359 3.15344 -1.82062 68 79 97
-15.9221 3.22278 -1.82099 69 79 97
-15.9092 3.26825 -1.82079 71 79 98
-15.9116 3.31721 -1.82275 74 82 101
-13.9861 7.16108 -1.89012 95 81 82
-13.9679 7.20389 -1.89104 91 79 80
-13.9366 7.26558 -1.89172 92 78 82
-13.9146 7.30631 -1.89207 97 83 86
-13.9062 7.35491 -1.89471 95 81 82
-13.8707 7.41436 -1.89481 96 82 85
-13.8517 7.45692 -1.89573 98 84 88
-13.8207 7.49236 -1.89465 96 84 87
-13.798 7.55956 -1.89704 101 89 91
-13.7785 7.60195 -1.89796 101 89 89
-13.7555 7.64224 -1.89831 97 87 88
-11.6539 11.847 -1.95129 126 125 132
-11.6211 11.8858 -1.95244 123 121 133
-11.5791 11.914 -1.95168 115 112 124
-11.5499 11.957 -1.95364 114 111 125
-11.4901 12.0027 -1.95319 98 96 110
-10.8498 13.084 -1.95069 120 115 122
-10.8032 13.108 -1.94969 121 117 126
-10.7277 13.1356 -1.94687 122 122 125
-10.6868 13.1671 -1.94719 125 125 130
-10.6226 13.1664 -1.94224 125 125 133
-8.75953 14.6403 -1.84202 101 107 120
-8.69644 14.6323 -1.83762 95 101 113
-8.65327 14.6629 -1.83866 94 102 115
-8.29087 15.16 -1.82955 93 98 112
-8.22302 15.141 -1.82403 91 96 110
-8.16622 15.1451 -1.82166 87 89 104
-6.70089 16.07 -1.72828 79 91 109
-6.62235 16.0904 -1.72767 77 89 110
-16.5816 1.77162 -1.80852 69 77 96
-16.5634 1.81813 -1.80702 70 80 98
-16.5746 1.94116 -1.81086 70 82 104
-15.9967 2.82906 -1.81878 73 81 100
-15.9707 2.89592 -1.81726 77 87 105
-15.9569 2.94119 -1.81679 74 85 103
-15.9798 2.99398 -1.82145 73 84 102
-14.4967 5.87695 -1.86812 69 72 91
-14.49 5.92405 -1.87019 70 71 91
-14.4612 5.98618 -1.87029 75 74 92
-14.4488 6.03081 -1.8715 77 77 95
-14.4326 6.07377 -1.87214 77 76 93
-14.412 6.13981 -1.87366 77 77 93
-14.3883 6.17933 -1.87316 79 78 96
-14.3699 6.22129 -1.87351 87 86 101
-14.3557 6.29056 -1.87618 86 83 98
-14.3405 6.33416 -1.87711 94 90 105
-14.3127 6.37169 -1.87603 87 83 97
-14.2977 6.44086 -1.8787 91 85 98
-14.2696 6.47819 -1.87763 88 80 92
-14.2572 6.52338 -1.87912 90 81 91
-14.2218 6.55698 -1.8769 88 79 88
-14.2094 6.62776 -1.88015 93 82 89
-14.1948 6.67196 -1.88136 92 80 89
-14.187 6.71977 -1.88371 92 82 90
-14.1492 6.77776 -1.88295 91 80 87
-14.1411 6.82554 -1.8853 89 77 83
-14.1276 6.87055 -1.8868 100 87 94
-14.0873 6.92727 -1.88576 96 82 85
-14.0717 6.97125 -1.88696 93 81 84
-14.0577 7.01615 -1.88846 92 80 83
-14.0434 7.06103 -1.88995 92 82 81
-14.011 7.12207 -1.89034 96 84 85
-13.7341 7.68349 -1.89895 101 90 95
-13.7104 7.75048 -1.90134 103 87 96
-13.6836 7.78849 -1.90112 101 88 97
-13.6633 7.83061 -1.90204 99 86 96
-13.6372 7.89637 -1.90414 97 84 93
-13.6083 7.93306 -1.90363 99 86 96
-13.5892 7.97608 -1.90484 98 86 96
-13.5524 8.03515 -1.90523 97 85 95
-13.5329 8.07805 -1.90643 97 86 94
-13.5117 8.11982 -1.90736 98 87 95
-13.4804 8.15498 -1.90656 95 85 94
-13.4575 8.22348 -1.90952 96 89 98
-13.4112 8.24847 -1.90616 97 89 100
-13.4008 8.29772 -1.90908 95 87 98
-13.3804 8.36828 -1.91261 96 89 97
-13.3566 8.40857 -1.91325 98 91 99
-13.3309 8.44766 -1.9136 97 90 98
-13.2983 8.51015 -1.91513 97 89 100
-13.2611 8.54108 -1.91347 97 89 100
-13.2512 8.59137 -1.91668 96 89 97
-13.2066 8.64549 -1.91621 94 87 98
-13.1866 8.6888 -1.9177 99 91 102
-13.1665 8.73206 -1.9192 98 91 100
-13.1399 8.77061 -1.91955 96 90 100
-13.0961 8.82535 -1.91936 97 91 102
-13.0691 8.8637 -1.91971 91 85 97
-11.4593 12.044 -1.95488 79 81 96
-11.4066 12.0596 -1.95195 80 81 95
-11.354 12.1137 -1.95313 85 86 102
-11.3088 12.1379 -1.95183 89 91 106
-11.2635 12.162 -1.95053 93 94 108
-11.2092 12.214 -1.95144 95 92 109
-10.5746 13.1879 -1.94097 101 99 112
-10.4852 13.1949 -1.93499 85 83 96
-10.4338 13.2111 -1.93294 84 82 96
-10.3892 13.2368 -1.93246 88 88 106
-10.2921 13.2313 -1.92463 97 95 113
-8.56818 14.668 -1.83453 95 103 116
-8.5089 14.6663 -1.83112 94 100 112
-8.46115 14.6875 -1.83092 104 108 119
-8.07655 15.1401 -1.81666 95 99 111
-8.02648 15.1582 -1.81622 88 96 109
-7.97554 15.1743 -1.81554 85 93 106
-6.56588 16.0925 -1.72589 77 90 109
-6.51133 16.1001 -1.7248 77 88 107
-16.6102 1.55605 -1.80846 72 76 94
-16.5887 1.60241 -1.80644 69 74 88
-16.6016 1.72524 -1.81027 71 79 98
-16.0024 2.56694 -1.81219 70 81 99
-15.974 2.60958 -1.80956 67 79 95
-16.0039 2.66276 -1.81502 72 83 101
-15.9846 2.73087 -1.81432 75 86 106
-16.0121 2.78402 -1.81951 75 83 102
-14.7081 5.29803 -1.86179 71 82 100
-14.6778 5.33502 -1.85986 73 84 102
-14.6767 5.38364 -1.86249 73 83 101
-14.6589 5.42564 -1.86256 71 82 98
-14.6361 5.49004 -1.86323 74 84 101
-14.6272 5.5357 -1.86473 73 80 98
-14.6071 5.57679 -1.86451 72 80 98
-14.5818 5.64023 -1.8649 74 82 98
-14.576 5.68736 -1.86696 72 78 95
-14.5536 5.7275 -1.86646 76 80 98
-14.5348 5.79386 -1.86799 78 80 97
-14.514 5.83464 -1.86777 77 79 96
-13.0436 8.90315 -1.92034 93 88 102
-13.0024 8.95981 -1.92073 95 92 102
-12.9765 8.99909 -1.92136 95 92 102
-12.9521 9.0395 -1.92228 93 89 102
-12.9149 9.09939 -1.92353 90 88 100
-12.8793 9.13113 -1.92244 96 94 108
-12.856 9.17251 -1.92365 95 90 105
-12.8295 9.21139 -1.92429 95 91 106
-12.7867 9.2671 -1.92467 96 92 106
-12.7614 9.30703 -1.92559 95 93 106
-12.7252 9.33819 -1.92451 97 95 106
-12.6957 9.40469 -1.92747 94 90 104
-12.6622 9.43811 -1.92696 91 91 103
-12.6287 9.47141 -1.92645 92 91 104
-11.1725 12.2485 -1.95204 89 84 102
-11.122 12.2659 -1.94965 90 86 103
-11.0658 12.3157 -1.95028 84 79 95
-11.0078 12.3234 -1.94626 83 78 91
-10.967 12.3527 -1.94605 87 81 94
-10.2239 13.2223 -1.91862 97 95 109
-10.1614 13.2212 -1.91392 99 98 110
-10.0783 13.2339 -1.90925 97 95 108
-10.0392 13.2668 -1.9101 103 101 114
-9.98674 13.2797 -1.90778 99 97 108
-8.37978 14.6986 -1.82778 93 99 111
-8.33021 14.7158 -1.82709 93 99 113
-8.2737 14.7186 -1.82441 97 103 117
-8.21383 14.7141 -1.82075 96 102 116
-7.90474 15.2099 -1.8161 84 90 104
-7.8569 15.2328 -1.81639 82 88 104
-7.80499 15.2465 -1.81547 78 84 100
-6.42776 16.1046 -1.72237 77 89 110
-6.37081 16.1042 -1.72037 76 89 106
-6.31694 16.113 -1.7195 76 87 105
-16.611 1.38641 -1.80585 64 75 96
-16.5981 1.50633 -1.80603 66 73 90
-16.0442 2.35964 -1.81241 131 131 147
-16.0086 2.40139 -1.80871 130 133 148
-16.0022 2.44787 -1.80905 71 78 95
-14.8424 4.76665 -1.85128 72 85 102
-14.8544 4.84296 -1.8568 73 86 103
-14.8123 4.87616 -1.85287 72 85 102
-14.8185 4.92665 -1.85636 72 85 102
-14.7869 4.98756 -1.85532 74 85 102
-14.8038 5.04228 -1.86053 72 83 101
-14.7556 5.07287 -1.85574 73 84 102
-14.7678 5.15027 -1.86155 73 85 101
-14.7176 5.1798 -1.85648 74 82 101
-14.7189 5.22906 -1.8594 72 80 99
-12.5848 9.52623 -1.92683 85 83 97
-12.5706 9.57582 -1.93004 82 84 97
-12.5443 9.6152 -1.93096 82 81 97
-12.5056 9.67478 -1.93248 87 84 101
-12.4774 9.7127 -1.93312 87 86 103
-12.4491 9.75055 -1.93375 80 80 94
-12.4176 9.78572 -1.93381 88 86 100
-12.381 9.84743 -1.93591 86 82 97
-12.3433 9.87715 -1.93483 80 82 94
-10.9323 12.3896 -1.94719 128 120 128
-10.8658 12.426 -1.94565 138 133 140
-10.832 12.4642 -1.94707 137 134 141
-10.7945 12.4976 -1.94767 134 132 137
-10.7323 12.5396 -1.94721 125 119 124
-9.9178 13.3128 -1.90654 97 95 108
-9.87188 13.3353 -1.9058 97 95 108
-9.81078 13.3344 -1.90136 96 94 107
-9.76804 13.3614 -1.90142 91 89 102
-8.13182 14.722 -1.81736 98 104 116
-8.07719 14.7277 -1.81518 94 100 112
-8.02344 14.735 -1.81325 94 102 115
-7.72435 15.2595 -1.81312 83 90 107
-7.67633 15.2819 -1.81341 83 91 108
-6.23533 16.1222 -1.71776 77 88 106
-6.17908 16.123 -1.71598 76 87 108
-16.6461 1.17136 -1.80736 70 82 106
-16.612 1.21714 -1.80351 72 82 107
-16.6506 1.26864 -1.80934 68 76 101
-16.6082 1.33773 -1.80474 61 68 90
-16.014 2.11797 -1.80263 116 105 109
-16.0207 2.18986 -1.80516 102 98 104
-16.0149 2.28375 -1.80664 87 94 113
-14.9364 4.36882 -1.84439 79 87 106
-14.9425 4.41827 -1.8476 80 88 107
-14.9302 4.48555 -1.84912 76 88 104
-14.8965 4.52211 -1.84634 75 86 105
-14.9096 4.57417 -1.85069 74 85 105
-14.9002 4.64267 -1.85278 72 84 101
-14.8605 4.67701 -1.84914 73 85 103
-14.8693 4.72798 -1.85292 73 86 104
-12.3174 9.91725 -1.93604 86 86 98
-12.2668 9.96672 -1.93556 91 89 103
-12.223 9.99071 -1.93333 93 91 104
-12.2083 10.0412 -1.93682 93 91 105
-12.1601 10.0928 -1.93692 92 90 104
-12.132 10.1311 -1.93784 95 93 107
-12.0993 10.1653 -1.9379 96 94 107
-12.0563 10.2218 -1.93914 96 94 108
-12.0263 10.2584 -1.93977 94 92 106
-10.6909 12.5679 -1.94699 122 115 123
-10.6435 12.5883 -1.94542 125 121 129
-10.5916 12.6438 -1.94741 124 125 133
-10.5299 12.6447 -1.94257 112 114 124
-10.4694 12.6469 -1.93801 104 104 116
-10.3916 12.6248 -1.92936 98 96 107
-9.69457 13.3868 -1.89912 113 107 115
-9.62723 13.3751 -1.8931 113 107 112
-9.58542 13.4033 -1.89342 108 99 104
-9.49513 13.4008 -1.8869 114 109 116
-7.9565 14.7743 -1.81431 90 100 112
-7.90271 14.7812 -1.81238 92 102 114
-7.86118 14.8149 -1.81416 90 98 111
-7.62746 15.3023 -1.81346 88 94 110
-7.55213 15.3272 -1.81281 78 85 101
-7.49549 15.3289 -1.81043 84 89 105
-6.12406 16.1274 -1.71466 76 87 107
-6.04312 16.1375 -1.71313 75 86 106
-16.6584 1.00284 -1.80686 67 79 103
-16.6603 1.05136 -1.80771 70 82 103
-16.6502 1.09907 -1.807 70 82 104
-16.0268 1.86044 -1.79874 67 80 99
-16.0338 1.90843 -1.8007 65 78 97
-16.0553 1.98203 -1.80511 69 79 98
-16.0031 2.02203 -1.79898 73 77 93
-16.1233 2.08633 -1.81657 128 119 127
-15.0339 4.02114 -1.84186 78 86 105
-15.028 4.06645 -1.84306 75 83 102
-15.0061 4.13046 -1.84288 72 84 100
-14.9998 4.17576 -1.84409 77 86 104
-15.001 4.22337 -1.84644 77 85 104
-14.985 4.26577 -1.84622 79 87 106
-14.9697 4.33194 -1.84718 77 86 104
-12.0004 10.2991 -1.94126 92 90 102
-11.9715 10.337 -1.94218 94 93 105
-11.9205 10.3861 -1.94199 93 90 104
-11.8927 10.4252 -1.94319 97 94 108
-11.8535 10.4531 -1.9421 91 89 103
-11.8076 10.5072 -1.94306 91 88 107
-11.7822 10.5488 -1.94483 93 90 108
-10.3382 12.6778 -1.93108 93 91 104
-10.2895 12.6952 -1.92923 98 96 110
-10.2304 12.698 -1.92493 98 95 109
-10.148 12.7098 -1.91985 102 98 113
-9.43756 13.4034 -1.88325 113 109 117
-9.40187 13.4411 -1.88515 109 105 116
-9.32836 13.4645 -1.88286 114 113 121
-9.27699 13.4766 -1.88079 102 101 114
-7.78087 14.8246 -1.81126 98 106 117
-7.72708 14.8308 -1.80933 98 104 116
-7.67093 14.8314 -1.80665 98 104 118
-7.45026 15.358 -1.81169 85 93 106
-7.3974 15.3685 -1.81052 79 85 101
-5.98814 16.1415 -1.71181 77 88 110
-16.6887 0.835289 -1.80896 69 83 109
-16.697 0.884161 -1.8106 67 81 107
-16.6722 0.955314 -1.80809 67 81 105
-16.0681 1.74794 -1.80207 65 76 96
-16.0353 1.81446 -1.79894 67 78 96
-15.0768 3.65944 -1.83248 69 81 97
-15.0969 3.71133 -1.83739 70 82 98
-15.0901 3.75615 -1.83832 73 82 99
-15.043 3.81312 -1.83414 77 86 103
-15.0739 3.86845 -1.84076 77 84 102
-15.0343 3.90412 -1.83684 79 87 106
-15.0435 3.97693 -1.84122 76 87 104
-13.806 6.05056 -1.86247 96 90 102
-13.7951 6.0942 -1.86402 96 88 101
-13.7822 6.13696 -1.86526 91 84 96
-13.7542 6.19667 -1.86566 95 89 101
-13.7163 6.22694 -1.86276 94 88 100
-13.71 6.27311 -1.86519 94 88 100
-13.7007 6.34242 -1.86884 96 91 97
-13.6571 6.36961 -1.86506 96 91 97
-13.6556 6.41849 -1.86838 95 90 96
-13.6332 6.48133 -1.86996 89 84 92
-13.6103 6.51918 -1.86972 97 90 97
-13.5977 6.56255 -1.87127 94 87 93
-13.5711 6.62334 -1.87225 97 90 95
-13.5391 6.65625 -1.87054 97 87 95
-13.5295 6.70139 -1.87268 95 85 94
-13.5267 6.75036 -1.876 94 84 92
-13.475 6.79741 -1.87284 99 89 97
-13.4787 6.85024 -1.87734 97 89 97
-13.4564 6.88854 -1.8774 96 86 95
-13.4059 6.93604 -1.87454 95 85 93
-13.3936 6.98004 -1.87638 100 90 98
-13.3845 7.02603 -1.87881 97 87 95
-13.3624 7.09004 -1.88098 99 90 96
-13.341 7.12899 -1.88134 98 87 95
-13.3111 7.16282 -1.88022 98 87 96
-13.2708 7.19043 -1.87732 98 86 96
-13.2631 7.26331 -1.88216 100 87 97
-13.2445 7.30404 -1.88311 96 85 93
-13.2292 7.34681 -1.88465 99 88 96
-13.1752 7.3916 -1.88149 101 89 98
-13.1763 7.44471 -1.88599 98 87 95
-13.1588 7.48631 -1.88724 101 91 99
-13.1244 7.54332 -1.88763 104 94 103
-13.1032 7.58267 -1.88829 100 90 99
-13.0785 7.61982 -1.88835 102 92 102
-13.0583 7.68621 -1.89141 101 91 102
-13.0136 7.71019 -1.88792 99 89 99
-13.0083 7.76016 -1.89153 97 89 100
-12.9864 7.79921 -1.89219 95 87 98
-12.9406 7.84885 -1.8908 96 90 104
-12.9282 7.89437 -1.89324 95 89 101
-12.9157 7.9399 -1.89567 94 90 104
-12.8579 7.98127 -1.89221 92 88 102
-12.8531 8.03231 -1.89612 94 90 104
-12.8351 8.07436 -1.89766 92 88 102
-12.7898 8.12426 -1.89657 90 86 101
-12.7715 8.16617 -1.89812 92 90 104
-11.7468 10.5805 -1.94461 90 89 105
-11.7058 10.6398 -1.9467 93 90 107
-11.666 10.6671 -1.94562 91 88 105
-11.6386 10.7069 -1.94711 85 85 100
-11.5986 10.7339 -1.94602 74 74 89
-11.5595 10.7955 -1.94869 65 68 83
-11.5234 10.8265 -1.94846 76 79 94
-10.1005 12.7282 -1.91828 106 102 116
-10.0326 12.7172 -1.9118 105 100 114
-9.96281 12.7458 -1.90971 104 98 112
-9.90408 12.7472 -1.90542 103 99 114
-9.84208 12.7435 -1.9003 100 97 111
-9.23686 13.5071 -1.88163 100 100 112
-9.16927 13.5399 -1.88092 103 107 117
-9.11783 13.5513 -1.87886 101 105 116
-9.06238 13.5558 -1.87574 104 105 118
-7.59629 14.8529 -1.80549 96 103 115
-7.54649 14.8676 -1.80479 90 98 111
-7.30551 15.3518 -1.80454 84 87 105
-7.25494 15.3674 -1.8041 76 81 100
-7.20946 15.3958 -1.80536 72 80 98
-16.7132 0.667073 -1.81054 67 82 105
-16.7201 0.715794 -1.81192 66 81 104
-16.7059 0.787761 -1.81072 72 87 110
-16.1723 1.3315 -1.79563 113 117 129
-16.0902 1.49185 -1.80034 120 113 125
-16.0728 1.53698 -1.7988 134 120 117
-16.0612 1.58267 -1.79806 131 124 118
-16.0685 1.6539 -1.80031 57 62 68
-15.1702 3.40509 -1.8355 69 82 98
-15.1187 3.46172 -1.83047 76 87 105
-15.1204 3.50843 -1.83253 77 85 104
-15.1009 3.5498 -1.83146 76 85 102
-15.1139 3.62269 -1.83612 69 81 97
-14.0392 5.38601 -1.85079 92 89 103
-14.0469 5.43691 -1.85499 92 89 102
-14.0345 5.4793 -1.85594 90 87 99
-13.9915 5.53215 -1.85338 93 90 101
-13.9805 5.57521 -1.85463 93 87 99
-13.9802 5.62308 -1.85765 97 89 104
-13.9437 5.65482 -1.85476 94 88 99
-13.9342 5.72256 -1.85781 97 89 100
-13.9316 5.76966 -1.86054 97 91 98
-13.9019 5.80438 -1.85883 98 93 100
-13.8862 5.86961 -1.861 96 90 102
-13.8633 5.90747 -1.86047 97 91 103
-13.8457 5.9478 -1.86083 94 88 100
-13.8258 6.01119 -1.86241 95 89 101
-12.7515 8.2069 -1.89936 82 81 95
-12.7217 8.24066 -1.89883 85 84 98
-12.7012 8.30854 -1.90248 83 81 95
-12.679 8.34796 -1.90343 85 81 98
-12.6329 8.36974 -1.89994 87 83 100
-12.6085 8.43506 -1.903 86 82 99
-12.5717 8.46358 -1.90128 86 82 98
-12.5743 8.5217 -1.90697 85 81 96
-12.5285 8.57137 -1.90618 87 83 98
-12.4883 8.59713 -1.90387 88 84 99
-12.4777 8.64567 -1.90719 82 81 95
-12.447 8.70698 -1.90936 89 87 101
-12.4017 8.7287 -1.90616 92 90 104
-12.3906 8.77715 -1.90948 89 89 103
-12.3699 8.81826 -1.91102 94 93 107
-11.4872 10.8574 -1.94823 73 72 86
-11.4406 10.9114 -1.94947 72 71 85
-11.4109 10.9492 -1.95067 81 83 96
-11.3757 10.9812 -1.95073 85 83 97
-11.3365 11.0435 -1.95369 96 94 108
-9.77566 12.776 -1.89902 97 94 107
-9.71823 12.7783 -1.895 102 97 112
-9.67179 12.7969 -1.89369 97 95 107
-9.62315 12.812 -1.89184 100 100 109
-9.5468 12.8285 -1.88811 101 99 112
-9.00998 13.5651 -1.87341 104 106 119
-8.93034 13.5762 -1.86953 106 107 119
-8.87308 13.5765 -1.86588 106 110 122
-8.81981 13.5835 -1.86328 102 104 117
-7.49122 14.8693 -1.80236 91 101 114
-7.44835 14.9001 -1.80389 97 105 118
-7.37198 14.9168 -1.80223 96 101 115
-7.13599 15.4242 -1.80543 79 83 95
-7.09097 15.454 -1.80693 75 79 91
-16.7393 0.547007 -1.81298 71 83 107
-16.7338 0.619471 -1.81282 69 83 106
-16.2081 1.15457 -1.79808 65 77 100
-16.1541 1.20186 -1.79193 69 80 101
-16.1732 1.25461 -1.79489 117 118 141
-16.0903 1.32777 -1.79768 124 127 139
-16.0912 1.37471 -1.79855 129 133 147
-15.2019 3.15878 -1.83085 70 83 99
-15.1969 3.20368 -1.83177 74 86 103
-15.1687 3.24322 -1.82928 73 84 102
-15.1775 3.31436 -1.83308 76 87 105
-15.1432 3.35232 -1.82973 76 87 105
-14.2034 4.91082 -1.84531 87 90 106
-14.2075 4.95916 -1.84863 87 90 105
-14.1727 4.99251 -1.84573 84 87 101
-14.1892 5.04595 -1.85112 90 92 107
-14.1426 5.09786 -1.84767 90 91 106
-14.1551 5.14999 -1.85247 92 91 107
-14.1234 5.18441 -1.85017 93 90 107
-14.1164 5.25232 -1.85322 91 88 105
-14.0863 5.28726 -1.85122 89 88 104
-14.0944 5.33811 -1.85542 91 87 102
-12.3337 8.87551 -1.9123 96 93 107
-12.2958 8.90285 -1.91058 94 91 105
-12.2793 8.94748 -1.91301 93 89 103
-12.2408 9.00313 -1.914 94 90 104
-12.2133 9.03889 -1.91435 98 93 107
-12.1901 9.07835 -1.9156 94 91 106
-12.145 9.12856 -1.91539 100 97 110
-12.114 9.16149 -1.91516 125 122 135
-12.0904 9.20071 -1.9164 148 144 153
-12.0652 9.2386 -1.91735 151 143 149
-12.0209 9.2895 -1.91744 135 124 128
-11.2916 11.065 -1.95174 98 96 108
-11.2534 11.0937 -1.95122 98 96 107
-11.2068 11.1482 -1.95274 99 94 105
-11.1736 11.1825 -1.95337 100 95 107
-11.1364 11.2122 -1.95315 98 92 105
-11.1134 11.2582 -1.95607 94 87 99
-9.48523 12.8232 -1.88299 88 85 96
-9.44306 12.8476 -1.88277 106 103 113
-9.37211 12.8714 -1.8804 110 108 113
-9.31923 12.8788 -1.87746 110 108 113
-8.7481 13.6073 -1.86151 102 106 118
-8.69774 13.619 -1.85971 103 107 118
-8.63974 13.6167 -1.8558 99 103 115
-7.31751 14.9198 -1.80004 99 108 121
-7.27286 14.9464 -1.80108 96 104 117
-7.02948 15.4412 -1.80285 74 79 97
-6.96142 15.4836 -1.80486 79 85 102
-16.7685 0.378203 -1.81561 75 87 111
-16.7519 0.450486 -1.81388 73 87 113
-16.7496 0.498887 -1.81395 70 85 108
-16.24 0.976943 -1.80028 69 81 105
-16.2182 1.02692 -1.79807 72 84 106
-16.2122 1.07786 -1.79782 70 82 104
-16.1127 1.11906 -1.79764 69 81 103
-16.0886 1.16392 -1.79501 65 76 98
-16.1117 1.21259 -1.79885 76 83 103
-16.1425 1.28557 -1.80407 134 132 151
-15.2183 2.88748 -1.8239 76 85 102
-15.2154 2.95535 -1.8257 68 79 95
-15.2053 2.99896 -1.82577 69 81 97
-15.2143 3.04675 -1.82869 73 85 101
-15.1942 3.08824 -1.82733 75 87 103
-14.322 4.42171 -1.8354 86 88 105
-14.3409 4.47419 -1.84078 87 88 104
-14.3055 4.50796 -1.8376 90 89 105
-14.3129 4.55666 -1.84121 91 90 106
-14.2812 4.61458 -1.83983 89 91 107
-14.2975 4.66674 -1.84492 88 90 106
-14.2523 4.6967 -1.84025 89 92 108
-14.2571 4.76796 -1.84478 90 90 106
-14.2376 4.80725 -1.84426 95 97 112
-14.242 4.85554 -1.84758 91 93 106
-12.0043 9.33498 -1.92017 136 127 129
-11.9548 9.35184 -1.91637 106 97 111
-11.9129 9.40485 -1.91706 83 76 87
-11.8929 9.44752 -1.91919 82 75 90
-11.8521 9.47172 -1.91718 89 82 95
-11.8198 9.53355 -1.91994 95 90 102
-11.8007 9.57737 -1.92237 93 89 103
-11.7582 9.59985 -1.92005 90 87 101
-11.7223 9.65871 -1.92222 88 86 99
-11.0478 11.2913 -1.95358 93 83 92
-11.0011 11.3102 -1.95134 101 91 100
-10.9699 11.3469 -1.95254 114 104 112
-10.9181 11.3958 -1.9532 133 124 128
-10.8841 11.4292 -1.95383 143 135 139
-10.8422 11.4535 -1.95274 142 134 138
-9.26742 12.8876 -1.87479 91 90 97
-9.19437 12.9071 -1.87188 105 103 117
-9.15716 12.9391 -1.87302 102 102 112
-9.10122 12.9405 -1.86926 102 102 114
-8.5775 13.657 -1.85666 101 100 114
-8.52334 13.6611 -1.85381 104 104 116
-8.47582 13.6772 -1.8528 101 103 115
-7.19789 14.9659 -1.79991 102 108 120
-7.15376 14.994 -1.80119 103 109 122
-7.1044 15.0091 -1.80074 107 113 129
-6.91677 15.5148 -1.8066 78 86 99
-6.86649 15.531 -1.8064 73 82 97
-16.7603 0.2811 -1.8139 70 84 110
-16.7546 0.329441 -1.81345 70 84 109
-16.258 0.79819 -1.801 71 86 107
-16.2586 0.849596 -1.8015 72 87 110
-16.2358 0.925333 -1.79929 72 84 108
-16.1384 1.00401 -1.79962 70 82 105
-16.1482 1.05153 -1.80157 71 83 105
-15.2487 2.64303 -1.82039 76 85 103
-15.2298 2.68488 -1.81904 80 89 106
-15.2496 2.73419 -1.82338 76 85 100
-15.2377 2.80015 -1.82376 77 86 103
-15.2145 2.84108 -1.82183 77 84 102
-14.4256 4.06788 -1.83248 89 91 107
-14.4225 4.13502 -1.83524 93 94 110
-14.4143 4.178 -1.83619 91 92 108
-14.3872 4.21489 -1.83419 92 95 109
-14.359 4.274 -1.8331 96 100 112
-14.3616 4.3206 -1.83583 95 99 111
-14.3546 4.36411 -1.83707 92 96 110
-11.6955 9.69564 -1.92317 91 87 101
-11.6714 9.7352 -1.92471 99 95 109
-11.63 9.75847 -1.92269 94 90 104
-11.606 9.82911 -1.92753 92 88 103
-11.5715 9.85892 -1.92699 90 86 101
-11.5312 9.88314 -1.92527 93 89 104
-11.5022 9.94946 -1.92922 93 89 103
-10.7836 11.4942 -1.95197 124 117 124
-10.7429 11.5197 -1.95116 123 117 122
-10.7021 11.545 -1.95036 127 120 126
-10.6468 11.5897 -1.95044 134 127 134
-10.6158 11.6269 -1.95193 135 128 136
-9.03632 12.9727 -1.86852 108 107 121
-8.9825 12.977 -1.8653 100 102 116
-8.95109 13.0185 -1.86807 102 104 117
-8.89626 13.0209 -1.86458 102 104 116
-8.403 13.6976 -1.85076 103 105 117
-8.3591 13.7203 -1.8508 99 105 117
-8.30227 13.7184 -1.84715 98 104 116
-8.24185 13.7092 -1.84244 98 104 116
-7.03502 15.0425 -1.80155 114 118 129
-6.98195 15.048 -1.79986 114 119 129
-6.78829 15.5467 -1.80502 74 81 97
-6.72035 15.514 -1.79852 74 81 97
-6.66272 15.509 -1.79566 72 79 95
-16.2892 0.671199 -1.80394 69 84 107
-16.2989 0.748783 -1.80567 68 83 104
-16.1786 0.842726 -1.80315 70 85 108
-16.1712 0.889124 -1.80268 71 86 109
-16.168 0.959177 -1.80305 68 80 104
-15.2512 2.37201 -1.81288 110 116 126
-15.2605 2.44128 -1.81611 103 107 118
-15.2539 2.48537 -1.81646 66 76 91
-15.2345 2.57243 -1.81631 70 79 95
-14.472 3.72075 -1.8231 79 85 101
-14.4725 3.78822 -1.82615 81 85 98
-14.4788 3.8351 -1.82917 87 92 104
-14.4488 3.87138 -1.82657 86 89 102
-14.4524 3.94009 -1.83022 91 92 104
-14.46 3.9877 -1.83353 94 93 107
-14.4315 4.02433 -1.83123 93 92 107
-11.4701 9.98167 -1.92928 91 87 101
-11.4464 10.0221 -1.93111 93 90 103
-11.3998 10.0715 -1.9315 95 92 109
-11.3715 10.1076 -1.93245 92 89 103
-11.3418 10.1422 -1.9331 94 92 103
-11.2973 10.194 -1.93408 95 92 104
-11.2645 10.2256 -1.93413 97 94 106
-10.5722 11.6488 -1.95055 130 126 135
-10.5348 11.6781 -1.95061 116 111 123
-10.474 11.7158 -1.94955 90 87 98
-10.4376 11.7464 -1.94989 89 82 98
-8.83104 13.0521 -1.86384 105 107 120
-8.77726 13.0556 -1.86063 106 107 120
-8.72851 13.0675 -1.85877 104 103 117
-8.17451 13.7389 -1.84198 99 104 116
-8.11068 13.7221 -1.83622 97 103 116
-8.05419 13.7192 -1.83256 106 110 122
-6.93105 15.0589 -1.79892 107 116 125
-6.85646 15.0785 -1.79799 107 114 127
-6.61247 15.5244 -1.79546 72 82 94
-6.53642 15.5445 -1.7948 74 83 98
-16.2926 0.568541 -1.80368 71 83 107
-16.292 0.619908 -1.80393 66 81 104
-16.2092 0.680356 -1.8056 70 85 108
-16.1951 0.749932 -1.80436 69 84 106
-16.1879 0.796403 -1.80389 75 90 111
-15.263 2.17142 -1.80916 124 117 115
-15.2553 2.21516 -1.80923 70 72 83
-15.312 2.33699 -1.82049 124 124 136
-14.5305 3.49082 -1.82156 73 79 93
-14.5263 3.53437 -1.82281 77 82 96
-14.5354 3.58157 -1.82612 81 85 100
-14.5062 3.64065 -1.82444 81 85 101
-14.5148 3.68796 -1.82776 79 82 97
-11.2288 10.2543 -1.9336 93 89 103
-11.2067 10.297 -1.93603 99 93 107
-11.1628 10.3496 -1.9373 99 93 107
-11.1254 10.3765 -1.93647 100 94 108
-11.0988 10.4147 -1.93801 97 89 104
-11.0516 10.464 -1.93869 99 93 107
-10.4072 11.7847 -1.95166 97 92 104
-10.3423 11.817 -1.94974 102 97 111
-10.3067 11.8488 -1.95037 101 96 110
-10.2615 11.868 -1.9487 105 98 112
-10.2071 11.9137 -1.94936 105 99 108
-8.65821 13.0893 -1.85667 104 103 117
-8.61041 13.1025 -1.85508 107 109 122
-8.56455 13.119 -1.85404 101 105 116
-7.98329 13.741 -1.83105 101 105 117
-7.93222 13.7482 -1.82898 101 107 121
-7.88816 13.7695 -1.82902 101 106 120
-6.79926 15.0723 -1.79482 107 111 123
-6.74423 15.0714 -1.79238 107 112 124
-6.68514 15.0591 -1.78846 104 111 123
-6.48219 15.5482 -1.79315 74 83 99
-6.44279 15.595 -1.79706 72 80 97
-16.3181 0.389427 -1.80588 70 82 106
-16.2942 0.440173 -1.80318 73 85 109
-16.3078 0.491966 -1.80515 70 83 106
-16.2379 0.517459 -1.80805 70 84 107
-16.2207 0.587113 -1.80627 71 83 107
-16.2239 0.634138 -1.80715 68 83 106
-15.3033 1.97542 -1.81 69 78 95
-15.3021 2.02012 -1.81092 65 67 78
-15.3965 2.07883 -1.82579 117 107 108
-15.2608 2.12619 -1.80767 115 102 94
-14.5914 3.19521 -1.81845 77 81 98
-14.5824 3.23736 -1.81881 79 85 100
-14.5624 3.29886 -1.81831 75 79 95
-14.5895 3.35019 -1.82428 85 87 104
-14.5514 3.38496 -1.82022 81 84 100
-14.5514 3.42951 -1.82205 81 84 99
-11.0125 10.4891 -1.93756 99 93 105
-10.9868 10.5285 -1.93939 100 94 106
-10.931 10.5686 -1.93829 99 96 107
-10.9037 10.6063 -1.93983 102 96 108
-10.8682 10.6352 -1.93959 100 94 106
-10.8433 10.6758 -1.94173 102 94 106
-10.1629 11.934 -1.94797 107 101 111
-10.1233 11.9606 -1.94774 109 101 114
-10.0307 11.9549 -1.93922 102 93 109
-9.93247 11.9015 -1.92464 99 89 103
-9.88958 11.9225 -1.92354 92 84 96
-9.84548 11.9418 -1.92216 96 88 99
-8.48742 13.1278 -1.85003 103 106 121
-8.41947 13.1041 -1.84273 102 106 119
-8.37083 13.1147 -1.84088 102 105 117
-8.29872 13.1312 -1.83823 104 105 117
-7.81801 13.7922 -1.82777 99 105 117
-7.76866 13.8025 -1.82623 99 105 117
-7.71158 13.7964 -1.82231 102 109 119
-6.60731 15.0683 -1.7863 103 109 123
-6.55717 15.0798 -1.7856 101 107 121
-6.35632 15.5841 -1.79253 66 75 90
-6.30211 15.5873 -1.79087 65 74 89
-6.24729 15.5884 -1.78897 67 77 93
-16.3064 0.260712 -1.8039 67 83 108
-16.33 0.338276 -1.8071 68 82 108
-16.2425 0.423805 -1.80792 76 88 112
-16.2363 0.470499 -1.80745 74 86 110
-15.3167 1.8205 -1.80834 72 81 98
-15.2965 1.92967 -1.80794 71 79 94
-14.628 2.93891 -1.81422 83 86 101
-14.6364 3.00685 -1.81786 77 81 97
-14.6203 3.04732 -1.81704 77 80 96
-14.6176 3.09088 -1.81828 77 80 94
-14.6002 3.15305 -1.81809 75 78 93
-10.7947 10.724 -1.9424 89 83 95
-10.7576 10.751 -1.94187 86 80 94
-10.7113 10.7676 -1.93925 89 83 96
-10.6649 10.8182 -1.94052 100 99 104
-10.6314 10.8493 -1.94087 122 121 126
-9.76635 11.952 -1.91679 138 127 131
-9.70494 11.9467 -1.9111 143 132 134
-9.66544 11.9718 -1.91087 143 133 133
-9.60358 12.0051 -1.9098 135 127 125
-9.55598 12.0186 -1.90755 133 127 125
-8.24444 13.131 -1.83474 108 108 120
-8.18183 13.1149 -1.82879 99 101 113
-8.12588 13.1107 -1.82476 97 101 112
-8.05222 13.1224 -1.82156 100 106 116
-7.63547 13.8058 -1.81921 99 103 115
-7.58871 13.8207 -1.81846 102 109 119
-6.50502 15.0855 -1.78415 103 109 123
-6.43507 15.1163 -1.78496 93 103 115
-6.17169 15.6086 -1.78856 73 82 97
-6.11816 15.613 -1.78714 73 82 99
-16.2506 0.259908 -1.80795 67 82 107
-16.2667 0.307154 -1.81044 67 82 109
-16.2669 0.354104 -1.81078 69 84 108
-15.3147 1.61939 -1.80378 121 113 107
-15.3107 1.6635 -1.80413 68 71 80
-15.3184 1.70903 -1.80619 84 87 102
-15.3192 1.7761 -1.80771 83 90 106
-14.642 2.70067 -1.80796 94 95 107
-14.6713 2.75054 -1.81393 93 93 107
-14.6323 2.80804 -1.81019 88 88 105
-14.6381 2.85317 -1.81262 90 91 108
-14.6514 2.90007 -1.81622 92 96 112
-12.9443 6.15184 -1.87011 87 83 98
-12.9183 6.25625 -1.87448 90 84 98
-12.8908 6.28899 -1.87334 92 86 100
-12.865 6.32258 -1.87249 89 83 97
-12.855 6.3885 -1.8762 96 89 105
-12.8237 6.41906 -1.87445 92 88 102
-12.8061 6.4572 -1.87511 97 91 105
-12.7833 6.51628 -1.87671 97 91 105
-12.7774 6.56117 -1.87948 94 90 104
-12.7456 6.59135 -1.87773 92 88 102
-12.7223 6.62634 -1.87749 99 93 107
-12.7071 6.69014 -1.8806 97 91 106
-12.6801 6.723 -1.87975 97 91 105
-12.6683 6.76482 -1.88162 98 92 104
-12.6304 6.81537 -1.8808 96 90 103
-12.6165 6.8561 -1.88237 96 90 104
-12.5907 6.88964 -1.88183 97 90 104
-12.5674 6.94909 -1.88372 97 89 101
-12.5514 6.98868 -1.88499 96 88 100
-12.5169 7.01677 -1.88294 97 90 100
-12.5107 7.06254 -1.88601 97 88 99
-12.4731 7.11331 -1.8855 98 90 102
-12.4698 7.16121 -1.88917 96 88 98
-12.4331 7.18782 -1.88682 98 90 103
-12.4 7.24142 -1.88721 99 91 102
-12.3846 7.28175 -1.88878 98 91 99
-12.3691 7.32207 -1.89034 95 88 96
-12.3352 7.37539 -1.89073 94 88 100
-10.5952 10.8774 -1.94063 121 117 124
-10.5431 10.9215 -1.94071 137 132 138
-10.508 10.9507 -1.94077 127 123 128
-10.4715 10.9784 -1.94052 113 108 115
-10.4101 11.0113 -1.93853 85 81 95
-9.50725 12.0302 -1.90502 123 118 120
-9.43846 12.053 -1.90223 125 122 124
-9.38637 12.0592 -1.89883 122 119 123
-9.32656 12.0539 -1.89343 119 117 125
-8.00561 13.1353 -1.82025 97 103 116
-7.96081 13.1515 -1.81947 98 104 118
-7.89258 13.1729 -1.81791 101 103 118
-7.5394 13.8302 -1.81692 100 105 117
-7.49591 13.852 -1.81722 99 101 113
-7.42478 13.871 -1.81571 106 110 123
-6.38097 15.116 -1.78277 93 102 116
-6.33075 15.1267 -1.78207 92 101 116
-6.06883 15.6305 -1.78742 73 82 97
-5.98714 15.6309 -1.78458 67 78 93
-15.3443 1.51128 -1.80589 133 114 115
-15.3289 1.55417 -1.80453 116 103 95
-14.6829 2.55597 -1.80921 95 94 111
-14.6468 2.59258 -1.80515 94 93 108
-14.6725 2.66311 -1.81114 100 98 111
-13.2859 5.36902 -1.86135 90 87 101
-13.2681 5.40663 -1.86141 87 85 98
-13.2484 5.44337 -1.86117 90 88 102
-13.2236 5.50041 -1.86156 88 86 100
-13.218 5.54364 -1.86373 84 82 96
-13.1997 5.58105 -1.86379 82 81 95
-13.1902 5.6226 -1.86536 82 81 95
-13.1717 5.68282 -1.86695 85 82 99
-13.1458 5.71666 -1.86581 87 86 100
-13.1234 5.75212 -1.86527 88 87 101
-13.0989 5.80952 -1.86596 88 86 100
-13.0868 5.85006 -1.86722 88 86 100
-13.0605 5.88354 -1.86608 87 85 99
-13.0459 5.94603 -1.86858 91 89 102
-13.0246 5.98202 -1.86834 91 89 102
-13.012 6.02244 -1.8696 98 94 109
-13.0062 6.06648 -1.87207 97 94 109
-12.9714 6.11886 -1.87126 96 92 107
-12.9468 6.20046 -1.87409 96 90 104
-12.3178 7.41452 -1.892 96 89 105
-12.2887 7.4459 -1.89115 96 90 104
-12.2526 7.49776 -1.89124 95 89 101
-12.2412 7.54118 -1.89371 96 90 102
-12.2183 7.57675 -1.89407 99 93 105
-12.2017 7.61677 -1.89564 98 92 104
-12.1697 7.67164 -1.89663 95 89 101
-12.1463 7.70702 -1.89699 96 90 100
-12.1212 7.74118 -1.89705 96 90 103
-12.0886 7.79574 -1.89804 97 91 104
-12.068 7.8332 -1.899 95 89 102
-12.0505 7.87294 -1.90057 96 90 103
-12.0108 7.92255 -1.90035 92 89 100
-11.9962 7.96453 -1.90252 95 92 102
-11.9798 8.00531 -1.90439 95 91 101
-11.9522 8.03778 -1.90415 95 89 100
-11.9133 8.08812 -1.90423 96 90 102
-11.8964 8.12875 -1.9061 94 88 99
-11.8732 8.16456 -1.90676 94 90 103
-10.3823 11.0492 -1.94036 81 78 89
-10.3329 11.0612 -1.93715 90 87 98
-10.2936 11.0853 -1.93631 96 92 105
-10.2418 11.1295 -1.93669 97 94 108
-10.206 11.1578 -1.93675 98 94 109
-10.1739 11.1907 -1.93769 104 98 112
-9.29228 12.0859 -1.89463 87 88 99
-9.22016 12.1027 -1.89098 85 83 97
-9.16712 12.1064 -1.88729 82 84 97
-9.11628 12.1133 -1.88418 108 110 122
-7.85398 13.2011 -1.81904 97 97 111
-7.80902 13.2169 -1.81827 103 105 120
-7.3787 13.8871 -1.81522 105 109 121
-7.32447 13.885 -1.81209 103 107 119
-6.25865 15.151 -1.78213 92 101 116
-6.20524 15.152 -1.78019 92 103 119
-6.15684 15.1678 -1.78023 92 101 116
-5.93483 15.6385 -1.78365 67 76 91
-5.88483 15.6535 -1.78369 65 74 91
-15.3576 1.31231 -1.80417 108 106 119
-15.3644 1.35744 -1.80594 111 110 118
-15.3494 1.40051 -1.80459 102 105 117
-14.6958 2.31903 -1.80384 142 130 137
-14.7402 2.37039 -1.81187 133 126 129
-14.6814 2.40331 -1.80427 144 138 139
-14.6807 2.44668 -1.80551 92 90 93
-13.4675 4.86086 -1.85454 90 92 107
-13.4473 4.91954 -1.85523 93 92 108
-13.4309 4.95763 -1.85529 92 89 106
-13.4309 5.00242 -1.85806 91 88 105
-13.4052 5.03668 -1.85662 94 91 108
-13.3932 5.09897 -1.85881 90 89 105
-13.3763 5.13689 -1.85888 88 87 101
-13.3539 5.17244 -1.85803 84 83 97
-13.334 5.23149 -1.85903 87 84 97
-13.3148 5.26845 -1.85879 88 84 98
-13.2974 5.30614 -1.85885 85 81 96
-11.8228 8.20606 -1.90473 92 88 102
-11.8117 8.25139 -1.90781 95 91 105
-11.7927 8.29063 -1.90938 92 88 102
-11.7526 8.34023 -1.90946 94 88 100
-11.7286 8.37566 -1.91012 96 90 102
-11.7122 8.41721 -1.91229 96 90 102
-11.6731 8.46769 -1.91268 97 91 101
-11.6426 8.49791 -1.91213 96 93 104
-11.6211 8.53555 -1.9134 92 88 102
-11.5995 8.57315 -1.91466 93 89 101
-11.5596 8.62313 -1.91505 95 89 102
-11.5392 8.66186 -1.91661 97 91 103
-10.1178 11.2297 -1.93718 97 92 106
-10.083 11.2592 -1.93753 100 96 110
-10.0346 11.2715 -1.93461 97 93 107
-9.98065 11.313 -1.93469 96 88 104
-9.04752 12.134 -1.88139 97 96 104
-8.99783 12.142 -1.87857 95 93 99
-8.94815 12.1499 -1.87575 103 101 103
-8.87834 12.168 -1.87266 111 107 110
-8.81499 12.1537 -1.86611 114 110 111
-7.73531 13.2269 -1.81507 103 107 118
-7.67893 13.2191 -1.81076 101 108 118
-7.63572 13.2378 -1.81053 105 107 119
-7.26693 13.9339 -1.81506 105 109 121
-7.21035 13.9259 -1.81114 98 104 116
-7.17363 13.9631 -1.81382 98 104 116
-6.08148 15.1819 -1.77906 93 100 116
-5.83134 15.657 -1.78228 64 73 90
-5.75325 15.6676 -1.78089 64 73 88
-15.3739 1.11381 -1.80331 73 81 100
-15.3775 1.1585 -1.80451 74 83 100
-15.3513 1.20075 -1.80145 68 76 94
-15.4372 1.27492 -1.81491 129 124 138
-14.7118 2.06214 -1.79903 137 122 119
-14.7181 2.10633 -1.80116 135 114 100
-14.6936 2.16714 -1.79919 142 124 117
-14.6976 2.21106 -1.80103 88 78 79
-13.5789 4.46133 -1.84701 96 95 109
-13.5732 4.5032 -1.84857 92 91 107
-13.5489 4.53824 -1.84713 89 88 104
-13.5431 4.58007 -1.84869 92 91 107
-13.5297 4.64111 -1.85029 92 91 106
-13.5161 4.68014 -1.85065 91 90 104
-13.5061 4.72057 -1.85161 90 90 106
-13.5031 4.78586 -1.85502 88 87 103
-13.4798 4.82121 -1.85387 91 90 106
-11.5111 8.69418 -1.91667 94 91 102
-11.4752 8.74762 -1.91796 96 92 104
-11.4498 8.78231 -1.91862 95 92 104
-11.4243 8.81693 -1.91928 95 92 102
-11.3803 8.86355 -1.91906 98 95 104
-11.3501 8.89407 -1.91882 97 94 103
-11.3228 8.92711 -1.91917 95 91 104
-11.2827 8.97719 -1.91986 95 92 105
-11.2551 9.01004 -1.92022 92 90 103
-9.94792 11.3452 -1.93563 84 76 90
-9.90427 11.3632 -1.9339 96 89 99
-9.85584 11.4119 -1.93547 122 114 118
-9.82037 11.4407 -1.93582 132 126 129
-9.7777 11.4598 -1.93438 135 129 130
-8.78648 12.1944 -1.86903 110 107 108
-8.71563 12.21 -1.86565 108 106 107
-8.67229 12.2269 -1.86455 109 106 107
-8.61755 12.2251 -1.86029 107 104 105
-7.56905 13.2612 -1.80951 104 106 119
-7.52659 13.2813 -1.80955 101 106 118
-7.47724 13.2871 -1.80742 103 108 121
-7.10612 13.9896 -1.81363 103 109 121
-7.05197 13.9865 -1.81049 105 111 123
-7.00484 13.9995 -1.80974 105 109 121
-6.03422 15.2011 -1.77959 93 102 117
-5.97906 15.1957 -1.7769 90 99 114
-5.9323 15.2165 -1.77769 81 90 105
-15.4272 1.00665 -1.8094 66 79 97
-15.4074 1.04972 -1.80719 65 78 97
-14.7203 1.91265 -1.79645 92 94 109
-14.7213 1.95585 -1.79769 90 88 105
-14.717 2.0198 -1.79867 82 74 88
-13.6681 4.07887 -1.83921 94 92 105
-13.6581 4.11885 -1.83987 97 93 107
-13.6508 4.18132 -1.84207 98 98 108
-13.635 4.21937 -1.84183 96 96 108
-13.6059 4.25286 -1.83948 95 93 107
-13.6073 4.3185 -1.84318 95 92 108
-13.6096 4.36298 -1.84595 95 92 107
-13.5857 4.39822 -1.84451 89 88 102
-11.2347 9.04943 -1.92208 94 89 100
-11.2083 9.08347 -1.92274 94 87 101
-11.1674 9.13306 -1.92343 79 73 91
-11.1378 9.16424 -1.92349 76 74 87
-11.1067 9.19398 -1.92324 85 83 92
-11.0696 9.24719 -1.92483 136 133 137
-11.0368 9.27536 -1.92428 145 140 144
-11.0096 9.30886 -1.92494 138 132 136
-9.73265 11.4756 -1.93235 126 122 123
-9.59816 11.4075 -1.91222 125 120 124
-9.54752 11.4147 -1.90871 124 117 123
-9.50854 11.4376 -1.90816 124 118 122
-9.4319 11.4462 -1.90259 121 115 119
-9.37792 11.4479 -1.89818 125 117 124
-8.56906 12.2332 -1.85776 105 104 103
-8.49831 12.2476 -1.85438 108 107 107
-8.45595 12.2655 -1.85357 109 108 106
-7.43722 13.3123 -1.80827 102 108 120
-7.37282 13.34 -1.80807 100 106 118
-7.33343 13.3668 -1.8092 101 108 120
-6.93718 14.0252 -1.80954 104 108 120
-6.88468 14.0251 -1.80694 103 107 119
-5.85451 15.2219 -1.77552 88 98 110
-5.79661 15.2064 -1.77159 85 95 107
-15.4457 0.852163 -1.81002 71 83 106
-15.4382 0.896186 -1.80952 70 82 104
-15.4291 0.962295 -1.80905 69 81 101
-14.7726 1.72631 -1.7997 93 94 109
-14.7801 1.77034 -1.80183 86 82 96
-14.7365 1.80747 -1.79629 108 106 117
-14.7349 1.8717 -1.79756 89 90 104
-13.7516 3.76131 -1.83541 96 94 109
-13.7465 3.8026 -1.83667 92 90 106
-13.7144 3.85694 -1.83466 96 94 110
-13.7184 3.90112 -1.83743 99 97 112
-13.7071 3.9406 -1.83779 93 91 105
-13.7033 3.98246 -1.83935 96 93 107
-13.6892 4.04254 -1.84035 92 90 103
-10.9691 9.35896 -1.92593 146 140 139
-10.9473 9.39776 -1.9278 122 108 112
-10.9183 9.42964 -1.92815 89 77 81
-10.8906 9.46282 -1.92881 82 74 84
-10.8465 9.50967 -1.92919 88 85 102
-10.8199 9.54404 -1.93015 95 92 106
-10.7919 9.57695 -1.93081 96 94 109
-9.332 11.4607 -1.89585 121 112 124
-9.27489 11.4957 -1.89534 111 101 115
-9.24022 11.5243 -1.89598 96 92 100
-9.18633 11.5251 -1.89157 95 94 100
-8.40548 12.2696 -1.85045 106 104 105
-8.32678 12.2694 -1.84478 108 105 105
-8.2864 12.2902 -1.84454 108 104 111
-8.23506 12.2919 -1.84114 103 101 107
-7.29146 13.388 -1.80951 102 104 117
-7.22182 13.4042 -1.80767 102 104 116
-6.83673 14.0358 -1.80592 99 105 118
-6.794 14.0592 -1.80675 108 111 123
-5.75208 15.2342 -1.77336 90 99 114
-15.4645 0.697527 -1.81093 68 81 103
-15.4544 0.763699 -1.81017 70 82 104
-15.4294 0.806789 -1.80711 74 86 107
-14.7559 1.57404 -1.79387 138 112 94
-14.7658 1.6181 -1.7963 141 122 109
-14.7788 1.68409 -1.79964 88 86 94
-13.7925 3.4753 -1.82807 88 86 100
-13.8111 3.52294 -1.83294 83 81 95
-13.7878 3.58002 -1.83213 92 90 104
-13.7928 3.62405 -1.8349 90 89 103
-13.7654 3.65871 -1.83255 92 90 105
-13.7472 3.71722 -1.83264 93 91 107
-10.7471 9.62335 -1.9312 95 93 109
-10.7188 9.65606 -1.93185 92 88 98
-10.7 9.69857 -1.93463 96 93 103
-10.6423 9.73181 -1.93229 93 90 101
-10.6177 9.76849 -1.93385 97 91 105
-10.5861 9.79798 -1.93391 92 87 101
-9.10549 11.5252 -1.88481 102 101 109
-9.05513 11.5304 -1.88129 106 103 112
-9.00481 11.5355 -1.87777 102 97 104
-8.95014 11.5337 -1.87306 100 97 106
-8.88728 11.5587 -1.87105 99 97 108
-8.17038 12.3148 -1.83949 103 104 110
-8.10936 12.2989 -1.83321 103 103 111
-8.04658 12.2793 -1.82637 102 102 113
-7.18052 13.4269 -1.80826 104 107 120
-7.13349 13.4368 -1.80694 103 107 119
-7.06696 13.4595 -1.80619 100 104 116
-6.72018 14.0692 -1.80444 102 108 120
-6.67363 14.083 -1.80395 96 104 117
-6.61983 14.0783 -1.80082 99 108 121
-5.67666 15.2463 -1.77219 90 99 114
-5.63299 15.2777 -1.77446 87 96 113
-15.486 0.609508 -1.81307 68 80 104
-15.4852 0.653988 -1.81342 68 80 102
-14.7858 1.38484 -1.79447 138 131 137
-14.8263 1.5394 -1.80354 132 111 97
-13.8662 3.26266 -1.82954 89 87 100
-13.8551 3.30197 -1.8296 88 86 102
-13.8209 3.33517 -1.82605 85 84 100
-13.8348 3.40217 -1.83095 98 97 111
-13.8289 3.44296 -1.83192 85 84 97
-10.5363 9.83917 -1.93338 93 87 101
-10.5085 9.87273 -1.93434 92 88 102
-10.4753 9.90044 -1.93409 96 90 102
-10.4527 9.93962 -1.93626 97 91 103
-10.4116 9.99033 -1.93785 98 92 106
-8.84144 11.5696 -1.86872 95 96 110
-8.79779 11.5837 -1.86698 106 111 124
-8.72407 11.5913 -1.862 106 104 117
-8.67936 11.6033 -1.85997 105 105 114
-8.61654 11.5869 -1.85288 110 110 112
-7.97917 12.2961 -1.82385 103 101 109
-7.94449 12.3261 -1.82533 101 100 108
-7.89541 12.33 -1.8225 101 102 114
-7.85017 12.3407 -1.82082 103 104 116
-7.01911 13.4672 -1.80459 102 106 118
-6.97441 13.482 -1.80409 101 105 117
-6.55683 14.1151 -1.80246 102 108 120
-6.50734 14.1211 -1.80092 99 107 118
-15.516 0.454759 -1.81597 72 84 106
-15.4959 0.498647 -1.81348 71 83 105
-15.4836 0.542699 -1.81212 68 80 103
-14.7731 1.23417 -1.78983 88 77 93
-14.8627 1.2855 -1.80404 134 120 132
-14.7969 1.32186 -1.79497 128 118 119
-13.9123 3.022 -1.82647 95 95 107
-13.8981 3.06052 -1.82593 90 90 102
-13.8885 3.12103 -1.82692 89 91 103
-13.8644 3.15704 -1.82488 90 92 104
-13.8765 3.20218 -1.82855 85 85 97
-10.3807 10.0206 -1.93821 94 92 105
-10.3457 10.0465 -1.93765 94 92 105
-10.3066 10.0997 -1.93985 94 90 104
-10.2714 10.1253 -1.9393 98 95 106
-10.2321 10.1464 -1.93784 93 90 99
-8.55368 11.6101 -1.85087 110 106 109
-8.50377 11.6132 -1.84735 112 109 111
-8.44554 11.6026 -1.84144 108 105 106
-8.3989 11.6103 -1.83881 108 106 108
-7.79394 12.3773 -1.82175 99 99 111
-7.74675 12.3841 -1.8195 104 104 116
-7.71536 12.4204 -1.82212 104 106 118
-6.90849 13.5058 -1.80361 103 107 118
-6.86216 13.5166 -1.80256 109 113 125
-6.80969 13.5127 -1.79933 104 110 122
-6.4614 14.1361 -1.80069 98 106 115
-6.38481 14.137 -1.79731 99 107 118
-15.5206 0.299019 -1.81546 74 89 112
-15.5266 0.343679 -1.81666 68 83 106
-15.5326 0.388392 -1.81787 68 83 105
-14.8453 1.09116 -1.79816 78 83 103
-14.8371 1.13322 -1.79763 78 84 100
-14.8249 1.19625 -1.79684 79 80 98
-13.9339 2.79731 -1.82103 93 91 104
-13.932 2.83853 -1.82229 94 92 106
-13.9145 2.87628 -1.82115 96 94 108
-13.9077 2.93722 -1.82244 94 92 106
-13.9226 2.98253 -1.82641 87 87 99
-10.1924 10.1992 -1.94003 96 93 102
-10.1595 10.2274 -1.94008 97 95 103
-10.1291 10.2584 -1.94074 101 94 107
-10.0862 10.3078 -1.94233 102 95 108
-10.0452 10.3267 -1.94056 98 93 106
-10.0093 10.3514 -1.94001 97 94 107
-8.3361 11.6324 -1.8368 109 108 115
-8.29053 11.6413 -1.83447 106 104 115
-8.25211 11.6619 -1.83421 104 104 114
-7.65042 12.4407 -1.82047 102 103 114
-7.60136 12.4435 -1.81764 104 108 118
-7.55507 12.4514 -1.81567 102 103 116
-6.771 13.5414 -1.801 105 109 120
-6.69432 13.5386 -1.79671 107 111 122
-6.3402 14.1553 -1.79762 97 105 117
-6.29554 14.1735 -1.79792 96 103 114
-15.5183 0.254465 -1.81483 71 84 108
-14.8728 0.986423 -1.80065 72 86 105
-14.8534 1.04905 -1.79868 72 84 100
-13.9478 2.55159 -1.81435 96 95 109
-13.9641 2.59625 -1.81832 102 100 114
-13.9567 2.65683 -1.81931 98 96 110
-13.9475 2.69639 -1.81937 92 91 104
-13.942 2.73676 -1.82003 93 91 105
-12.4368 5.41531 -1.85613 91 88 102
-12.4119 5.44681 -1.85491 95 92 107
-12.4099 5.48961 -1.85784 92 88 103
-12.3902 5.54548 -1.8592 95 89 101
-12.3701 5.57943 -1.85894 97 91 103
-12.35 5.61332 -1.85868 96 90 104
-12.3279 5.66809 -1.85972 96 90 104
-12.297 5.69637 -1.85754 96 91 105
-12.2835 5.73368 -1.85856 98 94 108
-12.2469 5.78082 -1.85705 95 91 103
-12.2505 5.8273 -1.86125 98 92 106
-12.2297 5.86079 -1.86099 95 92 102
-12.2087 5.8942 -1.86072 94 93 101
-12.1852 5.94846 -1.86177 93 90 101
-12.1605 5.97982 -1.86087 95 92 103
-12.1478 6.0178 -1.8622 95 89 103
-12.1271 6.07377 -1.86388 96 90 102
-12.1141 6.1117 -1.86521 97 91 105
-12.0924 6.14473 -1.86494 98 92 106
-12.0693 6.19956 -1.8663 94 88 100
-12.049 6.23342 -1.86636 92 88 100
-12.0422 6.2752 -1.86897 92 88 99
-12.0183 6.30699 -1.86839 91 87 98
-11.9961 6.36258 -1.87006 92 87 99
-11.9821 6.40029 -1.8714 95 89 103
-11.9595 6.43287 -1.87113 94 88 102
-11.9333 6.48623 -1.87217 95 89 103
-11.9121 6.51969 -1.87223 93 87 101
-11.8992 6.55827 -1.87388 93 89 102
-11.8741 6.61246 -1.87524 94 90 104
-11.8525 6.64574 -1.8753 95 92 103
-11.8391 6.68424 -1.87695 97 92 105
-11.8017 6.73076 -1.87607 95 91 105
-11.7847 6.76703 -1.87709 93 89 103
-11.7577 6.7968 -1.87618 96 91 104
-11.7487 6.83837 -1.87879 94 90 104
-11.7172 6.88877 -1.87919 96 92 106
-11.6997 6.92485 -1.88021 96 92 106
-11.6804 6.95979 -1.8809 95 92 103
-11.6483 7.0099 -1.8813 95 92 103
-11.6255 7.04248 -1.88136 94 90 104
-11.6106 7.08058 -1.88301 97 91 106
-11.5748 7.12814 -1.88277 92 88 103
-11.5532 7.16163 -1.88315 93 89 103
-11.5363 7.19846 -1.88448 94 90 104
-11.5112 7.22956 -1.88421 94 88 102
-11.4843 7.28352 -1.88589 95 89 103
-11.467 7.32022 -1.88722 93 87 101
-11.4336 7.34531 -1.88536 92 86 100
-11.4124 7.40366 -1.88832 88 82 96
-11.3851 7.43318 -1.88773 89 85 99
-11.3657 7.46849 -1.88874 90 86 100
-9.97591 10.3791 -1.94006 95 93 106
-9.92858 10.4233 -1.94074 96 94 107
-9.88734 10.4416 -1.93898 88 86 99
-9.8587 10.4749 -1.94024 91 92 104
-8.19124 11.6867 -1.8328 106 108 120
-8.12746 11.6645 -1.82511 107 107 118
-8.09 11.6863 -1.82515 108 109 117
-8.02312 11.7 -1.82195 109 109 116
-7.49371 12.4779 -1.81516 99 101 114
-7.43398 12.4589 -1.80888 103 107 118
-6.6465 13.5451 -1.79511 102 108 120
-6.59944 13.5532 -1.79379 97 103 117
-6.22307 14.1847 -1.79613 96 105 117
-6.18096 14.21 -1.79749 93 103 114
-14.8852 0.837641 -1.80043 74 86 106
-14.8764 0.901146 -1.79993 77 88 106
-14.8766 0.943927 -1.80059 72 85 102
-13.9665 2.36978 -1.81108 130 119 125
-13.9698 2.41157 -1.81294 138 129 133
-13.9652 2.45191 -1.8136 122 118 124
-13.9605 2.5128 -1.81489 77 77 87
-12.664 4.83068 -1.84789 93 90 104
-12.6552 4.86947 -1.84922 91 89 102
-12.6481 4.90905 -1.85087 95 93 106
-12.6373 4.94705 -1.85188 93 93 104
-12.5987 4.99401 -1.84942 91 89 103
-12.5893 5.03271 -1.85075 92 88 105
-12.5853 5.07384 -1.85304 92 90 104
-12.5587 5.12615 -1.85281 89 87 100
-12.5435 5.16233 -1.85318 90 88 101
-12.5301 5.1993 -1.85388 90 86 100
-12.5118 5.25554 -1.85524 91 89 102
-12.4873 5.28737 -1.85402 93 91 104
-12.4788 5.32676 -1.85567 93 89 103
-12.4612 5.36188 -1.85573 92 88 102
-11.3328 7.51841 -1.88946 93 90 101
-11.3052 7.54766 -1.88888 98 95 106
-11.2901 7.58634 -1.89085 95 92 103
-11.2566 7.63595 -1.89157 96 92 105
-11.2458 7.67818 -1.8945 88 84 99
-11.2224 7.71075 -1.89487 98 94 108
-11.1974 7.74203 -1.89492 98 92 106
-11.1647 7.79248 -1.89596 92 88 102
-11.144 7.82727 -1.89697 96 91 105
-11.1201 7.85954 -1.89735 97 91 105
-11.0883 7.91093 -1.8987 101 95 106
-11.0673 7.94553 -1.89972 91 89 102
-9.80712 10.5141 -1.94001 100 97 108
-9.77069 10.5381 -1.93946 97 94 105
-9.74166 10.5711 -1.94072 94 92 103
-9.6946 10.6159 -1.9417 94 92 104
-9.64926 10.6286 -1.93903 93 89 104
-7.98754 11.7249 -1.82259 107 109 117
-7.93806 11.7257 -1.81906 105 107 113
-7.88099 11.7557 -1.81883 106 106 112
-7.39667 12.4839 -1.80978 105 108 116
-7.33783 12.5149 -1.81014 101 104 114
-7.30204 12.5432 -1.81161 104 106 118
-6.53839 13.588 -1.79521 101 107 119
-6.48837 13.5884 -1.7928 100 108 119
-6.44705 13.6107 -1.79366 96 104 115
-6.13346 14.2203 -1.79673 94 104 116
-6.08592 14.2304 -1.79597 93 101 114
-14.9205 0.711416 -1.80407 77 86 103
-14.8957 0.752797 -1.80089 72 82 100
-14.8866 0.794987 -1.80007 78 90 109
-13.9786 2.18739 -1.8072 139 121 114
-13.9786 2.26936 -1.80973 66 70 85
-13.9747 2.33018 -1.81102 135 128 137
-12.7855 4.4383 -1.8406 95 91 106
-12.7744 4.47577 -1.84129 93 89 103
-12.7669 4.51468 -1.84262 92 90 104
-12.7502 4.57084 -1.84366 91 89 102
-12.7368 4.60751 -1.84404 93 91 105
-12.7343 4.64863 -1.84633 92 90 104
-12.7078 4.70092 -1.84578 92 90 104
-12.6849 4.73368 -1.84456 90 88 101
-12.6801 4.77401 -1.84653 92 90 103
-11.043 7.97759 -1.90009 94 91 102
-11.0075 8.02617 -1.90081 95 90 106
-10.9891 8.0631 -1.90246 92 88 103
-10.9539 8.08608 -1.90059 93 89 103
-10.9337 8.12162 -1.90192 95 90 104
-10.899 8.17102 -1.90296 96 90 102
-10.8785 8.20644 -1.90429 94 91 100
-10.8609 8.24439 -1.90626 94 91 100
-10.8152 8.28445 -1.90506 91 88 97
-10.7943 8.31968 -1.90639 92 88 102
-9.61619 10.6567 -1.93938 102 96 112
-9.56257 10.6932 -1.93885 91 90 103
-9.52686 10.7179 -1.9386 85 84 99
-9.49593 10.7487 -1.93955 84 83 98
-7.83839 11.7682 -1.81738 106 105 116
-7.79383 11.777 -1.81534 103 102 113
-7.75025 11.7874 -1.8136 103 103 111
-7.26007 12.5589 -1.81108 100 103 113
