-7.91073 -14.6391 0.759907 81 87 83
-8.05586 -14.4221 0.755806 69 71 70
-8.04305 -14.2922 0.751766 66 72 69
-6.44612 -14.1487 0.666685 87 98 86
-6.40461 -13.9375 0.660382 85 91 87
-8.25616 -14.4156 0.758912 122 105 92
-8.28309 -14.359 0.757703 106 95 81
-8.32336 -14.2739 0.755884 104 94 83
-8.43059 -14.3596 0.7602 114 99 94
-8.39442 -14.1934 0.754745 61 54 56
-8.44816 -14.185 0.755423 80 82 83
-8.3747 -12.7437 0.712807 109 91 72
-8.57252 -14.2462 0.759332 63 73 60
-8.56786 -14.1372 0.756101 78 90 79
-8.74374 -14.3345 0.764866 66 74 58
-8.64731 -14.0216 0.754152 87 84 54
-8.57311 -12.747 0.716591 128 102 96
-8.52043 -12.0839 0.697141 123 93 82
-8.81656 -12.0689 0.702555 121 99 64
-8.84046 -11.9054 0.698588 124 99 70
-7.63214 -7.6512 0.52412 63 75 53
-7.65813 -7.63056 0.524247 84 97 75
-7.08775 -15.2841 0.705709 52 65 52
-7.14397 -15.2826 0.706371 76 89 72
-7.01341 -14.8721 0.693525 74 85 77
-7.17156 -14.6143 0.688541 55 62 63
-7.09989 -14.3494 0.680439 76 87 83
-4.41661 -6.90262 0.353402 93 102 80
-4.43015 -6.87756 0.353145 119 112 98
-4.46695 -6.86626 0.353333 101 77 65
-8.92959 -11.6812 0.694363 87 80 50
-7.641 -7.70751 0.525495 88 98 64
-7.69879 -7.60085 0.524492 87 102 83
-7.30159 -15.068 0.702532 72 78 79
-7.21017 -14.351 0.681944 47 59 59
-7.34408 -14.4541 0.686505 60 69 68
-7.30052 -14.2547 0.680564 64 82 69
-7.38529 -14.149 0.678885 68 90 75
-7.33428 -13.9415 0.672644 50 66 55
-9.29168 -14.5289 0.780181 84 94 73
-9.54435 -14.8322 0.793392 104 106 91
-9.56212 -14.3588 0.780332 132 112 104
-9.29277 -13.7557 0.758374 114 79 69
-9.39227 -13.674 0.757977 110 75 69
-9.39981 -13.5938 0.755893 113 79 77
-9.37778 -13.4706 0.752057 118 88 77
-9.3542 -12.9103 0.736175 112 89 66
-9.27553 -12.5898 0.725874 138 112 81
-9.48914 -12.7201 0.733701 117 94 62
-9.52589 -12.6876 0.733572 145 123 83
-9.26771 -12.2146 0.715584 116 109 81
-9.48759 -12.351 0.723749 124 116 94
-7.50566 -14.5539 0.691373 74 91 76
-7.50562 -14.0076 0.676788 40 54 53
-7.55805 -14.0024 0.677391 59 72 67
-7.57221 -13.9246 0.675533 57 67 67
-7.58876 -13.8522 0.673855 51 54 54
-7.73279 -13.9651 0.678897 60 61 62
-9.68601 -14.9029 0.797976 111 92 77
-9.87605 -14.9962 0.804117 73 54 58
-9.73035 -12.4716 0.731979 97 86 53
-9.74326 -12.289 0.727406 142 119 87
-9.69392 -11.4702 0.705018 89 68 64
-10.0043 -11.3342 0.708423 126 98 84
-9.78364 -11.0092 0.695289 104 84 71
-9.99453 -11.0076 0.700025 139 110 96
-8.02703 -15.1801 0.71527 64 75 73
-7.80157 -13.9889 0.680521 85 82 75
-7.81394 -13.909 0.678603 83 80 71
-10.0348 -12.7889 0.746742 87 81 48
-10.3432 -12.9809 0.758275 105 89 67
-10.3474 -12.9033 0.756327 86 70 48
-10.4205 -12.9138 0.758153 116 108 90
-10.3883 -12.7498 0.75317 143 136 130
-10.3315 -12.0504 0.733872 99 72 63
-10.1069 -11.7086 0.720198 131 97 78
-10.1404 -11.2421 0.709183 118 89 80
-8.16268 -14.2818 0.693494 67 67 66
-8.32623 -14.3129 0.696739 65 73 73
-8.44355 -14.0592 0.691947 74 83 81
-8.44365 -12.2127 0.645245 131 99 88
-8.48452 -12.1918 0.64543 110 77 67
-10.6474 -15.0891 0.821336 134 100 90
-10.6325 -12.9734 0.764228 139 126 112
-10.7853 -13.0805 0.7703 146 128 112
-10.8851 -13.0785 0.772393 130 131 126
-10.889 -12.7959 0.7652 115 92 84
-10.7015 -11.6932 0.733187 105 84 76
-10.5808 -11.4866 0.725309 119 95 88
-10.7158 -11.4918 0.728558 96 87 64
-8.55792 -14.6151 0.708088 65 71 68
-8.67483 -14.7135 0.712413 87 82 74
-8.58172 -14.4485 0.704132 88 85 73
-8.56074 -14.0589 0.693755 60 68 64
-8.62091 -14.0109 0.693455 79 77 54
-8.66717 -13.9896 0.693639 69 66 39
-8.56144 -12.1823 0.646513 128 99 81
-8.54192 -12.0739 0.643516 118 82 77
-11.0072 -15.5076 0.839872 115 77 71
-11.0119 -12.7007 0.76549 126 92 72
-11.004 -12.2978 0.755136 101 78 68
-9.08567 -15.821 0.747405 72 74 74
-8.8204 -14.5975 0.71164 72 89 81
-4.42932 -6.88872 0.321376 61 65 56
-9.08462 -12.2791 0.658069 152 128 102
-9.24322 -12.06 0.655692 141 120 90
-9.29697 -11.2725 0.638214 141 125 109
-5.43126 -13.0189 0.518016 65 67 64
-5.47505 -13.012 0.518241 114 114 102
-5.50843 -12.9789 0.517838 73 75 69
-5.59512 -13.0189 0.519408 78 70 65
-5.63673 -13.0058 0.519499 143 123 112
-9.30169 -14.5735 0.718624 60 67 55
-9.41159 -14.6481 0.72229 76 76 70
-9.51295 -14.6569 0.724152 118 99 81
-4.46522 -6.87567 0.321495 113 94 75
-9.42978 -14.4274 0.717013 117 96 78
-4.48713 -6.86403 0.321528 107 86 69
-9.57113 -14.2075 0.713846 110 78 67
-9.27418 -12.7467 0.672768 135 109 78
-9.32863 -12.6974 0.67253 136 108 84
-9.46321 -12.7173 0.675422 128 104 79
-9.45846 -12.6286 0.673207 114 87 60
-9.40975 -12.4405 0.667807 163 146 104
-9.43838 -12.3988 0.667332 99 80 51
-9.36636 -12.0283 0.657202 138 119 92
-9.35257 -11.5958 0.646783 120 109 94
-9.70629 -11.5193 0.651798 87 70 66
-9.68513 -10.9994 0.639585 128 99 87
-5.68977 -13.0203 0.520264 159 140 125
-5.75728 -13.0113 0.520666 152 142 128
-5.79891 -12.9977 0.520757 96 103 92
-5.85227 -13.0115 0.521522 76 85 80
-9.62523 -14.4835 0.721641 106 84 73
-9.99454 -14.9483 0.739414 132 108 104
-9.88355 -14.5321 0.727174 119 82 69
-9.96179 -14.5514 0.72898 122 88 78
-9.76445 -12.3487 0.672158 88 81 59
-9.97939 -11.0932 0.647588 135 107 97
-9.97476 -11.0191 0.645853 97 75 59
-5.97951 -12.4455 0.511105 66 78 69
-6.03983 -12.4239 0.511239 65 74 73
-10.1629 -13.1529 0.698556 148 128 97
-10.0936 -12.8954 0.691184 99 90 61
-10.2817 -12.9306 0.695516 82 76 50
-10.387 -12.982 0.698703 163 144 88
-10.3745 -12.7613 0.69331 135 130 126
-10.2858 -12.1024 0.676415 96 76 79
-10.3848 -12.144 0.679303 106 82 77
-10.5061 -12.211 0.683211 128 101 89
-10.5212 -11.4511 0.666517 98 70 66
-10.7052 -15.0937 0.755114 159 143 86
-10.9293 -15.1624 0.760704 119 101 64
-10.8904 -13.1108 0.711276 146 144 139
-10.885 -13.0216 0.709121 59 57 64
-10.7032 -12.3654 0.690602 134 108 94
-10.7346 -11.542 0.672895 90 92 71
-11.0149 -11.7368 0.682926 103 97 77
-11.0141 -11.6633 0.681312 116 100 87
-6.51177 -14.2498 0.552968 55 67 56
-6.50585 -14.1167 0.550184 69 78 72
-11.1318 -12.5878 0.704127 130 102 90
-11.1386 -12.4776 0.701791 103 79 75
-11.3862 -12.3279 0.703505 101 84 67
-7.64919 -7.7351 0.445111 90 101 71
-7.65557 -7.66974 0.444173 87 103 76
-7.68719 -7.65485 0.444449 108 120 96
-7.72582 -7.64698 0.444949 70 84 59
-6.60253 -14.5812 0.560603 73 81 72
-17.2991 -12.2248 0.914118 192 147 83
-5.39095 -12.9576 0.462352 71 77 67
-7.03141 -15.1841 0.576914 67 73 67
-6.87124 -14.6379 0.564243 74 86 75
-6.93868 -14.6663 0.565458 71 79 75
-17.5316 -16.4144 1.00896 79 88 70
-17.5219 -16.2518 1.00499 88 106 81
-17.6939 -16.209 1.00831 94 105 80
-17.6735 -16.0384 1.00394 77 87 60
-17.6079 -15.8783 0.998694 91 106 82
-17.7472 -15.9052 1.00282 96 109 85
-17.6254 -13.3439 0.945095 213 162 97
-17.695 -13.3106 0.94632 199 146 81
-17.6594 -13.1545 0.942218 209 153 96
-17.7254 -13.1185 0.943309 162 111 53
-17.6791 -12.9989 0.939681 166 124 49
-17.6202 -12.8285 0.934702 187 160 53
-17.729 -12.8242 0.937614 174 152 35
-17.3109 -12.4367 0.918545 180 144 65
-17.6491 -12.5573 0.93022 194 147 83
-17.9997 -12.6413 0.941572 171 126 68
-17.7576 -12.3871 0.929987 214 161 88
-18.0214 -12.448 0.938495 198 139 79
-18.2106 -12.4964 0.94471 179 129 76
-18.476 -12.5959 0.954028 164 118 58
-18.186 -12.2719 0.939812 156 107 43
-18.0075 -11.9877 0.929521 202 147 78
-18.3772 -12.1125 0.942277 212 160 94
-18.596 -12.1751 0.94964 203 147 73
-18.5097 -12.0359 0.944663 209 158 91
-18.5734 -11.9956 0.945755 189 143 81
-18.6087 -11.8955 0.944958 174 142 78
-18.5712 -11.7899 0.942004 171 136 74
-18.5786 -11.7137 0.940871 166 126 73
-18.5905 -11.6 0.939197 157 130 55
-18.5922 -11.5207 0.937862 168 134 55
-18.7971 -11.568 0.944619 183 145 73
-18.6158 -11.3355 0.935324 161 130 37
-18.6539 -11.2794 0.935473 172 144 47
-18.7311 -11.247 0.937172 162 140 40
-18.9863 -11.3213 0.945885 192 157 75
-18.7746 -10.918 0.932909 211 169 87
-19.2292 -11.0646 0.948704 192 159 62
-18.8806 -10.7841 0.933812 209 177 77
-18.9257 -10.732 0.934298 158 142 55
-18.8657 -10.5813 0.930062 94 93 61
-18.898 -10.5223 0.930076 107 113 77
-24.9597 -6.86058 1.07643 106 93 75
-25.0265 -6.79489 1.07807 110 102 90
-5.4442 -12.9749 0.463021 67 78 67
-5.48563 -12.9624 0.463097 80 94 78
-5.55419 -12.9581 0.463502 77 82 78
-5.59254 -12.9377 0.463429 118 105 94
-5.64926 -12.9616 0.464248 155 138 123
-7.36994 -15.1772 0.579967 62 70 72
-7.37346 -15.0626 0.577678 58 72 70
-7.42298 -14.9856 0.576598 73 81 84
-7.18316 -14.253 0.559443 30 38 41
-7.30679 -14.3947 0.563532 61 68 70
-7.27653 -14.1642 0.55859 74 89 77
-7.46078 -14.4249 0.565689 60 70 62
-7.39427 -14.1806 0.560121 72 87 76
-18.43 -18.2651 1.07398 67 81 56
-18.7469 -18.467 1.0864 84 96 72
-18.8925 -18.3234 1.08655 100 109 84
-19.0859 -18.2258 1.089 98 107 86
-18.3566 -17.4125 1.05227 83 96 82
-18.4552 -17.398 1.05437 68 81 69
-17.987 -16.5841 1.02414 81 95 70
-17.9667 -15.953 1.00943 101 110 80
-17.9459 -15.8345 1.00627 96 105 77
-18.2847 -16.0357 1.01936 85 99 76
-18.454 -16.0843 1.02477 93 106 87
-18.1841 -15.6971 1.00934 80 91 72
-18.1737 -15.5893 1.00672 99 104 82
-18.0674 -15.3996 0.999857 93 96 72
-18.1921 -15.3605 1.00223 81 88 62
-18.4176 -15.4549 1.01012 111 119 80
-18.4714 -15.4026 1.01041 69 79 36
-18.8879 -15.6042 1.02558 89 87 75
-18.594 -15.1647 1.00855 111 105 74
-18.9668 -15.227 1.0197 107 95 48
-19.2797 -15.3822 1.03124 145 119 74
-20.2073 -11.9281 0.991827 212 167 91
-20.3969 -11.9554 0.997843 201 156 71
-19.757 -10.9243 0.96206 88 98 55
-19.8638 -10.9032 0.964908 112 122 82
-19.9018 -10.8032 0.964449 93 103 76
-20.0103 -10.782 0.967364 81 93 68
-20.5408 -10.9877 0.986468 83 97 66
-20.6937 -10.9458 0.990394 92 103 73
-5.71726 -12.9546 0.464616 155 143 127
-5.76495 -12.9558 0.464989 127 123 111
-5.81192 -12.9551 0.465325 71 74 68
-5.94235 -12.4036 0.456969 85 99 89
-6.00162 -12.3804 0.457041 63 72 76
-7.57228 -14.3679 0.56569 55 61 60
-7.64347 -14.1253 0.561606 68 73 76
-19.4649 -15.984 1.04878 91 84 69
-19.4505 -15.7699 1.04389 122 107 85
-19.4003 -15.3807 1.03442 157 125 78
-19.6126 -15.4015 1.0405 164 118 79
-19.7856 -15.4392 1.0459 167 105 59
-19.624 -15.2136 1.03695 191 129 72
-20.2171 -15.5268 1.05927 185 134 81
-20.0925 -15.3308 1.05194 195 140 77
-30.1776 -7.94919 1.25649 104 100 94
-29.5022 -7.67159 1.23207 106 93 83
-30.5375 -7.68737 1.26621 114 103 91
-29.7721 -7.39456 1.23875 103 99 73
-30.2287 -7.40812 1.2539 108 106 79
-30.2741 -7.26855 1.25432 85 90 69
-7.95666 -15.0105 0.58249 70 75 75
-7.85142 -14.4153 0.569558 55 63 54
-7.90242 -14.4038 0.569875 78 86 73
-7.99572 -14.4714 0.572214 80 82 78
-7.87628 -14.0882 0.563365 71 76 73
-7.95404 -14.1274 0.564985 63 69 68
-8.1479 -14.0137 0.564903 78 82 71
-8.23244 -12.3485 0.534051 124 100 91
-35.012 -7.66122 1.41376 65 66 59
-34.8662 -7.34317 1.40678 71 72 71
-35.1636 -7.00387 1.41449 68 62 52
-8.307 -14.5072 0.576305 42 54 59
-8.42276 -14.6093 0.579587 59 69 70
-8.40546 -14.3152 0.573661 64 75 69
-8.41488 -14.2288 0.572092 70 69 66
-8.5897 -14.0741 0.571114 105 98 83
-8.61368 -14.0152 0.570264 54 56 52
-8.64543 -12.1835 0.536234 147 123 63
-8.6749 -12.1455 0.535925 178 151 84
-24.1378 -26.3517 1.40402 129 105 97
-24.3775 -26.2009 1.40579 99 105 80
-24.5032 -26.009 1.404 91 86 72
-24.5359 -25.6389 1.39573 87 90 72
-7.59172 -7.64377 0.401474 82 94 74
-7.62046 -7.62621 0.401629 65 83 61
-7.64638 -7.6057 0.401709 78 87 66
-7.68488 -7.59786 0.402124 100 105 81
-27.9904 -12.7166 1.23874 95 98 75
-27.9239 -12.5811 1.23484 101 102 78
-28.0098 -12.5149 1.23662 109 107 81
-27.9885 -12.2436 1.23234 101 103 61
-40.3146 -7.70678 1.59014 149 118 108
-40.0827 -7.53197 1.58139 188 124 111
-43.1407 -7.96919 1.68583 157 87 74
-40.3299 -7.31692 1.5884 158 96 83
-43.153 -7.62179 1.68427 117 94 91
-43.1453 -7.34143 1.6825 100 110 116
-43.1963 -7.14099 1.68314 166 156 164
-43.125 -6.99017 1.67999 171 150 163
-43.1144 -6.8496 1.67894 164 159 162
-43.1138 -6.64148 1.67789 109 97 73
-48.9719 -7.07666 1.87625 130 127 78
-48.9544 -6.83883 1.87459 130 132 63
-55.2329 -6.30939 2.08352 116 117 58
-55.3688 -6.14882 2.08754 131 127 53
-56.2769 -5.62438 2.11643 115 120 50
-56.3431 -5.45227 2.11815 136 131 58
-6.33373 -13.9894 0.486834 69 80 73
-6.3924 -13.889 0.485573 75 81 80
-6.42055 -13.8369 0.484906 70 79 75
-6.61328 -14.0918 0.490699 67 77 68
-8.72806 -14.6707 0.584222 117 105 98
-8.96488 -14.9742 0.592803 62 54 46
-8.90919 -14.7192 0.587234 85 72 52
-9.18174 -12.2168 0.543948 71 58 48
-9.10887 -11.768 0.53494 103 89 62
-9.1398 -11.4344 0.529478 148 128 70
-9.36716 -11.3222 0.530762 143 131 115
-9.37671 -11.2623 0.529869 132 133 119
-26.7389 -28.1372 1.50799 84 79 68
-17.8341 -12.5273 0.855077 184 143 72
-17.6172 -12.2927 0.845719 215 158 102
-17.6363 -12.184 0.844348 205 157 100
-17.6989 -11.9448 0.841921 225 178 106
-17.9147 -12.0101 0.848421 163 113 43
-17.8252 -11.8697 0.843868 233 176 105
-55.8597 -8.25558 2.11252 92 88 51
-55.5469 -7.58616 2.09905 124 122 67
-55.9476 -7.46219 2.11199 98 96 49
-56.1061 -7.21447 2.11628 103 98 57
-55.9176 -7.01165 2.10915 112 115 62
-56.0317 -6.84731 2.11236 125 126 69
-59.0728 -6.93815 2.21496 96 96 74
-57.6203 -6.21685 2.16359 119 108 43
-65.0784 -6.71512 2.41639 110 110 38
-65.0325 -5.98823 2.41266 119 120 46
-65.1476 -5.79246 2.41601 122 132 61
-65.0393 -5.57682 2.4118 128 135 56
-66.5547 -5.39147 2.46245 133 128 47
-66.5605 -5.1814 2.46216 138 131 54
-9.13374 -14.3755 0.583297 81 72 57
-9.29822 -14.5411 0.58842 98 84 61
-9.43788 -14.5634 0.590539 115 108 86
-9.33313 -12.5873 0.55265 117 100 84
-9.46317 -12.5203 0.553205 86 76 60
-9.46884 -12.406 0.551232 124 115 82
-9.47945 -12.3401 0.550204 106 94 71
-9.7733 -11.5664 0.540838 92 85 69
-9.84866 -11.3311 0.537941 97 71 55
-18.1341 -17.2986 0.952447 62 76 63
-18.202 -17.2559 0.953058 72 88 73
-18.3656 -17.3037 0.957631 69 85 71
-18.1441 -16.9874 0.946294 84 101 85
-18.1939 -16.8753 0.945101 88 100 80
-18.0453 -16.6324 0.936886 87 96 78
-18.3126 -16.7752 0.945723 77 83 69
-18.37 -16.6707 0.944891 86 84 65
-17.6236 -15.8896 0.912537 75 79 59
-17.8062 -15.9551 0.917952 85 93 72
-17.9728 -15.9543 0.921684 84 93 65
-18.0505 -15.9235 0.922835 85 94 74
-18.1071 -15.8739 0.923146 59 71 58
-18.2313 -15.8833 0.92616 83 90 78
-18.3624 -15.8477 0.928451 65 77 61
-18.0587 -15.4863 0.914471 87 90 68
-18.0214 -15.3572 0.911119 102 108 86
-18.1431 -15.3155 0.91311 88 97 76
-18.3018 -15.353 0.917505 71 79 54
-18.2879 -15.2446 0.915115 85 96 60
-18.5217 -15.2943 0.92149 85 69 71
-18.3191 -15.0305 0.911773 93 69 78
-18.4813 -15.0684 0.916289 89 61 75
-18.0358 -13.7472 0.881377 206 145 85
-18.0288 -13.6534 0.879526 187 134 66
-18.0278 -13.5646 0.877917 190 137 70
-18.0283 -13.4335 0.875585 200 152 87
-18.0182 -13.3391 0.873675 181 126 59
-17.9998 -13.2389 0.871465 190 127 61
-17.9627 -13.0826 0.867812 222 180 81
-17.893 -12.9466 0.863739 177 129 46
-17.8404 -12.8241 0.860328 217 167 99
-17.9485 -12.7754 0.862141 184 130 65
-17.9112 -12.665 0.85933 192 142 80
-18.0852 -12.4125 0.859378 151 129 67
-18.2503 -12.4429 0.864016 134 103 46
-18.5336 -12.2186 0.867428 209 154 85
-18.6045 -12.1827 0.868642 183 127 63
-18.6904 -12.1562 0.870397 202 150 86
-18.6606 -12.0544 0.868007 199 150 85
-18.7008 -11.8751 0.86617 187 143 76
-18.5548 -11.7013 0.859695 208 161 81
-18.6445 -11.6366 0.860968 185 145 57
-18.6648 -11.5688 0.860441 167 124 48
-18.622 -11.4622 0.85769 172 126 59
-18.7194 -11.402 0.859264 188 139 62
-18.8944 -11.4285 0.864204 190 149 49
-18.8832 -11.3416 0.862595 192 154 47
-19.141 -11.416 0.87042 171 126 42
-19.1456 -11.2977 0.86875 189 133 59
-19.3301 -11.3259 0.873991 221 170 87
-18.9227 -11.0077 0.858623 198 151 70
-18.9545 -10.908 0.857974 196 156 65
-19.0503 -10.8845 0.860151 160 154 55
-18.882 -10.7103 0.853195 108 111 48
-18.9837 -10.6512 0.85501 126 133 71
-19.114 -10.6464 0.858389 132 135 65
-19.7499 -10.9209 0.879134 118 122 64
-19.7727 -10.8533 0.878787 102 108 71
-20.0828 -10.9019 0.887694 82 87 58
-30.3889 -15.9941 1.35959 74 79 50
-30.5301 -15.9471 1.36312 87 94 66
-31.0826 -16.052 1.38135 95 103 71
-31.299 -16.0406 1.38771 105 112 70
-31.1634 -15.8479 1.38072 107 114 72
-30.8666 -15.5749 1.36765 104 111 70
-30.937 -15.4288 1.3676 105 113 65
-30.7898 -15.1154 1.35854 101 100 61
-30.9316 -15.0056 1.36125 103 109 67
-31.1234 -14.979 1.36674 104 109 76
-31.3794 -14.6819 1.37038 253 228 186
-37.4795 -12.8337 1.53977 97 86 73
-37.4677 -12.6987 1.53797 116 113 96
-24.9651 -6.85337 0.981322 150 136 123
-25.0127 -6.78238 0.982182 91 71 59
-6.86107 -15.0734 0.509238 72 86 76
-6.88547 -14.5735 0.500954 62 71 66
-7.21405 -14.0632 0.49505 45 63 49
-7.2127 -13.952 0.493194 55 73 58
-7.25119 -13.9212 0.493011 72 84 73
-7.28503 -13.8277 0.491746 42 54 45
-4.41237 -6.90348 0.256051 115 98 73
-4.42895 -6.88342 0.256004 97 84 68
-4.45499 -6.87859 0.256072 108 100 76
-9.52921 -14.557 0.591528 105 87 75
-9.60463 -14.1359 0.584585 117 80 79
-9.64371 -14.0517 0.583509 108 77 75
-9.70749 -12.4421 0.555152 99 88 69
-9.95696 -12.6884 0.562972 96 89 61
-9.91681 -11.4836 0.541528 123 96 80
-10.0313 -11.4741 0.543067 144 116 96
-9.98661 -11.3141 0.539703 125 105 96
-18.6425 -18.4652 0.987764 83 95 78
-18.6812 -18.3888 0.986994 91 95 78
-18.8881 -18.4204 0.992105 118 124 98
-18.9107 -18.328 0.990675 102 108 80
-18.8497 -18.155 0.985762 96 97 79
-19.4004 -15.7213 0.950111 92 70 77
-18.9289 -15.1913 0.929102 134 95 76
-18.8946 -15.0672 0.925991 96 68 47
-19.2819 -15.2797 0.939095 100 74 61
-19.6354 -15.4121 0.949915 107 73 60
-19.6641 -15.336 0.949207 185 132 101
-19.5994 -15.1875 0.944956 168 112 68
-19.8725 -15.2519 0.952654 147 94 50
-20.4662 -11.0281 0.899667 94 99 68
-20.4065 -10.914 0.896497 90 96 62
-34.587 -16.5216 1.49481 74 81 64
-35.2934 -16.6575 1.51838 191 180 164
-34.0237 -15.796 1.46728 102 83 45
-34.288 -15.789 1.47533 85 84 67
-36.8605 -16.0096 1.55799 86 91 68
-36.7163 -15.7421 1.54998 83 98 72
-36.976 -15.7171 1.55777 90 102 68
-37.5338 -15.8166 1.57648 90 96 65
-37.5014 -15.6649 1.57354 123 127 81
-37.3986 -15.4157 1.56715 131 128 72
-37.5753 -15.3515 1.5719 118 118 70
-37.7041 -15.0609 1.57235 121 128 74
-39.8605 -15.7813 1.64911 128 120 85
-39.556 -15.5171 1.63631 107 97 79
-40.754 -15.7683 1.67717 99 96 84
-40.9711 -15.4116 1.67988 129 126 93
-5.38752 -12.9643 0.40648 58 67 64
-5.45824 -12.966 0.406885 81 92 75
-5.50271 -12.9607 0.407061 64 77 60
-5.55471 -12.9738 0.407527 69 73 67
-5.59851 -12.9663 0.407674 108 100 89
-7.22794 -14.8942 0.509052 65 74 79
-7.27989 -14.885 0.509314 45 55 62
-7.28528 -14.7185 0.506562 70 76 79
-7.45646 -14.8394 0.509983 66 76 71
-7.4776 -14.7666 0.508945 63 74 70
-7.34682 -13.8429 0.492528 68 74 72
-7.54366 -13.9585 0.496132 67 72 75
-7.56802 -13.9002 0.495392 61 71 64
-7.58458 -13.8278 0.494354 65 73 60
-10.0944 -15.0802 0.608333 96 72 66
-10.0039 -14.8403 0.602724 107 73 68
-10.0058 -14.4965 0.596357 120 86 84
-10.1828 -14.5636 0.59987 124 93 85
-10.1982 -13.6974 0.584272 106 96 75
-10.2605 -13.0014 0.572724 102 89 55
-10.4173 -12.9946 0.574799 133 108 69
-10.4833 -12.9955 0.575747 115 102 82
-10.4091 -12.8191 0.571621 128 123 117
-10.571 -12.8988 0.575308 141 131 126
-10.2554 -12.229 0.5592 109 106 70
-10.3392 -11.4684 0.54758 143 112 97
-10.6294 -11.5419 0.553212 89 86 72
-41.084 -15.7487 1.68738 99 99 70
-42.0026 -15.576 1.71453 95 88 76
-42.1947 -15.4973 1.71975 100 96 90
-42.2554 -15.3697 1.72025 97 99 84
-47.9267 -17.0159 1.91955 93 96 103
-47.9432 -16.8528 1.9183 164 159 153
-49.9729 -16.519 1.97988 94 91 79
-30.1325 -7.91454 1.1399 109 102 101
-29.5525 -7.66375 1.12115 141 124 117
-29.8933 -7.50268 1.12997 92 88 72
-30.317 -7.40729 1.14175 70 76 62
-5.66885 -12.965 0.40805 154 141 124
-5.71732 -12.9682 0.408371 159 144 126
-5.76042 -12.9584 0.408489 140 135 119
-5.82862 -12.9507 0.408778 69 78 74
-5.88123 -12.9625 0.409245 82 96 95
-5.99582 -12.4758 0.403509 41 48 54
-6.00157 -12.3869 0.402381 70 75 79
-7.69515 -13.9316 0.497031 71 78 70
-7.7361 -13.8525 0.496101 51 56 53
-7.81709 -13.8991 0.49759 64 70 66
-7.93602 -14.0135 0.500527 66 77 69
-8.04586 -14.0575 0.502234 50 52 51
-10.8715 -15.2157 0.620764 141 117 87
-10.7099 -14.8353 0.611694 115 93 61
-10.7411 -12.6611 0.573674 103 87 73
-11.1973 -11.9468 0.568594 85 90 68
-11.1888 -11.8259 0.566488 86 91 69
-23.6817 -15.1518 1.0453 180 130 69
-49.0056 -18.6209 1.97214 98 95 66
-52.1058 -18.6887 2.07151 106 108 93
-54.8277 -18.9913 2.16186 240 212 181
-58.7151 -18.7054 2.28395 97 89 85
-58.9879 -18.3857 2.28962 94 82 85
-63.4901 -19.4653 2.44587 92 80 76
-63.2615 -19.1781 2.43572 96 87 78
-62.7698 -18.8138 2.41631 99 93 79
-62.8774 -18.6314 2.41811 76 73 58
-65.2333 -18.9976 2.49808 112 106 84
-65.1536 -18.7527 2.49326 67 60 59
-65.5167 -18.6351 2.50404 128 127 135
-66.0759 -18.4587 2.52069 254 253 234
-35.0499 -7.6352 1.2824 79 78 70
-35.0426 -7.34649 1.28046 85 89 68
-35.078 -7.06738 1.27991 76 78 73
-8.10578 -14.0626 0.502869 62 60 53
-8.6854 -12.1873 0.479249 133 110 81
-11.0451 -15.1108 0.621135 87 71 55
-11.3205 -12.4262 0.57836 136 108 92
-11.341 -12.2556 0.575856 86 92 68
-11.4029 -12.2471 0.576672 85 94 72
-24.5029 -25.7144 1.26644 87 98 74
-11.4254 -12.0062 0.573098 89 99 75
-24.6435 -25.7015 1.26909 91 101 79
-11.5006 -12.0117 0.574363 80 88 70
-24.6832 -25.5828 1.26736 65 73 56
-24.7888 -25.4527 1.26677 87 95 76
-7.63264 -7.70966 0.360174 71 87 75
-7.64772 -7.6776 0.360006 81 99 85
-7.63901 -7.62117 0.359346 69 80 63
-7.68388 -7.59592 0.359554 100 108 89
-7.72098 -7.58652 0.359851 60 69 48
-27.938 -12.6688 1.12362 97 105 78
-27.9441 -12.5665 1.12256 105 111 76
-28.0319 -12.5009 1.1242 94 98 60
-40.3607 -7.66852 1.43958 199 155 142
-40.4978 -7.56301 1.4431 173 102 90
-43.1696 -7.92048 1.52419 192 131 121
-43.16 -7.77889 1.5232 166 98 88
-43.1935 -7.57524 1.52317 105 94 93
-43.2165 -7.09114 1.52157 165 151 160
-43.1588 -6.94274 1.51919 175 161 171
-43.142 -6.80131 1.51808 177 163 169
-43.161 -6.59624 1.51774 124 117 70
-48.7966 -6.59472 1.68596 126 126 62
-49.1672 -6.48755 1.69665 130 131 68
-8.70282 -14.7496 0.519476 92 80 50
-8.75031 -14.7265 0.519553 76 61 39
-8.79774 -14.7032 0.519631 133 115 102
-8.48743 -14.021 0.505777 127 102 72
-8.52041 -13.9779 0.505409 144 118 64
-8.61075 -13.8835 0.50478 79 77 62
-9.14833 -11.8463 0.479294 118 98 70
-9.02492 -11.5707 0.473838 132 110 82
-9.07745 -11.5652 0.474363 95 75 46
-26.6531 -28.2472 1.36609 81 85 62
-29.0172 -15.2368 1.18613 86 87 56
-29.867 -15.5648 1.21337 93 95 59
-30.9883 -14.7593 1.2331 130 133 140
-31.453 -14.6803 1.2448 229 201 159
-33.3918 -12.7512 1.27667 105 101 70
-45.1099 -7.76453 1.58104 119 117 109
-49.98 -7.15377 1.72346 109 101 62
-54.6549 -7.55815 1.86459 122 121 62
-55.6467 -7.07277 1.89245 108 107 50
-56.2968 -6.97563 1.91157 105 109 67
-60.7535 -7.04217 2.04517 136 135 112
-55.414 -6.24929 1.88278 122 110 59
-55.5638 -6.08952 1.88679 122 117 50
-65.3571 -6.63954 2.18194 96 91 46
-65.9838 -6.49368 2.20034 128 120 54
-65.6308 -6.25109 2.18913 110 110 45
-65.4855 -5.92618 2.18393 111 114 62
-65.1226 -5.68737 2.17247 117 118 51
-66.3766 -5.58642 2.2099 143 142 71
-6.32104 -13.8628 0.423781 49 60 56
-6.49371 -14.0792 0.427667 73 80 72
-6.59511 -13.956 0.426659 71 80 77
-9.07142 -15.5013 0.534998 115 112 91
-9.21137 -14.4181 0.519127 95 74 51
-9.26432 -14.4034 0.519428 119 100 86
-9.21954 -12.869 0.495334 126 106 69
-9.32113 -12.5937 0.492302 91 86 65
-9.41247 -12.3536 0.489757 89 73 48
-9.36278 -12.2081 0.487051 104 85 67
-9.59372 -11.5551 0.48027 147 143 137
-9.39967 -11.21 0.473032 103 99 61
-9.78424 -11.5312 0.482217 110 95 74
-30.5877 -15.7588 1.23533 97 104 68
-30.9192 -15.8078 1.2449 95 106 66
-30.7629 -15.6068 1.23801 108 121 78
-31.3876 -15.6169 1.255 109 123 79
-31.2627 -15.3118 1.24765 123 131 84
-31.3571 -15.1761 1.24845 102 102 75
-33.4004 -16.0371 1.31507 102 102 81
-31.4202 -14.7847 1.2452 222 206 172
-33.724 -15.6126 1.31858 84 58 43
-34.1372 -15.6746 1.33068 101 94 73
-34.6278 -15.1199 1.33753 73 79 67
-34.6175 -14.9867 1.33569 85 95 75
-37.5126 -12.7975 1.39417 100 104 82
-37.514 -12.6671 1.39299 95 98 77
-56.0892 -9.46753 1.91553 95 99 104
-56.5778 -8.2761 1.92484 108 97 62
-64.9266 -7.83415 2.1727 94 94 68
-65.65 -6.9817 2.19171 124 119 64
-6.61168 -14.109 0.428774 78 88 76
-9.47351 -14.4853 0.522812 110 98 79
-9.63178 -14.6326 0.526715 99 98 76
-9.48769 -14.3114 0.520257 94 94 79
-9.72505 -14.5284 0.526052 79 56 67
-9.68468 -14.1297 0.519488 110 76 77
-9.61635 -13.9344 0.515778 121 86 86
-9.59478 -12.8037 0.498477 112 94 68
-9.59257 -12.718 0.497182 115 88 70
-9.87415 -11.4573 0.482264 118 92 70
-9.92742 -11.4482 0.48279 98 71 53
-10.2689 -11.3408 0.485534 121 95 81
-36.687 -15.6787 1.40112 92 102 78
-37.2673 -15.789 1.41851 107 115 77
-37.1205 -15.5901 1.41217 114 120 79
-37.1833 -15.4799 1.41267 95 100 65
-37.0978 -15.2403 1.40758 110 114 69
-37.7558 -15.3728 1.42745 123 124 66
-38.0459 -15.3523 1.43535 124 118 68
-38.1245 -15.1763 1.43561 125 117 68
-38.3534 -15.1286 1.44153 110 98 52
-39.5675 -15.4645 1.47926 143 108 69
-39.1989 -15.1086 1.46509 84 79 54
-40.8753 -15.4615 1.51607 105 105 68
-40.797 -15.0679 1.50981 85 90 70
-42.1539 -15.4191 1.55181 102 108 86
-43.2946 -15.453 1.58452 85 95 84
-43.3346 -15.3145 1.5843 107 117 118
-6.90277 -14.8813 0.440724 83 92 76
-7.09874 -14.6428 0.438788 71 75 78
-7.14 -14.4369 0.436354 58 59 64
-7.13287 -14.0262 0.430964 66 79 69
-7.27451 -14.0937 0.432768 67 90 77
-7.3168 -14.0139 0.432014 47 55 47
-7.31237 -13.7912 0.429119 72 78 76
-7.38213 -13.6643 0.427963 73 77 75
-7.39736 -13.5905 0.427125 53 63 62
-9.96242 -14.7904 0.532555 99 67 65
-10.0268 -14.7881 0.533191 132 95 85
-10.1572 -13.6578 0.51745 111 98 78
-10.2111 -12.9563 0.507719 130 106 72
-10.2835 -12.9249 0.508093 156 132 83
-10.3702 -12.9529 0.50951 148 127 67
-10.4262 -12.9413 0.509998 126 112 77
-10.4448 -12.8826 0.509373 123 119 111
-10.5792 -12.8454 0.510422 139 134 125
-10.5185 -12.4907 0.504643 110 96 65
-10.4011 -11.6703 0.491726 89 78 68
-10.4877 -11.5144 0.490667 62 52 43
-10.486 -11.3344 0.488189 96 96 72
-49.463 -17.916 1.78413 88 93 71
-47.1693 -16.5029 1.70503 173 165 154
-47.4536 -16.3525 1.71167 71 51 30
-48.7316 -16.282 1.74755 98 105 80
-48.1669 -15.8421 1.72731 102 107 82
-48.3069 -15.7207 1.73023 105 108 89
-49.7731 -16.0252 1.77507 97 99 77
-49.8568 -15.7939 1.7754 108 109 88
-50.0161 -15.672 1.77892 91 88 76
-49.5964 -15.3701 1.76422 86 77 74
-7.29054 -14.8725 0.442994 49 54 60
-7.27096 -14.5954 0.439257 36 45 42
-7.29011 -14.4614 0.437632 68 80 67
-7.40042 -13.8039 0.429874 68 69 70
-7.45404 -13.5442 0.426922 73 83 75
-7.5109 -13.5497 0.42739 64 74 66
-10.4495 -14.9665 0.540372 137 109 106
-10.8256 -15.0098 0.545064 139 116 98
-10.6047 -12.9589 0.512347 139 135 132
-11.2194 -12.2155 0.509465 89 79 65
-10.9406 -11.7601 0.499747 72 77 55
-11.2002 -11.9687 0.505883 74 81 58
-11.2597 -11.9212 0.505999 94 105 84
-11.3427 -11.936 0.507269 80 93 70
-63.3155 -19.2922 2.19346 87 83 75
-62.615 -18.8647 2.16963 96 95 79
-62.9184 -18.7411 2.17736 94 97 75
-62.8209 -18.4979 2.17253 102 99 84
-64.6581 -18.7084 2.22743 96 92 82
-65.0176 -18.5916 2.23691 135 136 140
-65.6868 -18.5602 2.25608 153 154 151
-66.5973 -18.4794 2.28187 113 94 67
-7.97829 -14.0542 0.437085 80 77 65
-7.94624 -13.8934 0.434827 79 69 61
-8.10965 -14.0856 0.438427 67 66 61
-8.51572 -12.3083 0.419748 117 79 83
-11.0157 -15.1782 0.549674 98 72 50
-11.1394 -15.2514 0.55213 83 64 44
-11.4808 -12.0085 0.510024 80 91 74
-8.26054 -14.7318 0.447671 61 70 63
-8.20855 -14.1075 0.439414 68 71 70
-8.35855 -14.2702 0.44255 70 71 63
-8.51179 -13.9779 0.440045 139 122 77
-8.5502 -13.8941 0.439292 97 93 60
-8.84361 -12.8831 0.429314 119 85 86
-8.75964 -12.1743 0.420206 141 119 98
-17.7325 -16.8276 0.750194 106 123 82
-17.85 -16.6258 0.749057 56 66 27
-17.8295 -16.451 0.746055 93 102 83
-17.7382 -16.2636 0.741708 110 115 88
-17.6136 -16.0471 0.736372 85 88 71
-17.5363 -15.8259 0.731752 89 94 74
-17.7434 -15.915 0.73657 76 73 64
-17.8236 -15.8879 0.737524 59 62 51
-17.7529 -15.6754 0.733174 82 97 73
-17.6085 -15.4489 0.72739 74 91 74
-17.785 -15.5078 0.731264 79 84 69
-17.9921 -15.445 0.733889 90 99 64
-18.023 -15.3746 0.733406 95 106 77
-18.0371 -15.2898 0.732428 78 94 68
-18.0822 -15.1835 0.731674 96 106 74
-17.7822 -14.1875 0.712383 96 70 81
-18.0532 -13.7723 0.711549 235 184 120
-18.0575 -13.6868 0.710482 239 178 105
-18.0408 -13.5857 0.708832 200 153 76
-18.0268 -13.4873 0.707271 141 104 26
-17.8815 -13.2471 0.701438 201 153 93
-18.0584 -13.2928 0.70527 206 152 85
-18.0542 -13.2033 0.704024 156 104 43
-18.0639 -13.081 0.702596 170 139 59
-18.1266 -13.0411 0.703237 179 150 59
-18.2396 -13.0373 0.705272 192 151 79
-17.9994 -12.7367 0.696968 203 154 83
-17.5792 -12.3541 0.684305 195 157 69
-17.9624 -12.4601 0.692779 183 143 77
-17.956 -12.3316 0.691037 130 108 52
-17.8376 -12.1678 0.686779 170 139 99
-17.9474 -12.1618 0.688769 131 105 52
-17.8135 -11.9488 0.683611 177 136 79
-17.7922 -11.8542 0.68205 198 155 95
-18.1357 -12.0043 0.690378 147 108 56
-18.4461 -12.0882 0.697267 173 130 73
-18.1409 -11.8055 0.688065 172 130 75
-18.142 -11.7259 0.687133 175 135 65
-18.907 -12.1425 0.706701 209 169 74
-18.7778 -11.8529 0.700791 206 158 81
-18.7467 -11.6297 0.69758 200 153 64
-18.5754 -11.4424 0.692108 218 178 68
-19.0227 -11.5172 0.701619 137 123 24
-18.9493 -11.3116 0.697869 158 132 83
-19.2856 -11.4331 0.705796 155 125 76
-19.2026 -11.2622 0.702256 171 131 90
-19.3284 -11.2559 0.704653 141 94 59
-19.4266 -11.2328 0.70633 116 77 50
-18.9872 -10.858 0.693572 106 91 47
-19.2491 -10.9299 0.699521 112 104 46
-19.2704 -10.8628 0.69922 118 113 50
-19.3937 -10.8136 0.701121 137 126 59
-19.7092 -10.911 0.70842 100 95 41
-8.80712 -14.2242 0.445329 65 67 55
-9.19388 -13.0102 0.433741 129 98 93
-9.12136 -12.8192 0.430876 114 86 72
-9.36718 -12.5798 0.43018 99 85 67
-9.33899 -12.1785 0.4253 124 108 77
-9.4701 -12.2342 0.427102 92 78 51
-9.46422 -12.1478 0.426064 136 113 85
-18.6237 -18.4755 0.790298 65 78 56
-18.6624 -18.3991 0.789724 91 101 74
-18.6285 -18.2509 0.78686 115 122 95
-18.7377 -18.1876 0.787631 86 95 78
-18.7782 -18.1139 0.787147 78 86 64
-17.9191 -17.1675 0.758497 111 117 83
-18.0113 -16.9891 0.757257 52 67 48
-18.3348 -17.1903 0.765668 126 129 91
-18.1092 -15.6949 0.739541 103 118 81
-18.3045 -15.2754 0.736852 70 82 59
-18.4343 -15.2877 0.739289 94 89 73
-18.5898 -15.2717 0.74177 102 72 80
-18.3995 -15.0178 0.734862 95 68 75
-18.7795 -15.2343 0.744579 91 66 71
-18.7258 -15.0936 0.74167 89 63 73
-18.9761 -15.055 0.745556 94 68 77
-18.9912 -14.9709 0.744669 94 67 72
-19.4528 -15.1915 0.755913 147 92 88
-19.0986 -14.7212 0.743175 175 110 85
-19.1414 -12.1684 0.711478 177 133 45
-19.6829 -12.0473 0.72049 211 178 66
-19.7291 -11.8654 0.719302 122 98 37
-20.4676 -11.2516 0.727097 131 132 80
-20.5493 -11.2137 0.728325 118 120 55
-24.9995 -6.89089 0.787099 83 78 68
-25.0317 -6.81568 0.787387 82 86 74
-9.03704 -15.3553 0.461116 86 83 66
-9.08757 -15.2773 0.460508 120 98 74
-8.98201 -14.9868 0.456104 144 119 93
-4.45805 -6.98418 0.198695 78 68 55
-4.46469 -6.94695 0.198723 70 57 49
-9.22062 -14.3005 0.449465 83 71 65
-4.493 -6.94556 0.198715 104 95 84
-9.27966 -14.2958 0.449876 105 98 79
-9.34092 -14.2943 0.450345 94 94 66
-9.6698 -13.8868 0.448116 141 118 111
-9.37204 -12.9646 0.434713 129 105 81
-9.42927 -12.9602 0.435154 150 125 92
-9.42765 -12.7463 0.432639 79 67 48
-9.76558 -13.0009 0.438537 162 134 111
-9.53241 -12.5185 0.430921 119 98 74
-9.82646 -11.6545 0.423866 107 90 80
-19.6679 -15.2628 0.760733 136 75 61
-9.62412 -14.6393 0.456788 95 105 80
-9.91033 -14.9321 0.46262 58 57 55
-9.62171 -14.3874 0.453721 80 59 72
-9.8005 -13.9857 0.450384 112 81 78
-10.1352 -13.418 0.446606 105 84 59
-10.17 -12.9936 0.442052 122 96 60
-10.2096 -12.9196 0.441563 161 131 77
-10.3069 -12.9623 0.442933 147 119 69
-10.3702 -12.9604 0.44349 148 125 67
-10.3734 -12.8401 0.442161 118 112 97
-10.0943 -12.328 0.433849 131 129 124
-10.315 -12.5242 0.438091 138 134 128
-10.2787 -12.2819 0.435056 68 75 74
-10.3836 -12.2146 0.4353 95 84 72
-10.457 -12.2255 0.436119 96 94 77
-10.4444 -12.1335 0.434995 101 96 74
-10.599 -11.8599 0.433519 83 67 51
-10.5259 -11.7026 0.431118 116 90 78
-10.4611 -11.5564 0.428921 107 85 79
-10.5227 -11.5168 0.4291 107 101 80
-10.6442 -11.5079 0.430218 93 98 74
-29.7555 -7.66245 0.895373 107 91 76
-29.9218 -7.60573 0.898727 91 83 75
-30.065 -7.4921 0.90127 93 96 87
-10.2062 -15.1819 0.468025 81 50 61
-10.2614 -15.1113 0.467621 111 76 75
-10.4825 -12.8957 0.443792 129 127 121
-10.7814 -12.4156 0.441295 109 92 75
-11.1234 -12.6578 0.447227 109 81 61
-11.1966 -12.1944 0.442975 112 110 94
-24.7337 -25.8768 1.00516 73 82 72
-27.9692 -12.624 0.892754 101 109 76
-27.9969 -12.5315 0.892503 97 108 73
-35.1109 -7.59707 1.01301 95 84 83
-35.0243 -7.40597 1.01024 72 71 69
-35.0857 -7.3042 1.01116 74 80 74
-5.41121 -12.9544 0.293037 61 70 67
-10.9313 -14.9321 0.471121 132 119 93
-11.2702 -12.0855 0.442554 82 87 64
-11.4007 -12.1521 0.444563 94 102 79
-25.291 -26.3002 1.02071 79 88 77
-17.8578 -12.1017 0.603012 154 133 78
-17.7663 -11.8388 0.598908 133 93 41
-17.7926 -11.7768 0.598697 183 137 91
-17.8143 -11.593 0.597196 163 123 70
-17.9838 -11.6245 0.600183 171 128 62
-28.076 -15.1879 0.919915 132 134 76
-28.2282 -15.157 0.922632 111 118 51
-28.4016 -15.1366 0.925888 119 123 56
-28.1011 -14.8065 0.916461 98 96 39
-29.0419 -15.0744 0.938087 89 89 48
-29.3656 -15.069 0.944536 94 92 52
-27.9502 -12.7736 0.893726 103 96 52
-40.2879 -7.80166 1.12859 143 106 88
-40.2743 -7.60255 1.12749 174 114 98
-40.5249 -7.51855 1.13274 173 124 108
-40.1958 -7.32683 1.12471 191 146 142
-43.1752 -7.38377 1.19126 64 59 66
-43.1264 -7.23619 1.18966 177 175 179
-43.2045 -7.04039 1.19073 158 135 137
-43.1605 -6.89424 1.18927 186 168 163
-43.1476 -6.75339 1.18853 127 95 94
-5.46979 -12.9844 0.293355 69 70 72
-5.50819 -12.9643 0.293331 55 60 59
-5.56404 -12.9865 0.293599 75 78 83
-5.622 -12.9557 0.293559 123 106 96
-5.68434 -12.9922 0.293928 158 139 122
-5.71724 -12.9585 0.293816 157 141 128
-7.67772 -7.73923 0.273507 53 70 52
-7.63032 -7.61975 0.272766 83 98 68
-7.6576 -7.60047 0.272811 88 94 74
-7.6891 -7.58533 0.272893 75 82 65
-17.7423 -16.9843 0.657891 104 119 75
-17.6711 -16.7579 0.654035 83 97 63
-17.7482 -16.623 0.653386 63 77 53
-17.817 -16.5842 0.653842 108 117 79
-17.8311 -16.4425 0.652251 103 104 70
-17.7762 -16.2894 0.649587 87 89 56
-17.3701 -15.8152 0.63808 65 68 52
-17.4643 -15.7529 0.638608 52 61 53
-17.6982 -15.866 0.643262 54 60 61
-17.8333 -15.8884 0.645427 56 69 74
-17.6563 -15.582 0.639193 59 71 66
-17.3749 -15.2359 0.63103 68 76 63
-17.6426 -15.3756 0.636502 72 84 70
-17.9052 -15.5086 0.641826 88 102 79
-17.7702 -15.2459 0.636744 79 92 77
-17.9338 -15.2908 0.639615 80 91 80
-17.9338 -15.1948 0.638474 68 79 68
-18.1738 -15.2542 0.642607 77 87 61
-18.2697 -15.2387 0.643807 90 100 71
-18.1451 -14.4756 0.633131 96 64 68
-18.3068 -14.5126 0.635929 101 67 71
-18.0007 -13.729 0.622567 206 134 90
-18 -13.6402 0.621575 118 69 32
-17.9941 -13.5479 0.620471 154 113 70
-17.9975 -13.463 0.619591 117 79 32
-18.0134 -13.3442 0.618523 183 138 74
-18.003 -13.25 0.617346 189 144 76
-18.0018 -13.1631 0.616391 169 126 69
-18.0127 -13.0424 0.615249 229 180 113
-18.0787 -13.005 0.615855 125 87 23
-18.1332 -12.9591 0.616202 158 121 66
-18.3511 -12.9867 0.619818 153 120 39
-18.267 -12.8418 0.617005 156 130 42
-17.963 -12.5437 0.609211 203 169 95
-18.072 -12.5368 0.610821 111 75 18
-18.2484 -12.534 0.613508 153 130 64
-17.9568 -12.0472 0.603989 136 114 37
-18.0423 -11.8221 0.603058 162 125 70
-18.231 -11.7049 0.60488 182 145 53
-19.4466 -11.9824 0.626879 179 130 47
-19.3471 -11.6321 0.621972 194 157 111
-18.9697 -11.3241 0.613023 119 75 52
-18.8189 -11.1545 0.60902 126 82 73
-19.3301 -11.337 0.618962 195 130 114
-19.0319 -11.082 0.611798 182 112 89
-18.8878 -10.9193 0.60798 168 106 86
-18.8948 -10.8059 0.607063 117 92 61
-19.0598 -10.8221 0.609903 114 104 63
-19.1728 -10.8079 0.611627 110 102 53
-19.2576 -10.7375 0.612383 140 130 75
-29.6229 -15.4956 0.954034 105 105 53
-30.0734 -15.3159 0.961287 76 84 43
-29.9941 -15.1575 0.958113 116 122 82
-30.6436 -15.3677 0.973336 86 89 53
-30.9669 -15.3493 0.979697 87 95 59
-31.1538 -15.3214 0.983225 96 108 68
-31.2224 -15.2343 0.983786 111 117 69
-30.4894 -14.6978 0.963698 105 103 76
-31.9587 -15.2874 0.9993 71 70 62
-31.6 -14.9936 0.989199 147 144 144
-32.2315 -15.11 1.00321 241 216 180
-32.6942 -15.2036 1.01358 128 108 57
-33.2026 -12.7436 1.00319 114 112 64
-34.964 -13.2978 1.04475 98 107 59
-34.9637 -13.1726 1.04378 106 105 50
-37.5467 -12.6265 1.09489 249 222 182
-43.1707 -7.73203 1.19242 126 91 89
-48.8814 -7.26295 1.31826 94 97 76
-48.9289 -7.11313 1.31888 104 104 89
-5.79321 -12.9693 0.294068 122 122 105
-5.83944 -12.9664 0.294171 63 74 67
-6.00756 -12.4991 0.291929 48 61 50
-18.5784 -18.4119 0.687489 105 114 83
-18.6396 -18.3583 0.68761 85 89 70
-18.4829 -18.0898 0.682048 79 87 70
-18.5214 -17.9588 0.680866 105 104 83
-18.273 -17.606 0.673001 93 97 72
-18.1255 -17.0855 0.664372 49 62 55
-18.4778 -15.3162 0.64772 88 77 70
-18.5935 -15.2667 0.648806 107 71 74
-18.6668 -15.2304 0.64945 105 71 71
-18.4784 -14.9802 0.643812 103 65 66
-18.5944 -14.9792 0.645496 105 71 72
-18.8807 -14.8751 0.648502 107 69 72
-19.0047 -14.83 0.649812 151 91 81
-19.1181 -14.8236 0.651422 161 96 80
-19.3707 -14.9244 0.656302 150 85 60
-19.4546 -12.2817 0.62989 173 133 45
-19.5717 -12.271 0.631651 222 175 79
-19.8234 -12.3009 0.635939 202 146 62
-20.1796 -12.3496 0.642101 211 168 80
-19.7057 -11.9322 0.630549 138 102 51
-34.2489 -15.8005 1.05103 117 116 82
-36.1241 -15.7197 1.08905 99 110 68
-35.727 -15.4133 1.07814 93 103 77
-35.4696 -15.1044 1.0701 80 84 62
-34.6332 -14.6187 1.04853 90 98 72
-34.6966 -14.5178 1.049 100 107 79
-36.7603 -15.2508 1.0983 93 97 68
-37.4332 -15.3255 1.11299 100 104 72
-37.212 -15.0988 1.10649 102 110 72
-37.6697 -15.1482 1.1165 101 113 69
-37.6395 -14.9309 1.1141 163 151 105
-37.808 -14.8613 1.11709 203 173 124
-37.6025 -14.6444 1.11104 241 214 158
-40.8161 -14.8796 1.18091 122 115 63
-37.4646 -12.8604 1.09475 93 88 62
-37.485 -12.7364 1.09432 184 171 134
-40.533 -13.2829 1.1635 98 107 76
-25.0499 -6.89613 0.687517 99 97 80
-24.98 -6.79297 0.685784 88 89 78
-56.712 -7.61454 1.49454 101 96 68
-56.6972 -7.43138 1.49372 109 102 75
-56.7025 -6.97968 1.49267 104 105 70
-56.6559 -6.79337 1.49117 107 105 74
-56.7619 -6.53499 1.49292 143 140 120
-56.8071 -6.35952 1.49354 99 92 70
-65.3503 -7.11286 1.68713 106 101 77
-21.3153 -14.5549 0.681847 127 116 32
-41.1842 -15.3809 1.19251 116 116 57
-41.409 -15.2438 1.19623 125 120 60
-41.2656 -14.898 1.19061 105 101 57
-42.6175 -15.162 1.22134 105 104 87
-42.9484 -15.1289 1.22816 102 102 100
-43.1438 -15.0462 1.23175 195 180 166
-46.1148 -15.3606 1.29759 255 234 185
-46.6149 -14.9617 1.30564 95 109 75
-47.3467 -14.9522 1.32134 95 101 72
-45.7227 -14.28 1.28193 95 103 76
-49.3495 -14.9935 1.36488 94 96 74
-6.33828 -13.9957 0.301411 76 87 79
-6.34329 -13.8317 0.300473 54 66 60
-6.48878 -14.0422 0.302069 65 73 73
-4.43973 -6.96639 0.16407 90 83 68
-4.43457 -6.91054 0.16433 67 50 40
-4.46936 -6.89571 0.164302 109 92 77
-23.5785 -13.0597 0.70371 120 104 66
-23.6833 -13.0217 0.705102 97 83 62
-23.9108 -13.0503 0.709098 80 78 55
-24.1469 -13.0332 0.712833 101 97 65
-24.8208 -13.1988 0.725401 122 127 82
-50.6942 -15.2301 1.39549 93 97 74
-51.8314 -15.2193 1.42009 84 75 55
-51.6848 -14.9123 1.41504 106 95 83
-29.8794 -7.67358 0.778459 92 89 72
-29.8367 -7.56318 0.777213 81 85 71
-6.79506 -14.3085 0.304413 74 85 76
-6.84578 -14.017 0.302885 36 44 46
-6.88376 -13.9854 0.302812 32 37 39
-6.86346 -13.833 0.301891 77 82 88
-27.8924 -12.7242 0.773283 103 101 63
-27.8984 -12.5693 0.772222 88 85 53
-27.9533 -12.4892 0.772576 91 89 64
-65.455 -18.6768 1.73687 132 130 130
-65.6278 -18.5038 1.73961 151 151 149
-66.1345 -17.5316 1.74509 85 86 74
-66.8723 -17.5034 1.76107 89 80 75
-67.7425 -16.4878 1.7748 83 86 70
-35.0414 -7.54884 0.87207 73 69 64
-35.0659 -7.38177 0.871907 68 71 69
-6.87999 -14.672 0.306729 63 76 69
-7.44278 -13.5053 0.301749 70 81 73
-7.43959 -13.3999 0.301158 71 67 61
-7.49516 -13.4035 0.301352 126 114 80
-25.3114 -26.2633 0.879253 73 83 62
-17.8225 -11.4161 0.51099 195 149 68
-17.9414 -11.4144 0.512456 178 128 44
-17.8181 -11.2573 0.509738 185 129 51
-18.0507 -11.288 0.512859 184 132 39
-18.1174 -11.2517 0.513425 211 160 76
-28.2143 -15.1213 0.797959 121 113 89
-29.9104 -15.3181 0.827773 128 122 74
-29.4037 -14.9425 0.816222 93 86 59
-29.9811 -15.1189 0.827328 101 102 65
-29.9919 -15.0071 0.826604 106 107 68
-30.458 -14.6505 0.831591 101 94 74
-30.4165 -14.5138 0.829825 125 123 125
-30.4106 -14.3945 0.828803 183 168 164
-40.2341 -7.54954 0.967351 117 89 73
-40.1487 -7.40331 0.965328 161 105 91
-7.49775 -14.8529 0.309457 78 90 80
-7.54267 -14.8282 0.309447 72 86 75
-7.40145 -14.1558 0.305253 82 81 61
-7.59114 -14.4176 0.307279 77 78 54
-7.66275 -14.1767 0.306147 67 73 68
-7.87145 -13.8368 0.304909 144 122 80
-17.778 -17.2713 0.562691 84 87 58
-17.7056 -17.093 0.560149 118 125 84
-17.4751 -16.7099 0.553889 95 105 59
-17.7095 -16.8314 0.557585 105 121 81
-17.6719 -16.6906 0.555797 46 56 35
-17.7234 -16.5831 0.555284 113 117 69
-17.8211 -16.5717 0.556223 95 94 46
-17.6008 -16.2623 0.550836 97 94 61
-17.9656 -16.4999 0.557088 97 104 69
-17.3986 -15.823 0.544384 111 111 83
-17.7465 -16.0426 0.550287 84 88 71
-17.7162 -15.9146 0.548732 54 65 52
-17.7233 -15.7716 0.547435 64 73 66
-17.8211 -15.7603 0.548404 80 91 83
-17.2009 -15.1099 0.535412 65 76 68
-17.7657 -15.4652 0.545 71 82 75
-17.8825 -15.4703 0.546347 73 91 74
-17.8216 -15.3201 0.544268 76 95 77
-17.7495 -15.1613 0.541987 80 96 86
-17.8062 -15.0665 0.541735 52 59 42
-17.988 -15.1262 0.544331 111 120 86
-18.1474 -15.1655 0.546491 96 107 75
-18.2331 -15.0934 0.546792 92 73 78
-18.2873 -15.0429 0.546949 106 67 77
-18.2551 -14.9209 0.54548 102 65 70
-18.2316 -14.7594 0.543749 98 68 71
-18.2863 -14.7101 0.543936 98 75 81
-18.2042 -14.55 0.541567 99 72 77
-18.2381 -14.4845 0.541376 99 67 72
-18.2661 -14.3679 0.540661 105 69 69
-18.1803 -14.2081 0.538263 144 91 84
-18.1477 -13.9556 0.535673 159 100 83
-18.0357 -13.7793 0.532839 158 97 76
-18.0274 -13.6841 0.531923 178 122 86
-18.0367 -13.5585 0.530947 165 134 94
-18.0449 -13.4769 0.530349 166 133 70
-18.147 -13.4662 0.531465 191 147 79
-18.0891 -13.3355 0.529677 177 127 56
-18.0384 -13.1677 0.527655 205 154 89
-18.0337 -13.0783 0.526855 157 108 45
-18.0561 -13.0091 0.526548 142 98 39
-18.1957 -12.9817 0.527983 180 131 71
-18.3232 -12.9877 0.529564 171 130 58
-18.4314 -12.9791 0.530797 212 174 87
-18.4996 -12.8985 0.530954 192 158 62
-18.1466 -12.5658 0.523996 162 129 46
-18.5147 -12.7383 0.529847 174 146 68
-18.4059 -12.5783 0.527246 146 124 34
-18.1129 -12.2519 0.52107 200 165 88
-18.4561 -12.4029 0.526458 203 162 77
-18.5835 -12.4056 0.52804 177 141 52
-18.8368 -12.4493 0.53148 184 151 59
-18.8068 -12.3452 0.530302 166 134 55
-18.361 -11.9679 0.52189 172 141 61
-18.2256 -11.7574 0.51859 178 133 70
-18.3026 -11.2891 0.516024 221 172 88
-18.3479 -11.1991 0.515921 127 84 19
-18.8607 -11.4348 0.5241 144 103 50
-19.2454 -11.5886 0.530072 157 117 71
-19.4306 -11.5775 0.532323 173 131 58
-19.1217 -11.2308 0.525928 155 102 67
-19.2559 -11.2297 0.527628 188 116 93
-19.4751 -11.2369 0.530461 167 102 86
-19.4817 -11.16 0.53001 140 99 80
-19.4223 -11.0453 0.528454 126 110 83
-29.8223 -15.6866 0.829391 113 111 78
-29.9396 -15.6294 0.830861 107 103 65
-30.0852 -15.5863 0.832926 116 111 75
-30.4785 -15.0729 0.835291 110 110 63
-30.8835 -15.1537 0.842752 97 103 67
-32.2016 -15.0593 0.864285 254 226 178
-32.9981 -15.3069 0.879712 118 84 39
-32.8692 -15.1224 0.876123 107 74 51
-34.7571 -14.502 0.904032 110 105 69
-34.949 -13.2525 0.89906 126 123 76
-37.4326 -12.6742 0.939365 176 139 86
-43.1062 -7.80773 1.02102 156 93 92
-43.1002 -7.6671 1.02049 108 79 77
-43.0983 -7.31856 1.01943 91 76 87
-43.071 -7.175 1.01853 119 105 120
-43.1094 -6.97302 1.01867 145 132 148
-43.1066 -6.83388 1.01825 126 112 129
-43.1033 -6.69479 1.01783 101 84 91
-7.65629 -14.9411 0.310411 52 60 51
-7.7032 -14.8613 0.310094 81 76 65
-7.95209 -14.9485 0.311313 95 93 78
-7.87489 -14.6887 0.309634 44 48 37
-8.13979 -14.4242 0.308977 73 61 35
-8.0381 -14.0342 0.306519 130 113 64
-8.09445 -13.9815 0.306405 135 115 81
-8.37836 -13.8264 0.306489 130 114 80
-8.46622 -13.8272 0.306781 134 113 81
-8.5744 -12.6379 0.300861 118 86 84
-8.79138 -12.8771 0.302889 125 95 97
-8.70007 -12.6563 0.301415 112 82 81
-8.59091 -12.37 0.299533 123 101 87
-8.748 -12.3527 0.300029 138 104 86
-8.83151 -12.2689 0.299911 107 100 84
-9.12977 -11.9686 0.299546 119 97 63
-9.21155 -11.6956 0.298516 154 125 90
-9.26709 -11.6924 0.298725 151 132 93
-18.3743 -18.253 0.578824 127 132 95
-18.418 -18.183 0.578574 96 106 76
-18.2413 -17.8382 0.573244 77 85 70
-18.9214 -14.6991 0.551168 163 98 84
-19.7129 -11.6642 0.536523 216 171 87
-19.9438 -11.2214 0.536346 123 108 82
-20.0964 -11.2257 0.538337 133 119 82
-20.0592 -11.1229 0.53716 137 121 93
-35.1367 -15.2445 0.915815 100 111 74
-35.7892 -15.3951 0.928121 98 111 68
-35.432 -15.0447 0.91947 104 107 84
-35.852 -15.0911 0.927049 86 86 58
-36.5444 -15.1145 0.939194 114 111 73
-37.036 -15.1148 0.947704 92 99 65
-37.3936 -15.1247 0.953982 94 101 63
-37.225 -14.9211 0.949688 109 108 76
-37.4389 -14.8033 0.952615 118 98 82
-37.529 -14.7034 0.953533 125 107 84
-37.9299 -14.7239 0.960668 109 95 54
-37.9092 -14.2402 0.957204 109 109 63
-40.1887 -14.9535 1.00169 113 113 61
-39.5919 -14.5201 0.988494 121 113 52
-40.9567 -14.8755 1.0147 116 105 48
-37.4332 -12.8051 0.940123 172 154 105
-38.3461 -12.7165 0.955839 128 87 37
-40.4504 -13.2038 0.995978 94 90 58
-38.407 -12.4039 0.955182 90 94 72
-24.9913 -6.89977 0.582514 100 92 75
-24.9504 -6.80441 0.581599 96 88 72
-50.0752 -7.37264 1.1485 83 81 73
-54.8652 -7.7244 1.23805 121 123 110
-55.4089 -7.53479 1.24767 135 120 94
-55.1027 -7.31716 1.24152 116 101 81
-59.0805 -7.18406 1.31504 106 95 82
-60.7162 -6.70599 1.34451 118 119 115
-8.69338 -14.8242 0.312925 166 137 90
-8.62713 -13.8997 0.307712 113 99 65
-9.09627 -13.0241 0.30476 109 85 75
-9.10902 -12.9567 0.304462 124 96 83
-9.19963 -12.8732 0.304369 80 59 49
-9.24014 -12.5552 0.302909 61 56 37
-9.10088 -12.1634 0.300402 130 119 88
-9.38706 -12.3908 0.302651 101 86 53
-9.37707 -12.1014 0.301175 98 77 54
-9.29677 -11.656 0.298667 133 104 64
-9.49616 -11.7961 0.300151 138 118 83
-9.77212 -11.6543 0.300604 67 68 74
-43.2914 -49.4906 1.42337 134 106 81
-40.6569 -15.5638 1.01375 132 112 70
-42.6399 -15.3362 1.04716 126 126 69
-41.5394 -14.7203 1.02402 114 117 109
-43.5208 -15.2694 1.06229 137 136 126
-43.847 -15.2299 1.06783 188 176 156
-44.1153 -14.7832 1.07 229 189 131
-46.7906 -14.9496 1.11854 89 95 71
-47.9842 -15.0827 1.14055 104 107 82
-49.1696 -15.2861 1.16281 80 82 61
-45.6776 -14.044 1.09382 94 98 72
-49.359 -14.9219 1.16429 80 83 54
-49.7761 -14.878 1.17155 87 87 65
-46.0503 -13.4509 1.09748 205 187 156
-46.07 -13.2219 1.09669 127 127 125
-59.8244 -7.75131 1.33003 121 111 75
-60.084 -7.11434 1.33354 95 99 107
-60.7314 -6.90079 1.34515 95 95 99
-8.72487 -14.9862 0.313907 164 131 93
-8.81292 -14.7658 0.312993 101 84 64
-8.92542 -14.8524 0.313831 121 108 86
-8.9306 -14.4992 0.311944 93 81 42
-9.42227 -14.5875 0.314089 114 98 83
-9.22393 -14.1778 0.311235 89 81 62
-9.13884 -13.9494 0.309736 79 81 60
-9.42597 -13.0231 0.305986 58 52 46
-9.47707 -12.9665 0.305887 81 73 58
-10.1188 -12.5009 0.306101 120 113 94
-9.86909 -12.1113 0.303199 126 124 125
-10.1414 -12.3714 0.30557 131 129 131
-10.4312 -11.6564 0.303405 85 71 47
-23.854 -13.004 0.598826 142 125 97
-24.0534 -13.0163 0.601488 123 107 87
-50.8776 -15.0336 1.19211 163 157 129
-53.0863 -14.8751 1.23106 252 253 231
-9.6133 -14.4391 0.313978 53 38 31
-10.1662 -13.2197 0.309818 151 125 89
-10.6376 -12.3062 0.307319 90 97 66
-10.6129 -12.2005 0.306718 95 79 53
-10.8256 -12.3703 0.30842 199 163 134
-10.4895 -11.6495 0.303627 106 91 73
-10.5421 -11.5993 0.30362 130 120 102
-27.261 -13.1516 0.64435 110 88 81
-27.9454 -12.632 0.650388 97 98 66
-27.924 -12.5172 0.649447 107 104 74
-30.1118 -7.71724 0.658003 83 79 68
-30.0731 -7.60691 0.657092 94 91 72
-67.7747 -16.6027 1.50473 83 76 61
-67.8023 -16.3842 1.50433 82 78 66
-11.1525 -12.6684 0.311211 59 49 28
-11.0793 -12.1212 0.308359 83 78 62
-11.1273 -12.0987 0.308467 88 93 72
-11.1468 -12.0071 0.308131 82 90 79
