-8.67382 5.15922 -1.88047 87 88 108
-8.64879 5.17672 -1.87823 84 88 107
-8.63303 5.21799 -1.88083 88 91 108
-8.60469 5.23304 -1.87772 85 90 108
-8.58741 5.25593 -1.87769 85 90 109
-8.56057 5.27191 -1.87501 86 89 108
-8.53011 5.30257 -1.87365 81 86 105
-8.50789 5.32177 -1.87229 84 88 107
-8.45799 5.37348 -1.87045 87 91 108
-7.58491 6.84112 -1.88129 85 86 104
-7.5507 6.84806 -1.87742 86 87 107
-7.53493 6.87508 -1.8795 86 87 107
-7.50691 6.91048 -1.88114 84 87 104
-7.48175 6.92724 -1.88025 81 87 103
-6.92389 7.88617 -1.88694 84 88 104
-6.88239 7.90825 -1.88565 82 88 104
-6.85667 7.92602 -1.8856 85 92 107
-6.38682 8.78313 -1.89856 91 90 108
-6.34748 8.81266 -1.89966 86 87 105
-5.87841 9.71803 -1.91497 73 80 90
-5.87436 9.78943 -1.92687 78 84 94
-4.66409 10.06 -1.76283 104 103 119
-4.63483 10.0803 -1.76453 105 107 120
-4.17306 10.7332 -1.7575 104 110 122
-11.1824 0.877946 -1.83046 74 85 107
-11.1632 0.907238 -1.8273 75 81 105
-11.0442 1.00803 -1.8246 77 88 109
-11.0538 1.04408 -1.82703 79 87 109
-10.6528 1.56919 -1.82258 110 101 108
-10.6451 1.59798 -1.82216 132 111 99
-10.6431 1.62775 -1.82298 130 110 87
-10.1112 2.55422 -1.83964 101 110 125
-10.1079 2.62861 -1.84387 78 86 108
-10.11 2.65954 -1.84641 83 89 111
-9.34959 3.64349 -1.83613 84 85 105
-9.3497 3.67426 -1.83919 76 80 99
-9.33377 3.69774 -1.83829 81 89 108
-9.33485 3.74437 -1.84311 80 83 102
-9.30639 3.76198 -1.83912 84 85 105
-9.31835 3.79863 -1.84527 92 93 113
-9.30029 3.82113 -1.84392 88 94 110
-9.29191 3.86365 -1.84654 90 96 112
-9.28417 3.89115 -1.84784 89 90 110
-9.26062 3.91091 -1.84517 93 92 110
-9.24304 3.94904 -1.84558 89 91 109
-9.23849 3.97819 -1.84776 88 91 108
-9.21818 3.99946 -1.84597 91 94 111
-8.49815 5.35015 -1.87446 86 90 109
-8.44649 5.40061 -1.87218 87 90 107
-8.42245 5.4183 -1.87038 87 90 109
-8.38983 5.44705 -1.86858 85 90 109
-8.37187 5.46928 -1.86854 85 92 108
-8.35229 5.49026 -1.86807 86 92 108
-8.32497 5.50519 -1.86539 85 90 105
-8.29966 5.53943 -1.86578 85 92 108
-8.27377 5.55534 -1.86355 85 92 108
-8.25243 5.57479 -1.86263 86 93 109
-8.22982 5.61115 -1.86391 87 90 109
-8.2083 5.63045 -1.86299 85 90 109
-8.18372 5.6472 -1.86119 87 93 109
-8.1517 5.67587 -1.85983 87 93 110
-8.13601 5.69986 -1.86067 85 90 109
-8.11276 5.71758 -1.85931 91 94 111
-8.08351 5.7302 -1.85619 88 91 108
-7.46434 6.95266 -1.8819 83 89 105
-7.43718 6.98926 -1.88397 84 88 105
-7.39506 6.98669 -1.87755 87 88 106
-7.38896 7.02516 -1.88303 88 91 107
-6.82862 7.94054 -1.88473 85 88 105
-6.79818 7.97813 -1.88752 84 87 104
-6.77336 7.99725 -1.88788 83 89 105
-6.31597 8.82377 -1.89843 87 89 104
-6.28542 8.83647 -1.89759 88 90 105
-5.84775 9.81486 -1.92905 81 84 96
-4.60172 10.0893 -1.76411 110 116 128
-4.12685 10.7663 -1.76077 106 108 121
-11.2017 0.770765 -1.83203 73 86 105
-11.1868 0.800615 -1.82966 77 90 109
-11.1931 0.832266 -1.83163 78 91 109
-11.0656 0.939758 -1.82709 79 88 109
-11.0461 0.973124 -1.82427 74 86 104
-10.6704 1.49693 -1.82341 62 71 91
-10.6455 1.52298 -1.8193 79 84 104
-10.1467 2.39938 -1.83715 115 116 133
-9.43622 3.46829 -1.83714 76 78 99
-9.41017 3.48749 -1.83359 72 77 96
-9.43052 3.52673 -1.84151 75 80 99
-9.42904 3.5718 -1.84545 72 79 97
-9.40985 3.59399 -1.84367 72 79 95
-9.40482 3.62246 -1.84541 76 80 97
-8.04519 5.7533 -1.85306 88 89 109
-8.04553 5.79093 -1.85875 89 92 111
-8.02501 5.81084 -1.85827 90 95 112
-7.99672 5.84251 -1.85822 90 95 110
-7.97604 5.86226 -1.85775 88 89 110
-7.96556 5.89095 -1.86035 88 91 111
-7.94127 5.92622 -1.86162 86 90 109
-7.36137 7.06148 -1.88509 84 89 103
-7.32182 7.06143 -1.87953 86 90 105
-7.30766 7.09094 -1.88246 87 90 107
-7.28834 7.11447 -1.88369 87 90 107
-6.74736 8.0147 -1.88783 83 88 107
-6.7109 8.04395 -1.88858 86 87 105
-6.68144 8.05636 -1.8873 85 86 104
-6.24866 8.87067 -1.89987 86 86 102
-6.20836 8.86609 -1.8951 89 88 104
-6.18919 8.89896 -1.89897 76 78 93
-5.81479 9.86708 -1.93532 75 82 92
-5.79289 9.90303 -1.93975 78 83 95
-4.55086 10.0979 -1.76261 106 110 122
-4.51462 10.0973 -1.76044 103 106 122
-4.08431 10.7472 -1.75566 106 109 123
-4.05483 10.7754 -1.75895 111 114 129
-11.1896 0.692198 -1.82808 73 84 104
-11.2002 0.724041 -1.83084 74 85 105
-11.0743 0.852757 -1.82712 71 86 105
-11.0648 0.887079 -1.82605 77 88 108
-10.6926 1.39527 -1.82424 127 123 137
-10.6831 1.43883 -1.82383 121 120 132
-10.1826 2.30458 -1.83889 128 119 115
-10.1707 2.33128 -1.83803 85 87 99
-10.1776 2.36304 -1.84142 88 94 115
-9.54459 3.27134 -1.84169 72 79 97
-9.54069 3.29993 -1.84344 74 81 99
-9.53851 3.32926 -1.84562 74 81 100
-9.52011 3.36702 -1.84516 72 79 97
-9.49428 3.38668 -1.84161 76 81 101
-9.49358 3.41672 -1.84424 78 81 100
-9.47658 3.45502 -1.84422 75 77 100
-7.9189 5.94449 -1.8607 87 94 110
-7.90228 5.9679 -1.86155 83 91 106
-7.87036 5.99639 -1.86062 85 90 108
-7.85642 6.02229 -1.86234 88 88 109
-7.8424 6.04817 -1.86406 89 89 107
-7.82683 6.07271 -1.86534 87 89 109
-7.79018 6.09683 -1.86309 86 91 110
-7.2439 7.13097 -1.88023 87 88 108
-7.23066 7.16184 -1.88358 86 88 104
-7.20858 7.18216 -1.88396 87 90 106
-7.16767 7.20272 -1.88177 85 86 106
-6.65636 8.07514 -1.88766 88 89 107
-6.63231 8.09548 -1.88843 88 90 107
-6.59323 8.12098 -1.88836 85 87 105
-6.14919 8.92764 -1.90008 86 89 102
-6.10987 8.92435 -1.8957 89 91 105
-5.75335 9.90155 -1.93632 77 82 96
-5.71798 9.90884 -1.93477 76 77 94
-4.48147 10.1059 -1.76002 98 104 120
-4.01702 10.773 -1.75687 110 113 128
-11.2081 0.615944 -1.83043 76 84 105
-11.2062 0.662354 -1.83084 73 83 101
-11.0797 0.818093 -1.82749 78 90 110
-10.6951 1.33566 -1.82261 123 119 138
-10.6997 1.3663 -1.82465 127 123 140
-10.2156 2.17913 -1.83851 133 112 100
-10.2041 2.20598 -1.83764 140 119 96
-10.1888 2.23181 -1.83593 141 119 95
-10.1998 2.26444 -1.84018 135 107 91
-9.6052 3.11516 -1.84091 72 79 98
-9.59873 3.15742 -1.84309 74 81 100
-9.60068 3.18816 -1.84616 72 80 99
-9.56439 3.20416 -1.83997 71 81 100
-9.56436 3.23417 -1.8426 74 82 100
-7.77018 6.11724 -1.86305 88 92 109
-7.76001 6.14696 -1.86609 88 93 109
-7.73155 6.17876 -1.86648 86 91 110
-7.70989 6.19765 -1.866 85 90 110
-7.69797 6.22593 -1.8686 87 89 109
-7.65655 6.24523 -1.86503 85 88 105
-7.14175 7.21832 -1.88088 86 88 109
-7.12316 7.24295 -1.88253 85 90 109
-7.08816 7.27066 -1.88247 85 92 108
-6.56793 8.1395 -1.88872 86 87 107
-6.54042 8.15469 -1.88826 85 86 106
-6.09128 8.95873 -1.89997 88 87 103
-6.05199 8.9552 -1.89559 81 79 95
-5.6629 9.9142 -1.93132 77 77 91
-5.62511 9.91582 -1.92865 63 66 79
-5.58415 9.91013 -1.92448 61 66 78
-4.43541 10.1289 -1.76134 105 111 122
-4.39919 10.1279 -1.75916 105 107 122
-3.96735 10.7941 -1.75812 102 106 118
-3.93205 10.801 -1.75772 102 107 121
-11.2154 0.55434 -1.83082 75 87 109
-11.2128 0.585208 -1.83082 73 81 102
-11.0845 0.695769 -1.82649 75 86 104
-11.0874 0.731003 -1.82752 76 87 106
-11.0881 0.766123 -1.8282 72 83 105
-10.7097 1.23297 -1.8222 77 84 106
-10.7011 1.26173 -1.82138 80 85 111
-10.7698 1.30101 -1.83695 81 89 111
-10.2395 2.08119 -1.83811 85 93 106
-10.2303 2.10861 -1.83767 87 93 110
-10.2437 2.14156 -1.84235 80 78 100
-9.65267 2.96907 -1.83879 76 84 105
-9.66998 3.00495 -1.84539 77 85 104
-9.65054 3.02769 -1.84317 74 83 100
-9.62807 3.064 -1.84139 77 84 102
-9.62124 3.09129 -1.84225 76 83 102
-7.64861 6.27751 -1.86895 84 87 105
-7.62802 6.2975 -1.86891 85 87 107
-7.60739 6.31742 -1.86887 88 89 107
-7.57948 6.34994 -1.8697 88 91 109
-7.56278 6.37387 -1.87098 83 88 108
-7.06204 7.286 -1.88158 85 91 108
-7.03954 7.30584 -1.88195 86 90 108
-7.01629 7.34854 -1.88614 87 90 108
-6.97675 7.34668 -1.88057 87 90 107
-6.50535 8.18632 -1.88982 83 86 103
-6.47875 8.20295 -1.88977 84 86 104
-6.45318 8.22114 -1.89013 85 83 103
-6.01348 8.98674 -1.89748 78 77 94
-5.98252 8.99846 -1.89664 75 74 92
-5.95064 9.00834 -1.89541 71 72 90
-5.53005 9.91659 -1.9214 59 59 73
-5.49318 9.91954 -1.9191 56 58 71
-4.36891 10.1455 -1.76051 98 101 116
-3.89527 10.8021 -1.75631 102 106 118
-11.2211 0.477142 -1.83081 75 87 111
-11.2159 0.523352 -1.83043 78 90 114
-11.0885 0.643507 -1.8265 74 85 103
-10.7057 1.12809 -1.81811 77 88 109
-10.713 1.15877 -1.82056 74 85 105
-10.7104 1.1883 -1.82097 76 87 107
-10.2491 1.98002 -1.83473 85 93 114
-10.2725 2.01491 -1.84153 80 89 110
-10.2558 2.04067 -1.83939 82 90 111
-9.71343 2.78375 -1.83713 77 83 105
-9.69829 2.80809 -1.83579 80 86 108
-9.68968 2.84916 -1.8371 81 89 108
-9.68173 2.87591 -1.83752 85 93 112
-9.68471 2.90647 -1.84059 79 87 106
-9.68207 2.93515 -1.84234 74 82 105
-7.54189 6.39359 -1.87094 86 89 108
-7.51495 6.42724 -1.8722 85 88 107
-7.50068 6.45381 -1.87436 84 87 106
-7.47549 6.46913 -1.873 86 89 108
-6.95644 7.36936 -1.8818 88 91 108
-6.94792 7.40747 -1.88727 85 87 105
-6.90741 7.42817 -1.88551 88 89 107
-6.41141 8.24251 -1.88924 87 84 105
-6.38672 8.26216 -1.89001 87 85 104
-6.35575 8.2718 -1.88832 86 85 103
-5.90997 9.03599 -1.89651 75 77 92
-5.87709 9.04389 -1.89488 74 74 92
-5.45555 9.92055 -1.91643 57 59 72
-5.39844 9.91913 -1.91186 48 49 67
-4.3191 10.1568 -1.75972 96 102 116
-4.28234 10.1535 -1.75719 97 105 116
-11.2216 0.415184 -1.83002 78 89 111
-11.2136 0.445782 -1.82884 76 88 110
-11.1018 0.574229 -1.82794 73 84 105
-11.0971 0.608999 -1.82757 76 84 105
-10.7373 1.05726 -1.82262 79 87 108
-10.7489 1.1033 -1.82631 77 88 110
-10.289 1.85627 -1.83689 92 100 119
-10.2842 1.88469 -1.83731 89 96 115
-10.2851 1.91435 -1.839 77 84 103
-10.2744 1.94152 -1.83814 77 83 107
-9.76434 2.63925 -1.8372 78 86 107
-9.73847 2.66031 -1.83322 78 86 105
-9.75525 2.69485 -1.83938 80 89 106
-9.70886 2.70921 -1.83055 82 91 109
-9.71924 2.75633 -1.83626 75 82 102
-7.45622 6.51098 -1.8769 87 90 109
-7.42685 6.5219 -1.87422 88 91 108
-7.40549 6.54121 -1.87418 82 88 104
-7.39209 6.56899 -1.87678 87 90 109
-7.36685 6.60491 -1.87892 84 87 106
-6.8915 7.45691 -1.88843 87 90 107
-6.85667 7.46065 -1.88457 85 88 105
-6.81947 7.48558 -1.88408 84 91 107
-6.33302 8.29461 -1.8899 83 86 105
-6.29814 8.32706 -1.89187 85 88 103
-5.84514 9.05342 -1.89365 77 76 93
-5.36168 9.92162 -1.90956 50 48 64
-5.32418 9.92217 -1.90688 50 52 67
-4.2502 10.1651 -1.75748 103 108 120
-11.234 0.338253 -1.83158 80 92 114
-11.2243 0.368856 -1.83 85 96 118
-11.1056 0.486918 -1.82762 75 87 111
-11.1063 0.539446 -1.82831 79 91 113
-10.7357 0.997502 -1.82057 77 85 105
-10.7414 1.02789 -1.82262 81 89 108
-10.3075 1.75731 -1.83606 72 80 91
-10.282 1.78148 -1.8318 84 92 111
-10.2889 1.81224 -1.83477 73 81 103
-9.79679 2.50388 -1.83461 125 123 137
-9.78408 2.54351 -1.8346 116 122 138
-9.76593 2.56708 -1.83238 67 75 92
-9.78122 2.60084 -1.8381 79 87 108
-8.76305 4.24362 -1.85632 89 92 111
-8.75731 4.27185 -1.85857 88 94 110
-8.73464 4.30586 -1.85808 88 91 110
-8.7186 4.32815 -1.8576 87 90 109
-8.71086 4.35534 -1.8594 86 91 110
-8.70638 4.38454 -1.8621 84 89 108
-8.67652 4.41427 -1.85979 87 92 112
-8.67179 4.44344 -1.8625 86 91 110
-8.66199 4.46957 -1.86384 86 93 109
-8.63344 4.50004 -1.86198 84 91 107
-8.61516 4.52095 -1.86104 83 90 108
-8.61003 4.55007 -1.86375 88 94 110
-8.5795 4.57919 -1.86143 86 93 109
-8.57578 4.60933 -1.86459 85 92 108
-8.57193 4.6395 -1.86775 85 90 109
-8.54999 4.65805 -1.8659 86 90 110
-8.53369 4.69638 -1.86769 86 91 110
-8.53112 4.72762 -1.8713 85 90 110
-8.49056 4.78311 -1.87078 85 90 109
-7.34392 6.62261 -1.87844 85 86 106
-7.32489 6.64454 -1.87928 87 88 108
-7.27171 6.64994 -1.87218 87 90 109
-7.26824 6.68903 -1.8783 85 88 105
-6.80442 7.51571 -1.88743 84 92 105
-6.77766 7.53008 -1.88653 84 90 104
-6.73902 7.55306 -1.88562 85 88 105
-6.26907 8.33972 -1.891 80 86 102
-6.23589 8.3456 -1.8885 81 87 103
-5.80774 9.08761 -1.89632 77 77 93
-5.76861 9.0829 -1.89195 80 80 96
-5.74358 9.10609 -1.89385 81 79 97
-5.26502 9.9146 -1.90119 50 55 67
-5.2284 9.91663 -1.89889 60 66 78
-4.21856 10.1786 -1.75812 105 108 123
-4.1692 10.191 -1.75767 98 104 117
-11.2106 0.26015 -1.82604 76 89 109
-11.23 0.307136 -1.83039 75 87 111
-11.0943 0.4165 -1.82485 79 91 113
-11.1138 0.452279 -1.82869 79 91 113
-10.77 0.896708 -1.82508 73 84 106
-10.7624 0.925779 -1.82425 72 84 104
-10.7508 0.954433 -1.82261 72 83 103
-10.3095 1.65532 -1.83182 128 109 93
-10.3015 1.68302 -1.83139 129 113 94
-10.2896 1.70994 -1.8301 132 116 104
-9.82333 2.38151 -1.83202 87 93 112
-9.81126 2.40695 -1.83113 136 136 153
-9.79901 2.44664 -1.83111 125 122 137
-9.79233 2.47361 -1.83154 123 122 136
-8.97528 3.75674 -1.84446 93 96 113
-8.96558 3.81255 -1.84851 89 95 111
-8.96929 3.85996 -1.85441 85 90 109
-8.9546 3.88305 -1.85393 86 91 110
-8.93119 3.90161 -1.85117 88 94 110
-8.90675 3.93467 -1.84978 88 94 110
-8.89873 3.96118 -1.85112 88 91 108
-8.88373 3.98403 -1.85064 90 93 110
-8.87094 4.02327 -1.85243 88 91 110
-8.86261 4.04972 -1.85378 89 92 110
-8.83709 4.06685 -1.85056 88 91 108
-8.83371 4.09605 -1.85327 88 94 110
-8.81185 4.13044 -1.85278 87 94 110
-8.80313 4.1568 -1.85412 86 91 108
-8.78925 4.18027 -1.8541 86 89 106
-8.78391 4.22408 -1.85817 89 91 112
-8.51867 4.75243 -1.87219 86 91 110
-8.48278 4.81109 -1.87303 85 90 109
-8.46844 4.83471 -1.87345 86 91 110
-8.45924 4.87832 -1.87752 86 88 109
-8.45591 4.90962 -1.88113 84 89 108
-8.45244 4.94095 -1.88475 85 88 107
-8.43449 4.96227 -1.88426 86 89 108
-8.42932 5.00931 -1.88969 86 91 110
-8.39531 5.01925 -1.88464 86 91 110
-8.38821 5.04832 -1.88734 85 90 109
-8.3683 5.08508 -1.88867 86 91 110
-8.36408 5.11644 -1.89228 84 89 108
-8.33305 5.12824 -1.88815 84 89 108
-8.30803 5.16133 -1.88811 85 90 109
-8.28787 5.181 -1.88716 84 89 108
-8.26609 5.19943 -1.88576 85 90 109
-8.25981 5.22951 -1.88892 85 90 109
-8.19996 5.271 -1.88383 85 91 107
-7.24768 6.70931 -1.8787 86 87 105
-7.19832 6.7185 -1.87292 86 87 106
-7.19054 6.75318 -1.87771 86 89 106
-7.17746 6.78203 -1.88075 85 88 105
-7.1412 6.78443 -1.87587 86 88 106
-6.72362 7.58305 -1.88896 87 88 106
-6.69895 7.60032 -1.88892 88 89 107
-6.67423 7.61752 -1.88887 86 88 105
-6.2027 8.38101 -1.89129 82 88 104
-6.1755 8.39672 -1.89124 83 89 105
-6.14625 8.40897 -1.89037 82 88 104
-5.72105 9.13449 -1.89694 81 78 99
-5.18807 9.90944 -1.89472 53 59 72
-5.1508 9.90938 -1.89205 74 78 92
-4.13636 10.2004 -1.75761 105 108 123
-11.2411 0.199096 -1.83155 80 91 113
-11.224 0.229616 -1.8284 75 87 109
-11.1108 0.364709 -1.82732 77 88 110
-10.7764 0.822887 -1.82466 78 86 107
-10.7749 0.852522 -1.82507 76 83 109
-10.3181 1.58405 -1.83055 117 108 110
-10.3199 1.61355 -1.83225 132 107 88
-9.84623 2.25847 -1.82898 134 112 99
-9.83075 2.28302 -1.82721 137 119 115
-9.81534 2.32177 -1.82631 82 89 101
-9.82971 2.35446 -1.83159 82 93 114
-9.11697 3.58405 -1.85602 75 77 98
-9.06608 3.59029 -1.84597 75 76 98
-9.04694 3.61123 -1.84412 80 81 102
-9.0466 3.65591 -1.84865 76 79 99
-9.03954 3.68265 -1.85 74 78 98
-9.03064 3.70853 -1.85089 83 84 104
-9.00879 3.74302 -1.84995 73 74 94
-8.99574 3.79725 -1.8531 84 91 107
-8.23275 5.26109 -1.88842 86 92 108
-8.18258 5.29267 -1.8838 84 89 106
-8.15217 5.32149 -1.88239 84 88 107
-8.14687 5.35263 -1.886 83 89 107
-8.11244 5.36086 -1.88095 84 90 108
-8.0848 5.39172 -1.88045 84 89 108
-8.05946 5.40695 -1.87814 86 91 110
-8.04922 5.43431 -1.88038 84 89 108
-8.0132 5.44077 -1.87488 84 89 108
-7.9852 5.47117 -1.87438 84 90 108
-7.9597 5.48598 -1.87207 83 89 107
-7.93864 5.50442 -1.87112 83 90 107
-7.91632 5.53947 -1.87244 83 89 107
-7.89067 5.55399 -1.87013 84 91 109
-7.87684 5.5785 -1.87146 83 90 108
-7.12106 6.82681 -1.88021 84 87 106
-7.10764 6.85555 -1.88325 82 87 106
-7.07385 6.86054 -1.87924 84 89 108
-6.63523 7.63999 -1.88795 84 87 106
-6.61039 7.657 -1.88791 86 89 108
-6.59107 7.68194 -1.88998 87 90 108
-6.10668 8.43392 -1.8907 83 88 105
-6.08227 8.4544 -1.89188 85 85 106
-5.68827 9.17874 -1.90196 77 78 95
-5.65514 9.18588 -1.90033 77 80 95
-5.09867 9.91726 -1.88972 79 83 95
-4.10133 10.2021 -1.75614 104 107 123
-11.1046 0.294618 -1.8256 76 88 112
-11.1028 0.32949 -1.82559 77 89 113
-10.7752 0.763323 -1.82302 76 84 103
-10.7739 0.792936 -1.82343 80 88 107
-10.3313 1.45555 -1.82802 118 120 132
-10.3198 1.52615 -1.82844 82 93 113
-10.3757 1.56514 -1.84205 79 82 99
-9.87868 2.13818 -1.82858 90 83 93
-9.86921 2.16436 -1.82813 135 117 107
-9.86721 2.19244 -1.82944 135 111 86
-9.85975 2.23336 -1.83032 135 110 92
-9.21373 3.38903 -1.85708 73 81 98
-9.20402 3.41451 -1.85752 75 82 100
-9.17999 3.43368 -1.85431 72 79 97
-9.17538 3.47614 -1.85748 73 80 98
-9.12635 3.48391 -1.84788 74 82 101
-9.14469 3.52205 -1.85561 67 78 96
-9.12572 3.5433 -1.85376 71 79 98
-7.84231 5.60316 -1.86914 85 91 109
-7.83273 5.63138 -1.87183 86 92 108
-7.79806 5.63788 -1.86679 88 91 110
-7.78391 5.66217 -1.86812 85 88 107
-7.75201 5.68888 -1.8667 88 89 109
-7.73186 5.70789 -1.86621 89 90 110
-7.71456 5.72944 -1.86663 88 91 110
-7.68817 5.76101 -1.86704 87 92 111
-7.66924 5.78112 -1.867 85 90 109
-7.04438 6.89234 -1.8805 87 93 109
-7.03064 6.92094 -1.88354 84 89 108
-6.9993 6.92857 -1.88041 83 88 107
-6.95456 6.94204 -1.8764 86 91 110
-6.5518 7.70401 -1.88906 84 88 107
-6.51572 7.70464 -1.88477 86 89 108
-6.49836 7.73259 -1.88769 86 89 106
-6.05191 8.46466 -1.8906 85 88 105
-6.02541 8.4816 -1.89095 84 87 104
-5.6305 9.21054 -1.90263 73 73 87
-5.587 9.23328 -1.90295 75 73 86
-5.06292 9.92055 -1.8878 75 82 95
-5.02792 9.92553 -1.88624 82 85 100
-4.05188 10.214 -1.7557 99 107 120
-4.02055 10.2288 -1.75669 99 105 117
-11.1141 0.207544 -1.82669 79 92 111
-11.1067 0.242301 -1.82562 76 89 108
-10.7806 0.689515 -1.8226 74 84 102
-10.8127 0.721581 -1.82998 76 85 102
-10.3363 1.38397 -1.82632 124 122 135
-10.3327 1.42679 -1.82717 124 122 134
-9.89652 2.04291 -1.82685 76 87 106
-9.89871 2.07189 -1.82904 81 89 108
-9.88757 2.09769 -1.82815 82 89 111
-9.29475 3.18729 -1.8554 77 84 103
-9.28571 3.21297 -1.85584 72 79 98
-9.27837 3.23937 -1.85673 75 82 101
-9.27814 3.26875 -1.85945 74 81 99
-9.26186 3.30608 -1.85943 74 81 97
-9.24168 3.32712 -1.85713 72 81 97
-9.22861 3.35114 -1.85665 72 80 99
-7.656 5.80643 -1.86879 85 91 107
-7.62779 5.83643 -1.86874 85 93 107
-7.60721 5.85503 -1.86824 84 91 107
-7.58799 5.8749 -1.86821 85 92 110
-7.58147 5.90672 -1.87227 84 91 109
-7.54432 5.92833 -1.86948 86 91 110
-6.93684 6.96594 -1.87811 84 91 109
-6.91163 6.98074 -1.87719 85 90 109
-6.88762 6.99697 -1.8767 89 95 111
-6.85374 7.02345 -1.87664 85 91 109
-6.45998 7.75582 -1.8872 86 89 107
-6.43803 7.77716 -1.88843 85 88 107
-6.41168 7.79193 -1.88795 86 89 108
-5.98066 8.49751 -1.88925 83 88 105
-5.96269 8.52957 -1.89328 80 85 103
-5.92832 8.53259 -1.89037 81 87 103
-5.55712 9.24715 -1.90289 75 77 90
-5.52301 9.25206 -1.90087 65 67 82
-4.9744 9.92914 -1.88317 81 88 98
-4.9366 9.9265 -1.88012 80 89 98
-3.98656 10.2339 -1.75592 99 105 117
-11.0958 0.172292 -1.8232 72 83 103
-10.803 0.6168 -1.82587 77 88 108
-10.8206 0.662552 -1.83039 74 85 105
-10.4025 1.33613 -1.83867 82 80 100
-10.353 1.35761 -1.82888 133 129 143
-9.9221 1.9212 -1.82556 79 90 110
-9.9323 1.95184 -1.82952 81 92 110
-9.91203 1.97561 -1.82642 79 91 109
-9.91318 2.01839 -1.82906 76 87 108
-9.36043 3.00906 -1.85369 74 85 107
-9.34651 3.0328 -1.85276 75 83 104
-9.34885 3.06281 -1.85593 71 79 98
-9.33353 3.10046 -1.85591 77 85 104
-9.31572 3.12265 -1.85407 75 82 101
-9.31952 3.15343 -1.8577 76 83 102
-7.52628 5.94935 -1.8699 86 89 108
-7.51799 5.97977 -1.87351 86 91 110
-7.475 5.99558 -1.8689 86 92 108
-7.45673 6.0164 -1.86932 85 91 106
-7.44535 6.044 -1.87201 89 95 111
-6.83324 7.04406 -1.87748 83 90 108
-6.80902 7.06004 -1.87699 86 91 110
-6.77606 7.08769 -1.87737 87 92 111
-6.38745 7.80989 -1.88833 84 87 106
-6.35619 7.84404 -1.89081 80 83 102
-6.32859 7.85692 -1.88991 84 90 108
-5.88436 8.54972 -1.88907 83 89 103
-5.86321 8.57646 -1.89187 81 87 101
-5.47765 9.27076 -1.9004 63 62 80
-5.45501 9.30032 -1.90387 51 58 73
-4.90167 9.93107 -1.87857 81 91 103
-4.84689 9.93035 -1.87475 80 89 100
-3.93647 10.2434 -1.75513 102 108 120
-3.90196 10.2464 -1.75401 99 105 117
-10.8064 0.557605 -1.82546 79 90 113
-10.8076 0.587379 -1.82628 80 91 111
-10.3959 1.2336 -1.83357 78 86 105
-10.4105 1.26468 -1.83783 81 89 109
-10.4191 1.29502 -1.8408 83 90 109
-9.93943 1.82611 -1.82426 91 97 116
-9.94427 1.85539 -1.8269 91 99 119
-9.92236 1.87892 -1.82336 81 90 112
-9.40689 2.85304 -1.85058 79 87 106
-9.39072 2.89027 -1.85011 76 83 105
-9.38812 2.91817 -1.85192 76 85 105
-9.3836 2.94542 -1.85327 74 84 102
-9.3579 2.9791 -1.85051 74 85 103
-7.4243 6.08127 -1.87469 85 90 109
-7.40714 6.10334 -1.87556 86 90 109
-7.38303 6.11846 -1.87416 86 92 108
-7.35881 6.15276 -1.87593 86 91 110
-7.33321 6.16631 -1.87407 87 92 111
-6.75651 7.10963 -1.87864 84 90 106
-6.73331 7.12691 -1.8786 84 90 106
-6.69407 7.14649 -1.87678 84 89 108
-6.30414 7.87463 -1.89028 82 89 105
-6.26196 7.89201 -1.88852 83 89 105
-5.83725 8.59456 -1.89264 84 87 104
-5.79491 8.61468 -1.89215 82 88 104
-5.42571 9.31557 -1.90421 55 58 75
-5.38087 9.3356 -1.90413 90 92 104
-4.80924 9.92725 -1.8717 80 86 99
-4.77302 9.92771 -1.8694 80 83 99
-3.86544 10.2417 -1.75148 98 104 120
-10.8101 0.483638 -1.82504 76 88 110
-10.8097 0.513287 -1.82545 75 87 109
-10.4127 1.16355 -1.83485 79 87 106
-10.4237 1.20846 -1.83869 77 85 104
-9.96525 1.73283 -1.82517 96 92 94
-9.95515 1.75896 -1.82428 83 90 105
-9.9621 1.78859 -1.82735 78 86 105
-9.44055 2.7073 -1.8461 75 86 103
-9.43303 2.7333 -1.84654 74 86 106
-9.4181 2.75673 -1.84516 78 91 108
-9.4134 2.7979 -1.84742 72 85 104
-9.42394 2.83034 -1.85242 75 86 106
-7.32932 6.20209 -1.87949 86 87 107
-7.29683 6.20851 -1.87535 86 87 107
-7.27346 6.24391 -1.87758 87 90 109
-7.26376 6.27404 -1.88118 87 90 109
-7.23387 6.28297 -1.87795 88 91 108
-6.67548 7.16977 -1.87849 84 89 108
-6.64973 7.18369 -1.87757 83 88 107
-6.62747 7.2022 -1.87796 82 89 107
-6.58563 7.21811 -1.87526 85 91 107
-6.2426 7.91777 -1.89101 83 89 105
-6.2117 7.92531 -1.88884 85 89 106
-6.17452 7.95051 -1.8892 85 88 103
-5.76696 8.62914 -1.8921 81 89 102
-5.74172 8.64869 -1.89327 82 88 102
-5.34988 9.34705 -1.90368 85 89 102
-5.32042 9.36199 -1.90402 124 133 138
-4.73614 9.92621 -1.86673 74 80 96
-3.83639 10.2654 -1.75423 99 106 122
-10.8088 0.42428 -1.8238 76 88 112
-10.8085 0.453907 -1.82422 77 89 113
-10.4293 1.06444 -1.83528 75 83 104
-10.4331 1.10826 -1.83741 77 88 108
-10.4171 1.13518 -1.83485 77 88 108
-9.97666 1.63673 -1.82298 133 112 93
-9.9898 1.66733 -1.82738 132 113 94
-9.97338 1.70629 -1.82561 132 111 97
-9.4793 2.54984 -1.84253 125 128 144
-9.48678 2.59462 -1.84753 65 77 94
-9.47223 2.61831 -1.84615 75 87 103
-9.4687 2.6456 -1.8475 79 87 109
-9.47012 2.68872 -1.85113 79 87 107
-7.20741 6.31531 -1.87926 87 88 106
-7.18278 6.32968 -1.87786 87 88 106
-7.16075 6.34683 -1.87736 86 89 106
-7.14445 6.39037 -1.88231 84 89 108
-7.10915 6.39299 -1.87726 83 88 107
-6.56788 7.24269 -1.87741 82 88 104
-6.54542 7.26096 -1.8778 84 89 108
-6.51028 7.28587 -1.87774 79 89 106
-6.14767 7.96444 -1.88872 85 88 105
-6.12591 7.98662 -1.89037 86 89 106
-5.70096 8.67184 -1.89361 83 86 103
-5.67012 8.6808 -1.89233 84 88 105
-5.29247 9.38043 -1.90514 126 131 137
-4.68231 9.92648 -1.86328 75 83 94
-4.64688 9.92835 -1.86136 79 88 98
-3.78573 10.2722 -1.75309 101 105 122
-3.75311 10.2823 -1.75337 103 105 120
-10.8135 0.350417 -1.82379 77 90 109
-10.8193 0.380263 -1.82543 73 86 105
-10.4433 1.00828 -1.83656 75 86 106
-10.449 1.03786 -1.83869 72 83 103
-9.99849 1.54268 -1.82344 82 86 105
-10.0005 1.57106 -1.82519 94 89 97
-9.9864 1.61049 -1.82387 132 110 96
-9.51401 2.43376 -1.84167 127 126 140
-9.52973 2.46673 -1.84759 125 123 137
-9.49678 2.49881 -1.84256 126 124 139
-9.49922 2.52784 -1.84528 129 127 137
-7.09086 6.41423 -1.87813 87 90 109
-7.0673 6.42963 -1.87718 89 88 109
-7.0517 6.4744 -1.88259 87 91 108
-7.0099 6.46925 -1.87526 85 89 105
-6.48882 7.30555 -1.87857 82 89 107
-6.46614 7.32359 -1.87897 81 88 106
-6.42507 7.3402 -1.8767 85 91 107
-6.0945 8.02145 -1.89327 82 89 105
-6.05737 8.0184 -1.88856 84 90 103
-5.64556 8.70183 -1.89391 83 88 104
-5.62182 8.72453 -1.89589 85 88 103
-5.24967 9.40524 -1.90623 124 130 139
-5.22078 9.42168 -1.90696 139 139 141
-4.60883 9.9227 -1.85794 76 84 97
-3.71761 10.2809 -1.75155 104 107 120
-10.8195 0.276586 -1.82418 77 89 111
-10.8271 0.321236 -1.82624 73 87 105
-10.4584 0.937748 -1.83783 75 83 102
-10.4546 0.966233 -1.83783 73 81 102
-10.0197 1.47642 -1.82521 123 127 141
-10.0137 1.51734 -1.82565 79 87 107
-9.55082 2.31837 -1.84172 100 94 99
-9.54456 2.3446 -1.84216 83 92 110
-9.55128 2.3886 -1.84671 81 86 105
-9.54294 2.41429 -1.8467 105 109 125
-6.99903 6.499 -1.87886 88 88 106
-6.97141 6.5304 -1.88017 87 88 106
-6.9539 6.55275 -1.88149 82 87 104
-6.92614 6.56326 -1.87918 82 89 105
-6.409 7.36761 -1.87973 83 86 105
-6.38499 7.38382 -1.87969 87 90 107
-6.03738 8.0437 -1.89105 84 90 106
-6.01027 8.0572 -1.89058 82 88 104
-5.97242 8.0815 -1.89093 81 87 105
-5.58155 8.74888 -1.89663 84 87 104
-5.54615 8.7487 -1.89331 85 88 105
-5.18876 9.43082 -1.90612 141 141 149
-5.12593 9.40821 -1.89702 150 143 148
-4.55972 9.93531 -1.85711 78 84 96
-4.52436 9.93678 -1.85518 78 84 98
-10.8247 0.21749 -1.82458 72 83 105
-10.8309 0.247248 -1.82623 80 91 113
-10.4735 0.881528 -1.83954 74 87 106
-10.466 0.909655 -1.83869 73 85 103
-10.0433 1.39639 -1.82699 121 123 137
-10.04 1.42382 -1.82742 123 122 136
-10.0289 1.44999 -1.8261 123 123 135
-9.5672 2.19741 -1.8372 132 112 89
-9.57823 2.22829 -1.84175 140 114 91
-9.57788 2.25615 -1.84357 130 102 87
-9.56448 2.29425 -1.8431 137 119 103
-6.89943 6.59585 -1.88094 85 91 107
-6.8716 6.60614 -1.87862 84 89 106
-6.86005 6.63569 -1.88222 83 88 107
-6.83714 6.65179 -1.88172 85 88 105
-6.35039 7.4096 -1.88006 89 92 111
-6.32513 7.42403 -1.87958 85 86 104
-6.30205 7.44159 -1.87997 90 93 108
-5.94719 8.09816 -1.8913 83 89 105
-5.91993 8.11137 -1.89083 83 89 105
-5.52216 8.77115 -1.8953 89 92 108
-5.4799 8.79155 -1.89523 91 93 106
-5.10602 9.44599 -1.90245 145 143 145
-5.07396 9.45477 -1.90161 133 128 130
-4.48456 9.9251 -1.85064 73 83 95
-10.8167 0.172969 -1.82252 84 95 117
-10.4929 0.782307 -1.84124 74 85 105
-10.4935 0.811246 -1.84209 74 87 106
-10.4959 0.840391 -1.84336 72 85 104
-10.0529 1.30021 -1.82523 81 86 110
-10.0441 1.32677 -1.82435 81 76 99
-10.0391 1.3539 -1.82434 135 130 145
-9.61576 2.08524 -1.8409 82 91 108
-9.6027 2.10964 -1.83952 82 90 109
-9.60465 2.13795 -1.84179 82 87 105
-9.58391 2.16028 -1.83858 113 101 103
-6.79254 6.66306 -1.87711 86 89 106
-6.78315 6.69548 -1.88162 83 86 105
-6.7687 6.72189 -1.88431 83 86 103
-6.28657 7.47037 -1.88344 87 93 107
-6.23955 7.47794 -1.87898 85 90 107
-6.21953 7.50011 -1.88069 85 88 107
-5.88279 8.13696 -1.89161 81 88 104
-5.85448 8.14827 -1.89071 82 88 104
-5.45311 8.80856 -1.89599 92 95 110
-5.41944 8.81141 -1.89348 92 97 113
-5.02699 9.46955 -1.90074 107 105 113
-4.43611 9.93899 -1.85018 77 85 96
-4.40145 9.94191 -1.84863 78 86 97
-10.4907 0.710027 -1.8391 74 85 104
-10.4856 0.738436 -1.83868 74 86 102
-10.0703 1.23308 -1.82656 78 89 107
-10.0597 1.25946 -1.82523 75 86 106
-9.63681 1.99361 -1.84001 84 92 115
-9.62215 2.01767 -1.83818 79 90 108
-9.63196 2.04782 -1.84227 81 93 107
-8.48962 3.79727 -1.85089 93 96 115
-8.48875 3.82616 -1.8542 91 97 114
-8.48264 3.85233 -1.85608 89 91 110
-8.47474 3.87759 -1.85748 89 90 110
-8.4384 3.90198 -1.85269 87 92 110
-8.4388 3.93183 -1.85648 84 89 108
-8.42892 3.95607 -1.8574 87 92 111
-8.41433 3.9924 -1.8588 86 91 110
-8.39239 4.00993 -1.8564 87 92 111
-8.38224 4.03407 -1.85732 85 91 107
-8.36388 4.06832 -1.85777 87 90 109
-8.35352 4.09241 -1.8587 87 92 111
-8.33638 4.11257 -1.85772 85 90 109
-8.3309 4.13955 -1.86007 86 91 110
-8.31036 4.1726 -1.86004 86 93 111
-8.29798 4.19559 -1.86049 87 93 111
-8.2772 4.21353 -1.85856 87 92 111
-8.26295 4.25039 -1.86043 88 93 112
-8.24204 4.26817 -1.8585 86 91 110
-8.2376 4.29608 -1.86133 88 90 111
-8.21796 4.32975 -1.86177 86 93 111
-8.20343 4.35146 -1.86175 85 92 110
-8.18881 4.37314 -1.86172 84 91 109
-8.18394 4.40102 -1.86455 85 92 110
-8.15891 4.43133 -1.86356 87 94 110
-8.15871 4.46237 -1.86782 86 93 109
-8.14049 4.48179 -1.86684 84 91 107
-8.11672 4.51294 -1.86633 87 91 110
-8.10484 4.53651 -1.86725 87 92 111
-8.08318 4.55357 -1.86532 83 90 108
-8.07035 4.59205 -1.86814 85 92 110
-8.05658 4.61443 -1.86858 85 94 111
-8.05074 4.64225 -1.87141 84 90 106
-8.04481 4.67008 -1.87424 89 92 109
-8.02495 4.7041 -1.87515 85 90 109
-8.01558 4.72971 -1.87702 85 92 110
-8.00137 4.75195 -1.87747 86 93 111
-6.73496 6.74633 -1.8838 85 91 109
-6.71296 6.76354 -1.88375 83 90 108
-6.70184 6.79438 -1.8878 82 87 106
-6.19078 7.50925 -1.87888 84 90 106
-6.15447 7.53255 -1.87881 85 87 107
-5.82708 8.16119 -1.89023 82 88 104
-5.79728 8.20001 -1.8944 82 88 104
-5.37614 8.82958 -1.893 89 95 111
-4.99415 9.47626 -1.89951 125 118 124
-4.96057 9.48103 -1.89788 96 89 95
-4.36434 9.93724 -1.84558 76 83 97
-10.5053 0.682361 -1.84166 72 82 104
-10.0659 1.163 -1.82303 79 88 110
-10.0672 1.20482 -1.8248 78 89 107
-9.66634 1.90403 -1.84141 83 91 112
-9.64435 1.92646 -1.83775 85 93 112
-9.64881 1.95513 -1.84048 91 98 116
-8.65353 3.47503 -1.84927 72 77 96
-8.64518 3.49968 -1.8502 74 77 96
-8.635 3.52349 -1.85065 69 76 95
-8.62089 3.55957 -1.85158 68 76 94
-8.64189 3.59869 -1.8606 74 81 99
-8.6018 3.6079 -1.85296 74 81 98
-8.57164 3.63608 -1.8496 74 78 97
-8.56621 3.66232 -1.85149 75 80 100
-8.5555 3.68593 -1.85194 78 85 104
-8.54575 3.72441 -1.85429 74 78 97
-8.51589 3.73816 -1.84951 74 81 99
-8.51009 3.76434 -1.85139 71 74 93
-7.989 4.79144 -1.88076 84 91 106
-7.98561 4.82154 -1.88454 84 90 108
-7.96638 4.84031 -1.88356 85 88 108
-7.95664 4.88206 -1.8878 84 90 110
-7.93721 4.90071 -1.88682 84 89 109
-7.91463 4.91699 -1.88488 83 88 107
-7.90915 4.94593 -1.88818 85 90 109
-7.88634 4.9783 -1.88862 84 90 109
-7.86511 4.99553 -1.88716 86 92 111
-7.84846 5.01621 -1.88713 85 92 110
-7.82223 5.04595 -1.88661 86 91 110
-7.80543 5.06651 -1.88658 84 91 109
-6.66777 6.8185 -1.88729 87 90 109
-6.63109 6.81715 -1.88179 84 89 108
-6.61366 6.84018 -1.88356 85 90 109
-6.58896 6.85395 -1.88261 84 89 108
-6.1374 7.5594 -1.88184 85 88 107
-6.10747 7.56661 -1.8796 83 89 106
-6.0709 7.58953 -1.87953 84 90 106
-5.76785 8.20933 -1.89308 81 88 102
-5.73745 8.21684 -1.89133 82 89 105
-5.71642 8.24139 -1.89382 81 86 103
-5.3534 8.85512 -1.8958 83 89 104
-5.3197 8.85761 -1.8933 84 87 104
-5.29513 8.87948 -1.89528 78 80 97
-4.93135 9.49663 -1.89861 97 89 95
-4.31405 9.94496 -1.84401 80 87 99
-4.27766 9.94186 -1.84133 85 89 101
-10.5206 0.582548 -1.84292 70 81 105
-10.5081 0.610523 -1.84079 76 87 109
-10.5132 0.63971 -1.8425 71 82 105
-10.0982 1.08375 -1.82745 73 84 102
-10.0939 1.11103 -1.82745 76 87 105
-10.0896 1.13829 -1.82745 78 87 104
-9.67779 1.8103 -1.83869 74 85 104
-9.65985 1.83378 -1.83595 76 84 105
-9.68552 1.86714 -1.84369 86 92 113
-8.77258 3.33054 -1.85987 73 82 97
-8.76474 3.35548 -1.8608 77 84 103
-8.74438 3.38885 -1.85983 72 79 97
-8.73811 3.41454 -1.86124 75 80 99
-8.71764 3.43371 -1.85883 76 81 100
-8.68639 3.46188 -1.855 76 84 100
-7.79009 5.0882 -1.88703 83 89 105
-7.76659 5.12007 -1.88746 85 90 109
-7.74346 5.13563 -1.88553 82 87 107
-7.72789 5.15716 -1.88597 87 92 112
-7.71072 5.17743 -1.88594 84 89 108
-7.68378 5.20652 -1.88542 81 86 105
-7.66345 5.2242 -1.88444 83 90 108
-7.64757 5.24551 -1.88488 84 89 108
-7.62181 5.27553 -1.88484 83 86 105
-7.59981 5.29175 -1.88338 83 86 105
-7.57329 5.30415 -1.88049 84 87 106
-7.54726 5.33384 -1.88045 83 89 105
-7.51327 5.33971 -1.87518 87 90 107
-6.5499 6.87136 -1.88027 84 89 108
-6.52514 6.88492 -1.87932 83 87 106
-6.50504 6.90459 -1.88018 84 89 105
-6.04515 7.60306 -1.87904 87 90 109
-6.0256 7.6264 -1.88119 89 92 111
-5.99973 7.63979 -1.8807 85 88 107
-5.67673 8.26265 -1.89375 81 84 103
-5.64347 8.26468 -1.89073 82 87 106
-5.25153 8.89706 -1.8948 78 80 95
-4.88636 9.51621 -1.89892 75 71 78
-4.85345 9.52245 -1.89769 65 61 70
-4.24308 9.94425 -1.83978 82 87 100
-4.20676 9.94091 -1.83711 83 88 101
-10.5193 0.55364 -1.84207 76 88 112
-10.1158 1.0164 -1.82922 75 87 103
-10.0905 1.04123 -1.82436 77 87 105
-9.70724 1.7206 -1.84054 130 111 99
-9.68384 1.74308 -1.83643 99 94 93
-9.67474 1.78216 -1.83642 80 89 107
-8.84763 3.16548 -1.85952 73 79 101
-8.83528 3.20233 -1.86045 78 85 104
-8.82964 3.22815 -1.86186 73 82 99
-8.81502 3.25012 -1.86089 74 83 101
-8.80566 3.27437 -1.86134 74 83 100
-8.78389 3.30717 -1.85989 73 82 97
-7.49995 5.36313 -1.87657 82 89 105
-7.47951 5.39756 -1.87843 82 87 106
-7.46745 5.42219 -1.8803 82 87 106
-7.43922 5.43271 -1.87694 84 89 108
-7.41392 5.44569 -1.87453 83 88 107
-7.3901 5.47724 -1.87543 83 90 106
-7.36903 5.4939 -1.87445 85 90 109
-7.34649 5.50919 -1.87299 84 89 108
-6.47284 6.93089 -1.88058 84 89 108
-6.44793 6.94419 -1.87962 85 88 105
-6.42413 6.95896 -1.87913 86 85 106
-5.96178 7.66056 -1.8802 88 91 109
-5.93479 7.67209 -1.87927 83 88 107
-5.61575 8.27693 -1.89026 82 86 105
-5.57953 8.30464 -1.89188 81 87 103
-5.22515 8.91519 -1.89597 77 84 99
-5.19545 8.92612 -1.89551 81 84 101
-4.81775 9.52127 -1.89488 64 62 69
-4.15425 9.94036 -1.83404 79 86 99
-10.5253 0.453219 -1.84163 78 89 109
-10.5308 0.482319 -1.84333 74 87 106
-10.5265 0.510884 -1.84291 76 88 110
-10.1252 0.948034 -1.82921 76 84 107
-10.112 0.988199 -1.82745 76 87 105
-9.70326 1.62408 -1.83463 129 104 82
-9.69348 1.64942 -1.83371 133 109 87
-9.69054 1.68972 -1.83507 134 114 99
-8.92202 2.97235 -1.85727 74 82 101
-8.919 2.99897 -1.85916 78 86 105
-8.90927 3.03677 -1.86056 73 84 103
-8.8916 3.05762 -1.85864 75 82 102
-8.88468 3.08277 -1.85958 74 82 101
-8.86555 3.11678 -1.8586 78 86 105
-8.87096 3.1471 -1.86287 72 83 101
-7.31947 5.53785 -1.87294 86 88 111
-7.30253 5.5582 -1.87338 85 90 110
-7.28126 5.57456 -1.87239 84 89 108
-7.24968 5.59896 -1.87092 85 88 107
-7.23395 5.62044 -1.87184 86 91 110
-7.2111 5.63523 -1.87038 85 90 109
-6.39856 6.99432 -1.88225 86 87 107
-6.37234 7.00579 -1.88084 86 89 108
-6.34495 7.01559 -1.87897 86 90 109
-6.32893 7.0411 -1.88166 82 87 106
-5.91082 7.68852 -1.87966 85 90 109
-5.87671 7.71553 -1.88091 85 86 106
-5.5517 8.31669 -1.8914 80 85 104
-5.52024 8.32171 -1.88923 79 84 103
-5.15325 8.94681 -1.89584 75 74 93
-5.12507 8.96109 -1.89619 71 73 93
-4.74588 9.56272 -1.89749 73 72 87
-4.11861 9.93859 -1.83174 81 87 99
-4.08415 9.94046 -1.83019 79 82 98
-10.5225 0.381197 -1.83991 72 84 106
-10.5301 0.410312 -1.84204 76 88 110
-10.14 0.866296 -1.8301 72 84 103
-10.1287 0.892913 -1.82833 76 87 107
-10.1289 0.920673 -1.82922 76 83 109
-9.74025 1.53579 -1.83875 82 94 110
-9.7212 1.55946 -1.83555 79 85 100
-9.73206 1.60243 -1.84011 132 118 111
-8.97448 2.79913 -1.85309 82 89 108
-8.97486 2.8404 -1.85688 82 89 107
-8.95411 2.86024 -1.85401 80 87 106
-8.9315 2.87931 -1.85066 77 85 104
-8.94956 2.92749 -1.85921 77 85 103
-8.92859 2.94715 -1.85633 76 84 103
-7.19243 5.65394 -1.87034 84 89 108
-7.16752 5.6846 -1.87124 85 91 110
-7.15011 5.70453 -1.87168 83 88 107
-7.12703 5.719 -1.87022 86 89 108
-7.10595 5.75347 -1.87255 86 90 109
-7.08 5.76505 -1.87014 85 89 108
-6.28814 7.05552 -1.87887 83 88 107
-6.27416 7.08408 -1.88246 82 88 104
-6.24548 7.09193 -1.88014 84 90 106
-5.85361 7.73346 -1.88174 85 86 106
-5.82743 7.7463 -1.88125 83 87 106
-5.48818 8.35772 -1.89297 80 85 104
-5.09841 8.97887 -1.89736 79 84 99
-4.73404 9.62545 -1.90841 75 74 90
-4.0318 9.93929 -1.82712 73 80 96
-10.5302 0.324038 -1.84076 71 82 103
-10.5186 0.352298 -1.83863 80 91 111
-10.1463 0.797605 -1.82965 78 86 107
-10.1507 0.825726 -1.83142 74 85 105
-9.73605 1.43984 -1.83329 120 120 132
-9.73028 1.47949 -1.83374 133 139 153
-9.74393 1.5092 -1.8383 71 80 97
-9.02981 2.66834 -1.85412 78 89 107
-9.00035 2.68538 -1.84887 77 89 105
-9.00015 2.7126 -1.85123 78 87 104
-8.99186 2.75055 -1.85264 79 91 107
-8.97683 2.77254 -1.8512 82 91 108
-7.0554 5.7779 -1.8682 87 90 109
-7.03672 5.81487 -1.87148 81 83 104
-7.02297 5.83857 -1.87335 87 90 109
-6.9941 5.84704 -1.86998 87 90 109
-6.98564 5.8762 -1.87375 85 91 109
-6.21569 7.12188 -1.8819 83 89 105
-6.20024 7.14872 -1.88504 84 87 106
-5.78703 7.7629 -1.87987 87 92 110
-5.76473 7.78226 -1.88114 87 89 108
-5.7394 7.7965 -1.88109 83 86 105
-5.46817 8.38515 -1.89631 81 86 105
-5.43924 8.3951 -1.89541 82 88 104
-5.40767 8.39971 -1.89324 81 87 103
-5.05282 8.99194 -1.89606 77 79 92
-5.02214 9.00054 -1.89519 77 79 93
-4.69042 9.64966 -1.90989 78 80 93
-4.65854 9.65895 -1.90944 78 82 94
-3.99574 9.93522 -1.82444 75 83 96
-10.5422 0.281359 -1.84287 82 92 117
-9.76191 1.39 -1.83695 124 126 139
-9.75478 1.41595 -1.83649 120 122 134
-9.05364 2.51372 -1.84658 76 83 103
-9.05002 2.55296 -1.84894 85 92 112
-9.04846 2.57955 -1.85083 80 89 106
-9.03944 2.60368 -1.85082 78 89 107
-9.03902 2.64423 -1.85414 78 89 109
-6.95554 5.90184 -1.87322 85 90 108
-6.94279 5.92678 -1.87556 86 90 109
-6.91647 5.93768 -1.87315 86 90 109
-6.88877 5.96581 -1.87357 86 91 107
-6.17697 7.1643 -1.88499 82 83 103
-6.14129 7.18593 -1.88447 87 90 109
-6.12008 7.20456 -1.88534 85 90 109
-5.71893 7.81911 -1.88323 86 89 106
-5.68018 7.83855 -1.88272 83 89 105
-5.36549 8.41606 -1.89232 82 88 104
-4.99144 9.00903 -1.89431 75 78 92
-4.96607 9.03004 -1.8963 75 77 93
-4.62798 9.67182 -1.90978 76 79 89
-3.96137 9.9367 -1.82289 79 87 98
-3.91081 9.94059 -1.82094 78 83 100
-10.5165 0.251815 -1.83691 78 90 112
-9.77335 1.297 -1.83559 69 76 101
-9.77804 1.32486 -1.83787 70 70 91
-9.75381 1.34803 -1.8333 135 132 150
-9.09192 2.40477 -1.84663 89 94 113
-9.09086 2.43134 -1.84852 92 98 117
-9.07471 2.46653 -1.84756 69 79 98
-9.0753 2.4937 -1.84993 62 69 91
-6.87306 5.9878 -1.87496 83 88 107
-6.85593 6.00833 -1.87588 80 87 104
-6.82523 6.03336 -1.87535 86 92 108
-6.79871 6.04378 -1.87294 85 88 107
-6.09337 7.21505 -1.88393 82 87 106
-6.07529 7.23841 -1.88615 83 88 107
-5.65662 7.85593 -1.88355 84 88 105
-5.62819 7.86475 -1.88219 83 89 105
-5.34596 8.44496 -1.89608 80 84 103
-5.31603 8.45276 -1.89476 82 89 104
-4.92411 9.05149 -1.89704 77 78 98
-4.5834 9.69373 -1.91087 78 82 92
-4.54752 9.69158 -1.90807 78 81 93
-3.87596 9.93989 -1.81902 80 83 100
-9.78106 1.2306 -1.83468 76 88 105
-9.77435 1.27009 -1.83468 78 89 110
-9.11934 2.29263 -1.84431 131 123 117
-9.1131 2.3175 -1.84477 119 120 125
-9.10304 2.35452 -1.84523 81 87 113
-9.09473 2.3788 -1.84522 79 86 111
-6.78269 6.06555 -1.87432 82 87 106
-6.74781 6.08592 -1.87237 85 91 109
-6.73814 6.11477 -1.87614 80 87 103
-6.71666 6.13062 -1.87562 89 93 110
-6.68996 6.1406 -1.87321 89 91 108
-6.03606 7.25469 -1.88427 83 90 108
-6.01565 7.27465 -1.88559 84 90 106
-5.98775 7.28315 -1.88372 86 91 109
-5.59305 7.89058 -1.88343 82 87 106
-5.56644 7.9026 -1.88295 85 86 106
-5.27111 8.46338 -1.89257 81 89 105
-5.24957 8.48855 -1.89548 81 87 105
-4.89103 9.05425 -1.89494 76 77 95
-4.86765 9.08042 -1.89815 76 74 93
-4.51812 9.70782 -1.90918 77 77 89
-3.83955 9.9334 -1.81597 76 83 99
-3.80687 9.94005 -1.81554 73 80 95
-9.79917 1.20624 -1.83788 73 84 102
-9.14513 2.18029 -1.84197 139 121 107
-9.13924 2.20521 -1.84244 136 116 105
-9.13515 2.23065 -1.84338 139 120 110
-9.12738 2.26828 -1.84432 119 109 105
-6.66639 6.17358 -1.87553 85 90 109
-6.64858 6.19358 -1.87644 86 91 110
-6.62305 6.20475 -1.8745 85 88 107
-5.95576 7.31043 -1.88502 84 89 109
-5.92675 7.31707 -1.8827 86 92 108
-5.54074 7.91624 -1.88289 83 89 105
-5.50716 7.94512 -1.88502 83 89 105
-5.22541 8.50838 -1.89712 81 87 106
-5.17784 8.51324 -1.89366 83 87 104
-4.81584 9.07788 -1.89358 76 78 93
-4.79301 9.10567 -1.8972 76 78 96
-4.49434 9.74066 -1.91383 72 73 85
-3.7559 9.94129 -1.81322 79 81 96
-9.18241 2.07124 -1.84297 76 88 104
-9.17126 2.09474 -1.84201 84 92 111
-9.15253 2.11618 -1.83914 81 89 108
-9.16745 2.14672 -1.84484 80 82 97
-8.10234 3.64784 -1.83968 83 87 106
-8.08903 3.72511 -1.8466 76 79 98
-8.07739 3.76097 -1.84857 79 82 100
-8.05463 3.77665 -1.84555 92 95 114
-8.02175 3.78653 -1.83954 83 86 105
-7.99802 3.81544 -1.83802 86 89 108
-7.99695 3.84332 -1.84149 86 91 110
-7.99746 3.8722 -1.84545 84 89 108
-7.96502 3.89606 -1.84143 87 92 111
-7.9803 3.9338 -1.84989 83 90 106
-7.97544 3.95982 -1.85236 87 92 111
-7.91781 3.96849 -1.84086 89 92 109
-7.94093 4.01141 -1.85181 88 92 109
-7.89614 4.01324 -1.8423 85 92 109
-7.91074 4.05126 -1.85076 84 91 109
-7.90067 4.08867 -1.85373 84 91 109
-7.85421 4.08901 -1.84372 85 92 110
-7.87002 4.12825 -1.85268 82 88 109
-7.84646 4.15728 -1.85165 84 89 109
-7.80001 4.1571 -1.84164 86 91 111
-7.82353 4.20174 -1.85309 85 90 110
-7.77695 4.21574 -1.84507 85 92 110
-7.77747 4.24576 -1.84954 84 90 108
-7.74878 4.25663 -1.84502 86 91 111
-7.76199 4.29522 -1.85348 83 88 108
-7.70239 4.29995 -1.84147 84 90 111
-7.73454 4.35161 -1.85591 85 90 110
-7.70086 4.35889 -1.8499 86 88 108
-7.68428 4.39252 -1.85136 83 89 105
-7.66171 4.4072 -1.84884 84 91 107
-7.67244 4.44502 -1.85679 88 93 109
-7.61745 4.45185 -1.84628 82 88 106
-7.64053 4.49868 -1.85823 86 93 111
-7.59881 4.49964 -1.84972 83 90 108
-7.59487 4.52746 -1.85318 86 91 111
-7.56644 4.55279 -1.85115 88 88 110
-7.54239 4.59699 -1.85309 84 88 108
-6.59401 6.23162 -1.87493 87 85 106
-6.57093 6.24552 -1.87394 88 86 107
-6.55286 6.26527 -1.87485 88 89 107
-6.521 6.28887 -1.87432 84 87 106
-5.904 7.33346 -1.88311 86 92 108
-5.86447 7.34886 -1.88123 84 90 108
-5.84983 7.37828 -1.88527 86 93 109
-5.47947 7.95515 -1.88409 82 88 104
-5.45084 7.96338 -1.88272 83 89 105
-5.15929 8.54528 -1.89827 82 88 104
-5.1308 8.55599 -1.89779 81 87 103
-4.75988 9.10798 -1.8951 74 80 94
-4.44937 9.76198 -1.91492 70 74 82
-4.41781 9.77236 -1.91486 71 74 81
-3.7222 9.94388 -1.81204 77 79 98
-9.20545 1.98485 -1.84253 76 84 107
-9.19455 2.00846 -1.84156 81 89 110
-9.19485 2.03493 -1.84346 79 88 106
-8.24977 3.33642 -1.83546 74 79 99
-8.24497 3.43005 -1.84538 74 79 98
-8.21954 3.44499 -1.84137 73 78 98
-8.23725 3.4816 -1.84983 80 82 103
-8.1821 3.49501 -1.83882 83 87 102
-8.18578 3.52465 -1.8433 72 79 94
-8.18077 3.5499 -1.84527 72 79 95
-8.14265 3.57162 -1.83925 71 79 96
-8.15455 3.60583 -1.84622 72 75 95
-8.13557 3.6238 -1.8442 76 78 98
-8.11216 3.68127 -1.84615 80 83 102
-8.10147 3.70367 -1.84663 78 81 100
-7.58257 4.59543 -1.8611 86 88 108
-7.55407 4.65197 -1.86403 86 88 111
-7.5247 4.66135 -1.85951 89 91 111
-7.50926 4.68106 -1.85948 85 90 109
-7.52026 4.73628 -1.87042 84 89 109
-7.48305 4.73953 -1.8634 85 92 111
-7.47962 4.76855 -1.86737 84 91 110
-7.45771 4.78339 -1.86534 85 90 109
-7.42146 4.83447 -1.86627 83 88 108
-6.50402 6.30997 -1.87571 84 89 108
-6.47949 6.32208 -1.87424 84 91 107
-6.46237 6.34308 -1.87563 84 90 106
-5.81868 7.38121 -1.88204 85 91 107
-5.78713 7.40945 -1.88379 86 89 106
-5.41695 7.99189 -1.88485 84 87 104
-5.39368 8.01025 -1.88612 84 90 106
-5.088 8.57101 -1.89687 82 89 105
-4.72249 9.14126 -1.89869 77 81 93
-4.68293 9.12692 -1.89293 79 79 93
-4.38007 9.76405 -1.91088 72 72 83
-3.687 9.94067 -1.80974 75 80 99
-9.22187 1.89692 -1.84065 84 92 113
-9.21123 1.92061 -1.83969 84 92 113
-9.22125 1.94936 -1.84396 78 86 107
-8.34744 3.16501 -1.8386 74 80 99
-8.31909 3.17915 -1.83359 77 82 102
-8.33991 3.21579 -1.84256 74 79 99
-8.34669 3.25961 -1.84902 80 83 104
-8.30238 3.26617 -1.83952 78 79 99
-8.30528 3.29482 -1.84349 75 76 94
-8.28541 3.32621 -1.84247 77 82 104
-8.27498 3.37608 -1.84592 74 80 97
-8.26343 3.41157 -1.8474 73 80 98
-7.46482 4.83647 -1.87528 86 89 110
-7.44337 4.8839 -1.87871 83 91 110
-7.39082 4.89013 -1.86919 83 90 106
-7.39274 4.92399 -1.87515 88 91 108
-7.36593 4.93478 -1.87163 84 91 107
-7.36431 4.98199 -1.87907 83 89 105
-7.31798 4.97663 -1.86906 85 88 107
-7.33282 5.02163 -1.8795 89 92 109
-7.29693 5.02467 -1.87299 88 91 110
-7.26651 5.0482 -1.87095 93 98 116
-6.43263 6.36926 -1.87605 86 87 107
-6.4092 6.38262 -1.87506 86 89 108
-6.39796 6.411 -1.87882 85 88 107
-5.76607 7.42876 -1.88511 84 88 107
-5.74495 7.44801 -1.88643 87 90 107
-5.71372 7.45053 -1.8832 88 91 108
-5.36674 8.02164 -1.88563 80 87 104
-5.33796 8.02948 -1.88426 82 87 106
-5.06104 8.58507 -1.89724 82 88 104
-5.02926 8.58834 -1.89507 82 85 104
-4.66042 9.15622 -1.89695 78 79 94
-4.33733 9.79232 -1.91354 76 76 88
-4.3039 9.79677 -1.91231 74 73 86
-3.63714 9.94513 -1.80816 75 78 97
-3.60057 9.93591 -1.80475 72 81 97
-9.25136 1.78596 -1.84069 77 82 101
-9.2581 1.81367 -1.84401 84 92 115
-9.2515 1.83838 -1.844 75 83 104
-9.24859 1.86396 -1.84494 85 93 112
-8.4289 3.01275 -1.84121 82 87 107
-8.37597 3.01682 -1.82921 74 81 100
-8.41233 3.07259 -1.84367 77 84 103
-8.38591 3.08795 -1.83916 74 79 99
-8.35595 3.10162 -1.83365 79 84 103
-8.3846 3.15469 -1.84611 73 80 98
-7.25575 5.07214 -1.87292 86 92 107
-7.26402 5.11237 -1.88136 83 89 105
-7.20832 5.11425 -1.87085 80 85 104
-7.21045 5.14947 -1.8773 84 87 106
-7.17888 5.15552 -1.87228 83 88 107
-7.16248 5.19117 -1.87523 81 90 107
-7.13522 5.20081 -1.87171 81 88 106
-7.08792 5.22621 -1.86715 81 84 101
-6.3618 6.42932 -1.87687 86 87 105
-6.33942 6.44396 -1.87635 84 87 106
-6.31699 6.45853 -1.87584 80 85 105
-6.28547 6.48254 -1.87578 81 86 105
-5.68573 7.48503 -1.88677 85 88 107
-5.65845 7.49402 -1.88536 87 90 107
-5.30541 8.06102 -1.88726 81 86 105
-5.27745 8.07039 -1.88633 81 86 105
-5.00065 8.59865 -1.89459 84 88 107
-4.96476 8.62915 -1.89748 84 87 106
-4.61147 9.15987 -1.89402 80 79 93
-4.58181 9.1707 -1.89396 80 79 95
-4.26925 9.79737 -1.91029 75 75 85
-3.56649 9.9361 -1.80319 71 80 95
-9.26499 1.72375 -1.84022 126 109 94
-9.26247 1.74931 -1.84117 83 77 82
-8.4671 2.78988 -1.82737 77 85 104
-8.43902 2.87075 -1.82882 78 85 104
-8.46855 2.90932 -1.83979 81 88 106
-8.44785 2.92742 -1.83677 79 86 102
-8.44141 2.95137 -1.83776 82 90 106
-8.42843 2.98579 -1.83823 80 86 103
-7.13829 5.23737 -1.87866 87 88 108
-7.0811 5.27065 -1.87359 83 89 105
-7.05086 5.2773 -1.86907 83 90 108
-7.03206 5.29427 -1.86854 86 91 111
-7.0219 5.33604 -1.87398 79 86 105
-6.97744 5.32918 -1.86447 83 88 108
-6.96695 5.35385 -1.86693 85 87 110
-6.93247 5.37289 -1.8639 84 86 107
-6.26294 6.49693 -1.87527 85 88 107
-6.24513 6.5174 -1.87665 87 88 108
-6.2296 6.54091 -1.87898 89 88 106
-5.63802 7.51467 -1.88713 87 90 107
-5.59593 7.52533 -1.88433 83 89 105
-5.25033 8.08141 -1.88584 80 90 102
-4.9376 8.64284 -1.89785 83 88 107
-4.9073 8.64927 -1.89652 83 89 105
-4.5617 9.20711 -1.89961 76 79 94
-4.22271 9.81396 -1.9106 75 75 87
-9.27655 1.63514 -1.83787 130 109 91
-9.28192 1.66226 -1.84072 130 115 99
-9.27881 1.70063 -1.84214 129 112 94
-8.51595 2.71705 -1.83192 78 86 105
-8.53186 2.74943 -1.83889 83 91 108
-8.52241 2.77214 -1.83888 81 90 107
-8.49886 2.82881 -1.83884 78 86 105
-8.49812 2.85503 -1.84132 82 90 109
-6.93299 5.40815 -1.87034 82 89 107
-6.89006 5.40198 -1.86134 84 91 109
-6.88741 5.45151 -1.86977 84 90 106
-6.84591 5.44635 -1.86126 82 88 104
-6.83767 5.47348 -1.86471 87 93 109
-6.80864 5.48025 -1.86069 86 93 109
-6.19299 6.55835 -1.87703 85 88 105
-6.17375 6.5771 -1.87794 83 85 105
-6.15561 6.59735 -1.87932 86 88 108
-5.57827 7.55088 -1.88747 85 91 107
-5.55084 7.55949 -1.88605 83 86 103
-5.20872 8.09517 -1.88445 81 91 103
-5.18673 8.11645 -1.8866 82 89 106
-4.86872 8.67401 -1.89814 81 87 103
-4.52443 9.19761 -1.89507 81 78 97
-4.19273 9.82926 -1.91171 76 76 87
-4.16152 9.84074 -1.91205 71 73 85
-9.29854 1.54875 -1.83836 79 84 106
-9.29278 1.57356 -1.83835 81 72 89
-9.2958 1.61305 -1.84121 131 111 95
-8.53857 2.5434 -1.82102 84 92 111
-8.58254 2.58508 -1.83549 82 93 111
-8.58767 2.62599 -1.84047 87 96 113
-8.54048 2.63484 -1.82997 78 86 105
-8.56401 2.6697 -1.83894 79 88 104
-8.54755 2.6898 -1.83693 81 90 108
-6.80119 5.52565 -1.86762 85 90 109
-6.78166 5.5418 -1.86709 84 91 109
-6.74709 5.54279 -1.86107 87 93 112
-6.73642 5.58535 -1.86701 88 95 111
-6.70185 5.58607 -1.86099 85 91 107
-6.11764 6.61284 -1.87689 84 85 105
-6.0982 6.63138 -1.8778 86 87 107
-5.51727 7.58495 -1.88735 84 90 106
-5.49074 7.59505 -1.88639 83 91 104
-5.16379 8.13593 -1.8883 80 87 104
-5.12281 8.15102 -1.88735 80 87 103
-4.84368 8.69281 -1.89979 82 89 105
-4.81327 8.69893 -1.89846 80 89 104
-4.48685 9.23181 -1.89907 78 79 97
-4.45097 9.2257 -1.89534 71 73 88
-4.12743 9.84274 -1.91042 70 69 84
-9.31935 1.50086 -1.84076 82 88 105
-9.30802 1.52464 -1.83932 75 83 104
-8.61357 2.45327 -1.83107 78 84 106
-8.5959 2.47308 -1.82856 77 83 107
-8.61837 2.50676 -1.83703 81 88 109
-8.61116 2.54313 -1.83852 84 93 111
-6.70371 5.62411 -1.86844 87 88 108
-6.67907 5.65272 -1.86939 87 89 108
-6.63378 5.6419 -1.85938 87 90 105
-6.63789 5.68275 -1.86782 86 92 108
-6.08444 6.65771 -1.88108 86 86 104
-6.05658 6.68695 -1.88293 86 85 103
-6.0323 6.69905 -1.88194 85 84 100
-5.46323 7.60337 -1.88498 84 92 105
-5.44699 7.63204 -1.88902 84 91 106
-5.09379 8.15804 -1.88598 81 88 104
