-6.41338 10.4724 -1.85465 107 109 120
-6.37521 10.4797 -1.85298 111 113 123
-5.79773 11.2299 -1.8373 100 106 118
-5.76008 11.2405 -1.83666 106 110 122
-5.21122 12.2393 -1.84916 98 106 117
-5.15675 12.2712 -1.85131 97 107 119
-11.883 2.52637 -1.89367 91 98 113
-11.8817 2.56095 -1.89522 91 97 113
-11.8746 2.59414 -1.89565 92 95 112
-11.8785 2.64749 -1.89909 93 101 114
-10.4636 5.00288 -1.92617 100 104 121
-10.4658 5.04187 -1.93052 99 103 119
-10.4371 5.06364 -1.92783 100 103 118
-10.422 5.09302 -1.92826 100 103 118
-10.4072 5.14138 -1.93069 103 105 120
-10.3884 5.16872 -1.93034 102 104 119
-10.3679 5.19501 -1.9296 102 101 117
-10.3441 5.23828 -1.93007 98 101 116
-10.3419 5.27539 -1.93364 97 101 113
-10.3143 5.2975 -1.93133 97 101 113
-10.3136 5.3547 -1.93728 100 103 116
-10.2706 5.36749 -1.93145 102 104 119
-10.2779 5.41073 -1.93737 100 103 118
-10.2348 5.4423 -1.93352 100 103 118
-10.2334 5.48045 -1.93748 99 102 117
-10.197 5.49681 -1.93322 98 100 115
-10.207 5.54226 -1.93992 99 101 116
-10.1518 5.56591 -1.93333 101 100 116
-10.1582 5.60934 -1.93925 103 102 118
-10.1182 5.62308 -1.9342 103 102 118
-10.1105 5.67708 -1.93898 96 99 114
-10.0737 5.69267 -1.93471 98 101 116
-10.0745 5.73296 -1.93945 101 103 118
-10.053 5.77827 -1.94109 100 102 117
-10.0161 5.79348 -1.93682 100 102 117
-10.018 5.83491 -1.94196 101 103 118
-10.0004 5.86316 -1.94239 100 101 119
-9.95249 5.89043 -1.93776 98 99 117
-8.72961 8.3768 -1.99201 94 96 111
-8.69841 8.39567 -1.99092 94 96 111
-8.67106 8.41886 -1.99094 91 94 111
-8.63676 8.4609 -1.99286 92 95 110
-7.6682 10.161 -2.01062 79 78 92
-7.63435 10.1793 -2.01029 76 76 90
-6.32056 10.4947 -1.85133 109 111 123
-6.30285 10.5443 -1.85774 109 111 124
-6.24929 10.5191 -1.85001 109 111 124
-5.71048 11.2726 -1.83862 102 104 116
-5.6727 11.283 -1.83798 102 106 118
-5.1148 12.276 -1.8501 96 104 115
-5.07465 12.2863 -1.8498 97 104 114
-11.8987 2.32194 -1.88661 95 104 118
-11.9155 2.37753 -1.89229 90 100 112
-11.9013 2.40903 -1.89123 92 99 115
-11.8986 2.44313 -1.8924 90 97 113
-11.9052 2.47949 -1.89544 92 98 112
-10.768 4.38367 -1.92043 103 103 117
-10.7392 4.40634 -1.91735 103 105 118
-10.7404 4.46132 -1.92252 104 106 121
-10.7166 4.48637 -1.92061 104 105 120
-10.6981 4.51389 -1.91988 101 103 118
-10.6934 4.56634 -1.92387 101 102 120
-10.6554 4.58416 -1.91883 100 102 118
-10.6611 4.62377 -1.92357 105 107 122
-10.6261 4.66116 -1.92091 103 105 120
-10.6367 4.70353 -1.92683 103 105 120
-10.6036 4.72355 -1.92296 102 104 119
-10.6122 4.76511 -1.92849 102 104 119
-10.5645 4.79573 -1.92309 102 104 119
-10.5762 4.8392 -1.9294 103 102 118
-10.5376 4.85603 -1.92436 104 103 119
-10.5482 4.91769 -1.93226 101 102 120
-10.5147 4.93707 -1.92839 101 102 120
-10.5085 4.97136 -1.93079 102 103 121
-9.95881 5.93525 -1.94407 101 103 118
-9.93123 5.95661 -1.94215 99 101 116
-9.89419 5.99126 -1.94026 100 102 115
-9.8936 6.03165 -1.945 100 102 115
-9.88171 6.06412 -1.947 100 99 115
-9.83947 6.09502 -1.94393 98 100 115
-9.82256 6.12393 -1.94476 99 101 116
-9.8198 6.16321 -1.94911 98 100 115
-9.77561 6.19253 -1.94565 98 101 116
-9.75995 6.22245 -1.94686 98 101 116
-9.75204 6.25821 -1.95004 98 99 117
-9.70956 6.26803 -1.94459 98 99 117
-9.71178 6.33225 -1.95289 97 100 115
-9.68167 6.35132 -1.95057 98 101 116
-9.64683 6.36668 -1.94709 97 100 115
-8.61304 8.48836 -1.99401 92 95 110
-8.57644 8.50086 -1.99143 90 96 110
-8.54294 8.54403 -1.99372 91 94 109
-8.52146 8.57425 -1.99562 92 95 110
-7.60045 10.1975 -2.00996 79 79 92
-7.55149 10.227 -2.01 75 77 91
-7.51541 10.2415 -2.00897 72 74 87
-6.2187 10.5419 -1.85137 105 109 120
-5.63776 11.3005 -1.83863 104 107 120
-5.60133 11.3143 -1.83864 103 109 121
-5.01334 12.2968 -1.84859 100 106 118
-11.9359 2.20912 -1.88826 93 98 115
-11.9226 2.258 -1.88798 90 97 115
-11.9164 2.29124 -1.88841 92 100 116
-10.9181 4.03791 -1.91749 104 104 118
-10.9045 4.06776 -1.91755 103 105 118
-10.8682 4.10539 -1.91411 103 102 116
-10.8705 4.14219 -1.91768 103 107 119
-10.862 4.17429 -1.9189 103 105 120
-10.811 4.20512 -1.91233 102 104 119
-10.8254 4.2476 -1.91864 102 104 117
-10.8111 4.27717 -1.91869 103 105 120
-10.7775 4.31568 -1.91603 102 105 120
-10.7826 4.35423 -1.92038 104 106 121
-9.63286 6.41893 -1.95146 98 100 115
-9.61795 6.44975 -1.95307 97 98 115
-9.5737 6.45748 -1.94723 97 100 117
-9.56987 6.51813 -1.95435 96 99 114
-9.52862 6.52799 -1.94929 97 100 115
-9.52701 6.56965 -1.95442 97 99 114
-9.4796 6.5743 -1.9478 97 99 114
-9.46887 6.62994 -1.95335 96 99 115
-9.4305 6.64171 -1.94907 98 100 117
-9.41172 6.66957 -1.94989 97 100 115
-9.37934 6.70751 -1.94995 96 102 116
-8.48976 8.59239 -1.99452 93 96 111
-8.46429 8.61796 -1.9953 93 96 111
-8.42511 8.65467 -1.9961 92 95 110
-8.39445 8.67399 -1.99538 93 95 110
-7.4783 10.2543 -2.00757 78 77 91
-7.42403 10.2748 -2.00585 81 83 92
-7.39085 10.294 -2.00587 83 86 95
-6.1672 10.5633 -1.85106 109 113 124
-6.13473 10.5822 -1.85174 104 110 121
-6.09645 10.5885 -1.85007 111 116 125
-5.55122 11.3458 -1.84059 104 108 120
-5.51051 11.3482 -1.83867 102 106 117
-4.97374 12.3087 -1.8486 96 102 114
-4.93408 12.3205 -1.8486 98 104 116
-11.9639 2.05984 -1.88687 90 97 113
-11.9449 2.0905 -1.8847 93 100 114
-11.9437 2.14177 -1.88665 92 98 114
-11.9418 2.17583 -1.88783 96 102 118
-11.0153 3.75961 -1.91272 86 87 99
-11.0081 3.79192 -1.91394 94 94 106
-10.9734 3.81326 -1.9093 98 96 109
-10.9708 3.86491 -1.91291 99 98 112
-10.9632 3.89715 -1.91413 104 103 117
-10.9374 3.92187 -1.91144 101 103 116
-10.9476 3.9616 -1.91658 104 106 119
-10.9298 4.00726 -1.91705 105 105 117
-9.37231 6.74536 -1.95391 95 101 113
-9.33228 6.75532 -1.94924 95 98 113
-9.31735 6.8082 -1.95401 96 99 114
-9.28466 6.82426 -1.9513 95 98 113
-9.28448 6.86845 -1.95722 95 98 113
-9.23987 6.87404 -1.95137 93 96 111
-9.23294 6.93452 -1.95849 96 99 114
-9.19558 6.94628 -1.9546 97 100 115
-8.36373 8.69322 -1.99465 91 94 111
-8.32786 8.73408 -1.99657 89 95 109
-8.30067 8.75767 -1.99697 93 95 110
-8.26972 8.77658 -1.99625 93 95 110
-7.34968 10.2995 -2.00306 88 90 100
-7.28839 10.3075 -1.99886 89 93 102
-7.24236 10.3041 -1.99429 91 94 103
-6.04718 10.6147 -1.85077 108 112 123
-6.01694 10.6386 -1.85247 104 108 120
-5.47118 11.3542 -1.83739 105 111 123
-4.89723 12.3416 -1.85013 95 101 113
-11.9685 1.9065 -1.88138 98 104 121
-11.9789 1.94262 -1.88479 94 99 118
-11.9603 1.97345 -1.88262 89 96 114
-11.9674 2.02614 -1.88606 89 96 112
-11.0779 3.50443 -1.90486 97 96 112
-11.0697 3.53611 -1.90569 92 94 109
-11.0613 3.56777 -1.90653 95 97 110
-11.0492 3.59803 -1.90658 92 92 104
-11.0276 3.64197 -1.90588 97 96 109
-11.0445 3.68341 -1.91219 92 91 105
-11.0174 3.70794 -1.90912 91 93 106
-9.18015 6.97746 -1.9566 96 98 113
-9.15793 7.02484 -1.95979 97 99 114
-9.11609 7.03225 -1.95473 97 98 116
-9.11044 7.07252 -1.95947 96 97 115
-9.07902 7.11174 -1.96031 98 97 113
-9.03852 7.12004 -1.95564 96 97 115
-9.04101 7.16829 -1.96273 95 96 114
-8.23215 8.81554 -1.99779 92 94 109
-8.20712 8.84194 -1.99894 92 95 110
-8.17834 8.86364 -1.99897 93 95 110
-7.19838 10.3039 -1.99042 90 91 102
-7.15154 10.2984 -1.9855 88 91 100
-7.10016 10.3225 -1.98483 97 97 105
-5.98338 10.6553 -1.85282 110 112 124
-5.41671 11.374 -1.83741 105 109 120
-5.37603 11.376 -1.83548 106 110 121
-4.83522 12.3494 -1.84862 97 103 115
-4.79488 12.3589 -1.84831 96 102 114
-11.9457 1.74941 -1.87107 94 100 116
-11.9857 1.79007 -1.88005 97 103 117
-11.9791 1.82306 -1.88011 92 99 115
-11.9657 1.87184 -1.87946 90 96 112
-11.1652 3.29381 -1.90604 102 105 114
-11.1651 3.32822 -1.90844 95 97 110
-11.1426 3.35493 -1.90615 100 101 115
-11.1277 3.40133 -1.90662 89 91 104
-11.0921 3.42323 -1.90159 87 89 102
-11.0823 3.45425 -1.90204 94 93 107
-8.98773 7.18706 -1.95769 95 96 114
-8.98696 7.23266 -1.964 94 97 112
-8.93926 7.23367 -1.95737 95 98 113
-8.93821 7.27927 -1.96367 95 97 112
-8.88465 7.29731 -1.95863 95 96 114
-8.88324 7.34291 -1.96494 94 97 112
-8.84108 7.34877 -1.95987 94 97 112
-8.1403 8.90223 -2.00051 93 95 110
-8.11135 8.92372 -2.00053 92 95 110
-8.07875 8.94043 -1.99944 92 95 110
-8.05206 8.96486 -2.00021 92 95 110
-7.05537 10.3201 -1.98061 92 93 101
-7.00684 10.3106 -1.97497 92 93 98
-6.94319 10.3115 -1.96971 96 95 104
-5.93695 10.6883 -1.85486 110 113 124
-5.89849 10.6939 -1.85319 110 114 126
-5.33935 11.3889 -1.83549 102 106 117
-5.28997 11.423 -1.83808 100 106 118
-4.75288 12.3625 -1.8471 97 103 115
-11.9611 1.63337 -1.86973 88 95 113
-11.9687 1.66839 -1.8724 88 95 113
-11.9625 1.70132 -1.87246 96 101 120
-11.228 3.10909 -1.90531 109 113 125
-11.2012 3.15158 -1.90306 95 97 110
-11.1979 3.18471 -1.90467 101 101 115
-11.1925 3.21724 -1.9059 98 100 113
-11.1574 3.23978 -1.90087 87 89 101
-8.81382 7.39237 -1.96228 95 99 113
-8.78275 7.40894 -1.96035 94 97 112
-8.77514 7.449 -1.96509 96 95 113
-8.72943 7.47426 -1.9624 97 94 112
-8.01111 8.9998 -2.001 94 96 111
-7.97949 9.01775 -2.00028 94 93 107
-7.9525 9.04191 -2.00105 92 94 107
-6.8996 10.3102 -1.96584 94 96 108
-6.85701 10.3104 -1.96232 97 100 110
-6.79827 10.3192 -1.95882 92 95 103
-5.87335 10.7301 -1.85724 105 109 121
-5.82782 10.7192 -1.85254 104 108 119
-5.24991 11.4264 -1.83648 100 106 118
-5.21439 11.4427 -1.83713 98 104 116
-4.69195 12.3734 -1.8462 96 103 112
-4.65263 12.3862 -1.8465 97 104 113
-11.9617 1.51532 -1.8658 87 92 112
-11.9696 1.55019 -1.86846 87 92 111
-11.9793 1.58542 -1.8715 90 95 113
-11.2467 2.87736 -1.89398 95 96 108
-11.2696 2.93485 -1.90188 110 109 122
-11.2539 2.96402 -1.90076 106 107 120
-11.2455 2.99543 -1.90121 118 118 130
-11.2304 3.04163 -1.9013 115 115 127
-11.2274 3.07476 -1.90292 114 115 128
-8.72287 7.51568 -1.96753 96 95 111
-8.68055 7.52066 -1.96246 95 97 112
-8.67372 7.56204 -1.96759 94 96 111
-8.62356 7.58247 -1.96372 93 96 111
-8.61773 7.62523 -1.96924 95 98 113
-8.57399 7.62821 -1.96378 95 97 112
-7.90186 9.06374 -1.99885 91 94 109
-7.87586 9.08926 -1.99999 92 94 109
-7.84745 9.11154 -2.00039 92 94 109
-6.75303 10.3138 -1.95425 90 94 103
-6.71243 10.317 -1.95144 91 95 104
-5.77478 10.7369 -1.85189 104 108 120
-5.74012 10.7511 -1.8519 101 105 117
-5.70086 10.7542 -1.84988 103 106 118
-5.17238 11.4402 -1.83456 104 108 120
-4.61431 12.4027 -1.84742 98 102 114
-12.014 1.43823 -1.87307 86 94 109
-11.9848 1.48483 -1.86908 85 92 110
-11.2804 2.73574 -1.89177 91 95 112
-11.2835 2.78693 -1.89538 96 97 113
-11.2832 2.82056 -1.89739 94 93 110
-11.2791 2.85312 -1.89861 93 92 108
-8.5572 7.68375 -1.96972 93 96 111
-8.5161 7.68926 -1.96504 94 96 111
-8.50699 7.72909 -1.96978 93 95 109
-8.45769 7.74991 -1.9663 94 96 110
-7.80574 9.14559 -2.00118 88 94 108
-7.76918 9.15645 -1.99896 87 93 107
-7.74622 9.18643 -2.00123 90 93 108
-7.71525 9.20511 -2.00088 92 93 108
-6.65113 10.3197 -1.94688 93 96 105
-6.60704 10.3155 -1.94265 95 95 105
-6.56212 10.3094 -1.93807 97 96 104
-5.65967 10.8005 -1.85462 102 105 120
-5.11563 11.4531 -1.83361 101 107 119
-5.07371 11.4503 -1.83104 104 108 120
-4.55949 12.4358 -1.85017 97 103 118
-4.51583 12.433 -1.84804 100 106 119
-12.0474 1.32434 -1.87582 87 96 113
-12.0226 1.37182 -1.87258 92 99 115
-12.0174 1.4049 -1.87264 91 98 114
-11.3305 2.56531 -1.89146 94 97 112
-11.3178 2.59535 -1.89073 97 100 115
-11.3238 2.63043 -1.89392 92 95 110
-11.3086 2.67645 -1.89361 93 96 113
-11.3087 2.71005 -1.89562 91 97 113
-10.3034 4.34418 -1.91502 103 105 118
-10.2888 4.37208 -1.91507 104 103 117
-10.269 4.41473 -1.91555 100 102 115
-10.2472 4.43904 -1.91397 103 107 119
-10.2411 4.47118 -1.91605 101 103 118
-10.2313 4.51895 -1.91897 102 104 119
-10.2196 4.54843 -1.91983 101 103 118
-10.2009 4.57429 -1.91906 102 105 120
-10.1905 4.62202 -1.92199 101 103 118
-10.1665 4.64504 -1.92 102 104 119
-10.1596 4.67712 -1.92208 102 105 120
-10.1297 4.71462 -1.92052 102 107 119
-10.1294 4.75039 -1.92423 102 106 118
-10.1153 4.77872 -1.92469 102 105 120
-10.1028 4.80795 -1.92555 104 106 121
-10.0706 4.84415 -1.92358 101 104 119
-10.0665 4.87805 -1.92648 103 106 123
-10.0451 4.90237 -1.9253 100 103 120
-10.0329 4.94983 -1.92822 100 102 117
-10.0148 4.97596 -1.92786 99 101 116
-9.98806 4.99713 -1.92546 100 103 118
-9.97704 5.04546 -1.92879 100 104 117
-9.9569 5.07041 -1.92802 99 103 116
-9.94343 5.09928 -1.92888 99 102 117
-9.92145 5.1231 -1.9277 99 102 118
-9.89968 5.16525 -1.92858 99 101 119
-9.88422 5.19297 -1.92903 100 103 118
-9.867 5.21962 -1.92907 98 103 117
-9.84143 5.25951 -1.92914 99 102 119
-9.82399 5.28603 -1.92919 93 97 111
-9.81309 5.31666 -1.93086 99 102 117
-9.78376 5.35421 -1.93011 99 101 117
-9.76603 5.38056 -1.93015 99 102 117
-9.74492 5.40474 -1.92938 100 102 117
-9.73522 5.43629 -1.93146 96 98 113
-9.70374 5.47237 -1.9303 101 104 119
-9.68889 5.50063 -1.93116 101 105 117
-9.67883 5.5321 -1.93324 101 105 117
-9.64693 5.56787 -1.93208 102 105 120
-9.63014 5.5949 -1.93253 100 104 116
-9.61002 5.61969 -1.93216 99 102 117
-9.57935 5.6562 -1.93141 98 100 115
-9.56701 5.68637 -1.93308 100 102 117
-9.545 5.70984 -1.93231 100 104 116
-9.51714 5.74826 -1.93237 99 103 117
-9.50135 5.77607 -1.93323 100 103 118
-9.48547 5.80384 -1.93408 100 103 118
-9.46315 5.82701 -1.9333 99 102 117
-9.4363 5.86621 -1.93378 100 102 117
-9.41062 5.88691 -1.93218 99 102 117
-9.40226 5.92023 -1.93508 99 102 117
-9.37025 5.95568 -1.93432 100 103 118
-9.35688 5.98545 -1.93599 99 101 116
-9.32935 6.00465 -1.93399 100 99 117
-8.44825 7.78968 -1.97103 95 95 111
-8.41233 7.80045 -1.96792 95 96 111
-8.39031 7.85131 -1.97268 92 95 110
-8.35428 7.86181 -1.96957 93 96 111
-8.34554 7.90297 -1.9747 93 95 110
-7.67191 9.23698 -2.00129 90 93 108
-7.63854 9.25218 -2.00019 89 92 107
-7.61071 9.27538 -2.00096 91 93 108
-6.51996 10.3084 -1.93456 92 92 102
-6.46256 10.3171 -1.93141 91 91 101
-6.41876 10.3122 -1.92718 93 95 104
-5.61368 10.7869 -1.84958 112 115 130
-5.58917 10.8261 -1.85431 105 110 122
-5.04238 11.4792 -1.83394 103 107 119
-4.99098 11.5083 -1.83589 105 109 121
-12.0456 1.25663 -1.87347 86 93 109
-12.0446 1.29024 -1.87427 92 101 116
-11.3579 2.40596 -1.88804 91 97 113
-11.3532 2.45454 -1.8897 94 97 114
-11.3464 2.48613 -1.89014 94 99 115
-11.3377 2.51722 -1.8902 91 97 113
-10.456 3.94853 -1.90663 105 104 120
-10.4623 3.98552 -1.91115 105 104 120
-10.4417 4.01074 -1.90957 103 102 116
-10.4354 4.04224 -1.91125 103 102 116
-10.4171 4.08548 -1.91173 102 101 117
-10.3963 4.11049 -1.91015 104 103 119
-10.3842 4.13948 -1.91061 104 103 119
-10.3761 4.18745 -1.91353 104 103 119
-10.3603 4.21475 -1.91317 103 103 119
-10.3497 4.24449 -1.91404 102 104 119
-10.3305 4.28739 -1.91452 103 105 118
-10.3196 4.31707 -1.91538 102 106 119
-9.30631 6.04682 -1.93569 101 100 116
-9.28951 6.0741 -1.93654 99 98 114
-9.27727 6.10491 -1.93861 98 100 115
-9.26028 6.13213 -1.93947 97 98 115
-9.23349 6.17167 -1.94034 99 97 113
-9.21473 6.19756 -1.94079 97 99 114
-9.20048 6.22705 -1.94246 97 101 114
-9.16404 6.25903 -1.94089 97 99 114
-9.14347 6.28351 -1.94092 97 100 115
-9.12433 6.30916 -1.94137 97 100 115
-8.30944 7.91327 -1.97159 92 95 110
-8.2789 7.95503 -1.97399 90 96 110
-8.23886 7.9606 -1.96971 90 96 110
-8.23596 8.00906 -1.9768 90 96 110
-7.56813 9.3084 -2.00175 92 90 111
-7.5357 9.32489 -2.00102 91 93 108
-7.50542 9.34453 -2.00104 91 93 108
-6.37592 10.3089 -1.92331 95 98 104
-6.31955 10.3186 -1.92051 97 98 104
-5.52405 10.8135 -1.84826 105 109 121
-5.49059 10.8305 -1.84894 107 112 123
-4.95389 11.52 -1.83589 102 106 118
-12.0692 1.14136 -1.87473 96 105 122
-12.0647 1.17457 -1.87479 86 97 114
-12.0523 1.2069 -1.87337 83 91 108
-11.3887 2.26429 -1.88661 92 98 114
-11.3618 2.30751 -1.88358 87 93 108
-11.3745 2.34364 -1.88793 94 101 115
-11.3644 2.37435 -1.8876 93 102 114
-10.5661 3.70667 -1.9066 103 104 119
-10.5476 3.74969 -1.90668 104 106 119
-10.5404 3.78056 -1.90795 104 107 119
-10.5258 3.80842 -1.90759 104 108 120
-10.5141 3.85429 -1.9093 103 105 118
-10.5028 3.88358 -1.90976 107 109 122
-10.4861 3.91055 -1.90899 104 106 119
-9.10726 6.3568 -1.9451 94 101 115
-9.07731 6.37366 -1.94269 95 101 117
-9.0639 6.40411 -1.94476 95 99 116
-9.03575 6.44286 -1.94563 98 101 116
-9.01909 6.47073 -1.94689 97 100 115
-8.99634 6.49351 -1.94652 96 102 116
-8.98694 6.52762 -1.94982 95 101 115
-8.95225 6.56096 -1.94906 97 100 115
-8.18833 8.03119 -1.9741 93 96 113
-8.17864 8.0722 -1.97923 92 96 112
-8.13344 8.07129 -1.97337 92 93 110
-8.112 8.12444 -1.97891 92 95 112
-7.46139 9.37545 -2.00146 90 93 108
-7.43634 9.40307 -2.00335 91 93 108
-6.27769 10.3167 -1.91699 99 98 103
-6.2308 10.304 -1.91135 97 96 102
-5.45849 10.8511 -1.8503 107 114 124
-5.39999 10.8543 -1.84729 108 114 124
-4.92036 11.543 -1.83783 105 109 121
-4.8597 11.5433 -1.83495 104 108 118
-12.0818 1.02487 -1.87413 89 95 111
-12.0738 1.05772 -1.87345 90 97 113
-12.0658 1.10735 -1.87318 93 98 117
-11.4136 2.15446 -1.88602 91 98 112
-11.3853 2.19752 -1.88259 90 96 110
-11.3928 2.23219 -1.88577 93 99 114
-10.6577 3.44076 -1.90248 88 87 101
-10.6514 3.47177 -1.90375 94 96 109
-10.6451 3.51932 -1.90627 91 93 106
-10.6276 3.54615 -1.9051 90 94 106
-10.632 3.58136 -1.90881 94 97 111
-10.6032 3.62039 -1.90645 90 94 106
-10.5909 3.64919 -1.9065 103 105 118
-10.5749 3.6765 -1.90574 103 102 116
-8.93813 6.5912 -1.95113 96 99 114
-8.91797 6.61628 -1.95158 96 99 115
-8.89171 6.65702 -1.95327 97 98 114
-8.87574 6.68586 -1.95493 97 99 115
-8.86111 6.71597 -1.957 94 100 114
-8.82123 6.74476 -1.95502 95 101 115
-8.80782 6.77607 -1.9575 97 99 117
-8.07054 8.12769 -1.97422 90 93 108
-8.05281 8.1595 -1.977 94 96 111
-8.00594 8.18212 -1.97469 92 95 112
-7.97931 8.20314 -1.97472 92 95 112
-7.39828 9.4109 -2.00075 91 93 108
-7.35178 9.43805 -2.00041 91 93 108
-7.32538 9.46374 -2.00193 93 95 110
-6.17881 10.3218 -1.91032 97 96 102
-6.13465 10.314 -1.90574 97 98 103
-6.09306 10.3114 -1.90222 97 98 102
-5.37269 10.8875 -1.851 98 102 113
-5.32361 10.8635 -1.84427 96 100 110
-4.82308 11.5566 -1.83527 102 109 119
-4.7818 11.5546 -1.83302 100 106 117
-12.0776 0.940544 -1.87137 92 101 117
-12.08 0.991081 -1.87296 92 99 115
-11.4178 2.00755 -1.8799 90 97 113
-11.4125 2.03923 -1.88034 92 99 115
-11.4019 2.08614 -1.88043 89 96 112
-11.425 2.12398 -1.88674 93 99 115
-10.7271 3.23395 -1.90008 101 103 115
-10.7164 3.27961 -1.90138 93 96 108
-10.7034 3.30809 -1.90102 94 94 106
-10.6957 3.33849 -1.90189 87 89 103
-10.6843 3.36756 -1.90194 94 95 109
-10.6785 3.41514 -1.90446 89 88 104
-8.77692 6.79158 -1.95509 96 99 116
-8.75611 6.81621 -1.95553 95 101 115
-8.72877 6.85636 -1.95722 94 100 114
-8.70057 6.87419 -1.95562 96 99 114
-8.67235 6.89192 -1.95402 96 99 114
-8.63036 6.91833 -1.95162 94 97 114
-8.61053 6.94388 -1.95247 96 98 113
-7.9686 8.24393 -1.97984 90 98 111
-7.9283 8.24801 -1.97555 92 98 112
-7.89697 8.28991 -1.97834 92 95 110
-7.86394 8.30292 -1.97641 92 95 110
-7.28937 9.47446 -2.00008 90 93 108
-7.26492 9.5033 -2.00234 90 93 108
-7.21592 9.52649 -2.00126 89 92 107
-6.05402 10.314 -1.89976 95 98 102
-5.99471 10.3149 -1.89554 94 96 103
-5.2982 10.9021 -1.84899 104 108 117
-4.72582 11.5694 -1.83271 100 107 117
-12.0763 0.82317 -1.86855 94 103 118
-12.0793 0.873606 -1.87013 85 94 111
-12.0814 0.907313 -1.87131 93 102 119
-11.4352 1.86397 -1.8769 91 99 115
-11.4496 1.89938 -1.88125 87 93 109
-11.4262 1.94378 -1.87861 91 97 113
-11.4153 1.97432 -1.87789 89 96 112
-10.7766 3.06998 -1.89775 101 103 118
-10.7754 3.10234 -1.89984 102 105 118
-10.7647 3.13164 -1.89989 96 98 111
-10.7415 3.17303 -1.89835 94 94 106
-10.7399 3.20539 -1.90043 96 97 109
-8.58498 6.96398 -1.95169 97 99 114
-8.55824 7.00483 -1.95378 100 99 115
-8.5339 7.02611 -1.9534 99 98 114
-8.50951 7.04731 -1.95303 97 99 114
-8.48784 7.07118 -1.95347 95 98 113
-7.84779 8.3374 -1.97996 93 94 109
-7.80392 8.36354 -1.97883 91 95 110
-7.78629 8.39637 -1.98199 90 95 109
-7.18085 9.53849 -1.99978 89 92 107
-7.15504 9.5654 -2.00167 91 93 106
-5.95413 10.3136 -1.89237 97 97 107
-5.91119 10.3067 -1.88815 91 91 103
-5.85613 10.3158 -1.8857 87 91 100
-5.23289 10.8859 -1.84261 104 105 117
-5.19504 10.891 -1.84127 107 108 120
-4.69022 11.586 -1.83368 101 108 118
-12.0863 0.723498 -1.86835 86 95 112
-12.0987 0.757807 -1.87139 91 100 115
-12.0895 0.790661 -1.87034 90 99 114
-11.4423 1.75142 -1.87357 92 100 113
-11.4628 1.78765 -1.87909 90 97 113
-11.4438 1.83297 -1.87723 85 92 110
-10.8097 2.85272 -1.88924 89 92 107
-10.7904 2.87926 -1.88727 93 97 109
-10.801 2.91494 -1.89179 105 106 119
-10.7956 2.96191 -1.89391 117 115 126
-10.791 2.99304 -1.89518 105 104 117
-10.777 3.02119 -1.89442 105 107 120
-8.4591 7.11031 -1.95515 95 98 115
-8.43307 7.12989 -1.95437 94 96 111
-8.40837 7.15076 -1.95399 98 95 114
-8.37781 7.18819 -1.95526 97 96 112
-8.36253 7.21868 -1.95774 97 96 112
-8.32937 7.23091 -1.95491 96 95 111
-7.74707 8.40116 -1.97809 91 94 109
-7.72306 8.45335 -1.98363 91 94 111
-7.68028 8.45316 -1.97855 92 95 110
-7.10273 9.58302 -1.99946 94 93 107
-7.07367 9.6047 -2.00023 92 94 107
-7.04452 9.62629 -2.00099 91 95 107
-5.81572 10.314 -1.88253 87 91 102
-5.77146 10.303 -1.87759 89 91 103
-5.16457 10.9163 -1.84363 103 106 118
-5.10488 10.9143 -1.83994 104 109 120
-4.65623 11.6082 -1.83562 100 107 117
-4.62159 11.6284 -1.83723 100 106 118
-12.0934 0.640388 -1.86819 94 102 115
-12.0943 0.673879 -1.869 96 104 120
-11.45 1.63931 -1.87063 84 91 105
-11.4382 1.66969 -1.86951 85 92 107
-11.4602 1.72207 -1.87585 89 98 112
-10.8341 2.66678 -1.88201 91 97 111
-10.8187 2.71041 -1.88168 88 94 108
-10.8318 2.74636 -1.88662 90 96 110
-10.8185 2.77471 -1.88586 86 94 107
-10.8101 2.8205 -1.88716 89 95 109
-8.30518 7.27507 -1.95823 97 97 112
-8.28141 7.29694 -1.95826 98 97 113
-8.25081 7.31166 -1.95625 96 98 113
-8.22746 7.357 -1.95997 94 93 109
-7.6657 8.49046 -1.98289 91 94 109
-7.6264 8.49472 -1.97899 90 96 109
-7.60166 8.54658 -1.98453 91 94 109
-7.56 8.54739 -1.97984 91 94 109
-6.99507 9.6484 -1.9999 91 94 106
-6.96877 9.67484 -2.00179 92 94 107
-5.71967 10.3186 -1.87656 85 89 100
-5.67788 10.3127 -1.87268 83 85 97
-5.07751 10.9486 -1.84399 102 109 119
-5.03827 10.9495 -1.84198 105 109 120
-4.5615 11.6292 -1.83466 99 105 117
-12.1038 0.55744 -1.86877 95 104 121
-12.0864 0.606599 -1.86627 92 99 117
-11.4604 1.52791 -1.86846 94 101 117
-11.4503 1.57468 -1.86817 83 90 106
-11.454 1.60762 -1.87018 89 95 109
-10.8718 2.50132 -1.87927 93 97 113
-10.8649 2.53139 -1.87973 97 99 114
-10.8598 2.56195 -1.8806 92 98 112
-10.8505 2.60727 -1.88149 88 93 109
-10.8396 2.63625 -1.88114 94 100 116
-9.81161 4.47572 -1.91775 101 103 118
-9.78976 4.4984 -1.9161 103 105 120
-9.79361 4.53499 -1.9208 104 107 122
-9.76274 4.56977 -1.91875 100 102 117
-9.7526 4.59886 -1.92007 100 102 117
-9.74407 4.62888 -1.9218 103 104 122
-9.72523 4.65315 -1.921 102 105 120
-9.72273 4.70392 -1.92615 102 104 119
-9.69518 4.72325 -1.92323 101 104 119
-9.69129 4.75613 -1.92623 104 106 121
-9.65442 4.78729 -1.92292 102 104 119
-9.64859 4.81914 -1.9255 102 104 119
-9.61742 4.8361 -1.92173 98 101 116
-9.59871 4.8778 -1.92307 100 102 117
-9.5808 4.90255 -1.92269 99 101 116
-9.58288 4.93939 -1.92738 102 102 118
-9.54866 4.97181 -1.92491 98 99 114
-9.53547 4.99946 -1.9258 97 99 114
-9.51722 5.024 -1.92542 99 102 117
-9.49556 5.0464 -1.92419 96 102 116
-9.48569 5.09394 -1.92806 95 101 117
-9.46055 5.11411 -1.92599 98 100 115
-9.46332 5.1521 -1.93111 99 101 116
-9.41841 5.17736 -1.92609 98 101 116
-9.41434 5.2111 -1.92952 98 101 118
-9.39707 5.23631 -1.92956 97 100 117
-9.38121 5.28049 -1.93216 97 98 116
-9.35236 5.29799 -1.92924 95 98 113
-9.34129 5.32737 -1.93097 99 102 117
-9.32365 5.35235 -1.93101 100 103 118
-9.30072 5.39192 -1.93192 102 101 117
-9.27299 5.44715 -1.93412 98 101 116
-9.24639 5.48429 -1.93418 102 104 121
-9.22187 5.50449 -1.93253 102 105 120
-9.19411 5.52232 -1.93003 100 102 117
-8.20477 7.38007 -1.96041 95 96 114
-8.17534 7.39591 -1.9588 94 95 113
-8.15516 7.4217 -1.96006 93 96 111
-8.11526 7.44947 -1.95888 93 95 110
-8.09224 7.47221 -1.95932 96 95 113
-7.55063 8.59243 -1.98614 91 94 111
-7.4943 8.60117 -1.98108 91 94 111
-6.93937 9.69613 -2.00256 90 94 106
-6.88863 9.71603 -2.00109 90 94 106
-6.8522 9.72519 -1.99924 89 93 105
-5.63849 10.312 -1.86986 85 88 98
-5.58294 10.3179 -1.86706 84 87 96
-4.98956 10.9784 -1.84402 101 107 119
-4.52349 11.6378 -1.83434 104 110 122
-4.48177 11.6329 -1.83177 98 106 119
-12.1108 0.490956 -1.86901 92 100 119
-12.1083 0.524249 -1.86908 91 100 118
-11.4773 1.41765 -1.86786 91 100 115
-11.4541 1.46248 -1.86483 90 95 112
-11.4776 1.49827 -1.87075 90 96 112
-10.8983 2.36516 -1.87658 93 97 114
-10.8824 2.39289 -1.87501 96 100 117
-10.8853 2.42538 -1.8775 96 103 118
-10.8786 2.47124 -1.87881 89 97 112
-10.0319 4.02826 -1.91402 105 104 118
-10.0172 4.07134 -1.91537 105 104 118
-9.9965 4.09496 -1.91372 103 105 120
-9.98273 4.1219 -1.91377 104 103 119
-9.97287 4.1674 -1.91638 104 103 119
-9.95889 4.19427 -1.91642 101 101 117
-9.9413 4.21936 -1.91562 103 104 119
-9.92919 4.2639 -1.91781 103 103 118
-9.91141 4.28888 -1.91701 102 102 118
-9.89703 4.31557 -1.91705 101 103 118
-9.89471 4.34848 -1.92006 105 104 120
-9.86462 4.38391 -1.91801 104 103 119
-9.85513 4.41319 -1.91933 103 105 120
-9.83517 4.43697 -1.9181 102 104 119
-9.31183 5.43673 -1.93958 102 104 119
-9.17668 5.56593 -1.93263 98 101 116
-9.16146 5.5927 -1.93351 98 103 117
-9.13034 5.60795 -1.93016 100 102 117
-9.11025 5.63115 -1.92978 102 104 119
-9.09691 5.67799 -1.93365 100 99 115
-9.05308 5.68358 -1.92691 99 98 114
-9.03903 5.7112 -1.92822 100 99 115
-9.01585 5.75081 -1.92955 101 100 116
-8.9891 5.76889 -1.92747 101 102 120
-8.97629 5.79756 -1.9292 99 102 117
-8.94957 5.83454 -1.92968 101 103 118
-8.93796 5.86433 -1.93183 99 101 116
-8.90941 5.88087 -1.92933 99 101 116
-8.89148 5.92484 -1.93235 102 101 117
-8.06915 7.49488 -1.95975 95 94 110
-8.03417 7.52805 -1.96021 94 96 111
-8.01089 7.55055 -1.96064 92 94 109
-7.99143 7.57739 -1.9623 93 94 112
-7.47773 8.63658 -1.98503 91 94 111
-7.44286 8.64641 -1.98269 92 95 110
-7.40564 8.68175 -1.98431 91 94 111
-7.37294 8.69452 -1.98276 91 94 109
-6.82357 9.74785 -2.00038 90 94 106
-6.79583 9.77215 -2.00189 90 94 105
-5.54437 10.3187 -1.86459 85 88 97
-5.50214 10.3103 -1.86036 89 94 104
-4.94459 10.9621 -1.83897 98 105 116
-4.91487 10.9905 -1.842 107 111 122
-4.42337 11.6387 -1.83017 101 107 119
-12.0984 0.407075 -1.86551 91 103 119
-12.108 0.440784 -1.8678 93 105 122
-11.4916 1.35527 -1.86852 91 98 114
-11.4767 1.38538 -1.86663 90 97 113
-10.9188 2.25945 -1.87476 90 96 110
-10.9317 2.29416 -1.87929 91 98 114
-10.8969 2.31743 -1.87365 88 95 113
-10.1458 3.74864 -1.90974 105 104 120
-10.1474 3.78227 -1.91317 104 106 119
-10.1293 3.80731 -1.91195 104 106 119
-10.1157 3.85068 -1.91329 107 106 120
-10.0938 3.87398 -1.91123 104 106 119
-10.0914 3.90605 -1.91381 106 108 120
-10.0667 3.94443 -1.91262 106 105 119
-10.064 3.9765 -1.9152 105 102 117
-10.0471 4.002 -1.9144 106 104 118
-8.87961 5.95454 -1.93451 99 101 116
-8.84629 5.96713 -1.93073 98 100 115
-8.83881 6.00042 -1.93415 98 100 115
-8.81262 6.03806 -1.93506 101 103 118
-8.79125 6.0602 -1.93467 100 102 117
-8.7713 6.08352 -1.9347 95 97 112
-8.7477 6.12338 -1.93646 97 99 114
-8.72607 6.14531 -1.93607 97 99 114
-8.72229 6.18228 -1.94076 99 98 116
-8.67585 6.20299 -1.93616 97 99 114
-7.95088 7.60433 -1.96113 94 97 110
-7.92349 7.62217 -1.96034 92 96 109
-7.90886 7.65471 -1.96363 92 95 110
-7.87879 7.66945 -1.96202 93 95 110
-7.3525 8.72489 -1.98553 90 92 107
-7.29934 8.73724 -1.98164 90 95 109
-6.74581 9.79304 -2.0008 89 93 105
-6.71404 9.81027 -2.00082 90 94 106
-6.68507 9.83255 -2.00195 92 94 108
-5.46371 10.3108 -1.85789 86 92 105
-5.4069 10.3122 -1.85438 108 110 123
-4.85961 11.0002 -1.84067 103 107 118
-4.38638 11.6506 -1.83049 98 104 116
-4.34631 11.651 -1.82888 95 101 113
-12.0912 0.290339 -1.86268 92 102 120
-12.1065 0.340684 -1.86612 96 108 124
-11.5074 1.21274 -1.86708 94 101 117
-11.5085 1.24499 -1.86831 91 98 114
-11.4901 1.27476 -1.86564 89 96 112
-11.5084 1.30932 -1.87038 92 99 115
-10.9418 2.12302 -1.87207 95 97 114
-10.9342 2.15278 -1.87213 87 93 107
-10.9227 2.18164 -1.87137 90 99 111
-10.934 2.21575 -1.87549 96 99 114
-10.236 3.52532 -1.90766 94 93 107
-10.2131 3.54856 -1.90517 101 103 116
-10.2029 3.57688 -1.90564 98 101 115
-10.2284 3.6362 -1.91586 96 98 111
-10.2089 3.66082 -1.91422 97 99 112
-10.1749 3.67925 -1.9092 103 105 118
-10.1804 3.7144 -1.91347 104 103 119
-8.66141 6.23104 -1.93789 97 100 115
-8.64241 6.25524 -1.93834 97 100 115
-8.6322 6.28707 -1.94134 99 101 116
-8.58548 6.30714 -1.93674 98 100 115
-8.57502 6.33887 -1.93973 97 98 116
-8.55713 6.36413 -1.94061 96 97 115
-8.5233 6.39541 -1.93982 97 99 114
-7.84167 7.70028 -1.96207 93 95 110
-7.81781 7.72224 -1.9625 93 95 110
-7.79641 7.74712 -1.96375 92 97 111
-7.75894 7.77758 -1.9638 90 96 110
-7.28308 8.77392 -1.98598 91 94 109
-7.23921 8.77003 -1.9805 89 92 107
-7.22496 8.80985 -1.98563 93 96 111
-6.63293 9.84946 -2.00012 90 94 105
-6.60004 9.86461 -1.99976 90 95 107
-5.36783 10.3105 -1.85156 99 102 111
-5.33167 10.316 -1.85016 115 117 128
-4.82718 11.0209 -1.84236 107 111 122
-4.78491 11.0115 -1.83866 108 112 123
-4.28943 11.6618 -1.82825 104 110 122
-12.1122 0.22422 -1.86589 93 104 122
-12.1106 0.257502 -1.86595 90 101 119
-11.5067 1.13255 -1.86459 94 102 119
-11.508 1.16475 -1.86582 96 103 119
-10.9583 1.97001 -1.86773 89 94 113
-10.9538 2.0159 -1.86903 88 95 113
-10.9465 2.04569 -1.86909 90 96 111
-10.9392 2.07545 -1.86914 90 95 111
-10.3203 3.25214 -1.90169 95 99 111
-10.322 3.28481 -1.90469 106 108 121
-10.2928 3.32182 -1.90182 97 96 108
-10.2778 3.34825 -1.90102 93 91 104
-10.281 3.38163 -1.90445 100 99 113
-10.2459 3.41619 -1.9003 86 88 100
-10.2779 3.46105 -1.91049 94 96 108
-10.286 3.49677 -1.91519 89 88 102
-8.51391 6.42838 -1.94324 97 100 115
-8.49136 6.44954 -1.94285 96 99 116
-8.46869 6.49104 -1.94545 98 99 117
-8.43303 6.50015 -1.94124 96 98 113
-8.43176 6.54097 -1.94721 96 99 114
-8.39288 6.56762 -1.94514 96 99 114
-7.73108 7.79477 -1.963 94 96 111
-7.70816 7.81792 -1.96385 91 93 108
-7.67157 7.84949 -1.9643 93 96 111
-7.64967 7.87399 -1.96555 91 96 110
-7.17594 8.82799 -1.98331 92 95 110
-7.16022 8.8661 -1.98804 92 95 110
-7.11317 8.8567 -1.98138 94 96 111
-6.56149 9.86929 -1.99715 93 97 109
-6.51761 9.90118 -1.99868 91 91 102
-5.27859 10.3259 -1.84841 115 119 128
-5.24035 10.3257 -1.84594 118 124 133
-4.75482 11.0395 -1.84169 105 109 120
-4.25185 11.6714 -1.82825 96 102 114
-12.1062 0.174196 -1.8643 97 106 124
-11.5211 1.02218 -1.86437 94 103 118
-11.5248 1.05456 -1.86599 96 103 119
-11.5228 1.10234 -1.86687 96 101 120
-10.9714 1.83239 -1.86382 90 98 114
-10.9839 1.86593 -1.86794 90 97 113
-10.9665 1.90921 -1.8664 89 96 112
-10.9653 1.94019 -1.86767 93 96 113
-10.3998 3.10522 -1.90606 87 89 102
-10.3892 3.13335 -1.90611 91 91 104
-10.3913 3.16605 -1.90911 94 96 109
-10.3772 3.20887 -1.90962 100 99 113
-10.3699 3.23828 -1.91051 92 91 105
-8.38414 6.60178 -1.94899 96 99 114
-8.34548 6.60774 -1.94393 96 98 113
-8.33515 6.64049 -1.94735 97 96 112
-8.30854 6.67879 -1.9491 95 96 114
-8.29369 6.70744 -1.95125 97 100 115
-7.62525 7.89539 -1.96598 93 96 111
-7.58706 7.92507 -1.96602 91 93 108
-7.56244 7.94629 -1.96645 93 96 111
-7.08325 8.90383 -1.98613 90 92 107
-7.04903 8.91381 -1.98419 91 94 109
-7.02644 8.94181 -1.98656 92 95 110
-6.48457 9.91597 -1.99832 92 93 105
-6.45609 9.93935 -1.99983 91 93 106
-5.20142 10.3234 -1.84312 120 127 135
-5.14704 10.329 -1.84067 114 118 129
-4.69764 11.0428 -1.83935 102 109 119
-4.66729 11.0706 -1.84239 98 104 117
-11.5248 0.942705 -1.86305 89 98 115
-11.5252 0.99062 -1.86431 89 101 117
-10.9975 1.72853 -1.86443 92 98 114
-10.9903 1.77373 -1.86493 87 93 109
-10.9799 1.8029 -1.86417 91 98 114
-10.4536 2.93333 -1.90406 91 97 111
-10.4268 2.95609 -1.90031 94 97 112
-10.4286 3.00401 -1.90419 94 93 108
-10.4312 3.03663 -1.90719 95 96 111
-10.4207 3.06486 -1.90724 94 93 109
-8.28571 6.74289 -1.95552 100 103 118
-8.23768 6.76047 -1.95091 96 99 114
-8.22248 6.78898 -1.95306 95 98 114
-8.18504 6.79541 -1.94843 96 98 113
-8.15622 6.83176 -1.94975 97 99 114
-8.13659 6.85593 -1.95062 95 98 113
-8.10185 6.86471 -1.94684 96 99 114
-7.53656 7.9659 -1.96648 92 95 110
-7.5106 7.98543 -1.9665 92 94 109
-7.47677 8.02077 -1.96818 92 94 111
-6.97702 8.9589 -1.98424 92 94 109
-6.95524 8.98839 -1.98701 92 96 108
-6.91465 8.98793 -1.98271 92 96 108
-6.42387 9.95569 -1.99984 92 91 105
-6.37586 9.98001 -1.99987 93 92 106
-5.1144 10.343 -1.84103 115 121 131
-5.07219 10.3311 -1.83644 109 113 123
-4.6275 11.0681 -1.84003 106 112 124
-11.5378 0.848151 -1.86326 92 101 118
-11.542 0.880442 -1.86488 86 95 113
-11.5324 0.9115 -1.86377 91 99 116
-11.1983 1.32589 -1.85878 87 94 110
-10.9992 1.6205 -1.86017 90 96 112
-11.0137 1.66933 -1.86513 93 97 111
-10.9921 1.69657 -1.86194 88 94 110
-10.4905 2.77201 -1.89997 88 96 109
-10.4827 2.80099 -1.90044 90 96 110
-10.4898 2.83467 -1.90429 89 95 109
-10.4606 2.87247 -1.901 89 95 111
-10.4507 2.90078 -1.90105 89 95 109
-9.43146 4.46035 -1.91212 103 105 118
-9.41143 4.48262 -1.91085 103 105 120
-9.39783 4.52497 -1.91311 103 105 120
-9.38272 4.54998 -1.91315 104 103 119
-9.36581 4.57398 -1.91275 103 105 120
-9.35005 4.61524 -1.91457 103 105 120
-9.3397 4.64305 -1.91593 102 105 120
-9.30067 4.65408 -1.90983 100 105 120
-9.29688 4.68575 -1.91294 103 107 119
-9.29392 4.73479 -1.91827 101 104 119
-9.27145 4.75547 -1.91656 101 103 118
-9.26893 4.78819 -1.9201 101 103 118
-9.23877 4.82104 -1.91841 102 103 121
-9.22437 4.8466 -1.91889 96 99 116
-9.18507 4.8567 -1.9128 96 99 116
-9.19094 4.91189 -1.92075 100 101 119
-9.17295 4.93524 -1.92035 103 105 123
-9.13516 4.94598 -1.91469 100 103 118
-9.14497 4.98703 -1.92175 105 108 123
-9.10742 5.01492 -1.9183 98 100 114
-9.10544 5.04864 -1.92229 101 103 117
-9.06262 5.05567 -1.91531 102 104 119
-9.05245 5.10135 -1.91932 100 102 117
-9.03875 5.12749 -1.92023 102 101 119
-9.0088 5.14273 -1.91676 97 99 114
-8.09712 6.90412 -1.95238 95 96 114
-8.03921 6.91062 -1.9448 97 99 114
-8.03285 6.94857 -1.94991 96 99 114
-8.00742 6.96676 -1.94909 96 99 114
-7.96962 6.99388 -1.94787 95 98 113
-7.45424 8.04477 -1.96942 92 94 109
-7.43159 8.06872 -1.97067 92 94 109
-7.3914 8.09595 -1.97031 92 95 109
-7.35917 8.10722 -1.96829 93 96 112
-6.90098 9.03059 -1.98862 93 95 109
-6.83999 9.02866 -1.98198 91 94 109
-6.34349 9.9961 -1.99988 90 92 107
-6.31109 10.0121 -1.9999 92 94 107
-5.03885 10.343 -1.83645 114 117 126
-4.57894 11.0991 -1.84274 101 108 118
-11.54 0.768681 -1.86193 95 103 122
-11.5328 0.799951 -1.86121 89 96 114
-11.1984 1.25428 -1.85704 93 99 115
-11.2092 1.29135 -1.85984 87 94 110
-11.0229 1.51632 -1.86078 86 92 109
-11.0032 1.5594 -1.85843 93 99 115
-11.0013 1.58994 -1.8593 91 97 113
-10.5229 2.59456 -1.89458 91 97 109
-10.5233 2.62579 -1.89675 87 93 107
-10.5062 2.6674 -1.89598 89 92 109
-10.4931 2.69471 -1.89519 92 96 108
-10.495 2.72652 -1.89778 91 94 109
-9.66983 3.97793 -1.90605 101 101 114
-9.66065 4.02176 -1.90875 104 104 117
-9.63486 4.04156 -1.90572 103 105 118
-9.62299 4.06814 -1.90621 106 105 119
-9.61978 4.09903 -1.90888 101 103 115
-9.59602 4.13578 -1.90807 104 102 116
-9.58732 4.16402 -1.90943 100 98 115
-9.57334 4.1896 -1.90947 104 105 120
-9.5561 4.22968 -1.91042 107 106 122
-9.54535 4.25698 -1.91134 103 105 120
-9.53108 4.28243 -1.91138 103 102 116
-9.51166 4.32144 -1.91189 104 103 117
-9.4903 4.34312 -1.91018 107 106 120
-9.47918 4.37026 -1.9111 105 107 120
-9.46111 4.39365 -1.91026 104 106 120
-9.44971 4.43707 -1.91296 106 105 119
-8.99489 5.18614 -1.91989 99 101 116
-8.98894 5.21764 -1.923 98 99 117
-8.95078 5.22706 -1.91734 99 100 118
-8.93959 5.27256 -1.92135 100 103 118
-8.9301 5.30179 -1.92358 99 102 117
-8.91255 5.32539 -1.92361 100 102 117
-8.88695 5.34331 -1.92146 100 103 118
-8.86556 5.38191 -1.92283 99 102 117
-8.84617 5.40419 -1.92243 99 102 117
-8.82355 5.4241 -1.92115 100 103 118
-8.7986 5.46017 -1.92165 100 103 118
-8.77741 5.48106 -1.92081 99 101 116
-8.76396 5.50769 -1.92216 99 101 116
-8.73705 5.54233 -1.92222 100 102 117
-8.71251 5.56066 -1.9205 100 102 117
-8.68792 5.57889 -1.91878 101 103 118
-8.67257 5.60414 -1.91969 100 103 118
-8.64522 5.63836 -1.91975 99 102 117
-7.94275 7.01043 -1.94663 98 101 116
-7.93849 7.05116 -1.95259 96 98 113
-7.89108 7.06789 -1.9484 98 100 115
-7.87459 7.09566 -1.95054 95 98 113
-7.33512 8.12934 -1.96912 92 95 111
-7.30281 8.16713 -1.97161 93 94 112
-7.27623 8.18595 -1.97164 90 94 109
-6.82499 9.06953 -1.98749 91 94 109
-6.79758 9.09031 -1.98829 91 94 109
-6.26282 10.0359 -1.99993 88 90 103
-6.23115 10.0534 -2.00031 90 91 103
-4.98855 10.3589 -1.83611 110 114 123
-4.95577 10.3724 -1.83647 100 104 114
-4.54767 11.1246 -1.84544 113 120 130
-4.50616 11.1161 -1.84207 105 113 124
-11.5394 0.736783 -1.86109 86 94 113
-11.2258 1.13213 -1.85916 88 95 112
-11.2311 1.16847 -1.86091 88 97 112
-11.2285 1.204 -1.86125 90 98 114
-11.0278 1.42461 -1.85817 86 92 111
-11.0166 1.45372 -1.85701 88 95 113
-11.0111 1.48367 -1.85707 89 96 114
-10.5603 2.46554 -1.89392 87 92 106
-10.5365 2.48996 -1.8906 87 93 107
-10.5333 2.53539 -1.89279 86 93 109
-10.515 2.56122 -1.89073 91 99 112
-9.80747 3.61095 -1.89711 93 95 107
-9.80774 3.6426 -1.90022 105 107 120
-9.81145 3.67584 -1.9042 101 103 118
-9.77403 3.6911 -1.89812 103 101 116
-9.77526 3.739 -1.90301 101 103 118
-9.76438 3.76594 -1.90349 107 106 120
-9.75695 3.79446 -1.90485 106 104 118
-9.74521 3.83682 -1.90667 106 104 118
-9.73224 3.86287 -1.90672 105 103 117
-9.72272 3.89053 -1.90764 106 104 118
-9.69463 3.92533 -1.90552 106 105 121
-9.69194 3.95625 -1.90819 108 107 121
-8.62505 5.65991 -1.91935 96 99 114
-8.60637 5.68259 -1.91938 98 101 116
-8.5817 5.71893 -1.92031 99 102 114
-8.56281 5.74148 -1.92035 99 101 116
-8.5545 5.77251 -1.92345 99 101 116
-8.52029 5.8013 -1.92176 99 102 117
-8.50568 5.82736 -1.92311 96 99 114
-8.48646 5.84968 -1.92314 98 101 117
-8.46868 5.87319 -1.92361 95 98 115
-7.85272 7.11764 -1.95099 93 99 115
-7.82551 7.13377 -1.94975 93 96 111
-7.80012 7.17449 -1.95276 94 96 111
-7.77667 7.1948 -1.95279 95 96 114
-7.74928 7.21065 -1.95155 94 97 114
-7.24843 8.20311 -1.97125 91 96 110
-7.21108 8.23423 -1.97211 92 95 110
-6.73965 9.09275 -1.98283 90 92 107
-6.71818 9.12337 -1.98599 89 94 107
-6.69257 9.14721 -1.98757 88 94 106
-6.19596 10.0638 -1.9992 89 91 103
-6.14916 10.0906 -1.99998 89 93 104
-4.91903 10.3747 -1.83471 102 106 117
-4.45058 11.1238 -1.84073 102 109 119
-11.5377 0.625418 -1.85853 108 114 129
-11.5349 0.656994 -1.8586 94 101 116
-11.2322 1.04346 -1.85847 91 99 115
-11.228 1.07877 -1.85847 89 96 114
-11.0358 1.31826 -1.85594 93 100 116
-11.023 1.34719 -1.85438 87 94 110
-11.0237 1.37797 -1.85565 90 96 112
-10.5844 2.33315 -1.89073 89 95 111
-10.5724 2.36082 -1.88994 94 96 113
-10.5641 2.38944 -1.88999 91 94 111
-10.5802 2.43998 -1.8964 90 93 108
-9.88524 3.37796 -1.89144 87 89 102
-9.88823 3.42564 -1.89634 90 92 105
-9.86935 3.44917 -1.89463 86 85 99
-9.8576 3.47558 -1.89468 89 88 102
-9.84747 3.51812 -1.8965 94 96 109
-9.82834 3.54146 -1.8948 88 90 103
-9.84679 3.58066 -1.90229 92 96 108
-8.44154 5.90773 -1.9241 97 100 117
-8.42355 5.93111 -1.92458 98 102 114
-8.40997 5.95821 -1.92636 99 103 114
-8.38538 5.99504 -1.92773 97 99 114
-8.35971 6.01193 -1.92601 96 99 114
-8.33844 6.03254 -1.92561 96 99 114
-8.31199 6.0678 -1.92654 97 99 114
-8.29632 6.09339 -1.92788 100 99 115
-7.71696 7.24378 -1.95244 95 98 113
-7.69073 7.2609 -1.95162 95 97 112
-7.66317 7.27644 -1.95037 94 98 111
-7.18885 8.25912 -1.97376 90 96 110
-7.15856 8.27282 -1.97256 90 96 110
-7.12824 8.28641 -1.97135 90 95 109
-7.08598 8.3106 -1.97057 89 95 109
-6.63858 9.15578 -1.98368 90 93 109
-6.61675 9.18619 -1.98684 89 90 108
-6.11387 10.1007 -1.99887 86 91 103
-6.08285 10.1195 -1.99963 85 89 101
-4.86861 10.39 -1.83437 103 107 119
-4.83636 10.4051 -1.83508 100 103 116
-4.41577 11.1377 -1.84141 103 111 122
-4.38041 11.1495 -1.84175 99 105 117
-11.5564 0.515382 -1.86027 95 103 122
-11.5207 0.545127 -1.8537 90 97 116
-11.2422 0.972966 -1.85883 89 99 116
-11.2363 1.00813 -1.85848 84 96 112
-11.0446 1.21221 -1.85411 91 98 114
-11.0438 1.24273 -1.85498 92 98 114
-11.0506 1.27426 -1.85748 90 97 113
-10.5991 2.19881 -1.88584 91 97 113
-10.5989 2.22938 -1.88758 89 96 112
-10.6004 2.26045 -1.88975 91 99 112
-10.5924 2.28915 -1.8898 92 99 115
-9.94854 3.20177 -1.88895 95 94 110
-9.93392 3.22704 -1.88812 96 96 111
-9.94655 3.26266 -1.89386 93 92 107
-9.92657 3.3012 -1.89306 89 90 104
-9.92073 3.3299 -1.89442 90 92 107
-9.91118 3.35718 -1.8949 85 87 102
-8.2865 6.12411 -1.93099 99 100 115
-8.25668 6.15658 -1.93104 98 100 114
-8.24367 6.18465 -1.93327 99 99 114
-8.219 6.20227 -1.93198 100 100 115
-8.19715 6.22243 -1.93157 97 99 113
-8.17405 6.26107 -1.93382 96 98 112
-7.64324 7.32403 -1.9555 94 96 111
-7.62187 7.34683 -1.95638 96 98 113
-7.58525 7.3517 -1.95216 96 97 115
-7.55597 7.38863 -1.95433 99 97 116
-7.0634 8.33518 -1.97223 91 94 109
-7.03628 8.35327 -1.97225 89 92 107
-6.58695 9.20297 -1.98685 89 91 106
-6.53288 9.21095 -1.98296 92 91 107
-6.50881 9.2377 -1.98533 91 93 108
-6.03828 10.1511 -2.00152 86 90 102
-5.99699 10.1484 -1.99779 86 90 102
-4.79963 10.407 -1.83332 102 105 118
-4.33801 11.1366 -1.8377 108 114 126
-11.5639 0.436384 -1.8605 90 98 119
-11.5315 0.482372 -1.85475 93 101 121
-11.2415 0.883771 -1.85709 95 102 121
-11.2299 0.918449 -1.85568 92 99 117
-11.0478 1.13622 -1.85234 87 95 110
-11.0511 1.16717 -1.85402 88 97 112
-10.6379 2.05543 -1.88599 90 96 112
-10.6329 2.09996 -1.88734 90 93 112
-10.6311 2.1301 -1.88866 95 98 117
-10.6102 2.15572 -1.88576 91 94 111
-10.0552 3.02597 -1.89648 94 94 110
-10.0319 3.0484 -1.89347 97 96 112
-10.0361 3.08052 -1.89702 92 91 107
-9.99499 3.11159 -1.89096 97 95 109
-9.98613 3.13904 -1.89145 92 89 104
-9.98085 3.16782 -1.89281 88 90 105
-8.1463 6.27579 -1.93165 96 98 113
-8.13138 6.30233 -1.93344 97 98 116
-8.0751 6.31013 -1.92559 98 100 115
-8.06714 6.34318 -1.92957 98 99 114
-8.05054 6.3682 -1.93092 100 99 117
-8.02238 6.40229 -1.93185 98 100 113
-7.53436 7.41119 -1.9552 97 96 114
-7.5052 7.42467 -1.95353 96 97 112
-7.48347 7.4471 -1.9544 94 97 112
-7.46104 7.49272 -1.95911 93 96 111
-6.99484 8.37864 -1.97188 93 96 113
-6.97089 8.40137 -1.97312 93 95 110
-6.94355 8.41917 -1.97314 92 94 109
-6.48076 9.25757 -1.98613 90 94 106
-6.45073 9.27394 -1.98615 89 93 105
-5.96827 10.1722 -1.99967 94 94 108
-5.93447 10.1853 -1.99931 86 86 98
-4.74782 10.418 -1.83228 98 102 113
-4.71358 10.4271 -1.83193 109 111 123
-4.294 11.1853 -1.84378 99 105 117
-4.25221 11.174 -1.84008 105 111 124
-11.5642 0.372927 -1.85959 102 109 127
-11.566 0.404733 -1.86044 81 89 110
-11.2352 0.847665 -1.85534 92 99 117
-11.0662 1.0772 -1.85426 93 100 118
-11.0561 1.10662 -1.8531 88 97 114
-10.6491 1.95156 -1.88284 89 96 112
-10.6561 1.99859 -1.88673 90 98 113
-10.6452 2.0266 -1.88594 87 93 107
-10.1039 2.85994 -1.89355 93 95 110
-10.0784 2.89688 -1.89101 90 92 107
-10.0758 2.92639 -1.89281 93 96 111
-10.0693 2.95467 -1.89373 88 91 106
-10.0637 2.99834 -1.89599 92 94 109
-8.00276 6.4245 -1.93231 96 100 112
-7.98865 6.45209 -1.93454 97 99 112
-7.95771 6.46333 -1.93149 95 98 112
-7.92213 6.4902 -1.93023 96 96 114
-7.90774 6.51761 -1.93245 95 95 113
-7.8822 6.534 -1.93116 98 99 117
-7.42305 7.49532 -1.95447 93 95 110
-7.4072 7.52512 -1.95746 94 95 113
-7.35983 7.54002 -1.95368 94 95 113
-6.90399 8.44735 -1.97358 90 93 110
-6.87545 8.46333 -1.97319 91 94 111
-6.84792 8.48084 -1.97321 92 95 112
-6.40699 9.30003 -1.98657 91 92 110
-6.38247 9.32648 -1.98894 89 92 107
-5.88457 10.2056 -1.99896 86 86 97
-5.85151 10.2202 -1.99897 81 82 94
-4.67749 10.4304 -1.83052 104 108 119
-4.62564 10.4408 -1.82947 101 108 118
-4.21821 11.1911 -1.84142 103 111 121
-11.551 0.293253 -1.85593 93 101 118
-11.557 0.325118 -1.85755 91 100 115
-11.2701 0.725572 -1.85956 90 102 116
-11.2433 0.759344 -1.85535 90 99 114
-11.2282 0.793817 -1.85325 94 101 117
-11.0684 0.970707 -1.85162 88 100 116
-11.0761 1.00197 -1.85411 91 102 119
-11.0682 1.03166 -1.85336 97 106 123
-10.6583 1.86257 -1.88015 90 96 111
-10.6572 1.89263 -1.88147 87 94 110
-10.6657 1.92473 -1.8849 91 97 113
-10.1434 2.67625 -1.88798 91 94 111
-10.1396 2.70518 -1.88934 92 95 111
-10.1265 2.73123 -1.88852 92 95 110
-10.1282 2.76192 -1.89119 86 90 105
-10.1142 2.80266 -1.89127 91 96 115
-10.1137 2.8328 -1.89351 89 92 109
-7.85733 6.57155 -1.93341 96 97 115
-7.83302 6.58914 -1.93256 94 97 114
-7.79365 6.59134 -1.92688 95 98 113
-7.77794 6.63833 -1.93219 95 98 113
-7.75616 6.65845 -1.93222 96 98 113
-7.34982 7.57735 -1.95879 93 96 112
-7.32875 7.60088 -1.96009 93 97 112
-7.28719 7.62301 -1.95844 94 96 111
-7.25995 7.63866 -1.95761 95 97 112
-6.82143 8.49991 -1.97364 93 94 112
-6.78145 8.52754 -1.97408 91 94 111
-6.34661 9.33221 -1.9866 90 93 108
-6.2998 9.35266 -1.98584 90 93 108
-5.81677 10.2311 -1.99823 82 85 97
-5.76186 10.2401 -1.99564 68 72 83
-4.59135 10.4495 -1.82912 107 115 125
-4.15892 11.1841 -1.83773 103 107 119
-11.543 0.213973 -1.85343 90 101 119
-11.5567 0.261764 -1.85665 99 108 126
-11.2821 0.672921 -1.86097 93 102 117
-11.0853 0.896183 -1.85309 87 96 110
-11.0777 0.92594 -1.85234 85 96 111
-10.6745 1.7151 -1.8765 87 94 110
-10.675 1.7603 -1.87869 91 100 113
-10.682 1.79186 -1.8817 93 99 115
-10.6755 1.82078 -1.88175 91 94 111
-10.1747 2.53601 -1.88466 90 93 107
-10.1637 2.5775 -1.88518 89 95 109
-10.1603 2.60643 -1.88654 89 95 109
-10.1474 2.63258 -1.88571 88 91 106
-7.74242 6.68694 -1.93488 95 97 112
-7.71667 6.724 -1.93712 95 99 115
-7.68926 6.73827 -1.93539 95 98 115
-7.67651 6.76806 -1.93849 96 99 116
-7.23983 7.66351 -1.95933 95 97 112
-7.20892 7.67436 -1.95723 93 95 110
-7.1789 7.71143 -1.95981 93 95 111
-6.75584 8.54806 -1.97492 90 93 108
-6.73123 8.57015 -1.97616 90 93 108
-6.69194 8.59904 -1.97701 92 95 112
-6.27039 9.3702 -1.98625 89 92 107
-6.24275 9.39111 -1.98744 88 91 106
-5.72392 10.2435 -1.9934 74 77 88
-5.68836 10.2522 -1.99229 78 82 94
-4.55763 10.46 -1.82912 101 105 117
-4.52331 10.4685 -1.82877 104 108 120
-4.11936 11.1799 -1.83537 105 111 123
-4.08378 11.1909 -1.8357 102 108 118
-11.2623 0.600575 -1.85642 97 104 123
-11.2634 0.63619 -1.85712 91 98 116
-11.0855 0.789752 -1.85045 93 100 116
-11.0899 0.820511 -1.85213 88 95 111
-11.0889 0.866049 -1.85303 97 103 117
-10.6993 1.6145 -1.87714 90 96 112
-10.6964 1.659 -1.8785 94 97 112
-10.6999 1.68975 -1.88066 91 94 109
-10.2038 2.41027 -1.88224 88 94 110
-10.2103 2.44181 -1.88579 95 97 112
-10.1791 2.47763 -1.8815 90 91 108
-10.1685 2.5044 -1.88111 89 91 106
-9.28258 4.05917 -1.91303 104 103 119
-9.27583 4.08744 -1.91489 104 103 119
-9.2522 4.12256 -1.91405 104 103 119
-9.23492 4.1453 -1.91318 104 103 119
-9.22271 4.17073 -1.91368 103 102 118
-9.20043 4.20651 -1.91329 107 106 122
-9.19485 4.2356 -1.9156 103 105 120
-9.17555 4.25717 -1.91428 106 110 122
-9.16307 4.29841 -1.91661 103 105 120
-9.15037 4.32366 -1.91711 102 101 118
-9.12911 4.34409 -1.91533 103 100 117
-9.12134 4.37215 -1.91719 102 101 117
-9.09475 4.40548 -1.91589 104 103 119
-9.08843 4.43447 -1.9182 105 104 120
-9.07194 4.45756 -1.91779 104 103 119
-9.05335 4.49557 -1.91876 99 100 118
-9.03666 4.51855 -1.91834 105 107 123
-9.01991 4.54147 -1.91793 101 102 118
-8.98593 4.57019 -1.91482 103 104 120
-8.98563 4.6031 -1.91894 101 103 118
-8.97028 4.62687 -1.91898 101 103 118
-8.96147 4.6547 -1.92083 100 102 117
-8.93862 4.69023 -1.9209 105 107 119
-8.92795 4.71698 -1.92229 105 104 118
-8.91881 4.74475 -1.92415 106 105 119
-8.88241 4.77168 -1.92058 102 104 119
-8.87309 4.79936 -1.92243 102 104 119
-8.85221 4.81961 -1.92111 103 105 120
-8.82858 4.85465 -1.92117 100 102 117
-8.82868 4.88869 -1.92575 103 102 120
-8.79947 4.90336 -1.92215 100 99 117
-8.78802 4.92983 -1.92355 101 100 118
-8.77033 4.96894 -1.92543 96 98 113
-8.74578 4.98658 -1.9232 99 101 116
-8.73404 5.01294 -1.92459 98 101 116
-8.7143 5.05077 -1.92602 101 103 116
-8.69594 5.07262 -1.9256 102 105 120
-8.68391 5.09888 -1.927 99 102 117
-8.65738 5.13203 -1.9266 98 101 116
-8.64512 5.15821 -1.928 98 104 118
-8.63592 5.18665 -1.9303 98 101 116
-8.61244 5.2048 -1.92852 98 101 116
-7.657 6.79073 -1.9394 95 96 114
-7.62006 6.81604 -1.93813 93 96 111
-7.60169 6.83999 -1.93947 95 98 113
-7.5806 6.86102 -1.93994 93 99 113
-7.15144 7.72672 -1.95899 94 97 113
-7.13796 7.76069 -1.96325 93 96 111
-7.09815 7.78496 -1.96244 90 96 110
-6.65774 8.60606 -1.97458 88 94 108
-6.62978 8.62291 -1.9746 89 95 109
-6.20026 9.41974 -1.98865 91 93 107
-6.15617 9.40917 -1.98277 90 94 106
-5.63192 10.2569 -1.98894 78 82 93
