-4.26948 -5.73672 -1.82183 120 114 114
-4.28665 -5.72409 -1.82182 116 112 113
-4.65547 -5.17877 -1.82171 84 83 99
-4.66076 -5.15326 -1.81722 92 91 105
-4.67984 -5.14365 -1.81889 100 99 113
-6.48061 -2.78614 -1.8588 76 76 86
-6.49276 -2.7561 -1.85878 75 75 85
-6.5111 -2.74053 -1.86211 77 77 87
-6.95907 -2.16124 -1.87215 73 76 67
-6.95947 -2.13794 -1.87049 73 75 70
-7.25019 -1.69607 -1.86436 80 93 116
-7.64381 -1.26152 -1.88552 79 91 115
-7.61643 -1.2325 -1.8773 67 81 107
-8.03052 -0.604002 -1.87146 78 90 114
-2.54118 -6.73111 -1.58854 124 125 135
-2.86075 -6.36106 -1.60217 130 129 135
-3.15088 -6.05227 -1.62069 123 122 130
-3.52358 -5.83213 -1.67182 125 114 108
-3.5549 -5.82501 -1.67446 129 119 111
-4.22702 -5.76964 -1.82239 120 112 112
-4.24462 -5.73822 -1.81803 119 113 112
-4.60097 -5.2271 -1.82174 91 89 101
-4.61895 -5.21628 -1.82285 60 58 71
-4.62447 -5.19081 -1.81836 80 83 95
-6.51172 -2.71745 -1.85986 74 77 86
-6.52355 -2.68725 -1.85984 76 76 85
-6.53462 -2.66854 -1.86093 76 76 86
-6.5421 -2.64834 -1.86092 76 76 86
-6.97081 -2.11809 -1.87211 74 75 70
-6.97106 -2.09477 -1.87045 85 84 81
-7.25721 -1.66205 -1.86433 75 90 113
-7.26341 -1.63977 -1.86484 77 92 115
-7.62508 -1.19728 -1.8783 65 79 105
-8.01721 -0.571623 -1.86674 73 87 113
-8.02953 -0.552 -1.87021 77 91 117
-2.83091 -6.37148 -1.60167 127 128 136
-3.13189 -6.05957 -1.62019 126 124 133
-3.47831 -5.83408 -1.66602 112 102 97
-3.49667 -5.82561 -1.66654 118 108 102
-4.18912 -5.78968 -1.82078 104 100 99
-4.20755 -5.7789 -1.82132 128 120 122
-4.54228 -5.27036 -1.8201 138 137 142
-4.55669 -5.25534 -1.81953 152 151 158
-4.57475 -5.24468 -1.82063 124 124 133
-6.55128 -2.62883 -1.86145 78 78 86
-6.55734 -2.59631 -1.85976 77 78 83
-6.57708 -2.58095 -1.86365 81 82 87
-6.9855 -2.06402 -1.87206 85 83 86
-6.9911 -2.04236 -1.87204 86 84 89
-7.27328 -1.61829 -1.86641 79 91 115
-7.2737 -1.59472 -1.86533 67 79 105
-7.64511 -1.17607 -1.88289 74 86 110
-7.64218 -1.15121 -1.88134 67 78 100
-8.02849 -0.531175 -1.86959 74 86 110
-8.03117 -0.510666 -1.87014 76 88 114
-2.79257 -6.38754 -1.60169 129 128 137
-2.80883 -6.37237 -1.5997 130 130 139
-3.08188 -6.07316 -1.61763 128 127 135
-3.10415 -6.07303 -1.62019 127 127 137
-3.42306 -5.83897 -1.65968 102 95 93
-3.4461 -5.8391 -1.66285 108 99 96
-4.11925 -5.81969 -1.81646 120 113 110
-4.13987 -5.81235 -1.81808 119 109 108
-4.16048 -5.80493 -1.8197 107 98 101
-4.48798 -5.31888 -1.82069 128 123 134
-4.50014 -5.30104 -1.819 130 126 134
-4.52074 -5.29357 -1.82123 132 130 136
-6.57534 -2.55711 -1.86084 89 90 95
-6.58462 -2.5259 -1.86026 91 92 97
-6.99478 -2.02013 -1.87148 83 82 90
-6.99229 -1.98435 -1.8682 82 86 98
-7.28402 -1.56137 -1.86636 72 86 112
-7.28613 -1.53818 -1.86582 72 86 112
-7.65046 -1.11581 -1.88234 79 91 115
-8.01359 -0.478193 -1.86424 74 88 114
-2.76334 -6.39942 -1.60169 129 128 136
-3.04456 -6.08899 -1.61714 126 125 133
-3.06684 -6.08901 -1.61969 127 126 134
-3.40006 -5.83874 -1.65652 99 92 91
-4.05628 -5.82075 -1.80668 116 108 106
-4.09231 -5.81729 -1.81157 119 111 109
-4.43551 -5.36979 -1.8224 143 140 148
-4.44907 -5.35358 -1.82127 133 132 137
-4.47335 -5.3337 -1.82126 130 126 134
-6.60063 -2.50894 -1.86303 79 83 88
-6.60759 -2.48851 -1.86301 69 71 77
-6.60576 -2.45313 -1.85908 99 94 92
-7.01056 -1.96638 -1.87198 80 86 98
-7.02139 -1.94621 -1.87359 83 91 104
-7.28816 -1.51499 -1.86527 74 86 110
-7.66262 -1.09321 -1.88488 80 94 118
-7.65369 -1.06752 -1.88178 78 92 118
-8.01993 -0.45799 -1.86596 76 90 116
-8.0262 -0.437744 -1.86768 82 96 122
-2.74267 -6.40366 -1.6007 127 125 135
-3.02142 -6.11259 -1.62022 126 127 133
-3.31668 -5.83214 -1.64384 135 131 128
-3.34046 -5.83439 -1.64753 133 129 126
-3.36795 -5.84332 -1.65334 114 108 107
-3.99854 -5.80882 -1.79472 117 107 106
-4.03464 -5.82617 -1.80451 116 108 106
-4.39147 -5.39801 -1.82075 96 94 102
-4.41479 -5.3769 -1.82018 144 138 149
-6.63595 -2.44132 -1.86632 65 61 65
-6.64811 -2.42274 -1.86798 81 76 77
-6.64939 -2.40019 -1.86628 81 81 80
-7.02406 -1.91196 -1.87194 79 88 103
-7.00512 -1.88351 -1.86485 80 90 102
-7.00829 -1.86126 -1.86429 127 134 142
-7.28868 -1.47963 -1.86366 71 86 109
-7.30753 -1.45978 -1.86787 80 95 118
-7.65203 -1.03069 -1.88023 73 85 111
-8.02352 -0.406491 -1.86646 81 95 121
-2.722 -6.40783 -1.59972 128 128 138
-2.99836 -6.11064 -1.61715 127 128 136
-3.29834 -5.84 -1.64332 134 129 128
-3.91659 -5.81688 -1.78387 117 110 104
-3.94831 -5.82818 -1.79148 117 108 103
-3.97297 -5.82796 -1.79528 119 109 107
-4.34732 -5.46009 -1.82693 88 88 100
-4.3721 -5.44071 -1.82692 85 84 92
-4.3871 -5.4262 -1.82635 97 94 102
-6.66335 -2.37058 -1.86738 82 85 69
-6.67531 -2.35185 -1.86904 86 88 69
-6.6854 -2.33243 -1.87014 88 86 71
-7.01326 -1.8395 -1.86427 122 124 136
-7.30742 -1.43617 -1.86679 75 89 112
-7.33215 -1.4054 -1.87205 76 89 113
-7.65247 -1.00642 -1.87969 78 92 118
-8.02964 -0.386186 -1.86817 75 89 115
-8.01089 -0.364374 -1.86229 68 82 108
-2.70204 -6.41373 -1.59923 128 128 138
-2.97533 -6.10859 -1.61408 126 127 135
-3.24267 -5.84145 -1.63645 133 129 131
-3.26545 -5.8423 -1.63961 133 129 129
-3.85938 -5.82404 -1.77681 121 112 107
-3.88491 -5.82582 -1.78115 117 108 103
-4.29951 -5.50004 -1.82752 111 108 120
-4.31243 -5.48268 -1.82583 102 101 115
-4.33105 -5.47295 -1.82694 80 82 97
-6.68455 -2.2976 -1.86676 77 77 64
-6.69448 -2.27812 -1.86786 85 85 74
-7.01357 -1.80487 -1.86207 125 127 139
-7.03878 -1.78843 -1.86803 128 130 142
-7.03049 -1.76321 -1.8642 124 126 138
-7.31294 -1.37822 -1.86569 78 90 112
-7.64899 -0.981638 -1.87813 69 83 109
-7.67222 -0.960336 -1.88375 77 91 117
-8.02504 -0.334157 -1.86633 79 93 119
-2.65335 -6.43271 -1.59924 126 126 136
-2.6706 -6.41974 -1.59774 127 127 137
-2.93051 -6.13321 -1.61511 124 124 133
-2.94814 -6.12305 -1.61459 125 125 133
-3.22168 -5.84393 -1.63434 129 127 130
-3.81344 -5.82837 -1.77084 122 113 106
-3.83589 -5.82543 -1.77355 120 111 108
-4.24441 -5.51311 -1.82083 111 109 122
-4.27105 -5.51443 -1.82585 113 111 125
-5.1821 -4.12215 -1.8175 92 96 108
-5.19713 -4.10869 -1.81864 91 94 109
-5.21212 -4.09516 -1.81978 89 95 109
-5.23051 -4.07117 -1.81977 89 95 109
-5.24092 -4.05393 -1.81917 95 98 115
-5.25277 -4.03785 -1.81915 93 96 113
-5.2769 -4.01838 -1.82146 89 95 111
-5.28412 -3.99864 -1.8197 97 103 117
-5.29579 -3.98242 -1.81968 96 98 111
-5.31349 -3.97082 -1.82198 97 100 115
-5.34192 -3.95445 -1.82603 95 101 115
-5.34889 -3.93457 -1.82427 94 97 112
-5.36343 -3.92043 -1.82541 93 96 111
-5.37791 -3.89339 -1.82424 96 99 114
-5.38773 -3.87572 -1.82364 97 100 115
-5.39442 -3.85574 -1.82188 96 99 114
-5.41321 -3.83197 -1.82245 95 101 117
-5.42591 -3.81643 -1.82301 95 101 115
-5.44323 -3.80421 -1.82531 93 99 111
-5.43718 -3.77521 -1.81892 98 101 116
-5.46966 -3.76114 -1.82469 98 100 113
-5.48686 -3.7487 -1.827 98 101 116
-5.47893 -3.71866 -1.82002 94 96 111
-5.49238 -3.69115 -1.81885 88 87 103
-5.50941 -3.67856 -1.82115 87 89 104
-5.50902 -3.65403 -1.81707 91 93 106
-5.53006 -3.63176 -1.81879 93 92 106
-5.53901 -3.61365 -1.8182 90 92 104
-5.55584 -3.60081 -1.8205 83 85 97
-6.70799 -2.25981 -1.87008 87 87 75
-6.69402 -2.22075 -1.86279 75 76 70
-6.70008 -2.19999 -1.86277 77 77 77
-7.32014 -1.35601 -1.86672 77 90 112
-7.33487 -1.33511 -1.86988 73 88 111
-7.6356 -0.919209 -1.87297 79 91 114
-8.03094 -0.313773 -1.86805 69 84 107
-2.63333 -6.43838 -1.59875 127 126 132
-2.91434 -6.14687 -1.61666 123 122 130
-3.16797 -5.84806 -1.62853 130 128 133
-3.19066 -5.84922 -1.6317 130 128 131
-3.75056 -5.8246 -1.76051 122 113 106
-3.7759 -5.82685 -1.76486 121 112 107
-4.21736 -5.56453 -1.82812 108 107 116
-4.23698 -5.53803 -1.82532 109 107 120
-5.02026 -4.29942 -1.81302 93 94 112
-5.05398 -4.289 -1.8188 94 97 112
-5.06225 -4.26977 -1.81705 93 96 111
-5.07478 -4.25428 -1.81703 94 97 112
-5.09537 -4.23221 -1.81759 92 94 109
-5.11069 -4.2191 -1.81874 93 95 110
-5.10993 -4.19231 -1.8135 91 94 109
-5.13025 -4.17005 -1.81407 94 100 114
-5.15274 -4.16292 -1.81811 88 96 110
-5.16495 -4.14713 -1.81809 88 95 111
-5.58383 -3.59529 -1.82686 91 93 105
-5.58705 -3.56105 -1.8222 98 97 113
-5.59735 -3.54381 -1.82218 84 86 99
-5.60278 -3.52343 -1.82043 69 75 89
-5.62814 -3.50366 -1.82389 72 78 92
-5.63664 -3.48526 -1.82329 71 75 88
-5.64184 -3.46479 -1.82153 69 71 86
-5.66862 -3.44573 -1.82557 68 71 88
-5.6753 -3.4262 -1.82439 71 74 91
-5.68518 -3.40867 -1.82438 73 79 95
-5.6999 -3.39409 -1.8261 74 80 98
-6.72249 -2.18455 -1.86778 76 76 76
-6.73394 -2.16546 -1.86944 76 77 73
-7.07781 -1.71742 -1.87449 78 83 105
-7.08231 -1.69543 -1.87447 76 87 109
-7.34588 -1.30162 -1.87144 72 84 108
-7.34527 -1.27795 -1.87036 79 91 115
-7.64142 -0.895694 -1.87397 75 88 108
-7.6165 -0.86854 -1.86678 72 84 106
-8.01768 -0.292438 -1.86392 75 90 115
-8.01007 -0.271438 -1.86154 72 86 112
-2.60384 -6.44948 -1.59875 127 129 137
-2.88545 -6.15748 -1.61615 118 117 125
-3.14531 -5.84682 -1.62536 128 128 130
-3.69377 -5.83014 -1.75345 123 113 107
-3.72625 -5.8239 -1.75671 124 114 108
-4.18299 -5.58777 -1.82758 108 105 116
-4.19183 -5.56448 -1.82366 106 105 116
-4.91527 -4.41939 -1.81255 93 95 110
-4.94361 -4.40466 -1.81601 93 97 109
-4.95799 -4.39086 -1.81658 93 97 108
-4.96808 -4.37313 -1.8154 93 97 108
-4.9906 -4.35292 -1.81655 97 97 111
-5.00483 -4.33895 -1.81711 100 99 113
-5.01758 -4.32365 -1.81709 95 98 111
-5.74771 -3.38745 -1.83767 70 75 94
-5.71482 -3.34408 -1.82258 72 79 97
-5.74088 -3.33621 -1.82836 69 78 93
-5.74908 -3.30568 -1.82602 71 78 94
-5.76684 -3.29273 -1.8289 71 78 94
-5.76308 -3.2672 -1.82425 71 78 94
-5.78087 -3.24234 -1.82539 67 75 90
-6.73403 -2.13122 -1.86662 75 75 75
-6.74347 -2.11147 -1.86772 84 84 86
-7.08751 -1.66196 -1.87391 74 86 107
-7.11052 -1.64438 -1.87932 75 88 110
-7.35029 -1.25525 -1.87087 79 94 115
-7.64075 -0.835031 -1.87239 73 87 113
-8.01807 -0.240788 -1.86383 70 85 110
-2.58378 -6.45498 -1.59826 126 129 138
-2.84619 -6.16844 -1.61462 126 125 131
-2.86026 -6.14964 -1.61154 121 120 128
-3.09263 -5.85196 -1.62008 126 126 126
-3.11266 -5.84824 -1.62166 125 125 126
-3.64342 -5.82483 -1.74476 123 112 106
-3.66665 -5.82421 -1.74802 122 113 106
-4.12072 -5.6259 -1.82593 110 107 114
-4.13531 -5.61059 -1.8248 109 106 115
-4.15864 -5.60778 -1.82815 109 107 118
-4.81957 -4.50651 -1.80858 77 82 99
-4.85623 -4.51442 -1.81842 81 84 100
-4.86678 -4.49696 -1.81725 90 93 107
-4.85788 -4.46099 -1.80796 89 95 109
-4.89189 -4.45189 -1.81374 90 94 106
-4.90361 -4.43566 -1.81314 94 96 109
-5.83501 -3.25006 -1.84102 71 78 94
-5.84268 -3.23105 -1.84042 70 77 93
-5.84861 -3.21109 -1.83924 70 77 93
-5.85947 -3.18205 -1.83807 71 78 94
-5.84347 -3.15003 -1.82936 69 76 92
-6.7547 -2.09224 -1.86938 80 79 84
-6.76542 -2.06134 -1.86991 81 78 88
-7.10918 -1.62096 -1.87767 79 91 113
-7.08719 -1.5928 -1.87004 80 92 114
-7.35143 -1.22006 -1.86979 75 89 115
-7.63098 -0.809766 -1.8693 70 84 110
-7.7798 -0.559534 -1.86189 61 76 99
-7.78529 -0.529984 -1.86306 80 92 116
-8.01603 -0.220055 -1.8632 77 92 115
-8.01201 -0.199267 -1.86199 82 94 118
-2.56305 -6.45859 -1.59727 123 126 136
-2.82693 -6.17471 -1.61412 128 128 136
-3.0584 -5.87133 -1.62063 131 129 134
-3.07764 -5.866 -1.62168 128 126 129
-3.5841 -5.82431 -1.73607 125 116 107
-3.60819 -5.82559 -1.73987 125 115 107
-4.08147 -5.66082 -1.82763 113 107 114
-4.1061 -5.64116 -1.82706 109 105 112
-4.74346 -4.59913 -1.81098 65 73 92
-4.75839 -4.58605 -1.81154 63 71 90
-4.7723 -4.55756 -1.80863 68 77 94
-4.78438 -4.54169 -1.80803 70 76 92
-4.80733 -4.53649 -1.81208 78 84 98
-5.88938 -3.15216 -1.84209 70 80 92
-5.9033 -3.12478 -1.84207 74 82 95
-5.9055 -3.10286 -1.83973 72 80 93
-5.92448 -3.08996 -1.84319 70 80 92
-5.93304 -3.05972 -1.84143 71 77 91
-6.77833 -2.04255 -1.87213 81 80 88
-6.77649 -2.01932 -1.86987 80 78 88
-7.11436 -1.56441 -1.876 78 90 114
-7.36007 -1.19792 -1.87136 72 86 112
-7.35153 -1.17306 -1.86816 76 88 114
-7.64797 -0.787426 -1.87338 77 92 116
-7.77088 -0.508915 -1.85817 73 84 108
-8.02731 -0.168734 -1.86662 80 92 116
-2.53347 -6.46935 -1.59727 126 128 140
-2.8001 -6.19026 -1.61514 128 127 135
-3.02995 -5.88092 -1.61957 128 129 131
-3.53508 -5.81976 -1.72792 122 113 106
-3.56755 -5.83634 -1.73662 122 113 106
-4.03155 -5.66086 -1.81926 116 114 117
-4.05595 -5.6601 -1.82316 114 109 113
-4.66362 -4.67356 -1.80931 67 76 93
-4.69997 -4.68282 -1.81915 67 76 93
-4.7218 -4.67677 -1.82261 65 76 94
-4.71159 -4.63776 -1.81216 65 76 93
-4.72985 -4.61352 -1.81099 64 73 90
-5.95025 -3.04577 -1.84431 73 77 92
-5.96232 -3.02908 -1.84545 73 76 91
-5.98116 -3.01585 -1.84891 70 76 90
-5.99275 -2.98714 -1.84831 70 78 91
-6.00295 -2.96941 -1.84887 68 76 89
-6.78872 -1.98882 -1.87097 78 82 94
-6.79037 -1.96667 -1.86983 78 83 95
-6.79934 -1.94663 -1.87093 85 87 100
-7.12025 -1.5427 -1.87652 78 91 114
-7.12609 -1.52097 -1.87704 82 96 117
-7.37703 -1.14165 -1.87396 79 91 117
-7.61619 -0.74786 -1.86414 72 84 108
-7.64452 -0.726578 -1.87129 78 90 114
-7.79438 -0.490695 -1.86541 75 85 112
-8.00976 -0.147587 -1.86132 79 91 115
-2.51337 -6.47462 -1.59678 126 128 140
-2.75929 -6.19704 -1.61259 131 130 137
-2.77645 -6.18562 -1.61156 129 129 135
-2.99553 -5.89988 -1.62011 127 126 131
-3.01646 -5.89826 -1.62222 128 128 130
-3.48079 -5.82658 -1.72195 120 111 104
-3.50565 -5.82998 -1.72629 122 113 106
-3.99618 -5.70149 -1.82319 118 114 115
-4.00681 -5.68016 -1.81983 118 113 117
-4.64458 -4.75492 -1.82269 65 77 93
-4.62586 -4.706 -1.80818 66 78 94
-4.64107 -4.69334 -1.80874 67 76 93
-6.01651 -2.95336 -1.85059 67 75 88
-6.0158 -2.91853 -1.84594 71 77 89
-6.03438 -2.90493 -1.8494 71 77 89
-6.04433 -2.88703 -1.84996 72 76 87
-6.89498 -1.95103 -1.89829 80 84 98
-6.79601 -1.88918 -1.86586 61 71 81
-7.12856 -1.48691 -1.87594 82 94 116
-7.12672 -1.46354 -1.87428 76 89 109
-7.374 -1.11766 -1.87235 72 84 110
-7.36709 -1.09315 -1.86969 73 85 111
-7.62286 -0.700351 -1.86512 69 82 105
-7.79955 -0.461025 -1.86657 78 88 115
-7.79061 -0.440438 -1.86351 76 89 115
-8.02271 -0.127245 -1.86537 79 94 117
-2.47438 -6.48861 -1.59679 127 127 138
-2.49517 -6.4853 -1.59778 128 129 141
-2.96778 -5.9109 -1.61959 130 129 134
-3.45596 -5.82308 -1.7176 123 114 109
-3.95205 -5.72903 -1.82265 121 116 112
-3.9802 -5.7148 -1.82376 120 116 115
-4.57019 -4.8219 -1.82158 68 77 94
-4.59201 -4.80109 -1.82157 69 78 93
-4.61399 -4.7956 -1.82503 69 78 93
-4.61647 -4.76897 -1.8198 65 77 93
-6.06219 -2.86136 -1.85168 73 77 88
-6.07201 -2.84336 -1.85224 73 77 86
-6.08178 -2.82532 -1.8528 73 75 86
-6.09324 -2.80806 -1.85394 75 75 85
-6.80105 -1.86806 -1.86584 129 131 137
-6.79675 -1.84442 -1.86303 125 123 131
-7.13608 -1.44254 -1.87589 77 89 113
-7.3658 -1.0695 -1.86861 71 83 108
-7.62226 -0.676215 -1.86458 75 90 113
-7.78921 -0.420375 -1.86287 82 97 123
-7.78394 -0.400098 -1.86101 77 91 117
-8.01284 -0.0960325 -1.8624 83 95 119
-8.01989 -0.0754845 -1.8647 83 98 121
-2.71152 -6.21456 -1.61209 130 129 137
-2.72808 -6.20149 -1.61054 133 132 141
-2.9565 -5.93333 -1.62383 131 130 134
-3.40544 -5.83595 -1.71381 119 111 108
-3.42475 -5.8295 -1.71489 119 112 107
-3.91983 -5.75532 -1.82379 131 123 121
-3.94012 -5.74864 -1.82545 124 119 116
-4.49741 -4.87506 -1.81816 69 78 95
-4.53092 -4.86748 -1.82337 68 77 94
-4.55173 -4.86088 -1.82625 69 78 95
-4.561 -4.84139 -1.82392 68 77 94
-6.11247 -2.78288 -1.85624 77 77 85
-6.10817 -2.75827 -1.85216 74 74 82
-6.13509 -2.74804 -1.85851 76 76 84
-6.81188 -1.81469 -1.86524 126 126 136
-6.81299 -1.79253 -1.8641 125 128 138
-7.14758 -1.41038 -1.8775 74 89 113
-7.13228 -1.38436 -1.87205 73 87 113
-7.36797 -1.03456 -1.86806 77 90 116
-7.37033 -1.01144 -1.86804 74 88 114
-7.62257 -0.640101 -1.86405 71 85 111
-7.64291 -0.617756 -1.86915 70 84 107
-7.78679 -0.370304 -1.86157 74 89 112
-8.01924 -0.0547963 -1.86466 71 86 109
-2.44592 -6.50259 -1.59779 129 132 140
-2.69075 -6.21677 -1.61055 126 126 134
-2.93235 -5.92772 -1.6196 128 128 130
-3.34603 -5.83131 -1.70457 120 115 111
-3.37984 -5.83043 -1.70892 120 113 107
-3.8753 -5.78221 -1.82324 123 113 110
-3.90057 -5.76353 -1.82268 135 126 119
-4.44985 -4.9267 -1.81994 67 74 90
-4.46966 -4.9036 -1.81877 67 75 92
-4.49806 -4.90591 -1.82513 67 76 93
-6.13839 -2.71548 -1.8556 79 81 88
-6.13033 -2.68936 -1.85036 78 78 86
-6.1449 -2.6734 -1.85266 78 78 86
-6.82514 -1.77327 -1.86632 124 126 138
-7.14517 -1.36402 -1.87474 76 88 112
-7.15987 -1.34397 -1.87799 73 85 107
-7.35733 -0.986317 -1.86379 76 88 112
-7.61897 -0.591695 -1.86247 72 86 109
-7.79089 -0.350552 -1.86275 75 90 113
-7.78349 -0.330235 -1.86029 73 87 113
-8.02236 -0.0341402 -1.86578 78 91 114
-2.66297 -6.22988 -1.61107 126 126 136
-2.88594 -5.94489 -1.61855 130 129 134
-2.90923 -5.94895 -1.62225 126 126 128
-3.29781 -5.82478 -1.69642 120 115 111
-3.32146 -5.82724 -1.70022 120 115 109
-3.8336 -5.79337 -1.81935 109 100 100
-3.85801 -5.79352 -1.82325 113 105 102
-4.35617 -4.95442 -1.80724 72 79 95
-4.37825 -4.95004 -1.8107 70 77 94
-4.42051 -4.95348 -1.81997 64 72 91
-4.44018 -4.94593 -1.82227 66 74 93
-6.16357 -2.6478 -1.85496 81 84 93
-6.16573 -2.62634 -1.8532 79 79 89
-6.1977 -2.61776 -1.8613 79 79 89
-6.1892 -2.59171 -1.85606 76 79 88
-6.81292 -1.71412 -1.85901 71 76 95
-7.15583 -1.30874 -1.87525 76 88 112
-7.36102 -0.951671 -1.86377 77 89 113
-7.35739 -0.927859 -1.86216 79 91 113
-7.6285 -0.556338 -1.8645 79 94 117
-7.79743 -0.300896 -1.86448 78 92 118
-8.01586 -0.00306548 -1.86398 72 87 110
-2.64218 -6.23192 -1.60953 126 125 138
-2.86967 -5.95657 -1.61962 129 126 133
-3.27683 -5.82736 -1.69425 118 113 110
-3.80915 -5.81336 -1.82047 109 101 99
-4.33275 -4.98796 -1.81017 74 78 97
-4.35122 -4.97929 -1.81189 71 78 94
-6.21634 -2.5695 -1.86126 75 78 88
-6.22883 -2.55237 -1.86298 76 79 88
-6.23949 -2.53444 -1.86412 75 78 87
-6.83415 -1.69707 -1.86402 80 91 109
-6.86838 -1.68307 -1.87294 82 93 111
-7.16472 -1.28751 -1.87686 74 86 111
-7.17354 -1.26623 -1.87847 68 81 106
-7.35749 -0.904532 -1.86161 65 77 99
-7.61973 -0.531642 -1.86192 76 91 114
-7.79559 -0.280835 -1.86383 79 91 117
-2.60668 -6.25207 -1.61108 128 127 133
-2.62412 -6.24112 -1.61005 128 128 138
-2.85029 -5.96116 -1.61857 129 127 132
-3.22057 -5.82658 -1.68664 109 108 106
-3.24582 -5.8328 -1.69153 112 108 109
-3.77037 -5.82893 -1.81825 119 110 111
-3.79077 -5.82282 -1.81992 112 104 104
-4.28262 -5.03633 -1.81136 68 77 94
-4.29153 -5.016 -1.80845 70 77 95
-4.30764 -5.00453 -1.80902 71 73 96
-6.23102 -2.49732 -1.85772 74 78 90
-6.25926 -2.48654 -1.86466 73 79 90
-6.26086 -2.46491 -1.8629 78 85 95
-6.87536 -1.651 -1.87292 84 95 113
-6.88337 -1.63048 -1.87402 83 96 115
-7.18235 -1.23338 -1.87953 69 84 107
-7.35888 -0.869652 -1.86106 72 86 108
-7.63977 -0.509022 -1.86702 72 86 112
-7.78227 -0.26037 -1.85956 80 93 119
-2.79834 -5.96526 -1.61381 130 130 132
-2.81925 -5.96438 -1.61592 130 128 131
-3.1662 -5.82871 -1.68012 119 114 111
-3.19539 -5.82026 -1.68175 114 110 109
-3.72137 -5.84799 -1.81547 114 105 103
-3.74475 -5.84699 -1.81882 114 106 104
-4.23074 -5.08264 -1.81198 67 79 95
-4.24941 -5.07438 -1.81371 67 79 93
-4.2609 -5.0571 -1.81195 68 77 94
-4.96927 -4.04582 -1.81869 91 94 109
-4.96089 -4.00124 -1.80786 96 99 114
-4.97402 -3.98728 -1.80845 97 100 115
-4.98119 -3.96846 -1.80663 93 99 111
-5.04647 -3.98376 -1.82583 94 98 110
-5.01637 -3.93503 -1.809 96 100 112
-5.03528 -3.92559 -1.81199 93 99 113
-5.06167 -3.92197 -1.81797 96 102 114
-5.0882 -3.90572 -1.82156 93 96 111
-5.09504 -3.88663 -1.81974 96 99 116
-5.11238 -3.87567 -1.82213 94 97 112
-5.12665 -3.84983 -1.82091 90 98 111
-5.13934 -3.83526 -1.8215 94 102 115
-5.15505 -3.82293 -1.82328 92 95 112
-5.16904 -3.79691 -1.82206 95 98 113
-5.18465 -3.78445 -1.82385 100 102 117
-5.18951 -3.76402 -1.82143 97 99 114
-5.21398 -3.74572 -1.82442 92 95 110
-5.22791 -3.73194 -1.8256 102 104 119
-5.23564 -3.71366 -1.82438 77 76 92
-5.25527 -3.69172 -1.82557 76 79 96
-5.25973 -3.67117 -1.82315 79 82 99
-5.27504 -3.65829 -1.82493 80 83 102
-5.29913 -3.63939 -1.82792 72 78 94
-5.30651 -3.62092 -1.8267 69 74 93
-5.32169 -3.60783 -1.82848 70 75 94
-5.32896 -3.58931 -1.82727 73 79 95
-5.34174 -3.56257 -1.82605 70 71 89
-5.36786 -3.55673 -1.83204 72 78 94
-5.37653 -3.53915 -1.83142 73 80 96
-5.37314 -3.50172 -1.8242 73 79 93
-5.38644 -3.48726 -1.82538 72 78 92
-5.40926 -3.47897 -1.83017 72 76 90
-5.41507 -3.44777 -1.82655 69 75 89
-5.43142 -3.43518 -1.82893 70 78 91
-6.26265 -2.43212 -1.85998 74 77 89
-6.27475 -2.41471 -1.8617 77 83 95
-6.27788 -2.39377 -1.86052 73 79 91
-6.89506 -1.61079 -1.87623 78 91 110
-7.18156 -1.21035 -1.87842 76 91 115
-7.19772 -1.19024 -1.88221 73 87 113
-7.35116 -0.845476 -1.8584 76 91 115
-7.34334 -0.821349 -1.85574 74 86 110
-7.61619 -0.471333 -1.86034 71 84 108
-7.78637 -0.230574 -1.86072 73 91 115
-7.78241 -0.210509 -1.85947 71 87 112
-2.55854 -6.26832 -1.61058 127 126 131
-2.57671 -6.25933 -1.61006 127 127 129
-2.77972 -5.97137 -1.61329 130 129 134
-3.14449 -5.82907 -1.67741 123 119 116
-3.6737 -5.84804 -1.80822 116 106 104
-3.69508 -5.84394 -1.81045 115 105 104
-4.19358 -5.11578 -1.81259 70 77 94
-4.20171 -5.09413 -1.80909 69 76 94
-4.7882 -4.20689 -1.80685 94 101 114
-4.80619 -4.19737 -1.80923 91 94 109
-4.81215 -4.16401 -1.80381 79 78 94
-4.82862 -4.15311 -1.8056 100 102 117
-4.85655 -4.15216 -1.81219 96 101 115
-4.88235 -4.13614 -1.81518 89 92 107
-4.90745 -4.1324 -1.82057 94 100 112
-4.91517 -4.11371 -1.81875 90 93 108
-4.92572 -4.09746 -1.81813 90 89 105
-4.94408 -4.07487 -1.81812 96 100 115
-4.96181 -4.06464 -1.8205 92 95 110
-5.44613 -3.4215 -1.83072 71 79 92
-5.45112 -3.40166 -1.8289 71 78 94
-5.46296 -3.37441 -1.82768 70 78 91
-5.47912 -3.36157 -1.83006 77 85 98
-5.49039 -3.34566 -1.83065 73 81 94
-5.49869 -3.31627 -1.82823 74 80 96
-5.51471 -3.30324 -1.83061 70 77 93
-5.52907 -3.28915 -1.83239 69 76 92
-5.53215 -3.25672 -1.82817 70 76 92
-6.27025 -2.3687 -1.85587 74 78 89
-6.293 -2.34414 -1.85991 74 79 86
-6.90731 -1.57986 -1.87789 80 93 112
-6.89452 -1.55458 -1.87284 80 93 112
-7.18913 -1.15439 -1.87838 72 86 112
-7.3412 -0.797878 -1.85466 75 87 111
-7.65144 -0.449525 -1.86954 70 85 109
-7.62501 -0.423859 -1.86235 78 91 117
-7.78979 -0.190754 -1.86185 70 84 110
-2.5358 -6.26454 -1.60751 128 127 132
-2.74874 -5.9742 -1.61064 127 126 132
-3.08373 -5.81659 -1.66653 120 115 111
-3.11864 -5.82069 -1.67197 123 120 115
-3.61414 -5.84798 -1.79928 117 109 105
-3.63642 -5.84576 -1.80207 118 110 107
-4.12921 -5.14586 -1.8074 73 80 98
-4.16422 -5.14239 -1.81319 68 77 94
-4.18418 -5.13592 -1.8155 69 78 95
-4.74021 -4.30588 -1.81593 89 95 110
-4.75702 -4.29532 -1.81771 90 97 113
-4.76822 -4.27955 -1.8171 90 96 108
-4.7723 -4.25732 -1.81348 87 93 107
-4.78574 -4.23038 -1.81106 93 96 111
-5.55131 -3.24544 -1.83176 71 78 94
-5.55237 -3.22348 -1.82874 71 78 94
-5.57149 -3.21207 -1.83232 72 80 94
-5.59557 -3.19192 -1.83591 71 79 92
-5.59309 -3.16802 -1.83169 70 80 92
-5.6038 -3.15166 -1.83227 70 81 93
-6.29948 -2.32452 -1.85989 74 77 80
-6.31126 -2.30689 -1.86161 79 80 84
-6.90599 -1.53476 -1.87505 77 90 109
-6.9029 -1.50047 -1.87224 74 87 106
-7.19377 -1.1323 -1.87891 74 89 112
-7.19074 -1.10897 -1.87725 77 92 115
-7.34211 -0.763086 -1.85411 72 84 110
-7.62738 -0.399968 -1.86284 79 92 117
-7.7857 -0.170696 -1.8606 76 90 116
-2.51092 -6.286 -1.61058 127 126 131
-2.72935 -5.97837 -1.60959 127 127 135
-3.0646 -5.82185 -1.66545 123 115 113
-3.55478 -5.84732 -1.79035 115 110 106
-3.58615 -5.84014 -1.79314 116 108 105
-4.09851 -5.17053 -1.80743 65 70 86
-4.1208 -5.16738 -1.8109 72 77 96
-4.66409 -4.39289 -1.8166 93 96 111
-4.67836 -4.38003 -1.81719 96 97 115
-4.67179 -4.33374 -1.80576 87 88 106
-4.71497 -4.34831 -1.81896 91 95 107
-4.72217 -4.32875 -1.81654 89 95 109
-5.63265 -3.13403 -1.83765 72 79 95
-5.62492 -3.10736 -1.83163 74 80 94
-5.65047 -3.09916 -1.83762 74 80 94
-5.66076 -3.07109 -1.8364 74 80 96
-5.66949 -3.05358 -1.83638 76 83 96
-5.6765 -3.03512 -1.83576 73 81 94
-6.33199 -2.28132 -1.86506 77 77 77
-6.33647 -2.26092 -1.86446 78 78 80
-6.35887 -2.24699 -1.86966 81 79 82
-6.91233 -1.48017 -1.87389 70 85 108
-6.91795 -1.45902 -1.87443 80 92 116
-7.19524 -1.08685 -1.87778 82 94 118
-7.34552 -0.740205 -1.85462 77 89 113
-7.3412 -0.716578 -1.85301 73 85 109
-7.61291 -0.363169 -1.85872 74 88 113
-7.7932 -0.14088 -1.86298 72 86 112
-7.77562 -0.120645 -1.85749 74 88 114
-2.49075 -6.28932 -1.60956 126 125 129
-2.71438 -5.99314 -1.61171 127 127 135
-3.01233 -5.82599 -1.66002 127 122 118
-3.04629 -5.82879 -1.66491 121 116 113
-3.51133 -5.85272 -1.78533 114 106 104
-3.52976 -5.84422 -1.78589 115 107 107
-4.05529 -5.22863 -1.81326 137 137 145
-4.07084 -5.21647 -1.81325 56 63 75
-4.07951 -5.19504 -1.80976 49 54 67
-4.59738 -4.47548 -1.81908 95 95 111
-4.60782 -4.45884 -1.81786 88 87 104
-4.6182 -4.44217 -1.81664 85 88 103
-4.60404 -4.40147 -1.80462 90 93 108
-4.66209 -4.41765 -1.82142 93 97 111
-5.70361 -3.02741 -1.84235 70 78 91
-5.71522 -3.00002 -1.84173 70 77 90
-5.72375 -2.98232 -1.84171 68 76 89
-5.73896 -2.9681 -1.84409 69 77 90
-5.74181 -2.93619 -1.84048 70 76 90
-6.35051 -2.21082 -1.86385 77 77 77
-6.36198 -2.19291 -1.86556 76 78 76
-6.92353 -1.43786 -1.87497 77 89 111
-7.18805 -1.05148 -1.8745 69 81 105
-7.35514 -0.682994 -1.85616 70 82 106
-7.62281 -0.339667 -1.86126 74 88 114
-7.79224 -0.100897 -1.8629 75 90 113
-2.46995 -6.29075 -1.60803 116 114 117
-2.66181 -5.9942 -1.60643 126 126 134
-2.68121 -5.99027 -1.60748 127 127 135
-2.99001 -5.82402 -1.65676 125 116 111
-3.48092 -5.86117 -1.7831 119 112 106
-4.00797 -5.24797 -1.80923 139 137 141
-4.03145 -5.24679 -1.81327 156 156 161
-4.52083 -4.53501 -1.81493 77 81 96
-4.53726 -4.51036 -1.81311 67 73 88
-4.55587 -4.50203 -1.8155 93 96 112
-4.56373 -4.4828 -1.81308 97 99 114
-5.76033 -2.92359 -1.84406 68 74 88
-5.7686 -2.90573 -1.84404 70 76 90
-5.79496 -2.88571 -1.84882 73 77 88
-5.79288 -2.86266 -1.8452 73 76 86
-6.37701 -2.17621 -1.86844 78 80 79
-6.3685 -2.15132 -1.86379 77 78 80
-6.37771 -2.12149 -1.86377 78 78 81
-6.93499 -1.40662 -1.87663 67 82 105
-6.94227 -1.38575 -1.87772 73 85 108
-7.18666 -1.02851 -1.87339 76 88 112
-7.17569 -1.00417 -1.86956 68 82 108
-7.35638 -0.659874 -1.85614 76 87 109
-7.78419 -0.0708566 -1.86043 76 88 112
-7.774 -0.0508552 -1.85736 85 97 121
-2.44234 -6.30462 -1.60905 118 118 118
-2.64455 -6.00342 -1.60696 125 126 130
-2.95105 -5.83207 -1.65405 123 116 113
-2.96934 -5.82546 -1.65459 121 113 110
-3.43021 -5.85253 -1.77361 117 108 109
-3.45417 -5.85438 -1.77752 118 111 105
-3.97995 -5.27651 -1.81099 130 125 129
-4.00458 -5.27703 -1.81562 138 136 138
-4.4489 -4.61236 -1.8162 64 73 91
-4.44548 -4.58087 -1.80838 63 72 89
-4.48388 -4.59368 -1.81977 63 70 87
-4.50458 -4.57329 -1.81976 81 87 103
-4.52332 -4.56513 -1.82215 82 86 102
-5.82148 -2.85478 -1.85239 74 77 85
-5.82268 -2.83338 -1.84997 75 78 87
-5.82478 -2.80131 -1.84635 78 77 83
-5.84126 -2.78734 -1.84933 79 79 82
-6.40342 -2.10828 -1.87012 80 79 83
-6.39828 -2.08467 -1.86663 80 81 83
-6.93067 -1.36118 -1.87323 78 89 111
-7.17759 -0.970334 -1.869 81 95 121
-7.34605 -0.635791 -1.85295 71 83 106
-7.7885 -0.0309148 -1.86216 72 85 109
-2.42276 -6.30953 -1.60855 126 125 129
-2.61854 -6.01805 -1.60802 127 126 131
-2.91416 -5.82169 -1.64698 117 108 109
-3.37511 -5.85677 -1.76691 116 112 109
-3.39624 -5.85379 -1.76914 116 112 109
-3.92753 -5.32253 -1.81277 129 127 133
-3.94778 -5.31705 -1.81507 131 129 135
-3.96582 -5.30836 -1.81622 132 128 134
-4.39547 -4.6535 -1.81384 64 75 93
-4.41305 -4.64441 -1.81562 65 73 94
-4.44306 -4.63414 -1.81982 65 73 91
-5.84394 -2.76677 -1.84751 78 78 80
-5.85775 -2.74035 -1.8481 77 78 80
-5.88963 -2.73341 -1.85648 79 80 82
-5.88346 -2.70873 -1.85166 79 80 84
-6.40717 -2.05469 -1.86661 77 80 85
-6.40911 -2.03351 -1.86543 78 81 87
-6.94743 -1.33091 -1.87656 73 85 107
-6.94882 -1.30889 -1.87598 76 88 110
-7.17975 -0.947946 -1.86898 64 78 102
-7.17422 -0.924533 -1.86678 67 82 105
-7.35002 -0.601295 -1.85346 70 85 108
-7.77062 -0.00100783 -1.85666 70 84 110
-2.40559 -6.3217 -1.61009 127 126 132
-2.60189 -6.02893 -1.60909 125 126 130
-2.8753 -5.82921 -1.64427 112 108 110
-2.89745 -5.83164 -1.64753 110 105 107
-3.32485 -5.84723 -1.75742 118 113 110
-3.3486 -5.84951 -1.76133 118 113 109
-3.91735 -5.36053 -1.82031 136 134 138
-4.33283 -4.71272 -1.81389 66 74 93
-4.35055 -4.7039 -1.81568 67 75 94
-4.37079 -4.69783 -1.81867 66 75 92
-4.38427 -4.66956 -1.81505 65 75 92
-5.87793 -2.67342 -1.84564 79 82 87
-5.90973 -2.66614 -1.85402 77 80 87
-5.9311 -2.654 -1.85881 74 78 87
-6.42191 -2.01582 -1.86773 76 81 87
-6.43047 -1.98572 -1.86771 75 78 88
-6.96147 -1.28895 -1.87876 74 86 108
-7.16813 -0.889728 -1.86404 69 80 102
-7.3395 -0.577315 -1.85027 77 92 115
-7.35001 -0.554925 -1.85289 70 85 108
-2.37421 -6.32427 -1.60804 127 126 131
-2.57966 -6.0254 -1.60592 126 127 131
-2.84477 -5.83246 -1.64155 114 109 111
-3.29641 -5.85807 -1.75631 119 115 114
-3.89282 -5.39487 -1.8244 146 144 147
-3.89919 -5.36903 -1.81917 135 132 139
-4.28593 -4.761 -1.81513 67 76 91
-4.30001 -4.74808 -1.81512 67 76 93
-4.32031 -4.74225 -1.81811 67 76 93
-4.89514 -3.87537 -1.8156 93 99 113
-4.90205 -3.8569 -1.81373 91 94 109
-4.91774 -3.84563 -1.81557 93 92 108
-4.92453 -3.8271 -1.8137 94 96 111
-4.95352 -3.81419 -1.81862 93 96 111
-4.96168 -3.79677 -1.81737 90 94 106
-4.98316 -3.78996 -1.82166 94 96 111
-4.98519 -3.75549 -1.81549 99 101 116
-4.99315 -3.73799 -1.81424 99 105 119
-5.02353 -3.73796 -1.82223 81 84 101
-5.0267 -3.70461 -1.81667 79 81 94
-5.05107 -3.69969 -1.8222 69 70 88
-5.05274 -3.67743 -1.81849 72 75 90
-5.06646 -3.66434 -1.81971 91 95 107
-5.07676 -3.63664 -1.81723 91 93 106
-5.08579 -3.62005 -1.81659 82 84 97
-5.10241 -3.60907 -1.81904 83 85 98
-5.13697 -3.59917 -1.82642 85 87 102
-5.13356 -3.57348 -1.82086 80 82 97
-5.13467 -3.55117 -1.81715 83 85 98
-5.15516 -3.53098 -1.81898 85 87 102
-5.16848 -3.51746 -1.82019 75 78 95
-5.17866 -3.50169 -1.82018 67 73 89
-5.19503 -3.49024 -1.82262 70 76 92
-5.21058 -3.46645 -1.82261 71 76 95
-5.23626 -3.4613 -1.82875 69 76 95
-5.22901 -3.43353 -1.82196 69 78 93
-5.24587 -3.41063 -1.82256 71 80 95
-5.2494 -3.39037 -1.82008 69 78 93
-5.26552 -3.37854 -1.82252 69 78 93
-5.92811 -2.63093 -1.85519 75 79 90
-5.93256 -2.60022 -1.85277 73 80 88
-5.95029 -2.58634 -1.85635 76 83 93
-6.42121 -1.96107 -1.86305 75 78 90
-6.44112 -1.94552 -1.86767 80 84 94
-6.43353 -1.92148 -1.86359 80 87 97
-6.96281 -1.2557 -1.87762 74 87 106
-6.96585 -1.23398 -1.8776 72 85 107
-7.18147 -0.868802 -1.86728 76 88 110
-7.34319 -0.531278 -1.85075 81 93 117
-7.62041 -0.134398 -1.85244 75 90 113
-2.56367 -6.03796 -1.60751 127 128 132
-2.82271 -5.82982 -1.63829 116 110 110
-3.24995 -5.85468 -1.74905 119 115 114
-3.27096 -5.85217 -1.75128 120 116 115
-3.85204 -5.42372 -1.82442 141 140 138
-3.87035 -5.41539 -1.82557 151 149 150
-4.23726 -4.80731 -1.81577 67 76 91
-4.24402 -4.78587 -1.81215 67 76 91
-4.27434 -4.77676 -1.81634 67 76 91
-4.76373 -4.02143 -1.81204 90 98 111
-4.77407 -4.00575 -1.81141 91 99 112
-4.78867 -3.9938 -1.81262 93 99 113
-4.81092 -3.97577 -1.81446 93 99 111
-4.81822 -3.95748 -1.81259 92 100 112
-4.83125 -3.94412 -1.81319 95 98 115
-4.85475 -3.92705 -1.81564 95 98 113
-4.86622 -3.91233 -1.81563 94 102 115
-4.88349 -3.90245 -1.81808 95 98 113
-5.28371 -3.35648 -1.82374 67 76 93
-5.29338 -3.34033 -1.82372 69 76 94
-5.31099 -3.32933 -1.82679 69 76 94
-5.32098 -3.30186 -1.82492 69 78 93
-5.34328 -3.29378 -1.82983 71 78 95
-5.34315 -3.27131 -1.82612 71 79 95
-5.36249 -3.24981 -1.82795 70 77 93
-5.36054 -3.22635 -1.82362 71 76 95
-5.38758 -3.22095 -1.83038 71 77 93
-5.39699 -3.1932 -1.82852 73 78 97
-5.94877 -2.56407 -1.85333 80 89 98
-5.96164 -2.53705 -1.85391 81 90 100
-5.97045 -2.51925 -1.85449 88 96 107
-6.42149 -1.88528 -1.8572 88 95 105
-6.43938 -1.869 -1.86124 129 132 138
-6.96317 -1.21128 -1.8759 74 86 110
-7.1833 -0.846392 -1.86726 70 85 108
-7.17555 -0.822838 -1.86452 77 87 112
-7.34667 -0.496748 -1.85126 72 86 112
-7.62581 -0.105562 -1.85425 77 90 113
-2.53675 -6.05041 -1.60804 125 126 131
-2.80219 -5.83064 -1.63612 115 113 114
-3.21891 -5.86001 -1.74626 109 105 107
-3.82064 -5.44815 -1.82502 81 80 92
-3.83265 -5.43038 -1.82269 122 119 127
-4.18806 -4.85307 -1.81641 67 75 94
-4.20241 -4.84047 -1.81639 66 74 93
-4.22549 -4.82294 -1.81698 67 76 93
-4.66565 -4.13402 -1.81152 93 96 110
-4.67777 -4.11993 -1.81151 89 92 107
-4.68566 -4.10194 -1.80965 88 90 105
-4.71397 -4.08964 -1.81394 92 93 111
-4.72596 -4.07539 -1.81393 93 94 113
-4.74214 -4.06491 -1.81576 93 95 110
-4.76184 -4.04465 -1.81637 91 95 110
-5.41264 -3.18063 -1.83096 70 77 93
-5.41527 -3.16011 -1.82848 70 80 92
-5.42921 -3.14645 -1.83031 70 79 94
-5.43823 -3.11856 -1.82845 71 79 92
-5.45698 -3.10768 -1.83212 71 80 92
-5.4675 -3.09191 -1.83272 72 82 94
-5.98626 -2.50435 -1.85747 71 77 91
-6.00238 -2.47858 -1.85926 74 84 96
-6.0022 -2.45702 -1.85684 74 80 92
-6.43518 -1.84618 -1.85832 126 126 128
-6.97363 -1.19082 -1.87812 77 89 114
-6.97639 -1.15787 -1.87754 72 84 106
-7.17276 -0.788583 -1.86287 72 84 108
-7.34733 -0.473634 -1.85124 69 83 110
-7.62525 -0.086242 -1.85421 73 85 111
-2.50113 -6.06621 -1.60858 126 124 135
-2.51862 -6.05744 -1.60805 126 126 134
-2.75275 -5.83768 -1.63232 123 121 124
-2.77324 -5.83704 -1.63449 118 116 117
-3.17269 -5.85599 -1.739 113 109 110
-3.19448 -5.85548 -1.74179 111 109 112
-3.74341 -5.45703 -1.81404 105 105 113
-3.76176 -5.4491 -1.81518 100 98 110
-3.7916 -5.45873 -1.82271 88 92 104
-4.14679 -4.87847 -1.81403 67 76 93
-4.17004 -4.86122 -1.81462 67 76 93
-4.58136 -4.23415 -1.81284 95 99 111
-4.61157 -4.2375 -1.82084 95 99 113
-4.61007 -4.19692 -1.81158 85 90 108
-4.62241 -4.18301 -1.81157 74 79 97
-4.63883 -4.17298 -1.8134 79 85 99
-4.64832 -4.15638 -1.81215 86 92 106
-5.48939 -3.0715 -1.83578 71 81 93
-5.48501 -3.04709 -1.83084 70 78 93
-5.49536 -3.0312 -1.83144 70 78 91
-5.50708 -3.00495 -1.83081 71 79 92
-5.52891 -2.99548 -1.83572 71 80 92
-5.53081 -2.97481 -1.83323 72 79 95
-5.54094 -2.95874 -1.83383 69 76 92
-6.01961 -2.44263 -1.86042 71 78 88
-6.02107 -2.42176 -1.8586 74 81 91
-6.051 -2.40135 -1.86518 73 81 92
-6.43927 -1.81494 -1.85714 126 125 133
-6.45146 -1.79689 -1.85944 126 124 135
-6.45805 -1.77723 -1.86 120 126 134
-6.97914 -1.13609 -1.87752 80 92 116
-7.19344 -0.768319 -1.86829 75 87 111
-7.34602 -0.450405 -1.85069 74 87 112
-7.63603 -0.0670835 -1.8579 83 95 119
-2.73448 -5.84356 -1.63178 125 122 125
-3.14174 -5.8609 -1.73621 115 111 112
-3.72672 -5.48656 -1.81868 105 104 110
-4.11286 -4.92745 -1.81887 68 77 93
-4.10704 -4.88993 -1.80865 69 78 95
-4.13473 -4.89384 -1.81524 67 76 93
-4.49956 -4.31072 -1.81045 89 95 109
-4.52034 -4.29174 -1.81105 89 95 109
-4.53433 -4.27947 -1.81165 91 96 110
-4.54421 -4.26315 -1.8104 92 95 110
-4.5675 -4.24659 -1.81224 94 97 112
-5.56399 -2.93867 -1.83751 71 77 91
-5.57568 -2.92339 -1.83872 71 77 89
-5.57228 -2.89995 -1.83439 69 75 87
-5.58505 -2.87425 -1.83438 70 77 87
-6.05233 -2.38042 -1.86336 85 95 107
-6.04291 -2.35536 -1.85794 70 78 91
-6.97044 -1.11252 -1.87414 75 87 111
-7.18161 -0.744413 -1.86446 75 87 109
-7.34335 -0.41552 -1.84962 72 84 108
-7.62025 -0.0378963 -1.85288 74 86 110
-7.61759 -0.0185712 -1.85222 78 90 115
-2.45322 -6.07794 -1.607 128 127 135
-2.46878 -6.0639 -1.60488 128 125 136
-2.71038 -5.83516 -1.62688 130 128 130
-3.09576 -5.85626 -1.72895 111 106 107
-3.1183 -5.85777 -1.7323 115 111 112
-3.69489 -5.51019 -1.81929 99 100 106
-3.70622 -5.49112 -1.81637 106 105 112
-4.03757 -4.94034 -1.8069 69 74 93
-4.04744 -4.92226 -1.80448 67 74 92
-4.08575 -4.93992 -1.81648 68 77 94
-4.42462 -4.38031 -1.80867 89 94 108
-4.44413 -4.37386 -1.81173 91 96 110
-4.48108 -4.37153 -1.81973 94 96 111
-4.47536 -4.33904 -1.81109 93 95 110
-4.48283 -4.32016 -1.80861 91 95 110
-5.60999 -2.86595 -1.84052 70 77 87
-5.61307 -2.84606 -1.83865 72 77 87
-5.65426 -2.83501 -1.8491 73 77 88
-5.66904 -2.82109 -1.85155 74 76 88
-6.06372 -2.3312 -1.86152 77 84 95
-6.06481 -2.31028 -1.85971 75 82 92
-6.06759 -2.29004 -1.85849 75 79 89
-6.46088 -1.72418 -1.85706 73 74 91
-6.50788 -1.71539 -1.87037 74 80 99
-6.97852 -1.08045 -1.87524 67 82 107
-6.98484 -1.05923 -1.87634 73 85 109
-7.17463 -0.709786 -1.86172 71 83 107
-7.17598 -0.687383 -1.8617 70 85 108
-7.33032 -0.391736 -1.8459 78 89 112
-2.43175 -6.07564 -1.60436 127 126 135
-2.68435 -5.84821 -1.62743 131 129 132
-3.07326 -5.85467 -1.7256 108 106 102
-3.65521 -5.54066 -1.82046 98 92 101
-3.66873 -5.52494 -1.81871 96 90 102
-3.97987 -4.97477 -1.80393 68 75 94
-4.00392 -4.97491 -1.80872 68 75 91
-4.01161 -4.9539 -1.80511 68 76 89
-4.38387 -4.43204 -1.81117 84 90 106
-4.40216 -4.42442 -1.81362 90 96 110
-4.42345 -4.40595 -1.81422 89 95 107
-5.67364 -2.80192 -1.8503 76 76 87
-5.68159 -2.78446 -1.85028 79 79 87
-5.70399 -2.76331 -1.85396 78 79 83
-5.71349 -2.7466 -1.85456 80 80 82
-6.05955 -2.25505 -1.85247 76 77 81
-6.06753 -2.23681 -1.85305 77 78 80
-6.11125 -2.23157 -1.86563 76 77 77
-6.51239 -1.69502 -1.87035 73 85 106
-6.51946 -1.66444 -1.87033 76 89 105
-6.93982 -1.03051 -1.86235 69 84 107
-6.91714 -0.994246 -1.85451 70 85 108
-7.18682 -0.665897 -1.8644 68 83 106
-7.33644 -0.368931 -1.84746 74 86 110
-2.40526 -6.08927 -1.60542 128 126 136
-2.64492 -5.85231 -1.62417 128 128 130
-2.66677 -5.85565 -1.62743 129 127 132
-3.01834 -5.85376 -1.71834 113 105 103
-3.03665 -5.84691 -1.7189 119 114 111
-3.62003 -5.55894 -1.81933 103 99 100
-3.63962 -5.55309 -1.82106 97 89 102
-3.94477 -5.00738 -1.80515 67 76 92
-3.95844 -4.99407 -1.80454 66 76 93
-4.32538 -4.4921 -1.81184 84 87 103
-4.33607 -4.47634 -1.81059 80 83 99
-4.35316 -4.46753 -1.81243 79 84 99
-4.37593 -4.45072 -1.81365 82 87 102
-5.71103 -2.72397 -1.85084 79 79 80
-5.73149 -2.70173 -1.85391 78 78 78
-5.74081 -2.6849 -1.8545 77 77 78
-5.74153 -2.66393 -1.85202 79 79 81
-6.08687 -2.20154 -1.85541 79 79 79
-6.0963 -2.17306 -1.85539 78 80 79
-6.52195 -1.64355 -1.86973 78 91 108
-6.52251 -1.62219 -1.86855 76 88 107
-6.93837 -0.975256 -1.86008 69 83 106
-7.1852 -0.63187 -1.86329 71 83 107
-7.34685 -0.334688 -1.85008 71 83 107
-2.38319 -6.08497 -1.60225 128 127 134
-2.61741 -5.86147 -1.62363 132 131 135
-2.99596 -5.85186 -1.71499 110 101 96
-3.58872 -5.56511 -1.81586 99 92 108
-3.91615 -5.03236 -1.80578 67 76 91
-3.9345 -5.02522 -1.80757 67 76 91
-4.26099 -4.54561 -1.81004 76 83 99
-4.27568 -4.53428 -1.81065 88 91 109
-4.28781 -4.52007 -1.81002 73 79 95
-4.31845 -4.51207 -1.81493 83 87 103
-5.77033 -2.64551 -1.85816 74 75 79
-5.76401 -2.62127 -1.85322 74 77 84
-5.78515 -2.60991 -1.85813 75 78 87
-6.13278 -2.16478 -1.86557 81 83 82
-6.13147 -2.14314 -1.86315 80 82 81
-6.55151 -1.59709 -1.87548 78 90 106
-6.92913 -0.952048 -1.85671 69 81 105
-6.92362 -0.929402 -1.85445 74 86 110
-7.16907 -0.607888 -1.85838 72 84 109
-7.34316 -0.311407 -1.84901 76 88 112
-7.34133 -0.288213 -1.84846 69 81 105
-2.3662 -6.09513 -1.60331 127 126 132
-2.60395 -5.87946 -1.6269 134 133 136
-2.94292 -5.8537 -1.70885 114 108 108
-2.96603 -5.85755 -1.71276 109 103 103
-3.56222 -5.59773 -1.81994 102 94 105
-3.58286 -5.59375 -1.82224 101 95 102
-3.86552 -5.07601 -1.80701 71 78 94
-3.87831 -5.0614 -1.8058 68 75 91
-3.90123 -5.06055 -1.80999 68 77 92
-4.22067 -4.59851 -1.81378 65 74 91
-4.22553 -4.57586 -1.80945 69 76 92
-4.23655 -4.56037 -1.80821 66 73 89
-5.79247 -2.59207 -1.85811 76 79 88
-5.7934 -2.56054 -1.85439 80 84 95
-5.81788 -2.55049 -1.86053 75 82 92
-5.81808 -2.52944 -1.85805 78 86 96
-6.1298 -2.11073 -1.85953 77 81 82
-6.15898 -2.09956 -1.86732 75 79 80
-6.15383 -2.0767 -1.8637 77 81 82
-6.55006 -1.57521 -1.87373 78 89 106
-6.5504 -1.55379 -1.87255 75 88 107
-6.94038 -0.89863 -1.85834 69 81 105
-6.9279 -0.892483 -1.85418 70 82 106
-7.19307 -0.587464 -1.86488 72 84 110
-7.17488 -0.563403 -1.85943 82 94 118
-7.33558 -0.264905 -1.84685 71 86 111
-2.34604 -6.09614 -1.60172 126 125 130
-2.58352 -5.87946 -1.62473 134 132 135
-2.92462 -5.86023 -1.7083 112 108 110
-3.53277 -5.60685 -1.81762 97 89 96
-3.84581 -5.09786 -1.80882 69 76 92
-4.1711 -4.64085 -1.8132 66 75 92
-4.18976 -4.63419 -1.81565 65 74 91
-4.19358 -4.61013 -1.81071 66 75 92
-5.82214 -2.49942 -1.85557 79 85 97
-5.82392 -2.47917 -1.85371 78 84 98
-5.85346 -2.47104 -1.86169 78 87 104
-6.15905 -2.04668 -1.86248 75 78 83
-6.1537 -2.0239 -1.85886 74 77 84
-6.55122 -1.52168 -1.87079 64 77 96
-6.93469 -0.876003 -1.85609 73 85 108
-6.92195 -0.865287 -1.85072 73 85 109
-2.32124 -6.11485 -1.60437 123 122 127
-2.55318 -5.88112 -1.62201 141 140 145
-2.89081 -5.85678 -1.70327 110 105 109
-3.50206 -5.63255 -1.81938 112 108 113
-3.51696 -5.6189 -1.81821 102 101 108
-3.80995 -5.11289 -1.80585 78 81 96
-3.82845 -5.10618 -1.80764 69 76 93
-4.11381 -4.67382 -1.80892 67 76 91
-4.13129 -4.66594 -1.81076 67 76 91
-4.14998 -4.64453 -1.80951 66 75 90
-5.85372 -2.43943 -1.85798 89 109 128
-5.85353 -2.41838 -1.8555 93 106 125
-5.86724 -2.40326 -1.85794 72 80 97
-6.17184 -2.00879 -1.86304 76 78 90
-6.17001 -1.98719 -1.86062 74 78 87
-6.56256 -1.5029 -1.87309 77 88 108
-6.56639 -1.48234 -1.87307 77 88 107
-6.93273 -0.853871 -1.85495 73 85 109
-6.92933 -0.849077 -1.85275 74 86 110
-6.92742 -0.831365 -1.85135 77 89 113
-7.17852 -0.529916 -1.85995 78 90 115
-7.1908 -0.508339 -1.86319 76 91 114
-7.35513 -0.23078 -1.85212 74 90 116
-7.35305 -0.207561 -1.85157 71 85 111
-2.3029 -6.12117 -1.60437 123 122 128
-2.53954 -5.89893 -1.62528 139 136 143
-2.84878 -5.85715 -1.69825 95 93 94
-2.86862 -5.85438 -1.69992 107 103 104
-3.44902 -5.63989 -1.81302 94 84 92
-3.46776 -5.63304 -1.81417 109 101 109
-3.76271 -5.16161 -1.80948 105 104 116
-3.77586 -5.1473 -1.80827 106 107 119
-3.79002 -5.1345 -1.80766 99 101 113
-4.08221 -4.70871 -1.81079 66 75 94
-4.0951 -4.68017 -1.80647 66 75 93
-4.86456 -3.53117 -1.80426 69 75 89
-4.88627 -3.51326 -1.80678 67 75 88
-4.96482 -3.3914 -1.80604 69 75 89
-5.87216 -2.3844 -1.85731 82 88 102
-5.88249 -2.35718 -1.85729 74 78 92
-6.18205 -1.95942 -1.8618 82 86 97
-6.16911 -1.93445 -1.85578 79 84 94
-6.5795 -1.46388 -1.87595 77 89 107
-6.578 -1.43128 -1.87361 76 88 111
-6.93201 -0.820919 -1.85381 79 92 115
-6.93413 -0.80624 -1.85269 71 85 107
-6.93179 -0.799034 -1.85323 72 87 110
-6.9191 -0.786604 -1.84649 73 88 111
-7.18384 -0.485314 -1.861 77 92 115
-7.33549 -0.184021 -1.84679 62 74 98
-2.51979 -5.9005 -1.62365 139 136 143
-2.82587 -5.85283 -1.69434 89 86 87
-3.43965 -5.66335 -1.81767 101 89 95
-3.71956 -5.1831 -1.8071 84 84 97
-3.74954 -5.17589 -1.81069 99 97 112
-4.02911 -4.74644 -1.80898 68 77 92
-4.06014 -4.74029 -1.8139 67 76 93
-4.07898 -4.73412 -1.81635 67 76 93
-4.65683 -3.86251 -1.81469 93 97 109
-4.66364 -3.84466 -1.81278 94 100 114
-4.68201 -3.83651 -1.81593 95 101 113
-4.68872 -3.8186 -1.81401 95 101 113
-4.70859 -3.79954 -1.81527 96 98 111
-4.72982 -3.79356 -1.81969 93 94 110
-4.72459 -3.76599 -1.8127 87 90 105
-4.7472 -3.74909 -1.81522 75 78 95
-4.75504 -3.73222 -1.81394 75 77 92
-4.77175 -3.7224 -1.81646 72 75 92
-4.78525 -3.69818 -1.81518 63 69 85
-4.80635 -3.69171 -1.8196 68 74 90
-4.811 -3.67237 -1.81705 68 73 92
-4.81556 -3.65302 -1.8145 69 75 91
-4.83774 -3.63551 -1.81702 65 71 87
-4.8482 -3.6207 -1.81701 67 73 89
-4.85406 -3.60244 -1.81509 78 84 98
-4.8791 -3.58693 -1.81888 82 85 100
-4.88484 -3.5686 -1.81696 69 75 89
-4.92398 -3.51829 -1.81818 71 78 94
-4.93561 -3.5043 -1.8188 70 76 92
-4.95799 -3.49797 -1.82386 63 71 84
-4.95796 -3.4642 -1.8175 71 78 94
-4.97563 -3.45443 -1.82066 70 75 94
-4.99017 -3.44241 -1.82254 71 77 93
-4.98076 -3.38045 -1.80856 70 80 92
-5.02799 -3.39078 -1.82376 71 81 93
-5.03037 -3.35911 -1.81867 71 74 93
-5.05254 -3.35209 -1.82373 71 74 93
-5.07157 -3.34286 -1.82752 71 79 92
-5.07637 -3.32413 -1.8256 71 78 94
-5.07831 -3.29239 -1.82051 68 75 93
-5.10198 -3.28606 -1.8262 70 77 93
-5.10021 -3.26316 -1.82175 70 79 94
-5.13053 -3.24981 -1.82807 69 78 93
-5.10776 -3.2137 -1.81537 69 78 93
-5.10889 -3.19292 -1.81218 69 78 93
-5.11646 -3.16529 -1.80963 70 79 94
-5.88901 -2.339 -1.85727 80 89 107
-5.90955 -2.32651 -1.86218 76 88 109
-5.9108 -2.29558 -1.85908 77 86 104
-6.27992 -1.94766 -1.89057 76 81 93
-6.18783 -1.88788 -1.85754 82 88 100
-6.58347 -1.41107 -1.87417 75 88 107
-6.9334 -0.777361 -1.85321 75 88 110
-6.92625 -0.770311 -1.84852 75 87 109
-6.91852 -0.751858 -1.84506 71 82 102
-7.16603 -0.450339 -1.85554 68 82 108
-7.33734 -0.149378 -1.8473 76 88 112
-2.5047 -5.91462 -1.62583 132 130 136
-2.79386 -5.85232 -1.69042 109 105 104
-3.38842 -5.67341 -1.81247 96 85 91
-3.42362 -5.67511 -1.81826 97 90 97
-3.69509 -5.21453 -1.81072 76 78 93
-3.70628 -5.19725 -1.80831 79 81 94
-4.00905 -4.78073 -1.81332 67 77 90
-4.02915 -4.77627 -1.81639 68 77 93
-4.53888 -3.98783 -1.811 92 94 109
-4.55325 -3.97656 -1.81226 94 97 112
-4.56953 -3.95452 -1.81161 96 99 114
-4.58951 -3.94812 -1.8154 96 102 116
-4.59523 -3.92917 -1.81285 83 89 101
-4.61127 -3.90693 -1.8122 85 91 104
-4.62687 -3.8966 -1.81409 86 91 105
-4.63669 -3.88127 -1.81344 88 90 105
-5.13833 -3.15752 -1.81469 70 79 94
-5.14569 -3.14069 -1.81404 69 78 93
-5.16753 -3.13273 -1.81909 72 82 94
-5.18449 -3.11078 -1.82035 70 80 92
-5.18194 -3.08797 -1.81589 71 81 93
-5.1923 -3.07296 -1.81651 70 80 92
-5.91889 -2.278 -1.85968 75 82 100
-5.93047 -2.26179 -1.86151 72 80 91
-6.1892 -1.86744 -1.85633 128 129 132
-6.19052 -1.84702 -1.85511 123 122 121
-6.58142 -1.38922 -1.87241 65 77 98
-6.58516 -1.35787 -1.87181 73 85 109
-6.93804 -0.745032 -1.85375 75 86 107
-6.93043 -0.727474 -1.84845 65 77 99
-7.18957 -0.4294 -1.86204 74 89 112
-7.33694 -0.126256 -1.84728 72 85 107
-2.47432 -5.91585 -1.62311 113 113 115
-2.75057 -5.84844 -1.68428 114 109 105
-2.77409 -5.85483 -1.68875 112 107 103
-3.38341 -5.70513 -1.82002 98 91 97
-3.67033 -5.22931 -1.81013 74 77 92
-3.95291 -4.81454 -1.81027 68 77 92
-3.96489 -4.7998 -1.80903 68 77 94
-4.00068 -4.80009 -1.81641 67 76 93
-4.43385 -4.06257 -1.80093 94 101 114
-4.46026 -4.05012 -1.80473 88 91 106
-4.46227 -4.02758 -1.80027 93 95 111
-4.48092 -4.02044 -1.80343 93 96 111
-4.52404 -4.02296 -1.81484 93 97 110
-4.53009 -4.00414 -1.81228 92 94 109
-5.2335 -3.06528 -1.82727 71 80 94
-5.23891 -3.04721 -1.82599 71 79 94
-5.25244 -3.0339 -1.82787 71 80 94
-5.25255 -3.00201 -1.82278 73 80 94
-5.25445 -2.98203 -1.82023 67 75 89
-5.25957 -2.96393 -1.81894 69 78 91
-5.94022 -2.23427 -1.86149 74 78 87
-5.94281 -2.21453 -1.86024 77 80 87
-5.96131 -2.20087 -1.86453 79 82 87
-6.21107 -1.8217 -1.85929 125 123 129
-6.2049 -1.79913 -1.85567 122 121 128
-6.60166 -1.33994 -1.87585 73 87 113
-6.92804 -0.722175 -1.85038 67 81 104
-6.92441 -0.709324 -1.84568 74 86 108
-6.93506 -0.693415 -1.84908 71 83 105
-7.18811 -0.406803 -1.86148 74 88 114
-7.32682 -0.10303 -1.84462 74 87 109
-2.45846 -5.92804 -1.62475 103 103 105
-2.72389 -5.85989 -1.68428 119 115 108
-3.33291 -5.71632 -1.8154 91 83 85
-3.36081 -5.70496 -1.81655 104 94 95
-3.63602 -5.24617 -1.80835 86 90 101
-3.65265 -5.23698 -1.80894 77 81 93
-3.92808 -4.85883 -1.81645 67 76 93
-3.93975 -4.82774 -1.8109 67 77 92
-4.39367 -4.16091 -1.81306 74 78 93
-4.40713 -4.14892 -1.81368 96 102 116
-4.41372 -4.13032 -1.81113 97 103 115
-4.43761 -4.11546 -1.81365 85 89 101
-4.44682 -4.0994 -1.81237 93 98 112
-5.28904 -2.94881 -1.82527 73 82 97
-5.29736 -2.93247 -1.82525 68 78 90
-5.30727 -2.91701 -1.82587 66 76 88
-5.3466 -2.90692 -1.836 67 77 89
-5.35312 -2.88948 -1.83535 68 78 88
-5.95493 -2.17774 -1.8602 79 80 82
-5.97139 -2.15273 -1.86265 79 80 82
-5.97727 -2.13425 -1.86263 78 79 81
-6.22065 -1.78284 -1.85925 127 127 137
-6.605 -1.31923 -1.87583 74 88 114
-6.61966 -1.29002 -1.87871 74 86 110
-6.9275 -0.700317 -1.8498 71 83 105
-6.94601 -0.680271 -1.85481 76 88 111
-6.92997 -0.666718 -1.8463 68 83 106
-7.17567 -0.372328 -1.85766 79 94 117
-2.43935 -5.93112 -1.62367 99 97 100
-2.70122 -5.85506 -1.68038 122 115 105
-3.31399 -5.72269 -1.81425 87 79 82
-3.59754 -5.2745 -1.80897 94 98 110
-3.61217 -5.26225 -1.80836 74 78 90
-3.90706 -4.89265 -1.82079 67 76 93
-3.91018 -4.86587 -1.81462 67 76 93
-4.32625 -4.20824 -1.8074 88 95 111
-4.3479 -4.2045 -1.81183 76 77 95
-4.36823 -4.19933 -1.81562 68 69 85
-4.38289 -4.17551 -1.8137 78 81 96
-5.35957 -2.87203 -1.8347 69 79 89
-5.38881 -2.85604 -1.84102 71 80 90
-5.39683 -2.83937 -1.841 70 78 91
-5.39976 -2.82002 -1.83908 71 77 91
-5.40598 -2.80243 -1.83843 69 76 89
-5.98846 -2.1177 -1.86446 78 80 79
-5.99037 -2.08731 -1.86197 78 78 80
-6.22352 -1.73163 -1.85621 88 88 100
-6.23726 -1.71466 -1.85919 76 82 99
-6.62282 -1.26926 -1.87869 77 89 112
-6.92746 -0.649102 -1.8449 74 88 112
-6.93049 -0.632177 -1.84555 73 87 111
