-27.169 -7.71133 -1.97333 130 127 139
-27.2076 -7.63043 -1.97457 137 137 147
-27.2135 -7.49448 -1.97227 127 121 138
-27.2129 -7.40287 -1.97042 119 116 134
-27.1813 -7.30306 -1.9661 99 108 116
-27.2222 -7.17718 -1.96673 91 89 97
-6.44532 -12.2864 -0.943956 99 101 51
-6.48753 -12.2758 -0.9448 91 86 58
-6.55404 -12.3131 -0.950171 126 122 115
-6.61842 -12.2976 -0.951518 131 135 134
-6.67357 -12.3113 -0.95471 121 128 132
-6.71413 -12.2965 -0.955218 119 124 133
-8.21664 -11.9936 -1.03884 219 175 126
-8.24668 -11.9586 -1.03781 220 168 121
-8.3277 -11.9587 -1.04181 155 122 83
-8.36428 -11.9332 -1.04181 160 126 61
-8.44711 -11.9749 -1.04893 161 125 51
-8.5507 -12.0455 -1.05916 157 120 50
-8.5367 -11.9069 -1.04859 181 130 79
-14.5799 -11.6698 -1.40051 122 116 114
-14.668 -11.6291 -1.40434 124 114 113
-14.7284 -11.6034 -1.40713 121 112 110
-14.7483 -11.5453 -1.4054 123 114 112
-14.7976 -11.5105 -1.40697 136 128 124
-14.8633 -11.4513 -1.40837 128 120 118
-14.892 -11.4002 -1.40769 119 113 110
-14.9474 -11.3697 -1.40995 119 113 111
-15.0109 -11.3084 -1.41118 115 105 103
-15.0613 -11.2737 -1.41292 114 105 103
-15.1005 -11.2304 -1.41345 126 118 115
-15.1859 -11.1848 -1.41711 123 118 122
-15.273 -11.1766 -1.42284 125 119 124
-15.3473 -11.1584 -1.42719 125 119 120
-15.3974 -11.1224 -1.42894 123 118 122
-15.4648 -11.0621 -1.43068 124 119 123
-15.5261 -11.0337 -1.43364 123 118 124
-15.5533 -10.9808 -1.43296 121 121 123
-15.6251 -10.923 -1.43522 121 121 123
-15.6747 -10.8858 -1.43697 120 119 124
-15.721 -10.8461 -1.43837 126 125 130
-15.7989 -10.7918 -1.44133 125 123 128
-15.8712 -10.7696 -1.4455 124 121 128
-15.9354 -10.7414 -1.44881 123 122 128
-15.9912 -10.7073 -1.45125 125 122 129
-16.0538 -10.6414 -1.45265 123 120 127
-16.1078 -10.6057 -1.45491 120 118 123
-16.1651 -10.5719 -1.45753 125 123 126
-16.2422 -10.5148 -1.46049 127 125 130
-16.2859 -10.4718 -1.46171 126 124 130
-16.3413 -10.4361 -1.46415 126 122 132
-16.4145 -10.3757 -1.46677 129 126 126
-16.4714 -10.3405 -1.46938 148 124 65
-16.5011 -10.2881 -1.46922 204 164 62
-19.4396 -9.75115 -1.61042 123 124 138
-19.5083 -9.7101 -1.61413 125 124 138
-19.6545 -9.66913 -1.62371 124 123 137
-19.7821 -9.65614 -1.63296 124 124 136
-19.8972 -9.6363 -1.64103 125 124 138
-20.0525 -9.5967 -1.65146 125 123 137
-20.184 -9.58308 -1.66104 126 124 138
-20.2939 -9.55846 -1.66861 124 124 136
-27.2322 -7.08878 -1.96581 89 86 97
-27.2554 -7.00386 -1.96597 71 78 91
-27.2319 -6.90711 -1.96242 74 82 101
-27.2768 -6.78231 -1.96352 81 92 111
-27.2835 -6.69343 -1.96244 87 95 115
-27.3035 -6.60782 -1.96245 84 92 111
-6.13956 -12.3359 -0.936212 93 102 54
-6.18002 -12.3229 -0.93672 91 101 53
-6.21959 -12.3079 -0.93706 86 99 49
-6.2819 -12.2906 -0.938071 99 104 58
-6.34504 -12.3236 -0.942939 111 110 64
-6.38466 -12.3081 -0.94328 100 99 51
-7.33024 -11.8988 -0.990039 117 116 123
-7.37485 -11.8901 -0.991432 129 126 132
-7.3689 -11.798 -0.98433 158 151 163
-7.56908 -12.0018 -1.00861 176 172 181
-7.54204 -11.8756 -0.998038 181 176 173
-7.56471 -11.8307 -0.99579 175 163 162
-7.66282 -11.8652 -1.0029 163 154 153
-7.71613 -11.8688 -1.00568 134 135 145
-7.77169 -11.8755 -1.00881 132 131 137
-7.91443 -12.0176 -1.02598 120 120 121
-8.00246 -12.0315 -1.03119 126 108 99
-8.09258 -12.0887 -1.03969 137 107 52
-8.11866 -12.0474 -1.03796 174 140 71
-8.16996 -12.0036 -1.03728 215 172 123
-5.48652 -6.80682 -0.649165 162 114 78
-5.47261 -6.74651 -0.643564 186 139 103
-5.52372 -6.76887 -0.648568 151 105 69
-5.57078 -6.76391 -0.651172 149 116 65
-5.61728 -6.77953 -0.655376 147 110 62
-16.5823 -10.2319 -1.4727 143 116 93
-16.6321 -10.1917 -1.47462 139 130 133
-16.6971 -10.1606 -1.4781 93 79 78
-16.728 -10.1085 -1.47811 124 101 84
-16.8223 -10.059 -1.48298 128 102 88
-16.8974 -10.033 -1.4875 134 122 117
-16.9348 -9.98437 -1.4882 126 123 131
-17.0529 -9.94735 -1.4955 126 124 137
-17.1399 -9.92717 -1.50124 124 122 133
-17.2098 -9.89659 -1.50524 123 123 131
-17.283 -9.86764 -1.50959 124 124 132
-17.3422 -9.79458 -1.51099 124 124 133
-17.3963 -9.75414 -1.51343 128 125 128
-20.4004 -9.53154 -1.67584 124 124 136
-20.5343 -9.47789 -1.68425 124 126 138
-20.648 -9.45294 -1.69215 127 126 140
-20.7526 -9.42322 -1.69922 128 127 141
-20.8919 -9.36936 -1.70813 128 126 140
-20.9948 -9.33745 -1.71503 129 128 142
-21.0649 -9.29042 -1.7189 129 125 139
-27.3354 -6.47977 -1.96261 82 90 109
-27.347 -6.3922 -1.962 82 91 109
-27.3506 -6.30282 -1.96077 82 91 108
-27.4024 -6.17932 -1.96264 80 90 107
-27.4461 -6.09895 -1.96466 80 88 108
-27.5188 -6.02471 -1.969 79 89 109
-27.5582 -5.94297 -1.97071 79 91 107
-5.9572 -12.3937 -0.934012 78 85 45
-6.00025 -12.3868 -0.935023 64 73 37
-6.01825 -12.3254 -0.931003 78 91 48
-6.09064 -12.3308 -0.934027 92 106 53
-7.0254 -11.9682 -0.981683 110 113 122
-7.0452 -11.9176 -0.978741 120 123 130
-7.15515 -11.9802 -0.988282 103 106 111
-7.20485 -11.9808 -0.990542 102 102 106
-7.29695 -12.0533 -1.00008 114 113 119
-7.32979 -12.0243 -0.999394 101 101 109
-5.49725 -6.97331 -0.662965 148 98 58
-5.49403 -6.92519 -0.658965 183 130 86
-5.50744 -6.8767 -0.655966 151 102 66
-17.8979 -9.53062 -1.54283 126 124 138
-18.0095 -9.51854 -1.55099 127 125 139
-18.1009 -9.4591 -1.55569 124 124 136
-18.2109 -9.44482 -1.56369 125 125 137
-18.2855 -9.41168 -1.56821 127 125 139
-21.1476 -9.20919 -1.72261 115 114 121
-21.2412 -9.17167 -1.72866 146 142 141
-21.3311 -9.13208 -1.73438 156 151 148
-21.4118 -9.08808 -1.73926 142 137 142
-21.5286 -9.01935 -1.74616 127 126 140
-21.633 -8.98431 -1.75323 124 124 136
-21.7245 -8.94335 -1.75911 125 125 137
-16.0772 -6.51808 -1.28942 126 124 137
-16.0837 -6.46263 -1.28821 126 126 138
-16.066 -6.39762 -1.28474 127 127 139
-16.1395 -6.33971 -1.28892 128 127 139
-27.6592 -5.82879 -1.97659 81 91 107
-27.7156 -5.75005 -1.97969 78 92 109
-27.7991 -5.67659 -1.98496 82 91 109
-27.8696 -5.55462 -1.98853 80 87 98
-2.82051 -6.992 -0.499699 80 77 37
-2.84843 -7.00262 -0.50161 94 92 46
-2.87644 -7.01312 -0.503522 94 88 50
-5.64356 -12.4109 -0.924426 91 83 48
-5.67537 -12.3794 -0.923089 98 93 53
-5.74923 -12.4446 -0.930639 108 94 65
-5.79572 -12.3933 -0.928296 92 85 41
-5.83136 -12.3705 -0.927798 91 87 47
-5.89793 -12.4166 -0.933671 96 95 49
-6.72092 -12.0297 -0.973328 143 140 147
-6.74444 -11.985 -0.970907 142 139 149
-6.76437 -11.8899 -0.964499 124 123 132
-6.88179 -12.0156 -0.979066 107 106 118
-6.92147 -12 -0.979591 96 100 112
-7.0826 -12.1555 -0.998319 107 109 123
-5.50624 -7.02942 -0.667965 172 130 86
-18.3265 -9.36093 -1.56943 124 123 137
-18.4601 -9.32087 -1.5783 125 125 137
-18.5257 -9.28197 -1.58195 122 124 137
-18.5984 -9.24628 -1.5863 124 124 137
-18.7284 -9.20218 -1.59482 124 123 137
-18.844 -9.18647 -1.60334 126 124 138
-18.9453 -9.16317 -1.61046 125 124 138
-19.0232 -9.09153 -1.61395 125 124 138
-22.3106 -8.70179 -1.7978 127 127 139
-22.411 -8.66087 -1.80453 127 127 139
-22.5208 -8.62298 -1.8121 130 128 141
-27.9663 -5.48282 -1.99488 71 73 85
-28.004 -5.39917 -1.99659 79 82 96
-28.0048 -5.26289 -1.99474 86 92 104
-28.087 -5.18725 -2 87 95 103
-28.1435 -5.10653 -2.00326 92 96 105
-5.45342 -12.4428 -0.920551 107 90 62
-5.47561 -12.388 -0.917035 108 96 52
-5.53985 -12.4341 -0.92274 97 88 45
-5.61782 -12.4569 -0.927104 101 89 47
-6.53515 -12.1745 -0.976768 85 88 92
-6.59267 -12.1936 -0.980587 105 107 117
-6.6328 -12.179 -0.981112 102 106 115
-6.66729 -12.1537 -0.980598 125 125 127
-6.7376 -12.1498 -0.983204 158 153 157
-19.0688 -9.04062 -1.61569 126 125 139
-19.1935 -9.02683 -1.62508 126 124 138
-19.3255 -9.0157 -1.63515 126 125 139
-19.4174 -8.94841 -1.64003 125 124 138
-19.5187 -8.92167 -1.64715 125 125 137
-19.5838 -8.87793 -1.65081 123 123 135
-19.7208 -8.8292 -1.66002 124 124 136
-19.8003 -8.79099 -1.66507 125 125 136
-22.6309 -8.54412 -1.81849 134 132 143
-22.7237 -8.49856 -1.82455 132 130 141
-22.8239 -8.45528 -1.83128 136 130 142
-22.928 -8.37212 -1.83717 136 133 142
-23.0224 -8.32557 -1.84339 130 126 137
-23.0756 -8.26362 -1.84592 136 133 147
-28.1998 -5.02549 -2.00651 86 93 106
-28.2832 -4.90318 -2.01132 86 95 110
-5.10525 -12.3506 -0.902251 95 81 61
-5.1555 -12.367 -0.905105 99 86 60
-5.28469 -12.5833 -0.926066 99 87 55
-5.35199 -12.5819 -0.928082 81 70 45
-5.37876 -12.5364 -0.925404 83 72 43
-5.39929 -12.4762 -0.921385 101 86 54
-6.24187 -12.2483 -0.970843 96 106 54
-6.29436 -12.2599 -0.973795 90 95 46
-6.29554 -12.168 -0.966693 93 96 49
-6.38228 -12.1999 -0.972592 89 96 49
-6.43495 -12.2108 -0.975544 80 79 40
-6.49048 -12.2268 -0.979016 90 86 68
-7.80762 -7.09976 -0.832208 130 117 106
-7.81516 -7.0409 -0.828809 132 120 109
-7.83486 -7.01551 -0.828612 126 117 108
-7.86037 -6.99539 -0.829216 130 123 115
-7.92638 -6.98953 -0.833823 130 121 116
-19.9381 -8.77803 -1.67567 94 93 101
-20.0934 -8.7345 -1.68662 131 129 134
-20.2898 -8.74497 -1.70277 144 140 139
-20.3731 -8.70577 -1.70816 154 147 145
-20.4526 -8.66458 -1.71321 128 125 132
-20.5602 -8.597 -1.71964 126 124 137
-23.149 -8.16789 -1.84913 128 124 137
-23.258 -8.12514 -1.8567 140 129 138
-23.3408 -8.07263 -1.86191 100 93 99
-23.4366 -8.02419 -1.86831 103 97 103
-23.5373 -7.93584 -1.87403 88 89 94
-23.6404 -7.88876 -1.88109 92 93 97
-23.734 -7.83797 -1.88732 94 96 104
-4.9779 -12.4193 -0.903748 96 98 47
-5.10257 -12.6337 -0.924372 95 92 49
-5.16978 -12.6333 -0.926388 90 78 52
-5.94585 -12.3095 -0.9644 81 86 42
-5.98692 -12.2989 -0.965098 84 93 50
-6.06255 -12.3115 -0.968916 84 94 56
-6.09771 -12.2879 -0.968401 89 103 57
-6.13792 -12.275 -0.968926 89 106 51
-6.17813 -12.2619 -0.969451 93 106 50
-11.4391 -6.35514 -1.03502 135 132 134
-11.4147 -6.29523 -1.03024 136 131 128
-20.6083 -8.54183 -1.72174 130 128 141
-20.7133 -8.50989 -1.72921 127 125 138
-21.1011 -8.21147 -1.75131 128 127 139
-23.834 -7.74749 -1.89304 90 86 106
-23.9198 -7.69308 -1.89859 83 84 102
-23.9448 -7.61875 -1.89877 83 88 106
-5.75886 -12.3518 -0.960914 125 119 61
-5.77384 -12.2839 -0.956066 82 79 35
-5.84763 -12.3463 -0.963696 98 90 48
-5.91391 -12.3398 -0.965608 92 89 44
-21.1742 -8.16405 -1.75584 131 129 140
-21.2397 -8.1134 -1.75966 132 130 141
-21.3625 -8.04591 -1.76766 131 130 139
-21.4745 -8.01173 -1.77583 128 125 134
-21.5547 -7.9652 -1.78105 135 130 139
-21.679 -7.89594 -1.78922 131 128 137
-24.5643 -7.60651 -1.94852 97 100 112
-24.5701 -7.52426 -1.94702 79 81 94
-24.587 -7.44553 -1.94652 80 81 93
-24.6304 -7.33279 -1.94737 81 83 96
-24.6257 -7.24769 -1.94503 76 83 101
-24.6397 -7.16827 -1.94437 75 84 92
-24.6723 -7.05241 -1.94438 92 95 108
-5.43232 -12.3278 -0.947541 107 98 59
-5.49259 -12.3647 -0.952571 110 99 56
-5.55452 -12.3511 -0.953616 103 91 56
-5.60897 -12.3728 -0.95726 107 96 56
-5.62457 -12.3051 -0.952412 91 85 47
-5.69595 -12.3647 -0.959696 78 71 41
-21.7908 -7.85978 -1.79739 125 123 136
-21.8764 -7.81363 -1.80313 126 124 137
-22.0154 -7.74716 -1.81269 131 129 137
-22.1064 -7.70178 -1.81895 131 130 135
-22.1691 -7.64616 -1.82261 146 142 142
-22.3278 -7.623 -1.83512 98 90 94
-24.6666 -6.96746 -1.94203 72 78 97
-24.6798 -6.888 -1.94137 77 83 102
-24.6977 -6.76823 -1.9402 77 88 106
-24.6737 -6.67877 -1.93635 78 86 105
-24.7071 -6.60506 -1.93753 80 88 107
-24.7197 -6.48427 -1.93603 78 87 106
-24.7102 -6.39925 -1.93352 76 88 105
-5.14862 -12.2837 -0.934521 109 100 62
-5.26353 -12.4046 -0.948043 94 79 55
-5.32256 -12.4405 -0.9529 91 77 60
-5.33498 -12.3622 -0.947012 95 83 58
-5.40673 -12.3732 -0.95031 103 91 57
-12.9214 -7.05802 -1.19274 139 133 136
-12.9216 -7.00622 -1.19045 136 128 126
-12.9689 -6.98014 -1.19333 135 125 123
-22.4513 -7.54785 -1.84329 95 95 109
-22.5874 -7.51519 -1.85372 95 98 112
-22.6308 -7.45127 -1.85564 93 98 110
-22.695 -7.35469 -1.85843 93 96 113
-22.7247 -7.28602 -1.85913 93 97 112
-22.8339 -7.24247 -1.86713 101 105 120
-24.7139 -6.31781 -1.93218 79 90 108
-24.7115 -6.23494 -1.93034 79 90 108
-24.7377 -6.11822 -1.93018 79 90 110
-24.781 -6.04683 -1.93237 79 90 108
-24.8125 -5.97242 -1.93356 80 91 108
-24.8627 -5.86121 -1.93558 80 92 108
-2.82428 -7.00697 -0.532234 94 91 45
-2.83989 -6.98406 -0.530635 94 86 47
-2.88313 -7.00165 -0.533835 104 91 56
-2.91417 -7.01941 -0.536635 94 84 49
-5.12044 -12.3229 -0.93677 90 81 48
-22.8992 -7.14518 -1.87009 81 89 103
-23.3013 -7.19066 -1.90483 79 88 103
-23.3057 -7.11242 -1.90328 80 87 103
-23.3137 -7.03535 -1.90207 89 92 109
-23.3723 -6.93364 -1.90451 90 94 109
-24.9186 -5.71015 -1.93745 79 91 107
-25.0152 -5.52679 -1.94217 79 90 110
-4.9615 -12.4213 -0.9397 95 88 47
-4.98609 -12.3714 -0.936411 92 83 46
-10.6645 -11.6797 -1.29376 115 94 77
-10.7269 -11.6762 -1.29759 116 94 72
-10.7934 -11.6769 -1.302 118 96 73
-10.8666 -11.6847 -1.30736 118 96 75
-10.9503 -11.6664 -1.31158 132 113 97
-11.0185 -11.6675 -1.31618 150 131 116
-11.1003 -11.6828 -1.32269 159 134 116
-11.1898 -11.6689 -1.32767 167 140 118
-11.2501 -11.6602 -1.33112 170 141 117
-11.3311 -11.6728 -1.33744 170 144 121
-11.4209 -11.6574 -1.34242 172 144 120
-11.4856 -11.652 -1.34644 156 129 110
-11.5463 -11.6421 -1.3499 161 131 113
-11.607 -11.6318 -1.35335 156 128 107
-11.6621 -11.5792 -1.35355 150 129 107
-11.7046 -11.5501 -1.35451 149 128 108
-11.7512 -11.5251 -1.35605 146 123 106
-11.8299 -11.4955 -1.3595 155 132 115
-11.8665 -11.4602 -1.3597 150 127 111
-11.8859 -11.4081 -1.3576 153 127 108
-11.9614 -11.3749 -1.36067 151 124 111
-12.0134 -11.3543 -1.36297 112 100 94
-12.0697 -11.3376 -1.36585 115 109 100
-12.1293 -11.2883 -1.36682 141 125 110
-12.1667 -11.2533 -1.36721 141 122 107
-12.5241 -11.093 -1.38256 125 114 110
-12.5699 -11.0647 -1.38409 123 114 111
-12.6156 -11.0362 -1.38563 131 118 112
-12.6761 -11.0207 -1.38908 129 117 111
-12.7375 -10.9707 -1.39043 126 115 112
-12.792 -10.9494 -1.39312 127 117 116
-12.8284 -10.9122 -1.39351 123 113 113
-12.8818 -10.855 -1.3939 125 115 114
-12.9195 -10.8188 -1.39448 125 116 118
-12.9814 -10.803 -1.39812 120 116 117
-13.045 -10.7538 -1.39985 118 113 117
-13.1023 -10.7336 -1.40292 120 114 117
-13.1473 -10.703 -1.40446 124 119 122
-13.2182 -10.6592 -1.40715 121 116 122
-13.2677 -10.6319 -1.40926 121 119 122
-13.3373 -10.6206 -1.41386 123 118 122
-13.3728 -10.5815 -1.41425 121 116 122
-13.4496 -10.5413 -1.4177 119 114 120
-13.5067 -10.5192 -1.42077 115 110 116
-13.5545 -10.4894 -1.42269 122 117 123
-13.628 -10.4456 -1.42576 120 118 123
-13.6944 -10.4299 -1.42998 118 116 121
-13.7531 -10.4078 -1.43324 119 117 120
-13.8296 -10.3651 -1.43669 121 119 122
-13.8818 -10.3376 -1.43918 119 116 122
-13.9213 -10.3003 -1.44015 120 117 123
-13.9686 -10.2688 -1.44207 117 116 122
-14.0383 -10.22 -1.44476 119 116 125
-14.0919 -10.1927 -1.44744 117 114 121
-14.1535 -10.1711 -1.45109 118 115 122
-14.2213 -10.12 -1.45358 118 115 122
-14.2797 -10.0953 -1.45684 118 115 122
-14.3299 -10.0646 -1.45915 120 117 124
-14.4136 -10.0239 -1.46356 119 116 123
-14.4621 -9.99147 -1.46567 120 117 126
-14.5006 -9.95204 -1.46663 120 117 124
-14.5555 -9.92376 -1.46951 120 118 123
-14.6176 -9.86684 -1.47143 117 114 123
-14.6558 -9.82684 -1.4724 117 114 124
-14.6857 -9.78112 -1.4724 117 115 125
-14.7456 -9.7223 -1.47413 117 114 122
-23.3778 -6.85591 -1.90313 76 84 100
-23.4155 -6.78761 -1.9047 74 82 100
-23.4502 -6.67857 -1.90506 83 90 109
-23.474 -6.60613 -1.90542 84 91 110
-23.5148 -6.53839 -1.90734 82 89 108
-23.5367 -6.42569 -1.90665 80 91 109
-9.61753 -11.735 -1.23169 149 106 68
-9.64223 -11.6915 -1.22997 162 118 82
-9.72141 -11.6777 -1.2338 187 144 109
-9.7811 -11.6769 -1.23744 193 153 117
-9.85229 -11.6897 -1.24281 196 153 118
-9.93561 -11.6792 -1.24721 212 170 144
-9.99435 -11.676 -1.25066 216 179 147
-10.0596 -11.6801 -1.25507 214 179 145
-10.1275 -11.6869 -1.25986 207 168 136
-10.2178 -11.6823 -1.26522 165 135 112
-10.2821 -11.6839 -1.26943 164 139 119
-10.3478 -11.6866 -1.27384 170 142 118
-10.4373 -11.679 -1.27901 173 143 119
-10.5046 -11.6826 -1.28361 155 134 113
-10.5707 -11.6843 -1.28801 95 79 69
-14.8033 -9.69495 -1.47739 119 116 123
-14.8461 -9.65751 -1.47893 120 117 125
-14.9072 -9.59884 -1.48085 120 117 126
-14.9664 -9.57174 -1.48431 121 119 130
-15.0056 -9.53149 -1.48546 124 121 131
-15.0463 -9.49214 -1.48681 126 122 114
-15.1168 -9.43863 -1.48988 202 163 58
-15.1573 -9.39883 -1.49122 234 182 121
-15.2145 -9.36937 -1.49448 141 124 123
-15.2847 -9.31476 -1.49756 96 81 74
-15.3486 -9.28881 -1.50158 117 91 76
-15.4023 -9.25636 -1.50446 137 110 89
-15.484 -9.20772 -1.50887 133 122 122
-15.541 -9.17668 -1.51213 123 120 129
-15.5962 -9.14434 -1.5152 124 122 133
-15.6583 -9.11577 -1.51903 123 121 134
-11.3815 -6.34484 -1.08512 123 121 132
-11.3883 -6.30264 -1.08372 124 122 134
-11.4326 -6.25801 -1.08553 125 122 128
-23.5732 -6.35655 -1.90822 79 90 108
-23.6056 -6.28621 -1.90945 79 90 108
-23.6244 -6.21219 -1.90945 78 89 107
-23.664 -6.10401 -1.91051 77 89 107
-23.7092 -6.03667 -1.91295 77 90 107
-23.7426 -5.96618 -1.91434 77 90 107
-8.25834 -11.7286 -1.152 180 131 78
-8.33037 -11.7556 -1.15812 185 128 81
-8.38678 -11.7595 -1.16157 183 129 78
-8.45717 -11.7437 -1.16425 176 131 76
-8.50804 -11.7388 -1.16674 170 122 75
-8.54054 -11.7079 -1.16618 139 91 45
-8.6179 -11.7008 -1.17001 157 113 68
-8.66421 -11.6888 -1.17174 164 116 76
-8.72221 -11.6928 -1.17538 164 120 80
-8.78736 -11.7061 -1.18016 149 107 67
-8.86163 -11.6927 -1.18342 150 107 67
-5.51485 -6.89497 -0.725175 149 103 67
-5.4824 -6.80904 -0.715701 157 114 79
-5.50384 -6.77164 -0.713981 181 135 99
-5.52913 -6.76128 -0.714844 193 150 111
-5.58385 -6.78829 -0.720877 206 163 128
-5.62893 -6.80256 -0.725186 206 163 129
-15.7242 -9.05636 -1.52172 122 120 131
-15.7861 -9.02711 -1.52556 122 120 131
-15.8238 -8.98372 -1.52671 123 121 132
-15.8945 -8.92619 -1.52997 123 123 133
-16.2499 -8.70005 -1.54992 137 131 133
-16.2863 -8.62194 -1.54954 134 127 128
-16.3212 -8.57568 -1.55051 134 128 131
-29.9563 -1.05185 -2.11254 92 107 135
-7.72237 -11.7476 -1.1246 126 112 51
-7.77876 -11.7558 -1.12824 122 101 48
-7.89158 -11.8102 -1.13857 138 106 59
-7.94406 -11.811 -1.14144 154 110 68
-7.99554 -11.8099 -1.14413 180 132 86
-8.0535 -11.7781 -1.14471 184 141 98
-8.12714 -11.8097 -1.15121 169 126 85
-8.15112 -11.7666 -1.14912 132 93 53
-8.19607 -11.7548 -1.15065 191 156 114
-5.50754 -6.99664 -0.733355 147 103 64
-5.5264 -6.95427 -0.730988 168 123 87
-16.3735 -8.53853 -1.55339 138 132 136
-16.4268 -8.46903 -1.55492 126 121 128
-16.4665 -8.42495 -1.55646 125 122 133
-16.5079 -8.38161 -1.55819 124 122 135
-16.5818 -8.32209 -1.56203 121 123 138
-16.6336 -8.28361 -1.5649 123 122 136
-16.7013 -8.25285 -1.5695 122 122 135
-16.7512 -8.21294 -1.57219 124 124 136
-16.821 -8.15 -1.57564 125 125 137
-16.876 -8.11211 -1.5789 127 126 138
-29.968 -0.910833 -2.11316 92 107 136
-30.0078 -0.817618 -2.1161 89 104 133
-30.0014 -0.723106 -2.11549 91 105 134
-7.33309 -11.8525 -1.11308 105 100 97
-7.34274 -11.7859 -1.10812 101 100 79
-7.38194 -11.7686 -1.1087 90 95 54
-7.38794 -11.6968 -1.10316 83 91 49
-7.48073 -11.7256 -1.11024 98 98 46
-7.57019 -11.7888 -1.11999 106 101 42
-7.60843 -11.7691 -1.12038 105 101 37
-7.69267 -11.7812 -1.12574 112 102 40
-12.9054 -7.01566 -1.25255 123 122 125
-12.9387 -6.98203 -1.25396 131 126 130
-16.9184 -8.06792 -1.58082 131 128 140
-16.9895 -8.00467 -1.58447 131 128 140
-17.0388 -7.96337 -1.58715 128 126 139
-17.0935 -7.92435 -1.59042 129 127 138
-17.1513 -7.85406 -1.59272 136 134 144
-17.1985 -7.81113 -1.59521 130 128 139
-17.2402 -7.76552 -1.59713 134 131 142
-17.2938 -7.69266 -1.59906 135 132 141
-17.3533 -7.65467 -1.60289 86 82 94
-16.0217 -6.44527 -1.44022 132 131 139
-16.0483 -6.39806 -1.44099 132 130 141
-16.0878 -6.35589 -1.4431 128 126 138
-6.83209 -11.7884 -1.08321 68 64 60
-6.91696 -11.8542 -1.09278 77 75 76
-7.01708 -11.9021 -1.10158 86 82 77
-7.04762 -11.8704 -1.10044 80 74 68
-7.08897 -11.8576 -1.1014 87 78 71
-7.17695 -11.8818 -1.10771 96 86 86
-7.21134 -11.8565 -1.10733 104 98 100
-7.27804 -11.8859 -1.11308 103 102 99
-11.135 -11.0603 -1.34995 140 115 94
-11.1829 -11.0399 -1.35196 141 116 95
-11.2391 -11.0277 -1.35516 141 118 100
-11.3042 -10.9894 -1.35717 131 113 99
-11.3406 -10.9572 -1.35758 131 115 100
-11.3897 -10.9373 -1.35979 134 118 103
-11.4459 -10.8899 -1.3606 129 115 103
-11.5078 -10.8819 -1.36461 135 122 110
-11.5511 -10.8559 -1.36602 135 121 116
-11.6059 -10.8405 -1.36903 139 125 117
-11.6762 -10.8056 -1.37184 141 128 119
-11.7339 -10.7924 -1.37525 137 127 115
-7.82044 -7.11732 -0.91486 124 113 109
-7.85352 -7.10412 -0.916587 121 111 109
-7.84578 -7.05304 -0.912281 125 116 113
-7.88536 -7.02356 -0.913363 126 119 119
-7.92413 -7.01537 -0.915951 127 119 120
-12.1051 -10.596 -1.39011 129 120 119
-12.1599 -10.5448 -1.39092 124 116 115
-12.21 -10.5228 -1.39333 126 120 119
-12.2586 -10.4992 -1.39554 130 121 121
-12.3027 -10.4715 -1.39715 126 117 121
-12.3736 -10.4335 -1.40016 126 117 120
-12.4281 -10.4144 -1.40317 119 113 117
-12.469 -10.3834 -1.40437 121 116 120
-12.5321 -10.338 -1.40639 120 115 117
-12.5758 -10.3093 -1.40799 120 115 120
-12.6303 -10.2891 -1.411 117 112 118
-12.6816 -10.2662 -1.41361 119 112 119
-12.7443 -10.2196 -1.41562 119 114 117
-12.7956 -10.1962 -1.41823 119 114 118
-12.8281 -10.1577 -1.41844 119 114 121
-12.8967 -10.1151 -1.42125 116 114 119
-12.9369 -10.0824 -1.42246 122 117 123
-12.9848 -10.0556 -1.42467 119 114 120
-13.0389 -10.0011 -1.42568 118 114 120
-13.0898 -9.97634 -1.42829 119 112 120
-13.1138 -9.93083 -1.42749 120 113 120
-13.1864 -9.88998 -1.4309 118 113 119
-13.2388 -9.86567 -1.43371 120 116 122
-13.2927 -9.84231 -1.43672 117 115 120
-13.3353 -9.81043 -1.43833 117 116 122
-13.4093 -9.76931 -1.44194 117 114 123
-13.4791 -9.75684 -1.44696 119 116 123
-13.5232 -9.72538 -1.44877 118 115 122
-13.5857 -9.67496 -1.45098 119 117 122
-13.6426 -9.65226 -1.45439 119 117 122
-13.6752 -9.6121 -1.45479 119 116 122
-13.7389 -9.56188 -1.4572 119 116 123
-13.7728 -9.52252 -1.45781 119 116 123
-13.8099 -9.48528 -1.45882 120 118 123
-17.4437 -7.63 -1.60998 116 115 124
-17.4867 -7.58414 -1.61209 143 139 139
-17.567 -7.52166 -1.61688 152 147 145
-17.6408 -7.48853 -1.62225 131 125 135
-17.6945 -7.44648 -1.62551 134 131 138
-17.7596 -7.37636 -1.62877 136 130 140
-17.8296 -7.34053 -1.63375 132 128 141
-6.58299 -11.8094 -1.07325 106 89 63
-6.67303 -11.8892 -1.08415 115 93 72
-6.69617 -11.8444 -1.08148 97 82 58
-6.73952 -11.793 -1.07919 102 97 58
-6.76699 -11.7568 -1.07747 86 78 59
-10.4031 -11.5085 -1.33142 121 105 87
-10.4563 -11.4603 -1.33143 116 94 76
-10.4873 -11.4236 -1.33084 115 91 77
-10.5316 -11.4016 -1.33225 116 93 73
-10.5785 -11.3822 -1.33405 122 97 75
-10.6378 -11.3405 -1.33506 137 117 101
-10.6847 -11.3207 -1.33687 129 112 99
-10.7315 -11.3008 -1.33868 143 125 105
-10.7919 -11.2597 -1.33989 159 137 115
-10.84 -11.2407 -1.3419 152 127 103
-10.8853 -11.2187 -1.34351 153 126 109
-10.9413 -11.1725 -1.34411 148 125 104
-10.992 -11.1557 -1.34652 148 123 104
-11.0358 -11.1317 -1.34793 149 124 106
-11.0782 -11.1061 -1.34914 147 125 108
-13.8534 -9.45239 -1.46063 120 118 124
-13.9182 -9.40216 -1.46324 121 118 125
-13.9747 -9.3777 -1.46665 120 117 125
-14.0229 -9.34745 -1.46906 119 117 126
-14.094 -9.30055 -1.47247 120 118 125
-14.1288 -9.26102 -1.47328 119 115 123
-14.1852 -9.23549 -1.47669 121 115 126
-14.2626 -9.19182 -1.4809 120 115 128
-14.2921 -9.14845 -1.48111 121 115 127
-14.3366 -9.1146 -1.48312 122 117 126
-14.391 -9.08694 -1.48633 123 117 109
-14.4563 -9.0344 -1.48914 204 164 66
-14.5039 -9.00194 -1.49155 239 185 125
-14.5514 -8.96926 -1.49396 139 108 95
-14.6264 -8.92192 -1.49797 101 85 76
-14.6789 -8.89179 -1.50098 120 96 78
-14.7177 -8.8532 -1.50239 142 112 90
-17.9197 -7.31265 -1.64084 129 127 138
-18.3524 -7.19156 -1.67552 131 129 140
-6.37907 -11.9569 -1.07647 93 101 50
-6.43669 -11.9783 -1.08087 95 108 55
-6.48298 -11.9313 -1.07897 101 107 59
-6.52975 -11.931 -1.08107 100 107 58
-6.53001 -11.8427 -1.07362 108 92 59
-9.67399 -11.7446 -1.30131 194 155 121
-9.69686 -11.6615 -1.29632 191 152 120
-9.7578 -11.6623 -1.30033 177 141 111
-9.82389 -11.669 -1.30514 191 156 124
-9.8995 -11.6495 -1.30855 189 153 119
-9.97353 -11.6646 -1.31456 183 148 116
-10.031 -11.6596 -1.31797 179 143 117
-10.0951 -11.662 -1.32238 178 148 120
-10.1684 -11.6378 -1.32539 159 135 111
-10.2183 -11.623 -1.32759 142 123 107
-10.2669 -11.6065 -1.3296 148 127 109
-10.3219 -11.5604 -1.32981 160 135 112
-10.352 -11.5227 -1.32902 158 134 108
-14.8128 -8.81691 -1.50881 125 114 115
-14.8788 -8.79401 -1.51342 117 116 122
-14.9379 -8.76674 -1.51723 124 123 131
-14.9867 -8.73317 -1.51984 124 122 132
-15.0594 -8.68189 -1.52365 125 124 136
-15.1012 -8.64379 -1.52546 124 122 135
-15.1394 -8.60355 -1.52687 124 122 132
-15.2099 -8.5502 -1.53048 123 120 129
-18.476 -7.1406 -1.68491 134 128 140
-18.5791 -7.11417 -1.69333 135 129 141
-18.6469 -7.07368 -1.69813 132 129 137
-18.6437 -6.97267 -1.6945 129 127 138
-18.8826 -6.99553 -1.7169 129 127 137
-6.13216 -11.9719 -1.06689 90 97 45
-6.168 -11.9516 -1.0667 94 104 55
-6.22327 -11.9703 -1.07072 100 108 59
-6.27783 -11.9402 -1.07054 91 94 43
-6.33694 -11.9655 -1.07532 93 98 47
-8.4531 -11.6775 -1.22076 206 152 112
-8.51076 -11.6824 -1.22457 227 174 133
-8.5834 -11.669 -1.22778 239 190 149
-8.63428 -11.6636 -1.23038 237 189 149
-8.69458 -11.6708 -1.23459 229 185 143
-8.75384 -11.6762 -1.2386 228 184 142
-8.83153 -11.6678 -1.24261 219 178 141
-8.88864 -11.6693 -1.24621 219 177 142
-5.47083 -6.72891 -0.747568 202 158 124
-5.51075 -6.73727 -0.75117 189 149 114
-5.54335 -6.73613 -0.753422 193 153 120
-15.4736 -8.29273 -1.54174 142 133 131
-15.4835 -8.20529 -1.53854 139 130 132
-15.5258 -8.16619 -1.54055 142 133 138
-15.5733 -8.12967 -1.54316 141 132 137
-15.6123 -8.05757 -1.54337 138 132 136
-15.6436 -8.01242 -1.54417 136 131 137
-15.6979 -7.97887 -1.54758 134 129 136
-15.7485 -7.9124 -1.54919 133 130 141
-15.7777 -7.86585 -1.5498 131 128 138
-15.8156 -7.8236 -1.55141 134 131 140
-15.8516 -7.78029 -1.55282 132 129 138
-18.9521 -6.95425 -1.72188 130 128 139
-19.094 -6.90523 -1.73319 128 126 137
-19.1446 -6.85616 -1.73625 126 126 136
-19.1857 -6.80348 -1.73837 131 129 140
-19.2511 -6.75923 -1.74297 129 127 138
-19.3475 -6.69152 -1.74967 129 127 138
-5.95451 -12.079 -1.06859 101 97 52
-5.99338 -12.0161 -1.06477 94 92 37
-6.05692 -12.0536 -1.0707 102 97 36
-6.08956 -12.0263 -1.06975 96 97 38
-7.84424 -11.6762 -1.18569 138 97 65
-7.90188 -11.6854 -1.18969 138 95 58
-7.95086 -11.6812 -1.1921 139 95 59
-8.02044 -11.6678 -1.19491 140 97 62
-8.08286 -11.6827 -1.19971 166 121 83
-8.13764 -11.6859 -1.20312 175 134 95
-8.21085 -11.6764 -1.20653 203 156 114
-8.27149 -11.6872 -1.21094 199 142 102
-8.31863 -11.6782 -1.21294 205 152 108
-8.39326 -11.6692 -1.21655 212 161 117
-5.49482 -6.91039 -0.765336 201 162 125
-5.48766 -6.85774 -0.760163 193 151 116
-5.45705 -6.77546 -0.750716 191 152 117
-5.90529 -6.81776 -0.786964 162 135 110
-15.9175 -7.7207 -1.55623 134 129 136
-15.9569 -7.6787 -1.55804 135 130 137
-16.0122 -7.64423 -1.56165 136 130 140
-16.056 -7.57335 -1.56265 132 129 136
-16.0896 -7.52819 -1.56386 132 130 136
-16.1375 -7.4896 -1.56667 131 129 134
-16.2095 -7.43126 -1.57089 133 130 139
-16.2662 -7.3962 -1.5747 127 124 135
-19.5104 -6.68008 -1.76423 125 123 134
-19.6603 -6.66319 -1.77745 129 127 138
-19.7546 -6.59219 -1.78396 146 138 149
-19.8442 -6.55343 -1.79105 80 78 92
-5.70934 -12.0869 -1.0592 103 101 43
-5.75873 -12.0968 -1.06207 98 93 36
-5.81813 -12.078 -1.06284 103 100 45
-5.85768 -12.0659 -1.06342 89 86 38
-5.9031 -12.0662 -1.06534 87 84 37
-7.36234 -11.6746 -1.15923 111 92 67
-7.43209 -11.6662 -1.16224 114 97 67
-7.4952 -11.6874 -1.16745 94 78 39
-7.54792 -11.6914 -1.17065 96 77 37
-7.61908 -11.6837 -1.17386 104 88 42
-7.65916 -11.6672 -1.17467 103 85 54
-7.72072 -11.6839 -1.17947 115 87 61
-7.78671 -11.6668 -1.18168 125 90 63
-5.45777 -6.97211 -0.768256 201 161 123
-5.49204 -6.95055 -0.768709 198 160 123
-5.84404 -7.04629 -0.802249 184 145 112
-5.89772 -7.06866 -0.808101 180 143 114
-5.91272 -7.04311 -0.806979 183 145 117
-5.9361 -7.00548 -0.805407 187 153 120
-5.94958 -6.97832 -0.804059 168 137 106
-5.95151 -6.93743 -0.800686 163 133 107
-16.3336 -7.36575 -1.57971 130 127 141
-16.4083 -7.33819 -1.58552 129 128 138
-16.4835 -7.27962 -1.59014 78 76 89
-16.5454 -7.24559 -1.59455 113 113 122
-16.5908 -7.2041 -1.59716 140 139 136
-16.6838 -7.15203 -1.60377 153 148 146
-16.751 -7.11925 -1.60879 128 122 132
-16.0081 -6.45314 -1.51428 133 131 139
-16.0255 -6.4023 -1.51408 137 135 143
-16.0446 -6.35212 -1.51409 133 131 140
-19.9299 -6.51293 -1.79776 91 98 116
-20.0029 -6.4332 -1.80217 86 95 114
-20.0884 -6.39167 -1.80887 85 96 114
-20.1966 -6.35687 -1.81788 85 96 114
-20.2649 -6.30895 -1.82286 82 93 111
-5.52007 -12.1135 -1.05402 105 104 47
-5.56917 -12.1242 -1.05689 99 100 43
-5.61277 -12.122 -1.05843 93 100 48
-5.66492 -12.0876 -1.05748 90 88 43
-7.0956 -11.7626 -1.1528 58 58 59
-7.1286 -11.7359 -1.1522 48 48 50
-7.16863 -11.7211 -1.15301 57 59 66
-7.23722 -11.7122 -1.15582 55 53 58
-7.27927 -11.7004 -1.15702 90 83 71
-7.32857 -11.7003 -1.15963 111 90 68
-16.8071 -7.08148 -1.6126 133 130 141
-16.8961 -7.02618 -1.61881 132 128 140
-16.9594 -6.9907 -1.62343 135 131 145
-17.0226 -6.95489 -1.62804 131 128 139
-20.8827 -6.32372 -1.88031 83 95 111
-20.9491 -6.27252 -1.8851 82 94 110
-20.9832 -6.17557 -1.88568 77 93 109
-5.15341 -11.9703 -1.02743 104 96 61
-5.17728 -11.9236 -1.02418 90 78 56
-5.244 -11.9278 -1.02705 111 101 66
-5.32987 -12.0295 -1.03929 102 96 55
-5.39546 -12.0812 -1.04637 97 98 51
-5.46223 -12.1345 -1.05363 90 95 42
-6.70594 -11.7536 -1.13236 92 83 52
-6.75452 -11.7559 -1.13496 100 95 65
-6.79443 -11.7423 -1.13577 58 58 51
-6.85095 -11.758 -1.13997 58 58 60
-6.93694 -11.782 -1.14638 59 59 59
-6.99782 -11.804 -1.15139 60 60 59
-7.035 -11.7844 -1.15159 59 60 61
-7.79056 -7.07375 -0.958094 132 123 118
-7.81184 -7.04982 -0.958098 131 121 118
-7.84403 -7.0138 -0.958102 131 121 120
-7.87099 -6.99501 -0.959005 131 121 120
-7.92155 -6.99733 -0.96351 125 117 114
-11.4102 -6.34145 -1.18706 143 138 135
-11.4378 -6.31081 -1.18814 140 137 136
-11.4706 -6.28296 -1.18987 135 131 131
-17.3336 -6.80009 -1.6517 130 128 138
-17.3904 -6.72866 -1.65451 133 130 141
-17.4328 -6.68271 -1.65692 128 124 134
-17.4806 -6.63868 -1.65993 132 129 138
-17.5312 -6.56417 -1.66214 131 129 140
-20.9825 -6.10412 -1.88377 82 93 113
-21.1077 -6.06921 -1.8945 84 93 113
-21.0586 -5.94806 -1.88685 83 91 110
-21.0897 -5.88572 -1.88819 86 93 110
-21.1033 -5.81845 -1.88782 86 91 105
-21.1436 -5.75851 -1.89012 79 85 102
-2.83414 -7.02243 -0.592435 90 85 51
-2.87322 -7.02904 -0.594588 106 92 72
-2.90611 -7.05258 -0.598247 107 88 74
-5.02337 -12.0215 -1.02722 103 95 65
-5.08009 -12.0563 -1.03239 97 92 50
-5.11366 -11.9782 -1.02666 106 100 55
-6.43375 -11.7713 -1.12073 85 84 43
-6.4801 -11.7711 -1.12294 89 91 45
-6.54688 -11.7644 -1.12554 97 95 52
-6.59811 -11.7725 -1.12875 109 94 58
-6.63705 -11.7578 -1.12935 113 98 70
-17.588 -6.52305 -1.66615 132 129 140
-17.6615 -6.48779 -1.67196 132 129 140
-17.7189 -6.41489 -1.67497 129 127 138
-17.7773 -6.37342 -1.67918 128 127 138
-17.8487 -6.3363 -1.6848 126 124 137
-17.9088 -6.29483 -1.68921 122 122 132
-21.1888 -5.66408 -1.89204 95 97 109
-21.2587 -5.54056 -1.89569 93 100 111
-21.2856 -5.4409 -1.89588 88 97 109
-21.3383 -5.38336 -1.89953 87 93 109
-4.83881 -12.041 -1.02243 89 83 51
-4.88498 -12.0508 -1.02492 101 89 68
-4.94268 -12.09 -1.03047 110 91 77
-4.99005 -12.0456 -1.02818 97 83 56
-6.21313 -11.8355 -1.11611 99 93 45
-6.25575 -11.8291 -1.11751 93 87 39
-6.29929 -11.8243 -1.11911 85 81 36
-6.35656 -11.8459 -1.12372 102 99 51
-6.405 -11.8047 -1.12233 95 95 48
-17.9993 -6.23203 -1.69583 107 106 114
-18.0948 -6.20198 -1.70404 116 115 120
-18.1791 -6.16756 -1.71106 131 131 136
-18.2616 -6.10027 -1.71687 131 130 135
-21.3581 -5.31731 -1.89991 89 95 109
-21.382 -5.21668 -1.89992 92 94 107
-21.4399 -5.15983 -1.90414 93 95 107
-21.428 -5.08602 -1.90146 97 99 111
-21.4701 -5.0251 -1.90414 99 97 104
-4.78858 -12.0199 -1.0188 101 96 60
-6.00212 -11.8703 -1.10969 100 94 45
-6.05976 -11.8485 -1.11029 112 114 67
-6.09699 -11.832 -1.11049 96 104 65
-6.1466 -11.8403 -1.1135 89 91 53
-10.4327 -10.564 -1.37817 127 116 110
-10.4705 -10.5375 -1.37903 131 120 114
-10.5332 -10.5364 -1.38378 130 119 113
-10.5723 -10.5109 -1.38486 127 116 112
-10.6377 -10.4788 -1.38746 137 124 118
-10.6977 -10.4741 -1.39177 136 123 118
-10.7297 -10.441 -1.39178 137 124 119
-10.7877 -10.401 -1.39329 137 124 115
-10.8408 -10.3885 -1.39653 139 124 117
-10.8838 -10.3661 -1.39826 142 127 120
-10.9503 -10.3335 -1.40107 139 124 117
-10.9933 -10.3107 -1.4028 139 125 116
-11.0348 -10.2863 -1.40431 143 129 120
-11.0777 -10.2631 -1.40604 139 127 119
-11.366 -10.0851 -1.41643 122 113 116
-11.4391 -10.0561 -1.42031 125 115 117
-11.4935 -10.0419 -1.42377 125 116 117
-11.5404 -10.0207 -1.42614 125 117 117
-11.5814 -9.99418 -1.42766 128 119 114
-11.6439 -9.95469 -1.43003 131 121 120
-11.6983 -9.93942 -1.43349 129 121 119
-11.7315 -9.90576 -1.43393 125 116 117
-11.7983 -9.86923 -1.43695 122 116 120
-11.845 -9.84678 -1.43933 117 111 113
-11.8857 -9.81902 -1.44084 118 113 117
-11.9492 -9.77897 -1.44343 117 112 118
-11.9927 -9.75333 -1.44538 118 113 119
-12.027 -9.71993 -1.44603 122 117 122
-12.0933 -9.68151 -1.44906 121 116 120
-12.1289 -9.649 -1.44993 123 118 122
-12.1629 -9.61511 -1.45058 121 116 120
-12.2154 -9.59598 -1.45382 121 116 120
-12.2533 -9.53417 -1.45296 123 118 122
-12.3276 -9.53174 -1.45922 122 120 123
-12.3441 -9.48371 -1.4575 121 119 122
-12.4081 -9.442 -1.46031 122 117 123
-12.4352 -9.40228 -1.4601 121 116 122
-12.4859 -9.38055 -1.46312 116 111 118
-12.5318 -9.35499 -1.4655 116 110 120
-12.5907 -9.30851 -1.46766 120 116 123
-12.6237 -9.27298 -1.46832 119 117 122
-12.6695 -9.24678 -1.47069 121 119 123
-12.7296 -9.20065 -1.47307 124 118 128
-12.7655 -9.16695 -1.47416 123 118 125
-12.8094 -9.13894 -1.47632 124 119 125
-12.8611 -9.08615 -1.47762 119 114 120
-12.9145 -9.06462 -1.48107 124 119 125
-12.9469 -9.02793 -1.48172 123 123 125
-12.9997 -8.97551 -1.48324 120 118 123
-13.0498 -8.95098 -1.48626 120 117 124
-13.0851 -8.91606 -1.48735 121 118 127
-13.1432 -8.89674 -1.49145 121 118 125
-13.212 -8.85438 -1.49512 119 116 125
-13.2553 -8.82441 -1.49728 118 115 126
-13.3051 -8.79866 -1.5003 121 119 129
-13.3637 -8.74863 -1.50268 122 119 127
-13.3935 -8.70924 -1.50312 120 117 124
-12.9408 -7.02275 -1.36855 123 121 132
-12.9776 -6.991 -1.3705 124 122 135
-18.3816 -6.07663 -1.7277 132 131 140
-18.4695 -6.0418 -1.73511 100 99 115
-18.5686 -5.97799 -1.74273 90 95 111
-18.611 -5.92759 -1.74534 83 90 105
-21.5303 -4.8617 -1.90645 109 100 104
-21.5737 -4.80058 -1.90933 109 100 102
-21.5932 -4.69848 -1.90914 100 97 107
-5.77864 -11.9208 -1.10446 96 93 43
-5.82788 -11.9304 -1.10747 100 92 47
-5.87384 -11.9326 -1.10967 108 96 61
-5.91368 -11.8739 -1.10608 104 85 59
-5.96912 -11.8954 -1.11048 105 85 53
-9.66565 -10.8969 -1.34748 151 129 116
-9.71982 -10.8911 -1.35093 149 132 119
-9.77538 -10.8522 -1.3518 143 130 119
-9.81775 -10.8325 -1.35331 94 83 75
-9.86934 -10.823 -1.35633 108 91 79
-9.93261 -10.7922 -1.3585 117 91 76
-9.97223 -10.769 -1.35958 117 95 78
-10.0265 -10.7617 -1.36303 122 96 79
-10.0701 -10.7426 -1.36476 131 110 96
-10.1278 -10.7047 -1.36606 140 127 118
-10.1659 -10.6793 -1.36693 133 123 114
-10.2108 -10.661 -1.36887 134 123 114
-10.2832 -10.6383 -1.37254 127 116 109
-10.3307 -10.6224 -1.37492 132 122 113
-10.3686 -10.5963 -1.37579 132 123 114
-13.4249 -8.67084 -1.50377 123 119 127
-13.483 -8.62003 -1.50615 124 118 126
-13.5124 -8.58022 -1.50659 125 117 117
-13.5685 -8.55742 -1.51047 131 120 97
-13.5961 -8.51625 -1.51069 195 162 68
-13.657 -8.46647 -1.5135 242 185 126
-13.7112 -8.44182 -1.51717 108 85 82
-13.7519 -8.40855 -1.51912 100 83 73
-13.821 -8.36297 -1.52301 118 94 76
-13.87 -8.33438 -1.52603 129 100 84
-13.8901 -8.28811 -1.52539 142 129 121
-13.9383 -8.22929 -1.52669 136 128 130
-13.9853 -8.19906 -1.5295 134 129 129
-14.0152 -8.15851 -1.53015 139 135 135
-14.0553 -8.12387 -1.5321 134 130 133
-14.1097 -8.0681 -1.53426 131 126 130
-18.9866 -5.9818 -1.78321 86 93 109
-19.6793 -6.1322 -1.85453 81 90 107
-5.58941 -11.9449 -1.09864 100 91 55
-5.62851 -11.9336 -1.09925 116 91 67
-5.68492 -11.9601 -1.10405 125 101 74
-5.74953 -11.9543 -1.10626 115 105 60
-9.18387 -11.1182 -1.33169 160 128 105
-9.23036 -11.1054 -1.33385 164 135 112
-9.28423 -11.0659 -1.33429 159 130 106
-9.32942 -11.0512 -1.33623 159 132 113
-9.36701 -11.0271 -1.33688 157 132 112
-9.43201 -11.0007 -1.33926 160 133 112
-9.46819 -10.9747 -1.3397 152 129 113
-9.51713 -10.9638 -1.34229 152 130 115
-9.56096 -10.9466 -1.34402 156 135 118
-9.6206 -10.913 -1.34553 155 132 118
-14.1358 -8.02512 -1.53448 122 119 124
-14.1669 -7.985 -1.53535 122 119 125
-14.4365 -7.7301 -1.5481 124 121 130
-14.4703 -7.69073 -1.5494 123 125 132
-14.509 -7.62487 -1.54984 122 124 133
-14.5565 -7.59259 -1.55286 121 122 132
-14.604 -7.56008 -1.55589 121 120 134
-19.7925 -6.06571 -1.86355 89 96 117
-19.8276 -6.00879 -1.86535 83 90 110
-19.8569 -5.95 -1.86656 68 75 92
-19.9028 -5.86211 -1.86857 86 91 106
-19.9221 -5.80021 -1.86878 119 120 131
-19.9507 -5.74098 -1.86998 116 114 126
-21.8785 -4.04722 -1.92449 90 100 114
-5.36609 -11.9376 -1.08883 95 99 40
-5.43254 -11.939 -1.09163 120 110 47
-5.48835 -11.9663 -1.09644 122 107 51
-5.5299 -11.9608 -1.09764 115 106 56
-9.182 -11.1866 -1.33728 162 131 107
-11.3853 -6.34167 -1.24627 126 123 134
-11.4129 -6.31107 -1.2474 125 123 134
-11.4092 -6.26311 -1.24448 123 120 129
-14.6632 -7.5045 -1.55891 122 120 133
-14.6999 -7.46601 -1.56064 123 121 132
-14.7312 -7.42465 -1.56172 124 122 135
-14.7864 -7.36639 -1.56432 125 125 137
-14.8334 -7.33268 -1.56734 125 125 135
-14.8697 -7.29345 -1.56907 123 126 135
-14.9058 -7.25405 -1.5708 127 127 137
-14.9603 -7.19465 -1.57339 128 127 135
-15.0034 -7.1583 -1.57599 130 129 139
-20.0224 -5.65997 -1.8748 98 97 108
-20.0711 -5.53846 -1.87641 100 97 105
-20.1028 -5.47962 -1.87802 117 112 115
-20.1274 -5.38495 -1.87802 112 103 105
-21.9121 -3.9469 -1.92603 97 104 120
-21.9528 -3.88326 -1.9289 95 103 121
-21.9699 -3.81528 -1.92948 94 102 121
-21.9926 -3.71267 -1.93006 95 104 119
-5.02696 -11.7943 -1.0622 95 90 58
-5.06917 -11.7941 -1.06381 91 83 45
-5.11901 -11.812 -1.06741 109 101 65
-5.19758 -11.8458 -1.07362 107 99 63
-5.25402 -11.8779 -1.07882 100 94 49
-5.31149 -11.9115 -1.08422 94 96 41
-8.42743 -11.4662 -1.31113 203 160 122
-8.48222 -11.4678 -1.31479 210 167 131
-8.5481 -11.4465 -1.31717 202 162 127
-8.58082 -11.4172 -1.31674 192 151 118
-8.62518 -11.4037 -1.31847 193 154 122
-15.0374 -7.11746 -1.5775 130 129 135
-15.095 -7.05888 -1.58052 131 129 140
-15.1467 -7.02608 -1.58419 132 129 137
-15.184 -6.98632 -1.58614 131 128 137
-15.2285 -6.92096 -1.58766 131 128 137
-15.2673 -6.88163 -1.58982 129 126 135
-15.3168 -6.84703 -1.59327 134 133 137
-15.3682 -6.81297 -1.59694 124 119 125
-20.1663 -5.32784 -1.88043 107 99 106
-20.2109 -5.27201 -1.88344 91 89 100
-20.2249 -5.17436 -1.88244 91 94 111
-20.2613 -5.11619 -1.88465 86 94 111
-20.2552 -5.04731 -1.88245 86 95 112
-22.0406 -3.64975 -1.9337 95 104 121
-2.83531 -6.99805 -0.623743 100 94 60
-2.85849 -6.99561 -0.624418 89 84 52
-2.89282 -7.02279 -0.628691 95 91 58
-4.96958 -11.9161 -1.0714 98 88 61
-4.98619 -11.8516 -1.066 94 85 55
-8.164 -11.6221 -1.30829 185 146 117
-8.23917 -11.6158 -1.31239 184 143 112
-8.2804 -11.5988 -1.31347 186 148 112
-8.30686 -11.5604 -1.31175 184 146 109
-8.34553 -11.5012 -1.30896 211 175 133
-8.39108 -11.4902 -1.3109 203 160 120
-5.34536 -6.75874 -0.809677 165 134 108
-5.36693 -6.74426 -0.809919 168 137 112
-5.40408 -6.75024 -0.813284 166 139 112
-5.6686 -6.78878 -0.837077 165 138 119
-5.68905 -6.77167 -0.837079 161 136 116
-5.73504 -6.7644 -0.839965 159 136 118
-5.74667 -6.73631 -0.838286 165 140 120
-5.79462 -6.75273 -0.843572 156 133 118
-5.85463 -6.76161 -0.8491 150 128 114
-11.0551 -9.53872 -1.42109 124 115 118
-11.105 -9.49258 -1.422 120 115 119
-11.1429 -9.46597 -1.42336 125 118 121
-11.1852 -9.44308 -1.42539 123 116 118
-11.2756 -9.43081 -1.43238 127 118 117
-11.2951 -9.38825 -1.43103 130 122 119
-11.351 -9.37616 -1.43509 125 117 119
-11.4002 -9.32846 -1.436 127 118 120
-11.4423 -9.30448 -1.43803 129 120 124
-11.4767 -9.27406 -1.43893 121 114 118
-11.5203 -9.251 -1.44119 124 116 121
-11.569 -9.20239 -1.4421 119 114 120
-11.617 -9.18263 -1.44503 117 112 116
-11.6573 -9.15648 -1.44684 122 116 120
-11.7275 -9.12431 -1.4509 119 114 121
-11.7708 -9.10015 -1.45316 124 119 125
-15.4137 -6.74736 -1.59867 110 109 115
-15.4521 -6.70718 -1.60083 136 136 134
-15.4813 -6.66285 -1.60192 152 148 144
-15.5407 -6.6028 -1.60537 123 122 131
-15.5696 -6.55812 -1.60645 131 130 140
-15.6093 -6.51795 -1.60883 130 131 140
-15.6664 -6.45619 -1.61207 131 130 141
-20.299 -4.95705 -1.88466 82 84 101
-20.3193 -4.89468 -1.88527 110 109 119
-20.3434 -4.83316 -1.88627 115 114 116
-20.3653 -4.77108 -1.88708 135 131 125
-2.80047 -7.00248 -0.622844 101 91 62
-4.84365 -11.9743 -1.07218 93 87 55
-4.87465 -11.9452 -1.07059 87 84 51
-4.93152 -11.9271 -1.07099 87 81 47
-7.74715 -11.6975 -1.28972 141 123 109
-7.79589 -11.694 -1.29231 148 127 110
-7.86198 -11.6766 -1.29469 157 132 112
-7.91517 -11.6792 -1.29814 165 139 116
-7.96954 -11.6832 -1.3018 163 135 112
-8.02404 -11.687 -1.30547 164 133 107
-8.09475 -11.675 -1.30871 175 140 112
-8.14052 -11.6651 -1.31065 178 142 115
-5.17053 -6.87195 -0.807741 181 141 112
-5.18663 -6.85 -0.806782 177 141 111
-5.22935 -6.86502 -0.811347 174 141 110
-5.19992 -6.78028 -0.801021 170 135 107
-5.33858 -6.8593 -0.8188 170 137 112
-5.3356 -6.8114 -0.813998 168 137 112
-5.49664 -6.8061 -0.825537 166 140 117
-5.51958 -6.79269 -0.826019 164 139 116
-5.69238 -6.86186 -0.845722 161 136 119
-9.91857 -10.1975 -1.37772 135 126 119
-9.9634 -10.1812 -1.37998 138 127 121
-10.0186 -10.1437 -1.38133 130 121 114
-10.0676 -10.1312 -1.38427 129 122 115
-10.1054 -10.1072 -1.3854 132 123 117
-10.1501 -10.0902 -1.38765 126 117 112
-10.2008 -10.0474 -1.38834 132 121 117
-10.2511 -10.0355 -1.39149 132 122 120
-10.2859 -10.0081 -1.39217 129 119 118
-10.3419 -9.97012 -1.39376 124 116 114
-10.3879 -9.95341 -1.39624 122 115 109
-10.4296 -9.93237 -1.39805 121 113 111
-10.4854 -9.89364 -1.39963 129 118 114
-10.5198 -9.86537 -1.40031 129 117 113
-10.583 -9.86421 -1.40549 135 124 119
-10.6203 -9.83831 -1.40662 136 125 120
-10.683 -9.80527 -1.40933 135 123 114
-10.9497 -9.62494 -1.41837 134 123 117
-10.982 -9.59371 -1.41883 133 123 121
-11.029 -9.57545 -1.42154 123 113 112
-11.8172 -9.07824 -1.45586 123 116 123
-11.8888 -9.04619 -1.46015 123 118 122
-11.943 -9.02977 -1.46398 125 120 124
-11.9767 -8.99751 -1.46489 122 116 120
-12.0307 -8.95127 -1.4667 121 114 121
-12.0658 -8.91987 -1.46783 121 115 119
-12.1103 -8.89542 -1.47031 121 117 118
-12.1581 -8.87312 -1.47324 122 118 119
-12.2196 -8.83166 -1.47618 126 121 125
-12.264 -8.80652 -1.47866 127 122 126
-12.2859 -8.76497 -1.47799 129 123 127
-12.3229 -8.70542 -1.47755 126 119 126
-12.3605 -8.67516 -1.47913 126 119 126
-12.3982 -8.64476 -1.48071 126 120 124
-12.4471 -8.62214 -1.48387 125 121 122
-12.5095 -8.57989 -1.48703 126 122 123
-12.5551 -8.55449 -1.48973 125 121 122
-12.5826 -8.51659 -1.48997 123 119 116
-12.6249 -8.46013 -1.49042 131 121 120
-12.662 -8.42861 -1.492 135 124 122
-12.6875 -8.38926 -1.49201 148 136 131
-12.7574 -8.3508 -1.4963 146 133 124
-12.7859 -8.31331 -1.49675 148 134 125
-12.8061 -8.2703 -1.49608 144 131 123
-12.8406 -8.20839 -1.49564 139 127 121
-12.8704 -8.17166 -1.49632 142 130 117
-12.9252 -8.15075 -1.50038 145 125 96
-12.9649 -8.12006 -1.50241 195 161 67
-13.0155 -8.06792 -1.50422 226 181 123
-12.8987 -7.00688 -1.43339 126 125 132
-15.6912 -6.40949 -1.61272 133 128 141
-15.7232 -6.36569 -1.61424 133 132 143
-15.7625 -6.32475 -1.61661 132 131 141
-15.8243 -6.26406 -1.6205 132 131 139
-15.8541 -6.21898 -1.6218 134 131 140
-15.8376 -6.15561 -1.61771 132 129 140
-15.9136 -6.09993 -1.62332 131 129 140
-20.4059 -4.67953 -1.88909 132 127 120
-22.2854 -3.04664 -1.94904 100 112 128
-22.3381 -2.94674 -1.95287 104 112 132
-22.3936 -2.88263 -1.95747 105 113 132
-7.34072 -11.6902 -1.26535 128 114 103
-7.39308 -11.6951 -1.2688 132 119 104
-7.44346 -11.6963 -1.27182 141 126 112
-7.51543 -11.691 -1.27549 144 132 116
-7.56703 -11.6934 -1.27872 139 128 110
-7.61449 -11.6888 -1.2811 138 125 112
-7.68887 -11.6858 -1.28519 136 121 106
-5.14692 -6.90643 -0.80942 174 139 108
-9.23808 -10.4776 -1.34838 151 129 116
-9.28436 -10.4657 -1.35086 151 130 113
-9.32676 -10.4491 -1.35267 146 127 114
-9.38678 -10.4194 -1.3547 152 135 125
-9.42778 -10.4009 -1.35628 89 77 69
-9.47805 -10.3926 -1.35943 104 91 79
-9.52864 -10.3518 -1.35989 115 93 79
-9.5789 -10.343 -1.36305 124 98 81
-9.62116 -10.3252 -1.36485 124 97 78
-9.65935 -10.3029 -1.36599 138 117 101
-9.7136 -10.2655 -1.36712 135 125 116
-9.77203 -10.2646 -1.37162 134 124 115
-9.81419 -10.246 -1.37343 133 120 113
-9.88603 -10.2265 -1.37749 130 121 113
-13.0635 -8.04204 -1.50738 92 72 57
-13.081 -7.99723 -1.50648 95 76 70
-13.1294 -7.94335 -1.50807 133 108 88
-13.1313 -7.88915 -1.50514 129 104 90
-13.1721 -7.85848 -1.5074 131 122 127
-13.2421 -7.81718 -1.51191 126 125 132
-13.3529 -7.8273 -1.5234 127 126 134
-13.4569 -7.83279 -1.53399 123 121 129
-13.544 -7.82773 -1.54232 122 118 126
-13.5574 -7.75158 -1.5394 124 122 128
-13.5463 -7.68968 -1.53491 125 124 130
-13.5453 -7.6338 -1.53176 123 120 132
-12.9511 -6.9837 -1.43745 125 125 127
-16.1189 -6.12198 -1.64509 127 127 137
-16.1742 -6.08566 -1.64941 131 129 142
-16.2501 -6.02785 -1.65502 132 128 142
-16.2885 -5.98461 -1.6574 129 128 139
-16.3399 -5.94598 -1.66128 131 129 140
-22.4569 -2.8192 -1.96283 111 119 138
-22.4849 -2.71516 -1.96437 114 118 130
-7.00093 -11.6934 -1.24658 64 63 69
-7.0517 -11.698 -1.24982 63 62 68
-7.12597 -11.7001 -1.25413 63 63 74
-7.16892 -11.6905 -1.25564 62 64 74
-7.21896 -11.6926 -1.25866 61 59 69
-7.28845 -11.6852 -1.2619 115 102 94
-9.11357 -10.5625 -1.34633 156 134 121
-9.15608 -10.5466 -1.34814 162 140 127
-9.19343 -10.5245 -1.34905 155 133 120
-7.81703 -7.12033 -1.04668 138 125 117
-7.80805 -7.06792 -1.04164 139 124 118
-7.83169 -7.0239 -1.0402 139 126 118
-7.86018 -7.0066 -1.04141 140 126 117
-7.89742 -6.99722 -1.04406 143 129 120
-13.7444 -7.35841 -1.53698 124 123 128
-13.7805 -7.32303 -1.53878 124 122 127
-13.8139 -7.25855 -1.53879 127 124 129
-13.8656 -7.23112 -1.54262 125 124 131
-13.8855 -7.18696 -1.5424 122 120 131
-13.9306 -7.12832 -1.54399 125 123 135
-13.9838 -7.10107 -1.54804 126 124 137
-16.4134 -5.88616 -1.66668 131 130 140
-16.4869 -5.85491 -1.67315 123 123 133
-16.5343 -5.81394 -1.6766 128 126 139
-16.5965 -5.77799 -1.68178 128 126 138
-20.6573 -4.06055 -1.90174 89 97 115
-20.6889 -3.96575 -1.90315 93 100 110
-20.7218 -3.90475 -1.90535 125 128 135
-20.735 -3.83998 -1.90556 130 131 135
-24.901 -0.483887 -2.04027 94 110 136
-24.9075 -0.410256 -2.04091 94 109 138
-24.9297 -0.336818 -2.04309 98 112 141
-6.6692 -11.6959 -1.2289 125 118 108
-6.74068 -11.6969 -1.23278 102 101 97
-6.79199 -11.7043 -1.23623 55 57 56
-6.83857 -11.7028 -1.2386 57 56 62
-6.88616 -11.7028 -1.24119 61 60 66
-6.9522 -11.6921 -1.24378 64 63 68
-5.28448 -6.77869 -0.828285 170 142 120
-5.31201 -6.77227 -0.829761 172 144 122
-5.34435 -6.77204 -0.832221 166 139 116
-5.39942 -6.77929 -0.837139 167 140 119
-5.45254 -6.80533 -0.843778 167 139 118
-5.56485 -6.79875 -0.851896 165 138 121
-5.60875 -6.8114 -0.856568 160 137 119
-5.68638 -6.80125 -0.861734 165 139 122
-5.71683 -6.79635 -0.863703 159 136 118
-5.73973 -6.78212 -0.864197 161 138 121
-5.78584 -6.77436 -0.867149 155 132 118
-5.82268 -6.77663 -0.870347 155 133 120
-5.87998 -6.80303 -0.877477 158 136 123
-14.014 -7.06193 -1.54917 125 125 135
-14.0834 -7.01494 -1.55391 128 127 133
-14.1169 -6.97716 -1.55549 127 126 132
-14.1823 -6.955 -1.56113 126 127 133
-14.2245 -6.92118 -1.56383 124 124 132
-14.2667 -6.85973 -1.56519 122 120 131
-14.2801 -6.81177 -1.5643 120 119 127
-14.3274 -6.77995 -1.56768 121 120 128
-16.7351 -5.73902 -1.69472 135 134 142
-16.9098 -5.74069 -1.71284 134 133 140
-17.1167 -5.75216 -1.73462 131 128 137
-20.7696 -3.74536 -1.90737 128 129 134
-20.8057 -3.68454 -1.90997 115 118 124
-24.9261 -0.226007 -2.04281 91 107 133
-24.9318 -0.152222 -2.04346 93 109 135
-24.9333 -0.0783678 -2.04373 93 109 135
-6.41599 -11.7011 -1.21617 140 127 111
-6.45651 -11.6905 -1.21725 135 122 106
-6.50823 -11.7008 -1.22092 135 123 110
