-37.3707 -21.0199 0.998871 123 125 76
-37.4914 -20.9341 1.00002 109 108 58
-37.584 -20.8322 1.00058 93 95 51
-38.5749 -19.6051 1.00585 129 122 81
-38.6962 -19.439 1.00642 113 107 58
-38.8151 -19.3472 1.00762 118 109 50
-38.8963 -19.2363 1.00804 126 120 62
-37.9316 -18.6111 0.986816 134 126 82
-37.9424 -18.3961 0.985204 114 102 89
-38.0657 -18.3093 0.986558 110 100 91
-38.2898 -18.2702 0.989992 116 105 99
-38.8587 -18.3188 0.999893 113 100 94
-39.5159 -18.4784 1.0122 116 104 98
-39.6272 -18.3798 1.0133 115 106 99
-39.7378 -18.2051 1.01377 113 101 100
-39.8411 -18.102 1.01472 114 104 103
-39.9333 -17.9936 1.01545 114 105 108
-40.0343 -17.8888 1.01636 114 105 106
-40.1647 -17.7215 1.01728 116 105 107
-40.2576 -17.6125 1.01805 112 102 101
-40.3411 -17.499 1.01864 115 105 106
-40.4718 -17.3305 1.0196 110 101 102
-40.571 -17.2232 1.02052 114 106 104
-40.6608 -17.1115 1.02125 116 108 106
-40.7917 -16.9417 1.02226 115 106 103
-40.8789 -16.8283 1.02296 118 108 105
-40.9805 -16.7205 1.02395 117 107 103
-41.0708 -16.6078 1.02473 117 108 101
-41.207 -16.4383 1.02589 119 108 102
-41.291 -16.3223 1.02655 116 107 100
-41.3988 -16.2154 1.0277 118 109 105
-41.5204 -16.0386 1.0286 102 96 96
-41.6219 -15.9284 1.02964 97 93 94
-41.7156 -15.8149 1.03054 96 92 92
-41.8392 -15.6375 1.03151 90 88 89
-41.9509 -15.5299 1.03278 96 90 94
-42.0473 -15.4162 1.03375 94 91 101
-42.1655 -15.2354 1.03466 121 112 114
-42.2893 -15.1307 1.03619 100 90 92
-42.3941 -15.0188 1.03735 110 99 94
-42.4891 -14.903 1.03832 113 100 92
-42.6184 -14.7239 1.03949 110 101 90
-42.7164 -14.6083 1.04054 110 104 102
-42.8331 -14.4987 1.04196 94 97 101
-42.9587 -14.3167 1.0431 195 191 186
-43.0519 -14.1982 1.04408 197 189 179
-43.8073 -13.2405 1.05229 118 104 95
-43.8823 -13.1133 1.05298 109 97 95
-44.0615 -12.9416 1.05528 110 101 96
-44.1777 -12.8256 1.05679 122 108 99
-44.2783 -12.7046 1.058 118 104 96
-44.3887 -12.5108 1.05901 128 119 110
-44.5 -12.3918 1.06045 198 178 153
-48.6186 -11.5072 1.13094 66 63 59
-49.5194 -11.5565 1.1475 102 105 95
-51.8289 -11.6673 1.18988 105 104 93
-50.0188 -10.6849 1.15329 90 93 82
-50.6358 -10.6506 1.16444 135 133 120
-52.354 -10.4129 1.19503 56 59 49
-52.0151 -10.0913 1.18775 83 98 72
-58.7859 -11.0207 1.31475 85 93 76
-63.8134 -8.36696 1.40065 94 94 68
-63.5927 -8.13511 1.39613 112 106 75
-63.6586 -7.94045 1.397 136 107 72
-63.6388 -7.63376 1.39604 120 114 51
-62.1911 -7.26256 1.36858 168 161 75
-58.6204 -11.1802 1.3122 92 109 73
-59.7055 -10.9991 1.33156 124 150 151
-66.9445 -9.5259 1.46097 101 108 74
-9.83947 -20.1185 0.355985 116 95 40
-31.3999 -47.0026 1.04029 97 121 135
-30.3091 -41.035 0.956206 253 250 187
-30.0883 -40.4673 0.947367 254 249 195
-29.888 -39.9335 0.939122 253 242 198
-29.7464 -39.355 0.930825 252 234 184
-29.4634 -38.7243 0.92073 253 251 190
-29.6612 -38.7341 0.92248 252 249 188
-26.0938 -24.4991 0.726282 89 80 63
-26.1755 -24.423 0.726333 127 122 89
-9.81627 -23.87 0.381383 128 119 29
-9.88282 -23.8214 0.38114 127 117 32
-9.96583 -23.8133 0.381201 140 134 43
-9.83353 -20.6811 0.359731 155 134 56
-9.9419 -20.6611 0.359803 149 129 60
-9.96818 -20.5511 0.359115 111 94 37
-9.94341 -20.1747 0.356555 176 155 82
-10.0901 -20.2367 0.357258 132 109 36
-10.1377 -20.1752 0.356941 178 151 73
-10.2721 -20.2891 0.35796 164 147 69
-10.3838 -20.2756 0.358103 142 126 54
-10.4456 -20.2419 0.358005 111 97 24
-10.5446 -20.281 0.358464 127 112 39
-10.5422 -19.5944 0.353967 155 150 57
-10.6157 -19.5122 0.3536 113 112 28
-10.6978 -19.5201 0.353832 125 127 45
-30.8477 -42.7449 0.981869 248 219 169
-30.697 -42.2544 0.974523 251 250 193
-30.5255 -41.6028 0.965021 254 249 201
-29.8641 -38.6234 0.922817 253 244 189
-30.0294 -38.5886 0.923771 252 241 186
-30.1912 -38.5484 0.924637 216 206 152
-30.4059 -38.4507 0.92527 93 94 84
-30.5725 -38.4152 0.926256 90 91 83
-30.7367 -38.3759 0.927182 78 80 75
-30.8873 -38.3188 0.927785 82 83 81
-31.1065 -38.2235 0.92854 84 85 81
-31.2619 -38.1712 0.929262 74 76 72
-31.4098 -38.109 0.929808 87 89 84
-32.02 -36.1211 0.912006 84 83 69
-32.1653 -35.1609 0.902391 89 96 68
-30.6907 -24.2422 0.773279 234 206 190
-30.7704 -24.1498 0.773314 97 47 60
-10.0832 -23.7822 0.38117 160 151 71
-10.1693 -23.7807 0.381285 157 142 61
-10.2602 -23.79 0.381485 135 125 47
-10.3363 -23.7641 0.381422 150 147 61
-10.456 -23.7366 0.381433 138 124 46
-10.5456 -23.7411 0.381605 134 115 34
-10.6257 -23.7234 0.381611 137 115 38
-10.7438 -23.6908 0.381595 145 134 48
-10.8377 -23.7034 0.381836 141 134 54
-10.9154 -23.6792 0.381802 133 124 47
-10.6419 -20.2377 0.35839 134 120 53
-10.6594 -20.118 0.357642 133 119 49
-10.7022 -20.0481 0.357274 120 120 35
-10.8839 -19.7191 0.355538 140 140 59
-11.2553 -20.1788 0.35936 139 140 44
-11.3409 -20.1862 0.359603 152 138 50
-37.172 -44.4427 1.05557 126 123 77
-35.9223 -42.666 1.02353 100 95 56
-33.5815 -39.4876 0.965301 87 87 80
-34.0005 -39.7312 0.971907 109 111 105
-34.3085 -39.8405 0.975952 78 78 76
-33.8121 -39.0121 0.961814 81 82 62
-34.5814 -39.529 0.974806 69 65 42
-34.5544 -39.2493 0.971322 74 71 51
-32.7154 -36.5638 0.923507 84 85 68
-32.7278 -36.3482 0.921154 76 80 64
-36.2183 -40.0015 0.995321 107 110 80
-32.4551 -35.2579 0.906215 71 79 57
-32.5512 -35.1417 0.905809 97 104 71
-32.7228 -35.1073 0.907049 83 92 63
-34.92 -37.1307 0.950658 69 71 62
-34.068 -35.992 0.929791 93 101 81
-32.3141 -33.9126 0.889798 92 96 81
-32.3786 -33.6625 0.887651 96 99 90
-32.9929 -33.879 0.896011 78 79 67
-33.0212 -33.5909 0.893134 87 87 81
-34.1026 -34.4825 0.913497 98 92 93
-33.985 -34.1484 0.908704 148 130 122
-33.1275 -33.073 0.888555 215 194 168
-33.9003 -33.5335 0.901217 230 208 168
-33.8028 -33.2277 0.896958 122 112 83
-34.0384 -33.2522 0.899586 96 90 71
-34.3224 -33.2177 0.90208 90 89 71
-32.2668 -30.8262 0.855893 101 95 78
-32.3426 -30.6098 0.854388 108 94 78
-32.5143 -29.9168 0.84895 123 113 76
-32.4733 -29.6919 0.846207 98 80 69
-32.7422 -29.7521 0.849637 115 104 94
-32.8084 -29.5324 0.848084 76 75 53
-32.2187 -28.816 0.834587 115 104 90
-32.0877 -28.518 0.830185 134 120 109
-33.0427 -29.096 0.846148 80 70 44
-32.0297 -28.0206 0.824564 105 96 83
-33.6075 -29.2257 0.853479 69 69 59
-34.2448 -29.5021 0.863065 84 86 81
-33.802 -28.9346 0.85268 71 72 63
-33.9964 -28.9183 0.854623 98 93 85
-34.57 -28.3082 0.85496 91 89 76
-34.3502 -27.948 0.849086 62 70 34
-34.7219 -28.0723 0.854391 58 68 35
-33.1943 -25.073 0.809289 126 115 109
-33.2878 -24.981 0.80953 127 117 113
-34.4493 -19.9552 0.782098 98 82 75
-35.0026 -19.1239 0.783105 124 132 78
-35.2023 -18.8775 0.783931 100 94 82
-35.3027 -18.7896 0.784618 130 123 100
-35.4162 -18.6375 0.785023 115 105 96
-35.4735 -18.5264 0.785015 101 91 83
-35.6545 -18.4796 0.78704 108 96 84
-36.1111 -18.3605 0.792148 127 126 71
-41.4745 -13.2531 0.837281 154 129 118
-41.6021 -13.0787 0.838322 129 103 86
-41.7486 -12.9813 0.839987 126 108 100
-41.8721 -12.876 0.841305 117 103 90
-42.9175 -11.6666 0.85152 108 100 97
-42.9376 -11.5275 0.851336 113 104 109
-44.6734 -9.25415 0.869405 90 83 63
-44.6739 -9.1081 0.869064 92 93 62
-47.1466 -8.53953 0.903419 162 170 185
-46.8827 -8.26354 0.899005 108 84 111
-46.7954 -8.09661 0.897421 140 118 135
-46.7941 -7.94509 0.89712 79 79 90
-46.8157 -7.57096 0.896719 158 102 116
-46.8127 -7.41965 0.89642 146 93 102
-46.825 -7.27089 0.896354 149 95 99
-46.8419 -7.04757 0.896199 100 77 66
-46.8352 -6.89616 0.895874 88 93 69
-11.0301 -23.6378 0.381732 130 108 48
-11.1202 -23.6402 0.381904 162 140 71
-11.8629 -20.9774 0.365906 159 138 52
-11.8866 -20.6404 0.363804 121 118 41
-11.6484 -20.0742 0.359612 125 131 59
-11.99 -20.1598 0.360996 103 114 74
-11.8463 -19.7733 0.358188 80 92 62
-12.053 -19.7706 0.3587 65 72 64
-12.0914 -19.6958 0.358328 79 87 85
-11.881 -19.1451 0.354333 79 87 82
-11.9507 -19.1254 0.354393 95 92 73
-12.0677 -19.182 0.355055 63 34 21
-12.0551 -19.0294 0.354071 223 183 90
-12.1256 -18.9447 0.353742 140 131 40
-12.3642 -19.1908 0.355914 151 146 124
-12.4623 -19.2132 0.356322 134 131 125
-12.5822 -19.2024 0.356593 96 122 136
-36.3845 -35.0072 0.941956 86 84 67
-35.9239 -30.3755 0.88983 96 87 84
-35.9661 -30.1229 0.887817 96 91 90
-35.9692 -29.9345 0.886022 94 83 82
-35.9498 -29.7285 0.883819 91 71 73
-35.9055 -28.7575 0.874041 72 71 58
-35.8683 -28.5439 0.871613 77 73 63
-35.8291 -27.8771 0.864941 116 80 94
-35.783 -27.6618 0.862432 96 75 81
-35.766 -27.4703 0.860478 114 93 100
-35.7749 -27.211 0.858197 119 104 107
-35.7312 -26.565 0.851846 118 108 106
-35.6996 -26.3684 0.849725 107 98 98
-35.6446 -26.1557 0.847196 112 103 103
-35.6353 -25.9778 0.845514 111 101 99
-35.6415 -25.7269 0.843363 117 108 103
-35.5979 -25.5264 0.841101 109 102 96
-35.5844 -25.3485 0.839394 116 107 106
-35.5899 -25.1013 0.837306 112 103 103
-35.5549 -24.9104 0.835252 128 118 116
-35.5305 -24.7279 0.833403 106 96 102
-35.5339 -24.4834 0.831349 97 94 103
-35.5092 -24.3029 0.829532 91 88 97
-35.4788 -24.1194 0.827629 90 88 93
-35.4262 -23.9218 0.825348 93 88 92
-35.4462 -23.6938 0.82368 92 90 93
-35.4148 -23.5128 0.821809 85 82 91
-35.4475 -23.3753 0.821075 88 84 94
-35.5678 -23.2161 0.821214 95 91 92
-35.6529 -23.1133 0.821413 94 89 95
-35.7327 -23.007 0.821525 83 80 87
-35.8681 -22.8571 0.821959 85 84 89
-35.9522 -22.7532 0.82216 91 88 95
-36.0326 -22.6469 0.822304 86 84 88
-36.133 -22.553 0.822798 81 79 83
-36.2411 -22.3851 0.8228 86 77 79
-36.3425 -22.2913 0.823325 103 93 84
-36.4232 -22.1846 0.823502 99 89 79
-36.5467 -22.0256 0.823797 100 92 80
-36.6369 -21.9244 0.824151 107 94 87
-36.7114 -21.8135 0.824244 105 92 82
-36.835 -21.6539 0.824572 104 91 87
-36.9345 -21.5576 0.825103 111 97 88
-37.1351 -21.2875 0.825617 103 92 70
-37.2285 -21.1868 0.826063 97 92 59
-37.3268 -21.0888 0.826598 105 94 78
-37.4197 -20.9874 0.827045 106 99 77
-37.5432 -20.8258 0.82744 103 108 68
-37.6319 -20.7215 0.827831 91 99 52
-37.8702 -20.4689 0.829086 102 100 81
-38.43 -19.7736 0.831559 121 105 89
-38.6479 -19.5051 0.832598 117 114 57
-38.7329 -19.3964 0.833 132 125 80
-38.8549 -19.23 0.833497 126 113 80
-37.788 -18.5524 0.815229 132 118 91
-37.8092 -18.4162 0.814646 121 109 95
-38.0184 -18.2981 0.816628 121 110 104
-38.0801 -18.1814 0.816715 116 105 101
-38.9616 -18.4548 0.830016 113 102 98
-39.4498 -18.5362 0.836958 113 102 95
-39.57 -18.3664 0.837491 115 104 101
-39.6627 -18.2589 0.838076 112 100 102
-39.7479 -18.1477 0.838546 121 108 114
-39.8718 -17.9786 0.83917 102 89 96
-39.9762 -17.8755 0.839961 107 96 101
-40.0768 -17.7703 0.840695 104 96 97
-40.2174 -17.6072 0.841613 114 104 103
-40.2861 -17.4873 0.841856 117 107 106
-40.382 -17.379 0.842535 113 103 102
-40.5014 -17.2805 0.843591 109 99 97
-40.6052 -17.0998 0.843963 107 97 95
-40.7111 -16.9947 0.844818 110 102 100
-40.8075 -16.8852 0.845529 112 103 106
-40.9335 -16.7126 0.846282 108 99 102
-41.007 -16.5931 0.846647 108 98 99
-41.119 -16.4889 0.847622 124 115 111
-41.2489 -16.3165 0.848466 111 101 99
-41.3324 -16.2001 0.849009 123 113 113
-41.436 -16.0914 0.849871 108 102 107
-41.5568 -15.914 0.850602 96 93 100
-41.6503 -15.8005 0.851322 96 93 100
-41.738 -15.6845 0.851955 97 96 102
-41.8421 -15.5743 0.85285 97 96 104
-41.9832 -15.4027 0.853935 89 91 101
-42.0867 -15.2913 0.854832 86 86 91
-42.1917 -15.1801 0.85576 104 100 97
-42.3105 -14.9987 0.856528 105 94 89
-42.4073 -14.8837 0.857341 110 97 88
-42.5169 -14.7728 0.858359 113 100 95
-42.6397 -14.5912 0.859219 102 94 94
-42.741 -14.4765 0.860122 92 90 93
-42.8401 -14.3607 0.860998 197 194 194
-41.3862 -13.7271 0.838059 193 188 185
-41.3792 -13.509 0.837005 205 194 188
-41.3938 -13.3704 0.836634 215 197 190
-43.8603 -13.1144 0.870109 101 91 87
-43.95 -12.9914 0.870908 105 95 93
-44.0701 -12.8768 0.872172 113 103 101
-44.2059 -12.6912 0.873369 111 98 93
-44.3098 -12.5708 0.874404 101 93 95
-44.4096 -12.4489 0.875381 159 160 141
-44.5436 -12.2607 0.876582 99 77 81
-44.9177 -11.835 0.880417 97 93 99
-44.9807 -11.7009 0.880877 97 93 94
-45.0916 -11.5789 0.882064 114 112 110
-45.1906 -11.4534 0.883079 118 108 104
-45.4947 -11.3031 0.886906 114 106 104
-46.3894 -11.3719 0.899873 98 93 92
-47.3625 -11.4539 0.914008 102 97 94
-48.2342 -11.4254 0.926332 86 80 82
-49.3569 -11.5288 0.942681 85 80 81
-50.397 -11.606 0.957785 76 74 79
-51.4642 -11.5977 0.973 108 101 93
-51.9785 -11.5427 0.980225 79 74 67
-52.0934 -11.3968 0.98149 100 105 85
-52.5395 -11.322 0.987703 91 94 73
-49.5689 -10.4353 0.942724 154 148 137
-54.5094 -10.4995 1.014 79 81 78
-12.3311 -21.1179 0.367921 130 140 73
-12.7831 -21.669 0.37254 78 89 56
-12.659 -19.1903 0.356733 105 139 148
-54.9373 -10.7613 1.02076 70 68 62
-58.9264 -10.8741 1.07854 97 103 113
-66.7478 -9.30754 1.18904 77 81 65
-66.5874 -8.85864 1.1861 130 122 103
-14.2691 -21.3009 0.374216 101 120 120
-14.3817 -21.3266 0.374694 106 126 124
-65.4973 -12.304 1.1765 65 69 61
-17.5767 -25.5143 0.409402 145 140 140
-17.4838 -25.2092 0.407284 142 138 147
-17.545 -25.1302 0.406989 145 138 144
-17.5743 -24.9222 0.405834 135 139 146
-17.708 -24.9477 0.40639 132 137 147
-17.8074 -24.9237 0.406549 137 131 138
-17.9842 -24.9251 0.407106 220 195 148
-9.88623 -20.5678 0.19738 168 141 73
-10.0205 -20.6876 0.197239 159 129 47
-10.1127 -20.6325 0.19712 156 133 57
-10.1308 -20.5061 0.197065 141 120 48
-10.0361 -20.1476 0.197095 176 156 69
-10.1881 -20.2199 0.196933 154 132 56
-10.2303 -20.1475 0.196862 142 119 49
-10.3345 -20.2002 0.196744 147 126 48
-10.4413 -20.1776 0.196617 120 99 34
-10.5372 -20.2115 0.196505 117 105 39
-10.5971 -20.1739 0.196422 135 128 45
-10.6178 -19.8317 0.196325 124 120 39
-30.9022 -42.7104 0.552646 254 248 194
-30.6801 -42.1234 0.548471 255 249 197
-30.4769 -41.5689 0.544552 252 248 200
-30.322 -40.9512 0.54043 255 242 197
-30.1128 -40.402 0.536534 255 244 199
-29.904 -39.8594 0.532683 235 219 183
-29.7514 -39.269 0.52875 233 213 164
-29.5114 -38.6982 0.524645 254 242 189
-29.7145 -38.7142 0.525397 255 242 195
-29.9386 -38.6302 0.525656 254 237 196
-30.0823 -38.5668 0.525763 255 246 200
-30.2518 -38.5358 0.526148 238 235 206
-30.4706 -38.4426 0.526356 90 78 80
-30.6253 -38.3913 0.526584 87 78 81
-30.7936 -38.3566 0.526957 91 88 84
-30.9445 -38.2993 0.527146 86 81 74
-30.7368 -24.2368 0.454887 250 240 231
-30.8214 -24.1481 0.454907 99 89 93
-9.81681 -23.9316 0.198317 95 95 40
-9.93612 -23.9051 0.198167 118 115 42
-10.0193 -23.8969 0.198053 128 119 45
-10.1042 -23.8921 0.197939 152 147 56
-10.2296 -23.8789 0.197785 124 118 39
-10.3083 -23.8586 0.197675 141 123 43
-10.3863 -23.8362 0.197566 132 114 39
-10.4572 -23.7971 0.197461 135 122 42
-10.7205 -20.1818 0.196282 119 106 38
-10.7887 -20.0079 0.196156 126 123 42
-10.9674 -20.1956 0.19598 107 107 21
-11.1247 -20.263 0.195814 125 131 54
-11.1761 -20.2077 0.195738 103 102 31
-11.2425 -20.1804 0.195651 117 105 19
-11.3058 -20.0724 0.195559 147 131 36
-11.4414 -20.1706 0.195417 110 96 8
-11.4631 -20.0621 0.195367 116 104 22
-11.4742 -19.8629 0.195319 143 137 53
-11.6599 -20.0465 0.195135 140 133 50
-11.6942 -19.9621 0.195076 123 117 51
-11.7769 -19.9624 0.194977 98 92 56
-11.8559 -19.8838 0.194876 87 82 51
-11.8132 -19.3228 0.19482 71 74 80
-11.8987 -19.3293 0.19472 103 100 112
-11.972 -19.3148 0.194631 60 54 62
-31.1642 -38.2038 0.527371 80 80 71
-31.3339 -38.1684 0.527758 90 92 77
-31.4884 -38.1138 0.527989 83 87 73
-33.576 -39.3799 0.542473 120 110 90
-34.0858 -39.7279 0.546235 43 48 49
-34.3348 -39.7669 0.547351 71 68 59
-34.1121 -39.2589 0.543748 148 148 106
-34.3696 -39.1832 0.544285 100 95 76
-34.6278 -39.2303 0.545495 81 77 66
-34.9939 -39.3976 0.547764 145 138 119
-35.1864 -39.2423 0.547649 84 80 77
-34.5963 -38.3397 0.540562 82 84 81
-32.2907 -35.5508 0.516858 133 132 84
-32.3546 -35.2871 0.515695 123 119 77
-32.6228 -35.3582 0.517102 98 101 84
-32.7909 -35.0983 0.516374 74 77 71
-35.0709 -36.9641 0.535092 61 69 56
-34.6127 -36.2518 0.529563 99 107 86
-32.5927 -33.8094 0.508853 89 90 77
-33.7676 -34.5971 0.517621 77 78 70
-34.0695 -34.5813 0.518758 99 94 86
-34.0325 -34.3283 0.517313 91 86 82
-34.1732 -34.2559 0.517516 71 63 59
-33.2305 -33.1001 0.507793 85 69 58
-34.2123 -33.763 0.515181 132 112 86
-33.733 -33.081 0.509768 124 104 80
-34.1362 -33.269 0.512385 115 104 79
-34.3823 -33.1964 0.513051 129 119 93
-32.3961 -30.0257 0.489038 120 105 74
-32.6173 -29.9481 0.489618 103 84 71
-32.7812 -29.9109 0.490152 100 82 87
-32.5458 -29.5097 0.487204 109 96 87
-31.9958 -28.5571 0.480258 75 63 58
-32.9615 -29.2372 0.48774 106 89 74
-34.1376 -29.158 0.492639 89 81 78
-34.1353 -28.9722 0.491778 97 90 81
-33.2473 -25.062 0.470443 116 104 104
-33.3426 -24.9712 0.470529 113 103 102
-35.1083 -18.9275 0.457555 118 114 99
-35.1455 -18.8061 0.457388 110 101 87
-35.4977 -18.6393 0.458821 129 111 99
-35.7119 -18.4681 0.459507 134 120 93
-10.5763 -23.7673 0.197312 117 106 27
-10.6596 -23.7568 0.1972 135 116 48
-10.7406 -23.7406 0.19709 155 135 62
-10.8604 -23.7112 0.196941 138 127 41
-10.943 -23.698 0.19683 162 149 55
-11.0265 -23.6862 0.196718 135 117 47
-11.1471 -23.6572 0.196569 123 94 52
-11.2348 -23.6538 0.196455 130 103 61
-11.9913 -19.9731 0.194733 92 98 94
-12.0541 -19.9379 0.194651 75 80 80
-12.1287 -19.3685 0.194467 103 72 77
-12.3322 -19.5642 0.194267 109 82 80
-12.3485 -19.4549 0.194227 104 80 75
-12.3854 -19.3795 0.194169 146 102 99
-12.561 -19.4573 0.193989 143 94 87
-12.5526 -19.3106 0.193971 146 99 93
-12.7136 -19.4301 0.193807 145 97 92
-12.9311 -19.5675 0.19359 66 45 45
-36.7954 -39.0319 0.552697 68 69 66
-36.6832 -37.8309 0.545991 91 91 83
-36.4391 -34.9692 0.530489 97 85 66
-36.3876 -34.7018 0.528948 102 91 70
-36.3497 -34.3411 0.527011 125 113 89
-36.3139 -34.0931 0.525643 134 132 81
-36.2492 -33.8196 0.524032 97 88 52
-36.1721 -32.4997 0.517342 91 78 68
-36.1108 -31.7373 0.513471 111 101 96
-36.1117 -31.5386 0.512547 141 130 127
-36.0529 -31.2891 0.511123 95 86 85
-35.9769 -30.3464 0.506441 102 93 89
-36.0114 -30.0876 0.50542 117 104 98
-36.0004 -29.8879 0.504469 207 181 164
-35.9607 -29.6656 0.503289 251 244 202
-35.9849 -29.4029 0.502222 106 95 96
-35.9568 -29.1931 0.50116 106 94 95
-35.9262 -28.9825 0.500087 99 87 87
-35.932 -28.7099 0.498911 99 89 95
-35.9055 -28.5053 0.497893 91 81 89
-35.8528 -27.8295 0.494718 102 92 91
-35.8126 -27.6195 0.493629 117 107 108
-35.781 -27.4172 0.492618 111 101 100
-35.7992 -27.1656 0.491634 117 109 106
-35.7706 -26.5324 0.488847 117 107 115
-35.7275 -26.3278 0.487793 115 104 109
-35.7027 -26.1378 0.486893 114 104 109
-35.6659 -25.9401 0.485905 115 106 110
-35.6798 -25.6953 0.484973 118 108 107
-35.6506 -25.5055 0.484064 150 130 120
-35.6157 -25.3127 0.483119 201 178 147
-35.6275 -25.0704 0.482205 145 122 104
-35.5906 -24.8785 0.481262 118 104 103
-35.5709 -24.6997 0.480461 103 94 104
-35.5741 -24.4554 0.479514 98 94 102
-35.4914 -24.2356 0.478244 101 99 105
-35.1066 -23.8121 0.474656 99 96 102
-35.2451 -23.7458 0.47511 96 92 99
-35.4855 -23.6668 0.476029 101 96 102
-35.4555 -23.4871 0.475198 96 93 102
-35.5116 -23.3651 0.47503 93 90 99
-35.6623 -23.2255 0.475278 94 92 97
-35.7578 -23.129 0.475417 93 90 97
-35.8345 -23.0202 0.475418 99 94 101
-35.9536 -22.8593 0.47544 103 93 101
-36.0413 -22.7574 0.475531 94 85 89
-36.144 -22.6647 0.475738 108 97 96
-36.2379 -22.5663 0.475883 108 96 96
-36.3447 -22.397 0.475832 125 112 105
-36.4414 -22.2999 0.476004 134 117 108
-36.5206 -22.192 0.47605 137 118 104
-36.6411 -22.0306 0.476117 109 92 82
-36.7385 -21.9332 0.476305 119 103 96
-36.827 -21.8304 0.476429 113 99 91
-36.9459 -21.6674 0.4765 124 106 93
-37.0303 -21.5617 0.476601 127 107 94
-37.1264 -21.4627 0.476792 127 109 97
-37.2258 -21.3653 0.477008 128 110 94
-37.3304 -21.1932 0.476995 127 109 95
-37.4152 -21.0871 0.477113 117 102 74
-37.517 -20.9903 0.477357 122 112 84
-37.6375 -20.8265 0.477475 120 116 78
-37.7317 -20.7249 0.477671 114 112 87
-37.8256 -20.623 0.477868 114 103 87
-38.3187 -19.9688 0.478562 120 104 91
-38.5218 -19.7695 0.479108 133 118 92
-36.2359 -18.3817 0.462177 125 114 86
-38.7136 -19.4871 0.47934 103 92 74
-38.8364 -19.397 0.479775 119 108 91
-37.8288 -18.6724 0.471988 118 106 96
-39.0451 -19.1213 0.480154 124 114 104
-37.9023 -18.4149 0.471684 116 105 101
-38.1248 -18.3024 0.47262 121 111 109
-39.33 -18.7299 0.480672 120 110 109
-39.4746 -18.6476 0.481278 115 106 107
-39.5593 -18.5366 0.481466 118 109 108
-39.6853 -18.369 0.48172 124 117 117
-39.7765 -18.2604 0.48196 115 109 112
-39.8674 -18.1514 0.482202 111 105 107
-39.9937 -17.9827 0.482472 125 116 117
-40.0802 -17.8712 0.482691 115 105 106
-40.181 -17.7657 0.483011 114 108 109
-40.2873 -17.587 0.483157 113 104 109
-40.3782 -17.4766 0.483417 115 106 108
-40.5074 -17.3823 0.483943 118 112 114
-40.607 -17.2748 0.484266 107 98 101
-40.7203 -17.0977 0.484482 109 100 105
-40.8118 -16.9861 0.484758 107 103 106
-40.9048 -16.8749 0.485046 114 109 112
-41.0423 -16.7065 0.485443 118 109 114
-41.1494 -16.6002 0.485836 114 108 110
-41.2358 -16.4852 0.486089 120 114 115
-41.368 -16.3132 0.486465 111 106 109
-41.4667 -16.2023 0.48681 112 110 113
-41.5594 -16.0889 0.487117 116 113 120
-41.6538 -15.9757 0.487438 101 97 109
-41.767 -15.7945 0.487704 102 101 111
-41.8681 -15.6831 0.488077 99 99 109
-41.9744 -15.5733 0.48849 98 101 108
-42.101 -15.3956 0.488861 90 90 101
-42.201 -15.2826 0.489237 85 83 90
-42.295 -15.1671 0.489577 94 85 90
-42.4312 -14.9913 0.490028 111 101 99
-42.5245 -14.8746 0.49037 108 96 97
-42.6193 -14.7582 0.490726 85 75 78
-42.7443 -14.5769 0.491117 101 106 109
-42.844 -14.4614 0.491512 186 186 183
-42.9814 -14.3579 0.492162 193 188 183
-41.4752 -13.7112 0.481856 198 191 183
-41.472 -13.4944 0.481427 203 194 188
-41.4638 -13.3483 0.481129 111 87 84
-41.5485 -13.2321 0.481453 159 135 121
-41.6783 -13.058 0.481927 92 76 63
-41.8215 -12.9591 0.482646 112 102 100
-41.9261 -12.8478 0.483112 111 101 100
-43.98 -13.1004 0.496102 99 93 97
-44.0739 -12.9781 0.496497 110 105 109
-44.1923 -12.8627 0.497056 110 105 107
-44.3074 -12.6705 0.497452 109 102 108
-44.4039 -12.5478 0.497876 117 117 116
-42.8949 -11.6157 0.487214 114 105 109
-44.7457 -9.22476 0.496067 97 87 77
-44.7383 -9.07711 0.495901 75 69 66
-46.935 -7.54418 0.5087 106 96 74
-13.7942 -20.7597 0.192814 67 70 77
-44.5444 -12.4368 0.498591 175 159 133
-44.6537 -12.2413 0.498966 115 98 97
-45.0153 -11.811 0.500616 95 95 98
-45.1172 -11.6868 0.501097 95 95 97
-45.2188 -11.5619 0.501577 115 111 112
-45.3219 -11.4371 0.502072 112 108 107
-45.7338 -11.3123 0.504462 111 100 104
-46.6313 -11.3789 0.510152 114 109 113
-47.5861 -11.4535 0.516215 98 92 92
-48.558 -11.4456 0.522256 98 93 91
-49.6083 -11.5286 0.528933 89 81 80
-50.6361 -11.5998 0.535462 77 76 72
-51.7808 -11.6053 0.542618 91 87 75
-51.6887 -11.2448 0.541695 75 77 66
-51.9108 -11.1227 0.542983 92 95 84
-51.8266 -10.8499 0.542164 173 163 148
-51.6153 -8.70955 0.539167 83 96 99
-52.9182 -11.6856 0.549851 96 89 79
-62.9565 -11.7378 0.613179 71 75 77
-63.0178 -11.5448 0.613436 76 77 81
-60.987 -10.4828 0.599807 95 97 92
-56.625 -8.91382 0.571143 108 117 79
-61.6746 -9.01323 0.603364 90 93 73
-61.8404 -8.83925 0.604356 78 85 69
-67.1226 -10.0221 0.638561 81 84 65
-66.7049 -9.2121 0.635525 106 104 98
-66.7306 -9.00229 0.635625 111 111 110
-17.4261 -25.5438 0.189512 119 108 104
-17.5927 -25.6188 0.189334 164 156 151
-17.5433 -25.2893 0.189343 169 161 158
-17.5221 -25.09 0.189332 152 146 146
-17.5874 -25.0176 0.189246 141 142 147
-17.7477 -24.9978 0.18907 128 135 145
-17.8655 -24.9999 0.188937 135 130 136
-9.73185 -20.7599 0.100274 107 84 29
-9.98915 -20.5574 0.100211 162 137 47
-10.098 -20.5385 0.0999488 152 133 37
-10.0919 -20.3636 0.100594 154 138 42
-10.1252 -20.2716 0.100818 164 149 56
-10.2808 -20.3487 0.100059 136 121 41
-10.3001 -20.2295 0.100422 153 138 45
-10.4183 -20.3086 0.0997607 152 140 37
-10.4633 -20.1626 0.100148 153 137 41
-10.5284 -20.1358 0.100032 124 110 36
-10.5303 -19.9863 0.100557 99 90 32
-17.9893 -25.0097 0.188799 226 182 157
-10.6318 -20.0302 0.100071 140 134 47
-10.7791 -20.0838 0.099413 149 142 47
-10.7711 -19.9182 0.100023 126 116 31
-10.9231 -20.0544 0.0990446 115 111 27
-11.0963 -20.1517 0.0981429 103 91 21
-11.2305 -20.1008 0.0978772 153 130 39
-11.2768 -19.9633 0.0982161 128 115 21
-11.3795 -20.0019 0.0977382 114 100 13
-11.3523 -19.8083 0.0985052 156 139 49
-11.5088 -19.8688 0.0977796 150 133 56
-11.614 -19.9097 0.0972829 116 108 40
-11.7026 -19.9207 0.0969458 127 133 47
-11.7532 -19.8656 0.0969652 117 121 52
-11.8542 -19.6853 0.0972563 68 59 56
-11.7268 -19.3328 0.0989076 51 47 46
-11.852 -19.3368 0.0984748 53 46 50
-11.8164 -19.1431 0.0992633 135 122 129
-11.8735 -19.1032 0.099203 133 133 145
-9.83442 -23.871 0.0885707 96 96 63
-9.95045 -23.8369 0.0883673 88 86 33
-10.0419 -23.849 0.0880494 103 94 26
-10.1212 -23.8312 0.0878768 144 132 45
-10.2488 -23.8233 0.087538 110 102 30
-10.3297 -23.8085 0.0873471 140 127 55
-10.4028 -23.775 0.0872476 150 134 55
-10.4853 -23.7633 0.0870389 128 120 30
-10.6027 -23.7297 0.0868188 132 124 43
-10.6876 -23.7228 0.0865837 148 130 54
-10.7734 -23.7174 0.0863391 124 105 46
-10.8759 -23.6495 0.0862844 142 129 46
-10.9766 -23.6762 0.0858763 124 97 41
-11.1747 -23.6223 0.0854681 151 126 71
-11.2632 -23.6206 0.0851972 145 128 53
-11.3399 -23.5932 0.0850543 135 121 36
-12.2891 -19.5772 0.0961517 101 80 89
-12.5079 -19.794 0.0946515 92 72 73
-12.3539 -19.4115 0.096493 90 61 63
-12.3627 -19.2922 0.0968686 146 98 95
-12.5547 -19.3951 0.0958569 146 95 90
-12.6815 -19.4606 0.095189 142 93 86
-12.7873 -19.492 0.0947107 145 96 92
-13.5172 -20.412 0.0890332 58 41 53
-13.7944 -20.696 0.0870933 158 152 161
-13.9103 -20.7317 0.0865618 51 65 78
-14.007 -20.6671 0.0864443 134 134 138
-26.0384 -24.9813 0.180478 129 126 124
-26.0179 -24.8058 0.180494 99 95 100
-25.9965 -24.6307 0.180512 134 132 103
-26.03 -24.432 0.180477 129 133 101
-26.177 -24.4178 0.180336 61 70 63
-26.3417 -24.4193 0.180178 64 73 75
-26.4905 -24.405 0.180035 79 83 82
-28.8687 -24.3667 0.177795 111 72 80
-30.5689 -42.0571 0.177422 255 244 194
-30.3421 -41.4684 0.177579 253 238 205
-30.1272 -40.9025 0.177726 251 237 200
-29.9759 -40.2965 0.177812 254 239 202
-29.7763 -39.765 0.17795 255 240 207
-29.5652 -39.2239 0.178099 253 231 200
-29.5093 -38.7679 0.178104 253 234 194
-29.7133 -38.7856 0.177878 253 235 197
-29.8693 -38.7389 0.177697 253 234 196
-30.0932 -38.6542 0.177449 252 234 198
-30.2589 -38.6186 0.17726 181 152 100
-30.4013 -38.5525 0.177093 157 144 139
-30.5744 -38.5251 0.176898 139 132 132
-30.7869 -38.4224 0.176663 117 110 108
-30.9452 -38.3746 0.176483 107 102 94
-31.1047 -38.3278 0.176302 124 108 94
-32.0833 -29.3233 0.174697 93 104 91
-30.5161 -24.8022 0.176256 109 76 68
-30.455 -24.5946 0.176323 121 104 97
-30.4534 -24.4366 0.176334 119 102 94
-30.5297 -24.2637 0.176271 88 77 76
-30.5298 -24.1085 0.176281 239 227 218
-30.7125 -24.0985 0.176118 66 55 47
-30.9191 -24.106 0.175932 126 122 109
-31.4223 -47.0138 0.177309 82 89 94
-30.8563 -42.737 0.177213 254 230 187
-31.3268 -38.2347 0.17606 116 107 105
-31.4787 -38.177 0.175887 84 84 86
-34.9539 -42.1556 0.172632 88 86 91
-34.9634 -41.7657 0.172585 92 90 91
-35.3621 -41.7118 0.172148 99 99 98
-35.5948 -41.59 0.171896 106 106 100
-34.9698 -39.458 0.172335 115 96 83
-31.9264 -35.774 0.175166 116 110 97
-32.1536 -35.4675 0.174908 118 113 87
-32.5616 -35.6958 0.174504 99 93 71
-34.675 -37.6725 0.172491 95 95 59
-34.6461 -37.4053 0.172498 81 83 69
-32.9512 -34.7903 0.174042 78 72 71
-32.9688 -34.5915 0.17401 87 78 80
-32.9743 -34.3814 0.173991 84 82 82
-33.4077 -34.5104 0.173564 83 89 78
-33.5164 -34.4074 0.173448 88 73 76
-33.7668 -34.4501 0.173198 107 75 81
-33.946 -34.3101 0.173014 109 73 88
-34.4333 -34.589 0.17254 110 76 83
-34.5718 -34.5124 0.172398 122 79 79
-34.836 -34.561 0.172136 145 93 87
-34.8113 -34.2134 0.172149 145 95 89
-34.6384 -33.83 0.172305 142 97 93
-34.2204 -33.2106 0.172695 105 87 79
-36.1255 -32.8366 0.170837 80 89 87
-36.0988 -32.6066 0.170862 127 122 118
-33.6703 -30.1138 0.17318 118 99 96
-33.7518 -29.9979 0.173103 89 78 81
-33.6702 -29.737 0.173183 89 79 89
-33.7159 -29.497 0.173141 128 121 128
-33.7007 -29.2981 0.173159 78 74 73
-33.6679 -29.0852 0.173193 108 95 96
-34.1255 -29.2973 0.17276 108 94 94
-35.9895 -30.6153 0.170983 121 85 88
-35.8877 -30.1434 0.171091 126 85 88
-35.9716 -29.9274 0.171018 121 65 66
-35.9416 -29.7126 0.171053 185 108 92
-35.8951 -29.4856 0.171106 184 106 92
-35.7823 -27.6538 0.171299 122 111 108
-35.7447 -27.4465 0.171349 107 96 94
-35.7314 -27.2592 0.171375 109 100 98
-33.2608 -25.1176 0.173748 112 104 100
-35.6919 -26.616 0.171459 112 104 101
-35.7116 -26.3708 0.171456 110 101 102
-35.6663 -26.1653 0.171517 107 98 101
-35.6313 -25.9686 0.171567 113 104 107
-35.597 -25.7736 0.171618 114 103 111
-35.6311 -25.5443 0.171604 113 98 101
-35.5721 -25.3339 0.171679 83 62 71
-35.5643 -25.1611 0.171706 91 66 68
-35.5556 -24.9054 0.171735 108 96 91
-35.5247 -24.7185 0.171785 107 97 101
-35.4912 -24.5308 0.171838 117 106 110
-35.5149 -24.3017 0.171838 100 95 99
-35.2453 -23.9549 0.172116 97 92 96
-35.45 -23.9332 0.171944 99 94 100
-35.4163 -23.7496 0.171999 99 97 102
-35.4421 -23.5265 0.171999 97 94 101
-35.5198 -23.4188 0.171949 101 96 103
-35.6239 -23.3284 0.171876 96 91 95
-35.7257 -23.1566 0.171805 101 99 102
-35.809 -23.0523 0.171752 101 96 102
-35.9038 -22.9552 0.171689 107 101 103
-36.0273 -22.7972 0.1716 110 99 97
-36.118 -22.6971 0.171542 111 100 96
-36.1983 -22.5903 0.171494 104 93 88
-36.2884 -22.4896 0.171437 122 111 105
-36.4202 -22.3357 0.171343 125 107 100
-36.4977 -22.2268 0.1713 119 101 91
-36.5885 -22.126 0.171245 118 100 90
-36.7067 -21.9632 0.171165 129 110 95
-36.802 -21.8645 0.171106 123 105 96
-36.8884 -21.7604 0.171057 110 96 87
-37.0239 -21.6071 0.170963 120 102 92
-37.0975 -21.4951 0.170927 119 101 87
-37.1967 -21.3979 0.170868 120 101 87
-37.2836 -21.2932 0.17082 122 103 89
-37.412 -21.1346 0.170736 106 90 77
-37.5015 -21.0311 0.170687 108 94 85
-37.5926 -20.9282 0.170637 107 91 82
-37.7054 -20.76 0.170569 110 97 89
-37.7992 -20.6582 0.170519 101 88 79
-37.8963 -20.5578 0.170465 115 98 88
-36.0887 -18.4195 0.172414 119 103 92
-17.4705 -25.5036 0.0578512 155 149 151
-17.4629 -25.3222 0.058484 155 153 149
-17.5132 -25.1421 0.058914 144 143 144
-17.5263 -24.9941 0.0593583 145 146 151
-17.637 -24.9872 0.0589798 133 135 147
-17.7964 -24.9654 0.0584834 133 136 145
-17.912 -24.964 0.0580664 137 121 114
-18.0221 -24.9539 0.0576978 251 230 183
-37.0048 -42.9758 0.170549 127 118 102
-36.9484 -42.639 0.170571 126 121 89
-36.9045 -42.3196 0.170582 114 95 83
-36.9341 -41.9538 0.170522 166 137 110
-36.8641 -40.9594 0.170504 92 85 67
-38.004 -20.3862 0.170404 116 102 87
-38.1056 -20.2878 0.170348 121 108 89
-38.1928 -20.1814 0.170306 125 108 87
-38.2886 -20.0794 0.170256 127 109 97
-38.4172 -19.9177 0.170178 126 108 97
-38.5123 -19.8146 0.17013 131 112 105
-38.7252 -19.5431 0.170017 124 110 97
-38.8194 -19.4387 0.169972 125 112 102
-38.9078 -19.3312 0.169933 129 116 108
-39.0368 -19.1676 0.169859 119 109 100
-39.1264 -19.0601 0.16982 113 102 96
-39.212 -18.9505 0.169786 106 96 95
-39.3394 -18.7849 0.169715 109 99 97
-39.4261 -18.6753 0.169681 109 101 99
-39.5342 -18.5755 0.169628 108 98 96
-39.6221 -18.4659 0.169594 115 105 104
-39.7511 -18.2995 0.169524 107 97 98
-39.8347 -18.1873 0.169495 107 98 101
-39.9343 -18.0822 0.169452 103 94 97
-40.0453 -17.9065 0.169401 102 96 98
-40.1515 -17.8036 0.169354 107 103 104
-40.2464 -17.6954 0.169317 119 110 111
-40.3667 -17.5227 0.169259 119 110 113
-40.4591 -17.4127 0.169227 116 110 112
-40.5713 -17.3109 0.169177 110 104 104
-40.6631 -17.2 0.169145 110 102 102
-40.7851 -17.0263 0.169089 114 106 111
-40.8816 -16.9167 0.169056 106 100 104
-40.989 -16.8113 0.169012 109 103 107
-41.1018 -16.6325 0.168966 108 103 107
-41.2066 -16.5252 0.168927 109 103 107
-41.3 -16.4129 0.168898 108 101 108
-41.4205 -16.236 0.168847 102 99 108
-41.5317 -16.1299 0.168804 96 93 105
-41.6222 -16.0154 0.16878 98 97 105
-41.7067 -15.8983 0.168762 92 91 97
-41.8418 -15.7252 0.168702 86 86 94
-41.948 -15.6155 0.168665 85 85 95
-42.0502 -15.504 0.168634 90 88 99
-42.163 -15.321 0.168595 78 77 90
-42.2851 -15.2158 0.168547 94 89 95
-42.3768 -15.0992 0.168527 107 98 100
-42.5105 -14.9221 0.168472 106 95 90
-42.6052 -14.8058 0.16845 101 91 91
-42.7147 -14.6942 0.168417 106 96 96
-42.8202 -14.5808 0.168388 125 127 132
-42.9404 -14.3969 0.168347 140 142 140
-41.3435 -13.7155 0.169812 157 154 157
-41.3494 -13.5739 0.16987 153 146 146
-41.4746 -13.3994 0.169824 172 155 145
-41.5649 -13.285 0.169809 115 102 94
-41.6664 -13.1739 0.169785 206 188 168
-41.8185 -13.0061 0.169719 106 98 96
-41.9421 -12.9008 0.169677 105 96 97
-43.8189 -13.3302 0.168115 107 98 101
-42.821 -11.8608 0.169465 185 163 148
-42.8561 -11.6537 0.169507 106 97 103
-43.951 -13.1449 0.16807 102 95 102
-44.0524 -13.0251 0.168053 102 100 103
-44.1649 -12.9081 0.168026 104 99 103
-44.2733 -12.7894 0.168003 101 95 100
-44.3935 -12.5983 0.167973 101 96 93
-44.4973 -12.4773 0.167956 164 155 142
-44.9567 -11.9249 0.167857 106 101 108
-45.079 -11.7307 0.167829 100 99 105
-45.1901 -11.6086 0.167811 112 112 114
-45.3008 -11.4858 0.167793 115 113 114
-45.8877 -11.4821 0.167373 117 113 114
-46.7295 -11.4601 0.166741 98 93 99
-47.7365 -11.5494 0.165971 108 104 104
-48.7135 -11.625 0.16523 102 98 99
-49.7524 -11.6265 0.164443 102 96 92
-44.6947 -9.26392 0.16925 87 73 66
-46.9848 -7.83218 0.168311 198 199 185
-49.6361 -7.87602 0.166351 85 91 65
-50.7975 -11.7036 0.163651 103 94 89
-51.9253 -11.7929 0.162796 108 100 94
-53.063 -11.7897 0.161938 106 99 91
-54.2554 -11.8769 0.161035 95 88 78
-52.7945 -11.3826 0.162345 109 105 101
-52.6552 -11.1796 0.162555 111 116 114
-26.032 -25.0924 0.026189 95 83 91
-26.0221 -24.8486 0.0269434 112 101 112
-26.0008 -24.6735 0.0275406 97 81 92
-25.9729 -24.4934 0.028179 107 89 88
-26.0872 -24.3716 0.028062 106 93 89
-26.2475 -24.3693 0.0274064 113 95 96
-26.4023 -24.3608 0.0267909 100 81 83
-61.0268 -12.2639 0.155925 91 82 83
-62.7248 -12.299 0.154635 82 76 80
-64.3992 -12.4184 0.153371 82 80 84
-66.1868 -12.5486 0.152021 78 78 80
-68.0898 -12.5784 0.150583 82 82 84
-63.6733 -9.90786 0.155146 98 105 81
-65.1283 -9.92556 0.154096 83 89 73
-61.687 -9.1021 0.156981 94 98 84
-67.1291 -9.69252 0.152748 74 72 61
-66.8973 -9.44447 0.15306 102 107 95
-30.5387 -24.692 0.00844177 147 121 107
-30.5156 -24.5162 0.00901807 133 111 100
-30.4668 -24.3208 0.00975708 127 106 99
-30.4655 -24.1645 0.010185 140 124 102
-30.6143 -24.05 0.00984985 107 70 57
-30.8117 -24.0505 0.00899867 116 99 91
-30.9999 -24.0426 0.00820808 110 94 94
-8.64307 -20.1345 -0.0492214 156 135 48
-8.78331 -20.2056 -0.0507484 168 148 57
-30.6582 -42.2104 -0.0453675 191 175 158
-30.4655 -41.6684 -0.0428833 217 201 186
-30.246 -41.0958 -0.0402011 223 212 191
-30.0411 -40.5491 -0.0376591 253 242 221
-29.8959 -39.9575 -0.0351774 250 232 204
-29.685 -39.4161 -0.0326342 253 233 200
-29.364 -38.7344 -0.0292267 250 230 195
-29.6604 -38.7479 -0.030364 218 203 173
-29.8383 -38.7299 -0.030973 221 206 178
-29.992 -38.6796 -0.0313886 191 179 161
-30.2002 -38.5737 -0.0318183 234 221 185
-30.3537 -38.5219 -0.0322321 105 98 86
-30.5233 -38.49 -0.032772 129 124 128
-30.678 -38.4385 -0.033195 115 113 114
-30.8968 -38.3431 -0.0337089 110 97 97
-31.0565 -38.2964 -0.0341696 116 106 96
-31.2237 -38.2584 -0.0346881 114 105 96
-31.3775 -38.0811 -0.034703 83 81 85
-32.0661 -35.3965 -0.0289844 116 114 90
-32.6689 -34.2996 -0.0280334 94 85 83
-32.7715 -34.1932 -0.0281245 85 78 85
-34.1118 -35.0448 -0.036058 100 80 87
-33.4739 -34.1725 -0.0308828 107 77 84
-33.765 -33.9359 -0.0313515 112 73 86
-34.5556 -33.5593 -0.0334577 117 96 99
-35.7784 -27.3152 -0.0211729 101 87 84
-33.2034 -25.1804 -0.00435619 105 91 90
-33.3959 -25.081 -0.00493565 104 91 84
-35.7138 -26.6526 -0.0191507 105 94 90
-35.6746 -26.4502 -0.0184493 102 90 90
-35.6917 -26.2044 -0.0178889 102 90 91
-35.6616 -26.0113 -0.0172551 104 92 92
-35.6258 -25.8151 -0.0165896 109 92 91
-35.5956 -25.624 -0.0159635 105 86 89
-35.6045 -25.3777 -0.0153753 122 93 92
-35.5495 -25.1714 -0.0146038 136 93 89
-35.5524 -25.0071 -0.0141965 131 83 80
-35.5247 -24.7394 -0.0134 116 97 102
-34.916 -24.153 -0.00922326 111 105 109
-34.93 -24.0018 -0.00890228 98 94 98
-34.9592 -23.7814 -0.00848472 101 96 100
-35.0942 -23.7135 -0.00891291 102 97 103
-35.3502 -23.7264 -0.0100829 101 96 102
-35.4087 -23.6057 -0.0100421 94 89 95
-35.4821 -23.4151 -0.00990445 95 87 98
-35.583 -23.3227 -0.0101265 97 88 99
-35.662 -23.2157 -0.010215 97 90 96
-35.7869 -23.059 -0.0103993 104 94 102
-35.8853 -22.9642 -0.0106086 109 98 102
-35.9564 -22.8519 -0.0106535 109 99 100
-36.0815 -22.6947 -0.0108446 115 102 99
-36.1823 -22.6008 -0.0110715 119 106 100
-36.2641 -22.4949 -0.011185 122 111 105
-10.0092 -20.6532 -0.0626451 148 131 27
-9.94166 -20.3444 -0.059126 126 115 19
-10.0607 -20.3493 -0.0599099 140 125 32
-10.1394 -20.3509 -0.0604242 144 129 33
-10.1911 -20.2965 -0.0602107 144 131 33
-10.2822 -20.2425 -0.0602422 139 121 32
-10.3609 -20.2433 -0.060756 154 145 50
-10.4602 -20.2848 -0.0618112 136 138 43
-10.517 -20.1618 -0.0609481 141 140 57
-10.524 -20.021 -0.0596019 115 120 49
-10.5741 -19.9657 -0.059385 142 142 64
-10.7315 -20.1178 -0.0619237 140 134 54
-35.0167 -41.5839 -0.0597246 99 98 106
-35.2482 -41.5952 -0.0606557 65 61 70
-35.4659 -41.5887 -0.0614791 115 115 113
-35.6839 -41.5812 -0.062302 104 101 91
-36.9926 -42.7052 -0.0708803 123 117 98
-36.9541 -42.3917 -0.0697577 108 84 78
-36.9127 -42.0775 -0.0686222 121 81 80
-36.9326 -41.7033 -0.0675328 128 106 97
-35.0587 -39.3299 -0.0528608 100 94 90
-34.4794 -38.4344 -0.047828 77 76 74
-34.6362 -38.0074 -0.0471287 81 79 56
-34.6037 -37.7338 -0.0461643 80 74 58
-34.6367 -37.4156 -0.0453177 90 87 82
-36.7154 -39.1762 -0.0589322 82 75 70
-36.6568 -38.8691 -0.0577699 96 89 86
-36.6074 -37.9745 -0.0548731 100 90 98
-36.5329 -37.0757 -0.0518835 112 72 87
-36.5291 -36.4964 -0.0501451 111 69 74
-36.4459 -36.1859 -0.0488905 145 91 84
-36.408 -35.9229 -0.0479612 147 90 81
-36.4648 -35.6427 -0.0473653 144 95 83
-36.1518 -33.1902 -0.038963 200 174 172
-36.1534 -32.8803 -0.0380826 115 83 101
-36.1016 -32.6276 -0.0371471 150 126 128
-36.0724 -32.3969 -0.0363697 93 78 71
-36.1194 -32.1343 -0.0358219 104 102 113
-36.0728 -31.8913 -0.0349405 94 92 107
-36.0675 -31.3877 -0.0335027 89 80 73
-36.0231 -31.1517 -0.0326556 100 86 83
-36.0018 -30.9372 -0.0319672 106 97 92
-35.9477 -30.6958 -0.0310664 118 99 98
-35.9493 -30.4067 -0.0302723 105 79 82
-35.9444 -30.2105 -0.0297091 105 75 76
-35.9479 -30.0223 -0.0292046 100 62 62
-35.9604 -29.7475 -0.0285046 171 101 82
-35.9372 -29.5396 -0.0278359 181 108 86
-35.9052 -29.3258 -0.0271152 180 118 99
-35.8248 -27.5282 -0.0219389 108 95 89
-36.3491 -22.3908 -0.0113184 113 98 93
-36.4704 -22.2304 -0.0114953 124 106 96
-36.6008 -22.1536 -0.0119019 115 100 91
-36.6814 -22.0462 -0.0120117 126 108 96
-36.8098 -21.8891 -0.0122363 113 95 84
-36.8982 -21.7861 -0.0123953 120 106 95
-36.9794 -21.6786 -0.0125125 119 105 96
-37.1235 -21.5299 -0.0128359 119 102 92
-37.2057 -21.4227 -0.0129614 124 107 94
-37.2598 -21.2992 -0.0129225 123 103 92
-37.3779 -21.2121 -0.0132615 124 106 94
-37.5115 -21.056 -0.0135288 127 109 97
-37.594 -20.9483 -0.0136608 121 102 93
-37.6781 -20.8412 -0.0138028 117 99 92
-37.8013 -20.6785 -0.0140155 116 101 96
-37.8987 -20.5782 -0.0142374 118 101 93
-37.9746 -20.4661 -0.0143357 116 99 92
-38.1033 -20.3055 -0.0145859 120 106 95
-38.1961 -20.202 -0.0147839 123 107 101
-38.2939 -20.101 -0.0150125 119 103 95
-38.3951 -20.0013 -0.01526 126 110 100
-38.5094 -19.8318 -0.015434 120 105 92
-38.6027 -19.7276 -0.0156393 122 108 99
-38.6921 -19.6211 -0.0158225 113 99 91
-38.8084 -19.4517 -0.0160135 124 109 102
-38.9132 -19.3524 -0.0162877 118 105 99
-39.0106 -19.249 -0.0165194 113 102 96
-39.1216 -19.0761 -0.0166863 123 113 111
-39.2183 -18.9718 -0.0169168 112 103 102
-39.3093 -18.8645 -0.0171148 116 107 108
-39.391 -18.7525 -0.0172615 113 105 102
-39.5396 -18.5962 -0.0176503 107 96 101
-39.626 -18.4858 -0.017825 113 104 107
-39.7211 -18.3793 -0.0180501 105 99 103
-39.8592 -18.2166 -0.0183841 110 104 106
-39.9354 -18.1007 -0.0185046 116 108 110
-40.0241 -17.9903 -0.018696 113 104 105
-40.1569 -17.824 -0.019006 113 107 104
-40.2503 -17.715 -0.0192262 105 101 102
-40.3525 -17.6097 -0.0194969 102 97 101
-40.4655 -17.4333 -0.0197007 102 97 101
-40.5633 -17.3253 -0.0199488 104 95 101
-40.6554 -17.2145 -0.0201652 108 102 102
-40.7637 -17.1103 -0.020474 106 100 102
-40.88 -16.9338 -0.0207031 108 99 104
-40.9932 -16.8308 -0.0210407 108 102 106
-41.084 -16.7181 -0.0212542 108 102 107
-41.1948 -16.5382 -0.0214591 107 100 107
-10.8754 -20.164 -0.0633195 150 132 66
-10.8959 -20.0511 -0.062348 154 144 50
-10.9514 -20.0054 -0.0622715 134 118 28
-11.0731 -20.0077 -0.0631013 153 142 41
-11.1655 -20.0299 -0.0639447 106 101 20
-11.2064 -19.9571 -0.0635132 134 124 40
-11.3343 -19.9684 -0.0644847 112 100 16
-11.3524 -19.855 -0.0635085 137 122 33
-11.3806 -19.7609 -0.062791 138 120 34
-11.4339 -19.712 -0.0626874 136 117 40
-11.5932 -19.7772 -0.0644154 129 116 48
-11.6434 -19.7226 -0.0642407 121 119 52
-11.6554 -19.6021 -0.0631654 116 118 52
-11.7508 -19.5551 -0.0633779 65 65 40
-11.7179 -19.3607 -0.0612819 48 47 44
-11.7401 -19.2611 -0.0604874 97 104 106
-11.8987 -19.3216 -0.0621913 91 90 104
-11.9192 -19.22 -0.0613722 52 46 60
-12.3131 -19.5262 -0.0671231 95 72 87
-12.5062 -19.7024 -0.0701982 100 73 89
-12.6507 -19.7978 -0.0721581 141 98 99
-12.6024 -19.5845 -0.0697938 143 93 86
-12.7162 -19.5616 -0.0704084 143 93 86
-12.7918 -19.546 -0.0708231 143 93 89
-12.9648 -19.6813 -0.0733792 148 107 102
-41.3089 -16.4342 -0.0218032 109 104 108
-41.3874 -16.3156 -0.0219521 99 96 105
-41.5245 -16.1448 -0.0223075 97 95 102
-41.6283 -16.0355 -0.0225973 94 92 100
-41.7262 -15.9235 -0.0228563 91 89 101
-41.8257 -15.8117 -0.0231236 89 89 99
-41.9663 -15.6401 -0.0235051 86 86 95
-42.0576 -15.5244 -0.0237302 83 83 91
-42.1522 -15.4096 -0.023974 88 88 97
-42.2762 -15.2303 -0.0242696 100 95 99
-42.3814 -15.1185 -0.024574 97 93 92
-42.4788 -15.0036 -0.0248353 103 94 92
-42.6143 -14.8267 -0.0252002 101 91 89
-42.7108 -14.7106 -0.0254604 104 94 95
-42.8052 -14.5934 -0.0257084 101 95 97
-42.9201 -14.4828 -0.0260685 99 91 94
-43.0459 -14.3003 -0.0263874 108 96 100
-43.141 -14.1821 -0.0266426 161 152 153
-41.6303 -13.5416 -0.0182252 89 71 77
-41.7023 -13.3488 -0.0182731 118 114 111
-41.7451 -13.2185 -0.0182587 197 187 167
-42.217 -13.2226 -0.0205549 76 57 49
-41.9185 -12.9133 -0.0186165 108 100 101
-43.8801 -13.2167 -0.028657 105 96 98
-44.003 -13.1036 -0.0290695 102 97 96
-44.1594 -12.9245 -0.0295699 103 94 99
-44.2815 -12.8098 -0.0299802 98 87 90
-44.3919 -12.6912 -0.0303278 79 64 71
-42.7534 -12.0063 -0.0212654 154 141 133
-42.6686 -11.8385 -0.0205842 156 137 123
-42.6218 -11.6819 -0.0201087 86 68 71
-42.6446 -11.473 -0.0199244 104 99 103
-44.9456 -11.9403 -0.0319155 104 102 103
-45.0479 -11.8165 -0.0322259 100 100 102
-45.1409 -11.6144 -0.0324067 111 109 113
-45.3121 -11.5071 -0.033083 112 110 112
-45.5625 -11.4188 -0.0341801 119 114 118
-44.758 -9.37134 -0.0273729 150 140 136
-44.7342 -9.14697 -0.0269853 97 90 91
-9.8004 -23.8818 -0.0943262 121 109 71
-9.88344 -23.8742 -0.0947187 130 128 42
-10.004 -23.851 -0.0951506 114 114 19
-10.0818 -23.8297 -0.0953796 119 107 23
-10.3866 -23.8295 -0.0971318 119 108 22
-10.4754 -23.8327 -0.0976865 123 112 29
-10.5534 -23.8098 -0.0979142 123 109 20
-10.6686 -23.7704 -0.0981824 147 133 35
-10.7544 -23.7652 -0.0986439 152 134 37
-10.8355 -23.7488 -0.0989644 123 99 22
-10.9423 -23.6898 -0.0989978 144 118 53
-11.0241 -23.6744 -0.0993417 134 114 43
-11.105 -23.657 -0.0996615 151 135 53
-11.2264 -23.6295 -0.100115 145 130 33
-12.9649 -20.8031 -0.0839742 113 102 111
-13.4771 -20.2678 -0.0826822 102 81 87
-46.3644 -11.4652 -0.0381874 102 97 103
-47.3795 -11.4797 -0.043234 105 103 104
-48.366 -11.558 -0.048202 105 101 101
-49.3223 -11.6229 -0.053002 109 102 102
-50.3893 -11.6241 -0.0582988 108 100 98
-51.5075 -11.7117 -0.0639355 99 89 88
-46.9959 -7.70365 -0.0364476 86 74 63
-11.3081 -23.6132 -0.100459 145 132 33
-52.5602 -11.7775 -0.0692193 110 102 99
-53.7868 -11.7865 -0.0753258 107 102 98
-55.0469 -11.8814 -0.0816808 106 102 102
-56.2689 -11.9602 -0.0878259 107 108 112
-51.6352 -8.62813 -0.0606599 192 194 192
-63.8503 -12.3179 -0.125923 86 84 86
-64.334 -10.0194 -0.125592 102 104 93
-67.2709 -10.0437 -0.14025 71 72 64
-67.38 -9.73591 -0.140491 75 61 58
-67.0409 -9.4724 -0.138494 124 96 96
-67.8345 -9.36719 -0.142333 145 104 107
-17.0503 -25.155 -0.155094 119 119 118
-17.4946 -25.6482 -0.163041 137 128 128
-17.5954 -25.6254 -0.163602 163 157 155
-17.5693 -25.4155 -0.161468 161 153 150
-17.5274 -25.0998 -0.158229 153 148 150
-17.5825 -25.0126 -0.157856 140 139 144
-17.692 -25.004 -0.158628 127 133 143
-17.8409 -24.9673 -0.159443 129 121 128
-17.9623 -24.9739 -0.160454 211 167 141
-10.2641 -20.4153 -0.140295 158 155 60
-10.2909 -20.2304 -0.138082 144 141 43
-10.366 -20.2239 -0.138601 139 134 34
-10.416 -20.1672 -0.138268 134 133 45
-10.5863 -20.2687 -0.140954 135 135 60
-10.6838 -20.3038 -0.142205 154 148 78
-10.7135 -20.2072 -0.1412 154 153 61
-10.7677 -20.1585 -0.141017 141 145 54
-10.9009 -20.1831 -0.142425 142 133 42
-10.9531 -20.1303 -0.142181 134 122 42
-10.9917 -20.0527 -0.141509 116 97 21
-11.0766 -19.9862 -0.14136 146 132 32
-11.1787 -20.0259 -0.142732 135 127 36
-11.2195 -19.9531 -0.142151 118 103 18
-11.3631 -19.9921 -0.143864 151 132 44
-11.4926 -19.9325 -0.144226 152 140 47
-11.5068 -19.8139 -0.142847 155 144 53
-11.6001 -19.7625 -0.143001 131 117 55
-11.5901 -19.6042 -0.140916 122 125 70
-11.6598 -19.5841 -0.141278 97 100 79
-11.8384 -19.6782 -0.144032 91 90 101
-11.839 -19.5405 -0.142312 86 82 89
-11.8338 -19.3945 -0.140437 91 94 107
-11.9334 -19.3552 -0.140832 86 90 101
-12.0859 -19.4703 -0.143645 74 69 78
-19.7758 -25.1298 -0.176374 142 128 117
-19.9029 -25.1314 -0.177434 114 109 109
-20.0179 -25.1166 -0.178253 129 124 124
-20.1491 -25.1218 -0.179385 53 48 54
-20.3362 -25.1152 -0.180871 125 112 103
-20.4729 -25.1251 -0.182098 120 110 100
-20.6024 -25.1251 -0.183181 90 87 83
-21.0015 -25.374 -0.188682 83 79 86
-21.0326 -25.0907 -0.186497 89 88 93
-21.1983 -25.0507 -0.18755 87 79 91
-21.33 -25.049 -0.188657 144 142 140
-21.467 -25.0528 -0.18986 87 87 81
-21.5926 -25.0423 -0.190847 83 78 83
-21.7772 -25.0201 -0.192236 115 89 89
-11.555 -20.1888 -0.148019 151 139 44
-12.4931 -19.8595 -0.152188 95 75 84
-12.5094 -19.6798 -0.1501 99 69 84
-12.6469 -19.763 -0.152395 143 96 98
-12.6706 -19.665 -0.151406 144 90 89
-12.6814 -19.4802 -0.149222 145 92 86
-13.1184 -20.0253 -0.159997 143 94 90
-13.3817 -20.2949 -0.165767 146 107 105
-21.9136 -25.0203 -0.193415 129 86 87
-22.0502 -25.0199 -0.194594 126 91 88
-22.2381 -24.9979 -0.196032 73 68 71
-22.3765 -24.9975 -0.197234 70 64 70
-22.5072 -24.9875 -0.198292 80 72 77
-22.6905 -24.9566 -0.199633 100 96 68
-22.8282 -24.9526 -0.200811 78 70 58
-22.9754 -24.9583 -0.202158 96 86 84
-23.127 -24.9678 -0.203578 88 79 76
-23.3004 -24.9212 -0.204725 85 77 76
-23.4539 -24.9306 -0.206169 105 98 89
-23.6008 -24.9319 -0.207491 127 118 104
-23.7774 -24.8853 -0.208687 86 72 73
-23.9358 -24.8966 -0.210203 86 74 75
-24.0724 -24.8841 -0.211331 82 71 72
-24.262 -24.8476 -0.212744 101 73 76
-24.4267 -24.8622 -0.214356 105 77 80
-24.5848 -24.8689 -0.215848 97 77 80
-24.7808 -24.8348 -0.217357 98 64 74
-24.9338 -24.8341 -0.218751 148 96 91
-25.1111 -24.8566 -0.220557 145 92 88
-25.2689 -24.8585 -0.222024 148 91 82
-25.4531 -24.8075 -0.223314 136 107 93
-9.76894 -23.9498 -0.183736 79 75 64
-9.8455 -23.9256 -0.183942 109 106 64
-9.92797 -23.9159 -0.18439 114 118 49
-10.0503 -23.8963 -0.184969 166 158 80
-10.1283 -23.8748 -0.185235 130 125 47
-10.2085 -23.8586 -0.185591 124 112 29
-10.2918 -23.8495 -0.186069 150 135 46
-10.404 -23.8041 -0.186254 136 132 45
-10.4881 -23.7961 -0.186762 126 122 46
-10.5707 -23.7842 -0.187209 126 126 36
-10.6938 -23.7631 -0.187817 129 121 39
-10.7773 -23.7522 -0.188294 158 143 53
-10.8632 -23.7466 -0.188862 161 140 55
-10.979 -23.7075 -0.189197 155 135 54
-11.0526 -23.6739 -0.18931 126 113 30
-11.1419 -23.6745 -0.189998 120 116 29
-11.2567 -23.6323 -0.190303 131 132 38
-11.3478 -23.6357 -0.191052 131 126 32
-11.4391 -23.6389 -0.1918 145 131 32
-25.7485 -24.9418 -0.227108 131 123 123
-25.9906 -25.0216 -0.229981 135 137 149
