-22.6748 16.1129 -1.72691 85 91 105
-22.52 16.1019 -1.71755 82 90 103
-22.3624 16.0878 -1.70791 78 87 102
-22.2003 16.1214 -1.70012 79 86 102
-22.0338 16.0981 -1.68961 82 88 104
-21.8944 16.0947 -1.68155 82 90 103
-21.7252 16.1191 -1.67305 83 89 105
-21.5769 16.1066 -1.66412 79 86 104
-15.0597 11.2938 -1.17112 79 86 104
-21.4273 16.0921 -1.65505 76 84 102
-15.0249 11.3384 -1.17127 75 84 101
-21.2826 16.0806 -1.64641 75 83 100
-21.1284 16.1121 -1.6392 77 84 100
-20.6824 16.1098 -1.61429 76 83 99
-20.5406 16.0955 -1.60579 78 85 101
-16.469 16.0651 -1.39067 84 91 107
-16.3629 16.0549 -1.38492 80 88 104
-16.2639 16.0515 -1.37988 85 89 108
-16.129 16.0594 -1.37369 83 91 105
-16.0344 16.0592 -1.36908 83 91 106
-15.9386 16.0572 -1.36433 82 89 105
-15.8071 16.0659 -1.35843 83 88 107
-15.7077 16.0584 -1.35325 83 88 107
-15.6044 16.046 -1.34763 85 89 106
-15.5094 16.042 -1.34288 86 89 106
-15.3827 16.0524 -1.33741 84 87 104
-15.2893 16.0488 -1.33281 84 90 104
-15.1935 16.0419 -1.32791 84 88 103
-15.0714 16.0548 -1.32287 82 85 102
-14.9746 16.0453 -1.31784 82 88 104
-14.8794 16.0368 -1.31294 81 84 101
-14.7617 16.0523 -1.30834 84 87 102
-14.672 16.049 -1.30402 85 88 103
-14.576 16.0376 -1.29898 84 87 101
-14.4627 16.0558 -1.29481 80 82 97
-14.3709 16.0481 -1.2902 84 86 101
-14.273 16.0322 -1.28488 83 86 101
-14.1891 16.0329 -1.28114 82 83 101
-10.1174 14.0218 -0.99232 86 83 96
-9.91205 13.9429 -0.979663 93 83 84
-9.91589 14.048 -0.986278 94 89 95
-9.87613 14.0839 -0.986996 110 101 104
-9.88323 14.196 -0.994186 108 95 98
-7.12374 16.0322 -0.899168 99 91 93
-7.06427 16.0286 -0.897626 92 81 78
-7.00352 16.021 -0.895825 95 82 73
-6.91841 16.0241 -0.894156 92 78 69
-6.8619 16.0272 -0.893129 92 78 68
-37.722 3.68267 -2.15846 87 100 117
-28.511 14.3362 -2.01397 91 90 95
-28.4812 14.4849 -2.0171 87 85 96
-28.4278 14.5665 -2.0165 94 91 100
-28.3426 14.6309 -2.01332 92 87 94
-28.2255 14.7324 -2.00941 91 86 92
-28.1225 14.7862 -2.00478 90 88 94
-28.0717 14.8685 -2.00448 90 88 97
-27.9807 14.9283 -2.00086 87 85 97
-27.9198 15.0598 -2.0017 81 80 90
-27.837 15.1237 -1.9988 79 78 88
-27.7818 15.2031 -1.99821 79 81 89
-27.6281 15.2808 -1.99142 83 85 97
-27.6326 15.3947 -1.99586 82 86 97
-27.58 15.4753 -1.99555 90 92 104
-27.3122 15.8751 -1.99388 96 99 108
-27.2716 15.963 -1.99473 83 80 88
-27.1613 16.008 -1.98968 93 87 91
-26.9918 16.0155 -1.97959 92 87 95
-26.7653 16.0421 -1.96676 82 81 97
-26.5743 16.0337 -1.95481 79 80 94
-26.387 16.0263 -1.94314 78 82 96
-26.1648 16.0506 -1.9306 80 86 100
-25.9882 16.0474 -1.9198 81 87 101
-25.8169 16.0466 -1.90943 83 88 102
-25.6571 16.1072 -1.90221 83 91 104
-25.5028 16.1153 -1.89328 83 91 104
-25.3271 16.1083 -1.88248 83 88 107
-25.1501 16.0992 -1.87153 82 90 103
-24.9432 16.123 -1.86015 83 89 105
-13.7898 16.0528 -1.26444 85 91 105
-12.6973 16.0278 -1.21609 95 91 106
-12.5839 16.0299 -1.21149 96 95 97
-12.0608 15.3984 -1.15253 98 95 94
-9.8672 14.3219 -1.00137 106 94 96
-9.87698 14.4412 -1.00914 100 87 88
-9.19646 14.1132 -0.964127 108 101 103
-8.92045 18.3163 -1.07908 93 88 93
-6.7981 16.0095 -0.890685 92 78 69
-6.72319 16.0398 -0.890948 92 77 70
-6.66289 16.031 -0.889148 83 75 72
-6.60464 16.0276 -0.887734 97 93 92
-37.2796 2.32944 -2.12269 139 132 135
-37.2276 2.49595 -2.12004 134 133 144
-37.3681 2.61962 -2.12968 134 141 157
-37.2912 2.7276 -2.12525 87 99 119
-30.2418 12.1769 -2.0599 103 101 104
-30.1202 12.2328 -2.0534 112 107 113
-30.0012 12.3425 -2.04861 123 119 120
-29.9103 12.4104 -2.04456 125 123 124
-29.8011 12.4699 -2.03907 121 119 120
-29.7305 12.5992 -2.03817 116 113 115
-29.7337 12.708 -2.0416 105 104 103
-29.682 12.7924 -2.04072 101 101 99
-29.5865 12.8568 -2.03638 99 96 96
-29.5231 12.9891 -2.0362 94 92 93
-29.4634 13.0693 -2.03474 96 93 101
-29.3944 13.1451 -2.03256 96 92 101
-29.1118 13.5508 -2.02683 104 107 114
-29.0345 13.6215 -2.02408 65 61 75
-28.9944 13.7103 -2.02435 97 92 100
-28.9056 13.8291 -2.02244 95 95 103
-28.8347 13.9023 -2.02026 97 97 104
-28.767 13.977 -2.01837 96 95 103
-28.7276 14.066 -2.01878 97 96 105
-28.6091 14.1686 -2.01458 96 95 103
-28.5955 14.2709 -2.01715 96 95 100
-9.17995 14.241 -0.971605 97 91 90
-9.09732 14.2 -0.966141 74 60 56
-9.05669 14.2335 -0.96686 139 118 90
-6.51687 16.0193 -0.885421 98 91 91
-6.46134 16.0229 -0.884523 97 89 92
-6.40271 16.0169 -0.882981 97 88 91
-6.34605 16.0164 -0.881825 98 90 91
-6.26367 16.0219 -0.880543 96 92 90
-37.2248 1.59072 -2.11651 149 151 166
-37.1531 1.70025 -2.11221 131 135 145
-37.1142 1.92376 -2.11045 139 128 119
-31.0579 10.4217 -2.06903 104 104 110
-30.9436 10.4866 -2.06282 105 105 112
-30.8669 10.6167 -2.06076 104 102 113
-30.8495 10.7156 -2.06203 105 104 114
-30.815 10.8083 -2.06201 106 106 116
-30.8624 10.9313 -2.06831 103 103 115
-30.8658 11.0914 -2.07259 106 103 116
-30.8841 11.2047 -2.07674 104 102 115
-30.8796 11.3096 -2.07916 103 103 114
-30.8699 11.4661 -2.08257 105 103 114
-30.8646 11.5713 -2.08499 104 104 115
-30.1919 11.4133 -2.03561 105 105 117
-30.8268 11.8252 -2.08925 107 106 113
-30.859 11.9463 -2.09469 110 110 120
-30.8612 12.0556 -2.09783 67 65 75
-30.7322 12.1113 -2.09075 70 63 70
-30.4167 12.1426 -2.07057 101 99 105
-20.255 11.3216 -1.50018 79 80 92
-20.1913 11.3647 -1.4977 78 81 92
-10.3875 15.3965 -1.08723 112 98 97
-10.2937 15.4054 -1.08435 112 100 104
-10.2565 15.4545 -1.08607 106 95 97
-6.20652 16.019 -0.879258 96 90 92
-6.14825 16.0121 -0.877716 97 91 93
-6.06552 16.0147 -0.876305 99 91 93
-32.4735 10.152 -2.15961 103 107 116
-32.0964 10.1366 -2.13339 108 111 120
-31.7076 10.168 -2.10744 108 107 118
-31.3804 10.164 -2.08496 107 105 116
-31.2458 10.2237 -2.07716 103 103 112
-31.1345 10.3432 -2.07237 105 105 113
-10.3641 15.7513 -1.10851 113 100 101
-10.4177 16.0169 -1.12706 107 101 101
-10.3467 16.0113 -1.12418 100 95 91
-33.7735 9.67829 -2.23902 75 81 93
-33.8513 9.98074 -2.25074 94 94 102
-33.7848 10.0723 -2.24812 99 98 109
-33.604 10.1278 -2.23687 98 98 110
-33.2478 10.182 -2.2135 89 90 102
-32.8624 10.1688 -2.1867 89 94 103
-11.9724 13.8572 -1.1484 84 87 102
-11.8684 13.8136 -1.14086 86 92 104
-11.7516 13.7972 -1.13439 89 92 107
-11.6689 13.7795 -1.12946 85 87 102
-11.572 13.7422 -1.12268 88 91 104
-11.5101 13.7508 -1.12037 88 95 106
-11.4148 13.7592 -1.11652 86 90 102
-11.3507 13.764 -1.1139 85 86 102
-11.2783 13.7572 -1.11021 86 82 97
-11.1928 13.7771 -1.10758 91 83 94
-11.1429 13.8004 -1.10681 72 67 81
-11.0616 13.7797 -1.10189 96 97 111
-10.9727 13.7935 -1.0988 94 92 105
-10.8976 13.7802 -1.09465 98 97 103
-9.97596 16.0067 -1.11096 116 106 106
-9.87478 16.0025 -1.10722 97 80 78
-9.80561 15.9964 -1.10449 87 63 57
-9.74409 16.0041 -1.10291 155 113 97
-9.6509 16.0127 -1.10032 116 68 62
-33.8201 8.04392 -2.21099 84 90 104
-33.8267 8.15419 -2.21341 82 88 102
-33.8336 8.3191 -2.21681 83 89 105
-33.8778 8.43966 -2.22211 81 88 104
-33.8851 8.55099 -2.22467 82 87 103
-33.8803 8.71412 -2.22735 86 88 108
-33.8982 8.82886 -2.23078 83 87 101
-33.9041 8.94063 -2.23334 77 80 93
-33.9097 9.05253 -2.2359 81 80 96
-33.8832 9.21089 -2.23714 97 99 116
-33.8974 9.32574 -2.24042 110 117 128
-33.8691 9.4286 -2.24054 113 115 126
-33.9382 9.61563 -2.24913 86 89 102
-20.3297 16.0676 -1.71987 84 89 108
-20.1816 16.0965 -1.71262 89 88 102
-20.0423 16.0807 -1.70368 77 72 79
-19.9139 16.0733 -1.69582 72 68 76
-19.7812 16.0613 -1.6875 91 95 107
-19.6326 16.0854 -1.6801 82 89 105
-19.4989 16.0706 -1.67162 82 91 108
-19.373 16.0617 -1.66392 79 88 105
-19.2131 16.0724 -1.65528 81 88 104
-19.0966 16.0701 -1.6485 81 87 103
-18.9699 16.0578 -1.64064 83 90 106
-18.8168 16.0712 -1.63263 79 85 101
-18.6921 16.0588 -1.62492 80 86 102
-18.5838 16.0606 -1.61891 82 90 104
-18.4402 16.0795 -1.61182 80 87 103
-18.3249 16.0733 -1.60504 82 89 105
-18.1997 16.057 -1.59718 81 88 104
-18.0763 16.0414 -1.58948 81 87 103
-17.938 16.0611 -1.58285 79 86 102
-17.8308 16.0594 -1.57684 79 86 102
-17.7053 16.0391 -1.56883 82 91 104
-17.5719 16.0606 -1.56266 79 85 101
-17.4582 16.0501 -1.55588 79 85 101
-17.3575 16.0518 -1.55048 79 84 103
-17.2093 16.0555 -1.54262 83 88 107
-10.7196 13.7576 -1.08541 107 97 88
-10.6552 13.7579 -1.08263 99 89 80
-10.5943 13.7629 -1.08032 96 88 77
-10.5503 13.7923 -1.08032 94 86 73
-10.5033 13.8644 -1.08294 83 74 65
-10.4656 13.9036 -1.08386 85 78 71
-10.4024 13.9044 -1.08124 92 85 76
-9.58299 16.0075 -1.09773 65 36 35
-9.51703 16.0056 -1.09543 66 52 53
-9.42051 16.0058 -1.09227 86 77 80
-9.35479 16.0032 -1.08997 86 80 80
-9.28644 15.9951 -1.08724 93 84 82
-9.22182 15.9938 -1.08508 85 68 60
-33.7791 6.79838 -2.18791 85 94 109
-33.7938 6.90816 -2.19061 85 92 108
-33.803 7.07037 -2.19373 86 93 109
-33.7993 7.17665 -2.19513 86 93 109
-33.8167 7.28776 -2.19812 88 93 109
-33.8084 7.44701 -2.20009 91 94 111
-33.821 7.55758 -2.20279 88 91 106
-33.8157 7.66419 -2.2042 86 92 106
-33.812 7.77133 -2.20575 86 93 109
-33.7937 7.92904 -2.20714 84 90 105
-25.3072 11.4149 -1.84715 126 120 115
-25.2076 11.4601 -1.84174 123 119 111
-26.6153 13.0318 -1.99341 102 101 109
-26.5122 13.1298 -1.98984 96 95 103
-26.4365 13.1913 -1.98689 97 96 104
-26.4012 13.2739 -1.98749 97 96 102
-26.3358 13.3911 -1.98731 99 98 104
-26.2718 13.4583 -1.98544 99 99 102
-26.2215 13.5329 -1.98481 102 102 104
-26.1427 13.6425 -1.98354 99 98 102
-26.099 13.7205 -1.98353 91 91 97
-26.0706 13.8071 -1.98489 97 96 102
-25.9811 13.8595 -1.98087 96 95 103
-25.9096 13.9727 -1.98038 97 96 101
-25.8769 14.0569 -1.98144 97 98 103
-25.8197 14.127 -1.98035 90 91 94
-25.7555 14.2445 -1.98063 91 93 98
-25.7012 14.3162 -1.97984 94 93 99
-25.6365 14.3816 -1.97813 94 92 97
-25.4735 14.7524 -1.98221 96 96 102
-25.4013 14.8651 -1.98204 84 85 90
-25.2876 14.8998 -1.97601 79 73 81
-25.2128 14.9582 -1.97354 86 81 85
-25.1025 15.0462 -1.96997 86 85 93
-25.0392 15.1113 -1.96857 89 88 93
-24.9908 15.1859 -1.96855 90 89 94
-24.8948 15.2823 -1.96637 86 86 94
-24.8475 15.3574 -1.96651 88 88 96
-24.7967 15.4303 -1.96634 91 90 99
-24.708 15.531 -1.96493 88 88 99
-24.6285 15.5846 -1.96215 89 89 100
-24.5819 15.6601 -1.96244 93 93 104
-24.545 15.7421 -1.96366 104 106 118
-24.4945 15.8685 -1.96595 100 102 114
-24.4322 15.9334 -1.96485 98 99 108
-24.3698 15.9981 -1.96376 99 98 107
-24.179 16.0267 -1.95296 89 89 97
-24.0137 16.0181 -1.94217 84 84 94
-23.8486 16.0087 -1.93138 79 82 96
-23.6604 16.0348 -1.92074 76 77 93
-23.504 16.0292 -1.91072 81 83 96
-23.3317 16.0111 -1.89916 75 81 94
-23.1711 16.0003 -1.88868 76 82 95
-22.9936 16.0287 -1.87896 79 85 100
-22.8319 16.0148 -1.86833 80 86 101
-22.6881 16.0132 -1.85939 79 85 101
-22.548 16.0659 -1.85321 81 87 103
-22.4205 16.0748 -1.84581 81 89 103
-22.2836 16.0757 -1.83749 81 88 101
-22.109 16.099 -1.82792 80 86 104
-21.971 16.0971 -1.81944 81 87 105
-21.8175 16.0821 -1.80943 81 89 105
-21.6484 16.1059 -1.80033 81 90 107
-21.5033 16.0954 -1.79108 81 90 106
-21.3585 16.0841 -1.78183 81 90 104
-21.2186 16.0758 -1.77305 82 90 105
-21.0584 16.1018 -1.76472 83 91 107
-20.6203 16.1042 -1.73882 83 92 109
-20.471 16.0831 -1.72896 81 88 106
-17.1145 16.0616 -1.53785 81 88 103
-16.9906 16.0375 -1.52984 81 90 104
-16.8864 16.0327 -1.52398 78 87 102
-16.7628 16.0575 -1.51874 80 85 104
-16.6508 16.043 -1.51196 80 87 103
-16.5389 16.0279 -1.50518 83 93 105
-16.4145 16.0492 -1.49978 83 89 105
-16.3182 16.0489 -1.4947 80 85 104
-16.2112 16.0364 -1.48838 80 88 103
-16.0832 16.0513 -1.48253 75 74 92
-15.9807 16.0421 -1.47667 53 52 73
-15.8824 16.0369 -1.47128 91 94 112
-15.7577 16.0525 -1.46573 85 92 108
-15.6518 16.0373 -1.45942 85 93 106
-15.5528 16.0291 -1.45387 86 93 109
-15.4539 16.0204 -1.44832 81 88 104
-15.3275 16.0304 -1.44247 85 90 106
-15.233 16.0251 -1.43738 86 90 105
-15.1374 16.0178 -1.43215 83 87 103
-15.0168 16.0319 -1.42691 83 86 102
-14.9241 16.0266 -1.42198 81 83 99
-14.8355 16.0256 -1.41751 84 83 101
-14.7103 16.0316 -1.41165 88 87 105
-14.6157 16.0219 -1.40642 87 89 104
-14.5314 16.0241 -1.40241 84 87 102
-14.4333 16.009 -1.39671 82 85 100
-14.3241 16.0309 -1.3927 83 89 101
-10.3371 13.9493 -1.08139 97 88 79
-10.2653 13.9362 -1.07754 96 88 79
-10.1915 13.9195 -1.07338 102 94 92
-10.0199 13.7973 -1.0583 78 76 87
-10.0419 13.9293 -1.06784 81 78 91
-9.97715 13.925 -1.06491 83 76 90
-9.82821 13.9327 -1.05937 99 89 90
-9.82331 14.0242 -1.06522 95 88 96
-9.13306 16.0067 -1.08307 85 71 34
-9.07038 16.0084 -1.08121 106 93 45
-9.00338 16.0009 -1.07862 128 118 75
-8.90787 15.9982 -1.07546 92 82 83
-8.84548 15.9991 -1.07359 90 82 88
-8.78057 15.9944 -1.07129 87 81 85
-8.68894 15.9977 -1.0687 89 82 89
-33.6864 5.67091 -2.16581 85 93 111
-33.686 5.82824 -2.16777 101 108 124
-33.6511 5.92698 -2.16658 119 125 139
-33.7784 6.05582 -2.17735 97 101 115
-33.6294 6.18586 -2.16851 84 90 105
-33.7174 6.41415 -2.17795 85 97 113
-33.7373 6.52409 -2.18094 86 97 113
-33.7386 6.68357 -2.18334 87 95 111
-27.921 11.1498 -2.02274 99 93 97
-27.8887 11.2349 -2.02302 98 95 102
-27.814 11.3018 -2.01976 89 86 96
-27.7578 11.4258 -2.01958 109 109 120
-27.7063 11.5024 -2.01832 116 116 125
-27.6237 11.5652 -2.01445 125 126 130
-27.579 11.6939 -2.01534 120 119 124
-27.5595 11.7846 -2.01686 107 106 111
-27.4835 11.8497 -2.0136 107 106 112
-27.4544 11.936 -2.01435 102 101 108
-27.3916 12.0566 -2.01386 98 97 102
-27.3203 12.1233 -2.01106 109 106 109
-27.2831 12.2058 -2.0112 118 113 112
-27.1593 12.4976 -2.01236 125 122 117
-27.1549 12.6464 -2.0171 126 124 127
-27.0838 12.7126 -2.01446 74 71 80
-27.0323 12.7882 -2.01352 98 89 90
-26.9715 12.8591 -2.0118 103 98 99
-26.8708 12.96 -2.00838 99 96 102
-26.7723 13.0113 -2.00344 99 98 104
-10.1961 11.2616 -1.00123 86 88 103
-10.1512 11.2788 -1.00005 83 86 101
-14.2302 16.0194 -1.38747 86 88 103
-14.139 16.0106 -1.38254 85 84 102
-14.0402 16.0433 -1.37976 84 83 99
-13.7306 16.017 -1.36344 87 90 105
-9.83143 14.138 -1.07307 99 96 99
-9.82684 14.2826 -1.08246 95 92 96
-9.83756 14.4037 -1.09092 92 89 94
-8.62764 15.9996 -1.06698 87 82 94
-8.55969 15.9868 -1.06411 86 83 92
-8.47177 15.9962 -1.0621 86 83 92
-8.4099 15.9955 -1.06023 86 83 90
-8.34235 15.9818 -1.05735 88 86 91
-8.2815 15.9825 -1.05563 89 87 92
-33.5108 4.70602 -2.14208 93 102 121
-33.5502 4.81528 -2.14607 91 102 120
-33.5992 4.97823 -2.15135 92 101 118
-33.6378 5.08821 -2.15535 89 101 117
-33.6543 5.19501 -2.15776 90 99 116
-33.6704 5.30199 -2.16017 90 99 114
-33.6797 5.46025 -2.16271 91 100 115
-33.6753 5.56419 -2.16368 92 101 118
-28.8627 10.1417 -2.06158 103 103 115
-28.6187 10.1495 -2.04415 106 106 118
-28.5008 10.252 -2.03841 109 107 119
-28.4155 10.3174 -2.03407 110 108 119
-28.3765 10.4003 -2.03359 110 108 119
-28.3135 10.5226 -2.03247 112 110 121
-28.2349 10.5898 -2.02875 108 107 113
-28.1822 10.667 -2.02719 97 96 102
-28.1253 10.7912 -2.02669 102 99 106
-28.0887 10.8746 -2.02651 99 94 103
-28.0425 10.9541 -2.02557 66 60 68
-27.9961 11.0334 -2.02462 72 62 71
-15.1196 11.2959 -1.29336 80 89 106
-15.0633 11.3229 -1.29118 81 90 106
-15.053 11.3877 -1.29401 81 90 102
-10.1384 11.3365 -1.00323 84 87 102
-9.14731 14.0516 -1.04074 92 86 86
-9.09551 14.0645 -1.03966 97 87 90
-9.07973 14.1939 -1.04782 64 52 34
-9.03626 14.2222 -1.04813 119 96 55
-8.94959 14.1717 -1.04151 79 61 53
-8.2004 16.0049 -1.05477 91 86 93
-8.13642 15.9978 -1.05247 91 86 93
-8.11073 16.0781 -1.05708 90 87 94
-33.4633 4.08177 -2.1325 89 96 114
-33.4824 4.23828 -2.13533 101 106 125
-33.4997 4.34349 -2.1376 96 103 121
-33.5128 4.4483 -2.13958 95 101 118
-33.4828 4.59873 -2.13895 94 101 119
-30.476 10.1669 -2.17941 89 90 102
-30.1498 10.1549 -2.15535 92 92 104
-29.822 10.1403 -2.13114 97 98 110
-29.4806 10.1686 -2.10707 108 108 120
-29.1668 10.1544 -2.08394 111 111 123
-10.3302 15.3344 -1.1722 95 90 97
-10.252 15.3687 -1.17143 93 89 96
-8.8402 14.1311 -1.03474 133 120 111
-8.86202 14.2797 -1.04567 76 58 51
-8.74316 14.1668 -1.03366 80 65 63
-8.65975 14.1723 -1.03104 86 72 71
-8.67267 14.307 -1.04074 78 64 60
-8.12361 16.3195 -1.07348 90 88 93
-8.07146 16.3413 -1.07348 89 86 93
-7.93714 16.1683 -1.05824 89 86 94
-7.8378 16.1467 -1.05407 89 86 93
-7.78694 16.1695 -1.05422 88 86 89
-33.251 3.14059 -2.1095 85 97 113
-33.2976 3.2466 -2.11364 90 99 114
-33.3386 3.40322 -2.11776 89 96 112
-33.3211 3.50306 -2.11729 89 96 114
-33.3625 3.60949 -2.12114 88 97 112
-33.3859 3.7652 -2.12411 88 95 113
-31.0434 9.01935 -2.19333 88 95 106
-31.0417 9.17222 -2.19668 123 121 135
-31.0405 9.27444 -2.19896 122 120 133
-31.0256 9.37254 -2.20016 106 104 114
-31.0921 9.49675 -2.20799 86 84 89
-31.0481 9.63751 -2.2081 85 82 99
-30.9316 9.70282 -2.20114 70 73 87
-30.974 9.82027 -2.20712 80 84 96
-30.9814 9.97833 -2.21155 95 95 105
-30.9435 10.0695 -2.21106 96 98 111
-30.7997 10.1242 -2.20194 92 94 106
-10.216 15.4195 -1.17343 100 93 101
-7.72621 16.1681 -1.05249 90 88 93
-7.5678 15.9975 -1.03682 92 87 94
-7.50482 15.9879 -1.03452 91 86 93
-7.44638 15.9893 -1.03309 93 88 95
-7.38506 15.983 -1.03108 93 91 96
-7.29944 15.9881 -1.02921 97 95 100
-7.23976 15.985 -1.02749 97 95 100
-33.1069 2.32196 -2.09395 147 133 139
-32.9895 2.41345 -2.08599 118 113 125
-33.0801 2.57082 -2.09343 145 147 160
-33.0711 2.6705 -2.09339 112 118 139
-31.0283 7.65315 -2.16337 88 91 107
-31.0341 7.75447 -2.16581 86 92 108
-31.0397 7.85589 -2.16824 88 91 108
-31.0131 7.9989 -2.16912 88 91 106
-31.0312 8.1042 -2.17264 85 90 109
-31.0606 8.21288 -2.17708 83 89 105
-31.0511 8.31107 -2.17843 85 91 106
-31.0434 8.46031 -2.18101 83 89 105
-31.0638 8.56744 -2.18483 84 90 106
-31.0608 8.66806 -2.18681 83 91 104
-31.038 8.81373 -2.1883 86 89 104
-31.0552 8.9208 -2.19197 81 83 98
-20.267 11.3557 -1.64974 100 99 106
-20.2202 11.409 -1.64872 106 105 111
-10.2328 11.3204 -1.04736 86 87 105
-10.1656 11.3096 -1.04303 84 87 102
-10.4701 15.9697 -1.22008 146 146 150
-10.3811 15.9909 -1.21808 101 93 94
-10.3122 15.9886 -1.2153 99 95 89
-7.17874 15.978 -1.02548 95 90 96
-7.09201 15.9782 -1.02332 93 83 86
-7.03332 15.9763 -1.02175 93 83 81
-6.97673 15.9798 -1.0206 98 85 76
-32.9621 1.61334 -2.08025 157 153 164
-33.0025 1.86479 -2.08418 158 139 132
-30.9816 6.50705 -2.13907 85 94 109
-30.9817 6.60491 -2.14073 86 95 110
-31.0067 6.70859 -2.1444 85 94 109
-31.0089 6.85641 -2.14713 86 93 109
-31.0058 6.95413 -2.14864 86 91 111
-31.0199 7.05609 -2.15154 87 92 111
-31.0259 7.15632 -2.15382 86 93 109
-31.0142 7.30187 -2.15562 88 94 110
-31.0291 7.40473 -2.15867 90 93 110
-31.0396 7.50679 -2.16141 90 93 110
-15.2094 11.3915 -1.35506 85 87 100
-15.0713 11.3518 -1.34364 81 84 97
-15.0517 11.4091 -1.34553 80 85 97
-10.1391 11.3502 -1.04441 84 85 103
-9.48335 15.9779 -1.18422 82 81 81
-6.89302 15.9865 -1.01902 93 80 72
-6.83384 15.9819 -1.0173 94 81 72
-6.77274 15.9716 -1.01514 93 80 71
-6.69125 15.9829 -1.014 91 81 72
-33.0016 1.51564 -2.08274 98 105 119
-30.9755 5.48659 -2.12276 92 101 116
-30.975 5.58298 -2.12411 90 99 114
-30.9515 5.72329 -2.12437 85 91 107
-30.9384 5.81743 -2.1248 111 114 131
-30.9329 5.91311 -2.12585 128 131 147
-30.9798 6.01959 -2.13106 105 108 125
-30.8996 6.14856 -2.127 84 90 104
-30.9679 6.35765 -2.13557 88 93 112
-12.0054 13.8364 -1.26535 90 92 107
-11.9062 13.7994 -1.25782 88 90 105
-11.7999 13.7525 -1.24929 88 89 104
-11.7086 13.724 -1.24276 85 84 100
-11.6117 13.732 -1.23841 82 84 99
-11.5342 13.72 -1.23372 86 89 104
-11.4628 13.7157 -1.22987 87 91 103
-11.3783 13.7382 -1.22719 86 88 103
-11.3106 13.738 -1.22384 90 89 104
-9.39355 15.9903 -1.18191 85 79 86
-9.3244 15.9806 -1.17883 95 87 79
-9.25809 15.9759 -1.17622 95 77 72
-9.19009 15.9674 -1.1733 73 50 34
-9.10251 15.9819 -1.1713 101 87 64
-9.03916 15.9817 -1.16914 111 100 67
-6.63298 15.9795 -1.01242 99 94 91
-6.57608 15.9798 -1.01113 97 92 96
-6.51537 15.9685 -1.00898 97 91 93
-6.43475 15.9804 -1.00797 97 92 96
-30.9167 4.70938 -2.10791 93 102 119
-30.9364 4.80804 -2.11066 93 102 119
-30.9557 4.90685 -2.1134 93 101 120
-30.959 5.05102 -2.11551 92 100 122
-30.9697 5.14882 -2.11763 91 99 120
-30.9879 5.24814 -2.12037 89 100 118
-30.9797 5.39097 -2.12171 92 101 118
-24.5298 12.2165 -1.99724 120 116 112
-24.4096 12.2466 -1.98953 127 122 119
-24.3404 12.3496 -1.9885 134 126 124
-24.3148 12.4295 -1.98982 134 126 120
-24.2837 12.5065 -1.99064 133 124 116
-24.3064 12.613 -1.99664 118 110 107
-24.2425 12.7193 -1.99628 103 94 98
-24.1756 12.7768 -1.99376 103 97 105
-24.1346 12.8485 -1.99374 103 97 108
-24.0351 12.9343 -1.99003 108 102 110
-23.9452 12.978 -1.98533 108 104 108
-23.8708 13.0302 -1.98214 107 103 109
-23.7638 13.1103 -1.97776 103 100 108
-23.6788 13.1557 -1.97356 99 98 106
-23.6058 13.2077 -1.97053 98 97 103
-23.4673 13.4583 -1.97148 100 98 103
-23.4191 13.5247 -1.97096 105 104 110
-23.3459 13.6236 -1.9701 113 112 118
-23.3023 13.6928 -1.97009 71 68 79
-23.2517 13.7576 -1.9694 89 83 87
-23.1791 13.8567 -1.96871 99 98 106
-23.1364 13.9264 -1.96886 98 98 107
-23.0801 13.9874 -1.96768 99 98 104
-22.9765 14.0661 -1.96397 94 95 99
-22.9015 14.1146 -1.96095 99 99 106
-22.828 14.1638 -1.95809 97 95 101
-22.7578 14.215 -1.95557 96 95 101
-22.6865 14.3137 -1.95521 97 97 106
-22.6539 14.3898 -1.95653 96 96 105
-22.6029 14.4534 -1.95602 94 94 102
-22.5454 14.5616 -1.95717 99 98 104
-22.4857 14.6192 -1.95582 96 96 104
-22.4046 14.6619 -1.95229 98 96 106
-22.3459 14.7693 -1.95344 99 98 106
-22.3117 14.8445 -1.95477 94 94 102
-22.2577 14.9059 -1.95409 92 94 106
-22.1655 14.9895 -1.95189 91 93 101
-22.1095 15.0492 -1.95104 93 96 102
-22.0663 15.118 -1.95153 88 92 99
-22.0259 15.1891 -1.95236 83 85 96
-21.9406 15.2772 -1.951 86 86 98
-21.8774 15.3313 -1.94948 86 86 96
-21.8061 15.3792 -1.94713 81 85 96
-21.7216 15.4674 -1.94594 88 90 102
-21.6547 15.5183 -1.94408 98 100 112
-11.2737 13.7792 -1.22484 82 74 83
-11.1786 13.7861 -1.22066 86 75 81
-10.905 13.8197 -1.20978 99 94 91
-10.9121 13.9235 -1.2173 105 98 90
-10.5943 13.7924 -1.19321 96 86 77
-10.5066 13.7576 -1.18668 101 91 81
-8.9724 15.9741 -1.16637 81 69 75
-8.87984 15.9767 -1.16345 65 62 69
-8.81937 15.9811 -1.16176 64 63 75
-8.75126 15.9691 -1.15868 60 56 69
-8.65656 15.965 -1.1553 104 103 112
-6.37865 15.9818 -1.00683 99 94 98
-6.32012 15.9755 -1.00511 97 92 96
-6.23717 15.9789 -1.00353 98 93 97
-6.18003 15.9759 -1.00209 101 92 97
-30.8778 4.13347 -2.09825 82 89 110
-30.8947 4.27802 -2.10113 98 106 123
-30.9158 4.37608 -2.10387 98 107 123
-30.9465 4.47583 -2.10738 96 105 122
-30.9321 4.61648 -2.10795 95 102 120
-25.6983 10.2442 -2.01452 112 107 114
-25.6762 10.3254 -2.01551 111 109 116
-25.61 10.3878 -2.01247 110 108 118
-25.5235 10.4863 -2.00909 111 110 119
-25.4459 10.5432 -2.00506 109 108 116
-25.4283 10.6262 -2.00654 111 110 118
-25.3791 10.7404 -2.00668 111 110 116
-25.6804 10.9669 -2.03762 112 110 120
-25.9679 11.2835 -2.07072 112 110 121
-25.9535 11.4179 -2.07437 113 111 122
-25.9583 11.5146 -2.0782 112 111 119
-25.9501 11.6055 -2.08086 111 110 116
-25.2439 11.4118 -2.02024 115 115 123
-25.9231 11.8305 -2.087 112 111 119
-25.9603 11.9441 -2.09401 110 107 116
-25.9442 12.0803 -2.09783 123 122 129
-25.8322 12.1215 -2.09094 86 81 91
-25.599 12.1018 -2.07268 99 93 95
-25.3858 12.0906 -2.05626 111 110 112
-25.1433 12.1103 -2.03883 114 109 115
-24.9254 12.0936 -2.02191 108 103 109
-24.7397 12.0921 -2.008 100 94 99
-24.6376 12.1794 -2.00379 105 100 103
-20.2934 11.3627 -1.71449 101 99 106
-20.2355 11.45 -1.71412 101 99 105
-21.602 15.5798 -1.94374 82 84 97
-21.5008 15.6547 -1.94088 100 102 114
-21.4775 15.7389 -1.94371 102 104 116
-21.4398 15.8121 -1.94504 97 101 108
-21.3736 15.863 -1.94335 106 110 118
-21.2824 15.9451 -1.94166 111 112 124
-21.2112 15.9917 -1.93948 100 99 111
-21.092 15.9993 -1.93211 99 99 107
-20.4818 16.0144 -1.89341 91 91 103
-20.3482 16.0057 -1.88437 84 86 98
-20.2134 15.9949 -1.87516 84 87 98
-20.0613 16.0195 -1.86678 69 65 80
-19.9299 16.0098 -1.8579 73 66 79
-19.8004 16.0008 -1.84919 73 72 81
-19.665 15.9859 -1.83981 80 87 99
-19.5229 16.0147 -1.83244 76 83 98
-19.4224 16.0285 -1.82691 80 88 104
-19.328 16.0472 -1.82205 80 88 104
-19.204 16.0896 -1.81668 85 92 110
-19.0787 16.0793 -1.80831 81 88 106
-18.9536 16.0683 -1.79994 85 92 111
-18.8226 16.1017 -1.79374 84 93 108
-18.6935 16.0853 -1.78486 85 94 109
-18.5721 16.0751 -1.77683 86 95 112
-18.4552 16.0683 -1.76929 85 92 110
-18.3133 16.0877 -1.76175 86 93 111
-18.1839 16.0673 -1.75271 83 92 109
-18.0648 16.0558 -1.74484 83 91 110
-17.9366 16.0851 -1.73881 82 89 107
-17.8151 16.0695 -1.7306 83 91 109
-17.6997 16.0589 -1.72307 85 94 109
-17.5705 16.0846 -1.71687 85 95 108
-17.4626 16.0797 -1.71017 82 91 105
-17.3407 16.0603 -1.7018 81 90 104
-17.2065 16.078 -1.69493 86 94 107
-17.0964 16.0686 -1.6879 83 89 105
-16.9823 16.0544 -1.68036 84 90 106
-16.8796 16.051 -1.67417 82 87 106
-16.7532 16.0729 -1.66814 83 90 106
-16.6494 16.0669 -1.66178 85 94 109
-16.5362 16.0504 -1.65424 83 92 107
-16.4091 16.0688 -1.64804 81 88 106
-16.31 16.0655 -1.64218 85 90 109
-16.1989 16.0487 -1.63482 84 89 108
-16.0723 16.0649 -1.62862 91 89 105
-15.9725 16.0587 -1.62259 81 87 101
-15.8756 16.0549 -1.6169 84 91 107
-15.7734 16.0447 -1.61054 84 89 108
-15.645 16.0553 -1.60401 84 90 106
-15.5486 16.05 -1.59832 84 90 106
-15.4563 16.0487 -1.59313 83 89 105
-15.3272 16.0557 -1.58643 86 90 107
-15.23 16.0474 -1.58057 84 87 104
-15.137 16.0431 -1.57521 84 87 104
-10.4364 13.7946 -1.18601 95 86 78
-10.3602 13.7755 -1.18116 90 81 74
-10.2995 13.7792 -1.17865 112 104 93
-10.2195 13.8003 -1.17647 93 87 83
-10.1547 13.7968 -1.17329 93 88 93
-10.0594 13.8901 -1.17563 79 73 74
-8.59467 15.965 -1.1533 134 135 145
-8.53201 15.963 -1.15115 106 100 114
-8.47195 15.9661 -1.14945 89 83 95
-8.38357 15.9732 -1.14715 86 83 92
-8.32036 15.9686 -1.14484 88 85 92
-8.26212 15.9746 -1.14346 88 85 92
-6.12175 15.9688 -1.00037 99 93 97
-6.04027 15.975 -0.999085 97 91 95
-30.693 3.17053 -2.07469 90 97 115
-30.6979 3.26445 -2.07589 89 96 115
-30.7838 3.36781 -2.08341 87 96 111
-30.8044 3.51095 -2.08629 89 98 115
-30.7905 3.60321 -2.0861 85 97 112
-30.8138 3.70016 -2.08884 87 97 114
-30.8151 3.79448 -2.08989 94 100 122
-26.7414 10.1211 -2.09165 104 106 116
-26.4712 10.1515 -2.07153 116 115 126
-26.2117 10.1382 -2.05092 114 111 123
-25.9654 10.1287 -2.03148 113 109 121
-25.7801 10.1429 -2.01757 109 106 115
-26.0112 11.2093 -2.07141 110 108 120
-15.0163 16.0571 -1.56952 83 86 103
-14.9185 16.0458 -1.56349 81 87 103
-14.8272 16.0417 -1.5583 84 90 105
-14.7084 16.0552 -1.55278 86 90 105
-14.6188 16.0517 -1.54775 83 86 101
-14.5243 16.0415 -1.54206 84 87 104
-14.4287 16.0295 -1.5362 82 85 102
-14.3195 16.0514 -1.53185 85 86 104
-14.2218 16.0352 -1.52566 84 87 102
-14.1305 16.0264 -1.5203 86 89 106
-10.078 14.0169 -1.1855 92 90 93
-9.90559 13.9408 -1.17245 125 74 84
-9.87993 14.0476 -1.17897 129 73 82
-9.84017 14.0833 -1.17981 123 69 77
-8.16519 15.9605 -1.13946 90 88 93
-8.11106 15.9752 -1.13884 89 86 93
-8.06796 16.0152 -1.14039 90 84 94
-30.547 2.59863 -2.05902 135 140 152
-30.6568 3.02689 -2.07074 87 95 115
-28.0027 9.75608 -2.17958 82 82 90
-28.0645 9.87424 -2.18792 89 89 99
-28.0177 9.95263 -2.18656 91 91 103
-27.9735 10.0797 -2.18686 94 94 107
-27.8499 10.1286 -2.17863 92 92 104
-27.5813 10.1211 -2.15735 88 88 100
-27.2842 10.1478 -2.13488 86 88 100
-27.0108 10.1345 -2.1131 81 85 97
-23.2086 12.1863 -1.96928 133 125 123
-23.199 12.2716 -1.9722 135 127 124
-22.9983 12.7964 -1.98005 115 112 116
-22.9247 12.8452 -1.97675 109 106 110
-22.7272 13.05 -1.97133 111 109 112
-22.6379 13.088 -1.96647 107 105 110
-22.4974 13.1402 -1.95849 112 111 116
-22.4688 13.2151 -1.95986 79 73 83
-22.4096 13.2709 -1.95811 86 80 84
-22.3629 13.3809 -1.95982 107 107 110
-22.2797 13.4213 -1.95566 102 101 106
-22.2719 13.5097 -1.95927 104 102 113
-22.1856 13.5943 -1.957 103 102 109
-22.1337 13.6544 -1.95612 105 104 110
-22.1049 13.7296 -1.95767 105 104 110
-22.0692 13.8004 -1.95852 100 99 105
-21.9784 13.8815 -1.9559 103 102 108
-21.9488 13.9564 -1.95745 100 99 105
-21.8778 14.0033 -1.95467 100 99 104
-21.8141 14.1024 -1.95499 95 94 100
-21.7297 14.1396 -1.95083 97 96 104
-21.6942 14.2105 -1.95185 103 102 110
-21.5905 14.2812 -1.94803 93 92 97
-21.5383 14.3403 -1.94732 93 94 98
-11.9981 13.8512 -1.31522 81 83 98
-11.9027 13.8189 -1.30796 89 91 106
-11.7991 13.775 -1.29948 85 87 102
-11.7164 13.7575 -1.29394 85 87 102
-11.6004 13.7401 -1.28667 88 91 106
-11.5469 13.7599 -1.28529 88 92 104
-11.4565 13.7301 -1.27854 89 93 105
-11.3839 13.7686 -1.2775 85 87 100
-11.321 13.7747 -1.27473 98 95 109
-12.7287 16.0306 -1.44983 96 91 95
-12.6485 16.0262 -1.44565 101 96 92
-9.80337 14.1239 -1.18115 125 71 79
-9.7957 14.2631 -1.19085 123 76 83
-9.77054 14.3241 -1.19419 116 74 81
-9.73079 14.3613 -1.1952 120 78 87
-9.25478 14.0149 -1.15003 107 95 105
-9.13744 13.9645 -1.14149 97 91 95
-8.06888 16.2291 -1.15563 91 89 94
-8.10071 16.449 -1.17226 90 87 94
-7.91067 16.1418 -1.14471 88 85 93
-7.81096 16.1182 -1.14009 88 85 94
-7.7565 16.1317 -1.13948 90 87 94
-30.5026 2.27176 -2.05344 137 127 131
-30.5124 2.36476 -2.05479 148 134 133
-28.1234 8.29653 -2.14952 85 91 105
-28.1326 8.39192 -2.15267 87 90 105
-28.13 8.48385 -2.15482 87 90 105
-28.1347 8.57829 -2.15764 87 90 105
-28.1273 8.71554 -2.16062 88 91 106
-28.1293 8.8096 -2.16327 88 90 105
-28.1291 8.90313 -2.16576 85 87 102
-28.1031 9.03502 -2.16722 74 79 92
-28.1115 9.1319 -2.17055 85 87 101
-28.1046 9.22375 -2.17253 109 111 124
-28.0901 9.3603 -2.17517 132 130 143
-28.0861 9.45359 -2.17749 120 118 128
-28.1812 9.58234 -2.18868 96 94 103
-28.0285 9.62286 -2.17777 84 83 90
-24.5323 10.4018 -2.00179 110 108 118
-24.4969 10.4739 -2.0016 110 108 120
-24.416 10.5251 -1.99708 113 111 124
-24.364 10.5893 -1.99533 115 112 123
-24.2806 10.6827 -1.99219 111 110 119
-24.2498 10.7564 -1.99251 115 112 119
-24.199 10.8207 -1.99094 115 113 118
-24.1219 10.9164 -1.98849 118 116 119
-24.0903 10.9897 -1.98881 115 113 115
-24.0836 11.0752 -1.99156 126 124 130
-23.9857 11.1603 -1.98721 129 126 133
-23.9356 11.2244 -1.98581 81 72 90
-23.9083 11.2998 -1.98665 80 68 78
-23.8258 11.3474 -1.98214 133 128 124
-23.7678 11.4516 -1.98176 128 119 121
-23.6654 11.4884 -1.97534 108 110 116
-23.6833 11.5869 -1.98069 125 128 134
-23.5836 11.6691 -1.97634 133 134 140
-23.5831 11.7585 -1.97995 128 126 133
-23.5242 11.8172 -1.97786 116 112 119
-23.4798 11.9283 -1.97904 106 100 107
-23.4065 11.9789 -1.97557 103 95 102
-23.3889 12.0597 -1.97763 104 105 107
-23.3101 12.107 -1.97363 107 106 107
-23.1942 12.3599 -1.97565 129 124 121
-23.1506 12.4717 -1.97718 135 130 125
-23.2003 12.5919 -1.98616 135 128 121
-23.1668 12.6646 -1.98683 123 116 110
-23.0872 12.7564 -1.98491 120 115 111
-21.481 14.3958 -1.9461 97 97 106
-21.435 14.4591 -1.94609 102 101 108
-21.3723 14.5585 -1.94676 94 94 96
-21.2936 14.598 -1.94329 95 96 96
-21.2244 14.6443 -1.94085 88 89 94
-21.188 14.763 -1.94447 88 88 100
-21.0802 14.7801 -1.93788 95 95 107
-21.0441 14.8506 -1.93908 97 97 107
-20.9398 14.9182 -1.93543 94 94 104
-20.8763 14.9678 -1.93369 93 93 103
-20.7984 15.0062 -1.93039 93 95 108
-20.7645 15.1273 -1.93453 87 89 101
-20.6973 15.1737 -1.93244 89 89 101
-20.6191 15.2112 -1.92914 89 92 101
-20.5876 15.2854 -1.93104 83 86 98
-20.5193 15.3799 -1.93154 84 83 97
-20.4593 15.4315 -1.93032 91 90 103
-20.4208 15.5004 -1.93152 91 96 107
-20.1339 15.7671 -1.92714 117 117 127
-20.05 15.7981 -1.92333 113 113 123
-20.0086 15.8647 -1.92436 98 99 104
-19.9594 15.9247 -1.92452 71 67 80
-19.8835 16.0126 -1.92451 76 69 80
-19.7766 16.0227 -1.9181 94 92 99
-19.6564 16.0206 -1.91013 90 90 101
-19.5007 16.0373 -1.90095 92 94 106
-19.3765 16.0299 -1.89247 85 85 98
-19.248 16.0178 -1.88347 82 86 98
-19.099 16.0371 -1.87498 78 82 93
-18.9696 16.0222 -1.86581 80 83 97
-18.8581 16.0228 -1.85871 81 84 99
-18.6996 16.03 -1.84901 83 89 104
-18.5899 16.0306 -1.84208 83 91 104
-18.4746 16.0253 -1.83447 83 90 106
-18.3493 16.0099 -1.82564 87 93 109
-18.2151 16.0355 -1.81871 83 90 106
-10.9051 13.8419 -1.25863 104 96 93
-12.541 16.036 -1.44113 100 90 84
-9.66221 14.4013 -1.1952 116 78 91
-9.61108 14.4192 -1.19436 111 81 93
-9.57993 14.4714 -1.19687 105 84 97
-9.10646 14.0137 -1.14384 90 82 90
-9.08307 14.0766 -1.14752 89 80 79
-9.05262 14.1797 -1.15387 122 103 64
-9.02744 14.2409 -1.15739 89 63 29
-8.9263 14.1642 -1.14769 70 46 20
-7.7125 16.1708 -1.14102 90 88 93
-7.56289 15.9474 -1.1207 92 90 95
-7.47591 15.9497 -1.1184 91 88 95
-7.41554 15.9454 -1.1164 92 91 96
-7.35815 15.9483 -1.11502 91 90 95
-30.5123 1.53637 -2.05033 138 139 156
-30.403 1.62204 -2.04228 154 155 162
-30.4634 1.85495 -2.04805 152 134 127
-28.1268 7.1108 -2.1219 88 94 110
-28.1133 7.24264 -2.1237 90 95 108
-28.1377 7.33981 -2.12786 93 95 110
-28.131 7.42874 -2.12934 91 94 109
-28.1528 7.52574 -2.13333 89 95 107
-28.1259 7.65474 -2.13413 89 95 107
-28.1067 7.7405 -2.13461 89 95 109
-28.1025 7.8307 -2.13642 89 92 109
-28.0855 7.96296 -2.13822 87 93 107
-28.0997 8.05898 -2.14171 85 92 105
-28.1382 8.16268 -2.14738 87 93 107
-25.6487 10.1293 -2.08122 110 113 122
-25.4129 10.1648 -2.06353 118 116 127
-25.1694 10.1506 -2.04361 115 114 125
-24.9153 10.1303 -2.02266 109 110 122
-24.7333 10.1833 -2.00999 107 105 116
-24.6129 10.2184 -2.00167 108 106 115
-24.5945 10.298 -2.00303 108 107 115
-18.1221 16.0488 -1.81369 89 95 111
-18.0363 16.0686 -1.80953 86 92 108
-17.9225 16.1115 -1.80502 83 90 105
-17.7897 16.0846 -1.79516 82 91 106
-17.7028 16.1017 -1.79083 84 91 108
-17.5637 16.1174 -1.78321 82 88 106
-17.4544 16.111 -1.77611 82 89 105
-17.3396 16.0984 -1.76832 82 90 105
-17.2293 16.0895 -1.76105 84 92 108
-17.0981 16.1092 -1.7543 80 87 103
-16.9869 16.0977 -1.74686 84 91 107
-16.8841 16.0942 -1.74045 82 89 105
-16.7467 16.1046 -1.73283 85 93 109
-16.6375 16.0927 -1.72556 84 93 108
-16.5312 16.0833 -1.71864 81 88 105
-16.4095 16.1072 -1.71292 78 85 103
-16.3023 16.0952 -1.70583 85 91 108
-16.2076 16.0957 -1.70029 86 93 109
-16.0782 16.1089 -1.69354 88 89 106
-15.9731 16.0967 -1.68661 83 89 103
-15.8775 16.0943 -1.6809 87 94 112
-15.7767 16.0855 -1.6745 88 95 113
-15.6456 16.093 -1.6674 85 91 107
-15.5559 16.095 -1.66238 85 90 107
-15.4531 16.0817 -1.65563 84 90 106
-15.3279 16.0931 -1.64923 85 93 106
-15.2412 16.0967 -1.64455 85 92 105
-15.1339 16.0758 -1.63711 84 90 105
-10.7704 13.9771 -1.26174 98 88 78
-10.6888 13.9528 -1.25603 99 89 80
-10.6163 13.9413 -1.25171 102 90 81
-10.5343 13.9622 -1.24928 108 100 89
-10.4655 13.955 -1.24548 103 95 86
-10.4023 13.9558 -1.24253 92 86 81
-10.3096 13.9589 -1.23838 93 90 98
-10.2736 14.0008 -1.23976 82 80 91
-10.118 13.8569 -1.22195 72 68 78
-10.049 13.8463 -1.21797 62 58 68
-8.81307 14.1165 -1.13966 113 82 52
-8.77541 14.1544 -1.14099 105 82 57
-8.74136 14.1992 -1.143 106 87 58
-8.69119 14.2681 -1.14618 153 127 90
-7.27361 15.9551 -1.11317 95 94 99
-7.2142 15.952 -1.11133 95 93 96
-7.15486 15.9486 -1.10948 96 93 96
-7.07126 15.9562 -1.1078 88 82 83
-7.01072 15.9486 -1.10564 99 88 84
-28.0257 6.19236 -2.09472 89 98 115
-28.1183 6.39165 -2.10622 90 97 116
-28.1225 6.48181 -2.10837 88 96 115
-28.1083 6.61219 -2.10983 88 95 111
-28.1214 6.70492 -2.11282 90 97 113
-28.14 6.79926 -2.11631 88 94 112
-28.1185 6.92844 -2.11727 88 94 111
-28.1285 7.02107 -2.12009 88 94 111
-26.8613 10.0263 -2.17532 91 96 107
-26.8216 10.1035 -2.17461 89 92 104
-26.6595 10.1317 -2.16247 93 95 107
-26.3979 10.1187 -2.14099 90 92 105
-26.1446 10.153 -2.12175 77 79 94
-25.9186 10.151 -2.10356 83 85 98
-15.0288 16.1078 -1.6333 85 91 105
-14.9296 16.095 -1.6269 85 91 107
-14.8307 16.0817 -1.6205 86 92 106
-14.7461 16.0847 -1.616 87 93 107
-14.6236 16.093 -1.60976 87 93 107
-14.5265 16.0798 -1.60354 82 88 102
-14.4398 16.0784 -1.59869 86 89 106
-14.3217 16.0895 -1.59298 83 84 102
-14.2241 16.0733 -1.58658 84 86 101
-14.1404 16.0736 -1.58208 86 88 103
-10.0117 13.9331 -1.22264 94 94 96
-9.97242 13.9692 -1.2235 103 96 92
-9.91827 13.9814 -1.22195 117 85 85
-9.76726 13.985 -1.21537 116 69 71
-9.70909 13.9897 -1.21312 117 70 73
-6.9496 15.9389 -1.10334 94 80 71
-6.87165 15.9605 -1.10288 94 81 72
-6.81139 15.9522 -1.10073 92 79 70
-6.75453 15.953 -1.09935 93 80 72
-28.1656 5.38567 -2.09165 91 100 117
-28.1615 5.47265 -2.09279 93 100 117
-28.16 5.60421 -2.09492 93 100 116
-28.1493 5.69005 -2.09556 89 96 111
-28.1324 5.77463 -2.0957 88 95 111
-28.1197 5.90419 -2.097 123 128 142
-28.0945 5.98697 -2.09647 126 129 144
-28.1543 6.08898 -2.1033 94 98 110
-26.9792 8.38404 -2.13614 88 91 106
-26.9841 8.47521 -2.13905 89 90 107
-27.0132 8.57471 -2.14422 88 91 106
-26.9907 8.70204 -2.14592 89 91 106
-27.0039 8.79683 -2.1497 89 91 106
-27.0036 8.88723 -2.15227 86 88 101
-26.9795 9.01472 -2.15396 72 80 91
-26.9747 9.10393 -2.15619 79 86 97
-26.9845 9.19858 -2.1598 99 106 115
-26.9641 9.28253 -2.16064 135 141 148
-26.9568 9.41698 -2.16407 119 118 129
-26.9823 9.51826 -2.16923 99 98 105
-27.0019 9.61769 -2.17388 91 89 98
-26.896 9.71588 -2.16831 87 84 98
-26.9109 9.90658 -2.17553 80 82 94
-12.9139 16.0525 -1.51632 95 90 95
-12.8106 16.0703 -1.51234 99 93 100
-12.7338 16.071 -1.50853 100 94 96
-9.65569 14.0518 -1.21537 120 82 83
-9.58628 14.0373 -1.21122 120 78 81
-9.57692 14.1235 -1.21727 124 73 84
-9.53674 14.2091 -1.22194 124 74 83
-9.25954 14.0421 -1.19738 115 86 94
-6.69575 15.948 -1.0975 89 78 72
-6.6114 15.9495 -1.09551 97 93 90
-6.55281 15.944 -1.09366 93 91 93
-6.49685 15.9459 -1.09243 95 91 92
-28.1329 4.5946 -2.0765 96 103 121
-28.1371 4.68212 -2.07815 96 103 121
-28.1685 4.77457 -2.08214 96 104 121
-28.1607 4.90373 -2.08343 93 102 119
-28.1678 4.99226 -2.08541 93 102 117
-28.163 5.07869 -2.08639 93 102 117
-28.1653 5.21027 -2.08869 92 101 116
-28.1539 5.29563 -2.08916 91 100 117
-27.0136 7.15915 -2.10776 88 94 110
-27.017 7.24738 -2.11016 88 96 108
-27.0125 7.37714 -2.11289 91 97 109
-27.0171 7.46613 -2.11546 93 96 111
-27.0061 7.55072 -2.11665 91 94 109
-27.0229 7.68763 -2.12145 89 92 109
-26.9998 7.76887 -2.1216 90 93 108
-27.0164 7.86232 -2.12538 90 94 106
-26.9973 7.98919 -2.12708 91 93 108
-26.9961 8.07756 -2.1293 89 91 106
-27.0077 8.17025 -2.13274 88 90 105
-27.0039 8.2582 -2.13479 88 91 106
-12.6571 16.0714 -1.50473 105 95 93
-12.5702 16.0569 -1.49936 100 92 86
-9.53238 14.3056 -1.22903 124 76 83
-9.50757 14.3679 -1.23266 115 78 89
-9.17587 14.0505 -1.19444 75 67 67
-9.13095 14.0755 -1.19444 85 74 78
-9.08109 14.0917 -1.19358 90 81 77
-9.02834 14.1548 -1.19617 132 112 70
-6.41341 15.9483 -1.09059 95 91 95
-6.35819 15.9515 -1.08952 96 91 94
-6.29869 15.9414 -1.08737 96 91 95
-28.1432 4.207 -2.07195 89 96 112
-28.1546 4.29521 -2.0741 99 105 122
-28.1559 4.38192 -2.07541 100 104 121
-28.1354 4.46511 -2.07487 95 103 121
-26.9668 6.15549 -2.08159 92 98 115
-27.0012 6.37778 -2.08914 89 96 112
-26.9995 6.46325 -2.09084 88 95 112
-27.0054 6.55075 -2.09324 88 95 113
-26.9985 6.67817 -2.09545 89 94 113
-27.0074 6.76691 -2.09819 90 96 112
-27.0103 6.85421 -2.10041 89 96 109
-27.025 6.98823 -2.1047 88 94 108
-27.0118 7.07155 -2.10554 88 94 110
-9.03482 14.2735 -1.20551 61 40 17
-8.97394 14.2701 -1.20274 50 39 18
-8.83698 14.1788 -1.19012 116 97 55
-8.78978 14.1993 -1.18977 108 84 45
-8.72105 14.1792 -1.18545 80 61 47
-8.7017 14.252 -1.19029 95 76 68
-9.47659 15.9998 -1.30579 91 78 74
-9.40901 15.9939 -1.30278 94 85 84
-9.31642 16.0005 -1.29977 150 126 73
-9.24999 15.9958 -1.29692 166 137 59
-9.18367 15.9908 -1.29408 170 134 57
-6.22157 15.9618 -1.08706 99 93 97
-6.16224 15.9511 -1.08491 97 91 95
-6.10541 15.9478 -1.08338 97 93 94
-28.0794 3.38271 -2.05667 91 99 115
-28.0876 3.46918 -2.05831 88 97 112
-28.1017 3.5993 -2.06094 87 95 114
-28.1013 3.6849 -2.06192 87 95 114
-28.1361 3.77553 -2.06591 85 96 114
-27.0256 5.40496 -2.07197 92 101 116
-27.0408 5.49273 -2.07488 94 101 117
-27.0363 5.57641 -2.07607 96 103 120
-27.0284 5.70178 -2.07776 86 93 108
-27.0135 5.78332 -2.07808 92 96 112
-27.0119 5.86796 -2.07961 119 123 136
-26.991 5.9907 -2.08026 115 121 135
-27.0914 6.09981 -2.09096 94 97 112
-15.1091 11.2944 -1.50614 99 97 110
-15.0258 11.3357 -1.50251 95 94 107
-15.0277 11.4106 -1.50727 98 99 106
-10.1743 11.2607 -1.1716 85 87 104
-10.1167 11.2983 -1.17102 86 89 106
-10.1013 11.3528 -1.17426 86 92 106
-8.67695 14.3701 -1.19842 71 58 58
-9.09588 16.0051 -1.29191 120 84 43
-9.02713 15.9942 -1.28856 90 70 53
-8.96202 15.9901 -1.28589 94 93 91
-8.87535 16.0051 -1.28388 97 101 107
-8.81044 16.0005 -1.28121 84 83 89
-6.02189 15.9463 -1.08138 99 93 92
-28.0106 3.0765 -2.04773 92 99 117
-28.0514 3.16625 -2.05206 93 100 118
-28.0689 3.2961 -2.05486 88 95 111
-27.0627 4.73997 -2.06371 95 101 120
-27.0547 4.82223 -2.06438 94 103 119
-27.0406 4.90335 -2.06452 92 103 119
-27.0614 5.03324 -2.06846 94 103 120
-27.0408 5.11324 -2.06809 93 102 119
-27.0531 5.19989 -2.07066 92 100 119
-27.0691 5.28749 -2.07357 91 103 117
-8.74734 15.9992 -1.27887 81 75 90
-8.65664 16.004 -1.27603 97 89 102
-8.59204 15.9986 -1.27335 103 92 107
-8.52839 15.9947 -1.27085 91 82 95
-8.46399 15.9887 -1.26817 87 86 92
-27.8395 2.3001 -2.02657 147 131 127
-27.8174 2.38202 -2.02537 144 131 136
-27.8815 2.59793 -2.03249 136 142 154
-27.0393 4.23574 -2.05402 102 101 118
-27.0644 4.3231 -2.05745 96 103 119
-27.0665 4.44835 -2.05949 96 103 120
-27.0516 4.52913 -2.05946 95 102 119
-27.0639 4.61483 -2.06185 95 102 120
-8.37296 15.9902 -1.26516 86 83 93
-8.30962 15.9855 -1.26266 86 83 94
-8.24881 15.986 -1.26065 86 83 94
-8.15895 15.9882 -1.25781 89 86 94
-27.884 1.80091 -2.02694 151 133 128
-27.7554 1.91726 -2.01684 96 95 93
-26.9735 3.48271 -2.03836 89 96 112
-27.0011 3.56874 -2.04179 87 95 111
-26.9949 3.65017 -2.04228 86 94 112
-27.0121 3.77625 -2.04535 84 94 113
-9.48081 16.0363 -1.35927 92 85 77
-9.41148 16.0268 -1.35582 94 78 70
-9.33242 16.0601 -1.3553 166 141 55
-8.09751 15.9863 -1.25564 89 88 93
-8.09219 16.114 -1.26534 90 87 94
-27.8291 1.50505 -2.02069 114 117 135
-27.7952 1.62813 -2.01846 161 161 173
-26.9293 3.06778 -2.02985 90 97 115
-26.9572 3.19376 -2.03362 89 95 111
-26.9502 3.27471 -2.03393 90 96 112
-26.9765 3.36008 -2.03719 91 98 114
-21.5726 10.4095 -1.9787 112 109 120
-21.509 10.4578 -1.97544 113 112 118
-21.4912 10.5295 -1.97714 113 112 119
-21.4564 10.633 -1.97884 113 111 122
-21.4134 10.6917 -1.97787 117 115 120
-21.3842 10.7578 -1.97842 117 115 118
-21.2906 10.8298 -1.97382 116 114 119
-21.2609 10.8955 -1.97438 115 113 121
-21.2346 10.963 -1.97532 120 119 125
-21.201 11.0266 -1.97549 117 116 122
-21.1447 11.1185 -1.97509 117 111 125
-21.0898 11.1702 -1.97298 115 112 121
-21.0504 11.2304 -1.97258 117 116 123
-21.0155 11.3344 -1.97466 121 120 126
-20.9894 11.4023 -1.97579 117 114 123
-20.9786 11.4792 -1.97863 117 114 121
-20.9287 11.575 -1.97918 118 115 121
-20.8846 11.6327 -1.97841 115 113 119
-20.2611 11.3453 -1.91296 114 113 118
-20.2016 11.4316 -1.91236 115 113 118
-20.8469 11.9044 -1.98885 120 117 121
-20.8613 11.998 -1.99475 119 114 119
-20.8651 12.0856 -1.99951 113 111 118
-20.7193 12.1232 -1.98957 114 108 115
-20.5877 12.1263 -1.97906 92 86 90
-20.51 12.1626 -1.97466 91 84 88
-20.4166 12.2307 -1.97063 114 110 110
-20.3639 12.2823 -1.96909 116 112 111
-20.2843 12.3164 -1.9645 123 119 117
-20.1787 12.3755 -1.95914 131 126 121
-20.1307 12.4294 -1.95818 136 128 125
-20.1157 12.5051 -1.96102 133 127 124
-20.107 12.5852 -1.96464 133 125 122
-20.0485 12.675 -1.96481 124 116 118
-20.0325 12.7507 -1.96766 111 103 109
-19.9686 12.794 -1.96498 110 105 110
-19.8959 12.8741 -1.96362 110 108 114
-19.8579 12.9349 -1.96399 114 110 116
-19.7871 12.9728 -1.96055 114 111 119
-19.6876 13.0336 -1.95614 109 107 111
-19.5842 13.0478 -1.94888 113 112 117
-19.5035 13.0776 -1.94429 109 107 114
-19.4393 13.1623 -1.94408 113 110 119
-19.381 13.2077 -1.94217 108 105 113
-19.3403 13.2657 -1.94235 108 107 114
-19.2738 13.3048 -1.93947 107 106 114
-19.1735 13.3624 -1.93507 111 108 118
-19.1322 13.4198 -1.93525 106 103 115
-19.0924 13.4783 -1.93562 107 103 117
-19.0343 13.5671 -1.93637 108 104 119
-18.9814 13.6157 -1.93521 106 102 115
-18.9283 13.664 -1.93406 105 104 110
-18.8222 13.7155 -1.92908 104 103 111
-18.7579 13.7547 -1.92659 102 99 110
-18.7232 13.817 -1.92773 106 103 113
-18.6384 13.8398 -1.92276 100 99 107
-9.26328 16.05 -1.35184 168 131 43
-9.18986 16.0308 -1.34752 169 136 52
-9.1047 16.0505 -1.34579 142 107 53
-9.03686 16.0414 -1.34251 129 105 70
-8.96917 16.032 -1.33922 111 98 94
-8.24796 16.6922 -1.31521 90 87 94
-8.0048 16.2651 -1.27422 89 86 93
-7.88898 16.134 -1.26033 89 87 92
-7.83132 16.1404 -1.259 89 87 92
-7.76566 16.1992 -1.26151 89 88 93
-7.64724 16.0557 -1.24662 89 89 91
-7.5558 15.9762 -1.23759 90 88 93
-26.7753 2.52308 -2.01117 149 152 163
-26.8061 2.60705 -2.01461 123 130 145
-22.5521 10.1178 -2.05022 112 112 124
-22.3314 10.1354 -2.03188 122 121 129
-22.1483 10.1287 -2.01583 118 117 125
-21.9708 10.1236 -2.00036 113 112 120
-21.8134 10.1673 -1.9887 111 110 118
-21.7539 10.2185 -1.98582 112 111 118
-21.6907 10.2676 -1.98256 112 110 115
-21.6168 10.3111 -1.97815 115 112 119
-18.5723 13.9216 -1.92275 104 102 108
-18.5324 13.9797 -1.92331 110 108 114
-18.2657 14.1695 -1.91526 102 101 109
-18.2087 14.2585 -1.91658 102 100 109
-18.1707 14.3181 -1.91752 98 97 105
-18.1097 14.3584 -1.91561 102 101 107
-18.0789 14.4701 -1.92036 69 63 73
-18.0296 14.5204 -1.91997 72 66 76
-17.9907 14.5796 -1.92092 95 93 99
-17.9425 14.6308 -1.92072 95 95 103
-17.8503 14.6897 -1.91784 102 100 109
-17.7958 14.7352 -1.91688 96 96 107
-17.7309 14.7713 -1.91459 101 101 111
-17.6412 14.8316 -1.91209 95 95 103
-8.87816 16.038 -1.33628 90 73 90
-8.81842 16.0442 -1.33456 65 59 79
-8.75365 16.0393 -1.33179 98 97 112
-8.69065 16.0378 -1.32937 133 134 139
-8.60173 16.0459 -1.32678 92 80 93
-7.4693 15.9803 -1.23525 91 88 95
-7.41093 15.9815 -1.23358 94 89 96
-7.34973 15.975 -1.23124 93 89 97
-7.26566 15.9836 -1.22941 94 93 98
-26.8653 2.32972 -2.01731 148 135 131
-23.5951 10.142 -2.14172 100 102 114
-23.3797 10.1285 -2.12243 95 97 109
-23.1755 10.1188 -2.10428 87 89 101
-22.9574 10.1429 -2.08632 87 87 99
-22.7591 10.133 -2.06875 85 86 98
-15.1136 11.2759 -1.58348 107 106 112
-15.0274 11.3145 -1.57928 103 102 108
-15.0125 11.3755 -1.58206 106 106 111
-17.5908 14.8804 -1.91171 102 100 111
-17.5109 14.9023 -1.9075 95 93 106
-17.4471 14.9856 -1.90844 101 101 108
-17.3933 15.031 -1.90767 98 99 104
-17.2871 15.0275 -1.90004 97 99 108
-17.2405 15.0792 -1.90022 93 92 101
-17.1858 15.171 -1.9025 91 90 102
-17.1316 15.2155 -1.90173 86 86 98
-17.0686 15.2517 -1.89982 86 87 99
-16.9572 15.2888 -1.89466 90 90 103
-16.9326 15.3618 -1.89789 82 82 95
-16.848 15.3762 -1.89312 84 86 99
-16.8071 15.4819 -1.89749 93 95 107
-10.2081 11.2567 -1.23581 87 93 109
-10.121 11.257 -1.23041 83 89 105
-10.1057 11.3115 -1.2338 86 89 106
-11.6903 13.6748 -1.44375 87 86 102
-11.6186 13.6714 -1.43936 88 87 103
-11.5112 13.665 -1.43268 91 93 108
-11.4651 13.6941 -1.4323 91 93 108
-11.3855 13.6786 -1.42658 89 88 106
-8.53311 16.0312 -1.32315 88 85 94
-8.46548 16.018 -1.31969 85 84 92
-8.38429 16.0413 -1.31866 87 84 95
-8.31853 16.0312 -1.31555 86 84 95
-8.25452 16.0244 -1.31278 87 84 94
-7.20536 15.9785 -1.22724 96 93 100
-7.14587 15.975 -1.22523 99 94 101
-7.06271 15.9844 -1.22356 91 82 82
-7.00473 15.9842 -1.22189 96 83 75
-24.1403 8.73895 -2.13733 89 91 104
-24.1417 8.82212 -2.14036 88 90 103
-24.1317 8.90107 -2.14225 89 93 105
-24.1239 9.02247 -2.14584 78 80 95
-24.1169 9.10298 -2.14811 79 81 94
-24.0966 9.17836 -2.14905 88 90 102
-24.0927 9.26042 -2.1517 122 123 135
-24.0904 9.38516 -2.15606 135 134 144
-24.106 9.47577 -2.16081 110 108 120
-24.2038 9.60108 -2.17415 82 80 93
-24.0551 9.66556 -2.16343 75 77 89
-24.0257 9.73783 -2.1636 90 88 101
-24.0545 9.83518 -2.16988 85 82 97
-24.0363 9.9551 -2.1729 77 80 92
-24.0242 10.0354 -2.17498 84 88 100
-23.9864 10.1043 -2.17439 88 91 106
-23.8031 10.1082 -2.15854 86 88 103
-16.7168 15.4901 -1.89196 84 86 99
-16.7333 15.6048 -1.90091 81 83 96
-16.6644 15.6834 -1.90167 99 102 110
-16.5572 15.6737 -1.89384 107 110 117
-16.5516 15.7673 -1.89994 103 106 113
-16.5261 15.8411 -1.90337 106 105 114
-16.4299 15.8916 -1.9005 110 110 118
-16.386 15.9465 -1.90145 106 105 111
-16.2967 15.9537 -1.8961 102 101 107
-16.1757 15.9768 -1.8898 103 101 111
-16.0812 15.9772 -1.88369 103 102 107
-10.883 13.8582 -1.41263 101 94 101
-10.8591 13.9179 -1.41606 101 93 97
-10.7567 13.865 -1.40633 90 80 80
-8.16785 16.0339 -1.31054 88 85 92
-8.10643 16.032 -1.30829 89 88 94
-8.08506 16.1232 -1.31487 90 88 94
-6.94273 15.9725 -1.21922 99 81 71
-6.88491 15.9719 -1.21755 95 81 72
-6.79737 15.9668 -1.21471 93 83 73
-24.2417 7.43617 -2.10428 92 98 109
-24.2397 7.55538 -2.10768 93 95 108
