-12.4173 -23.1708 -0.205917 119 133 107
-30.3897 -30.6203 -0.320716 179 163 146
-28.1938 -27.004 -0.270206 83 57 60
-20.668 -13.056 -0.174759 143 126 108
-20.4203 -12.8105 -0.169402 114 112 105
-20.6937 -12.893 -0.173726 124 128 138
-20.4681 -12.6639 -0.16881 141 140 152
-20.3154 -12.4383 -0.164899 179 170 172
-20.3228 -12.3561 -0.16432 158 144 145
-20.6337 -12.3267 -0.168252 112 112 57
-21.5623 -11.9882 -0.178187 126 86 87
-34.5006 -14.7878 -0.250316 74 72 70
-34.3155 -14.2653 -0.245718 67 62 68
-33.5602 -13.8268 -0.235122 70 65 79
-33.7763 -13.7929 -0.237402 61 52 62
-33.6993 -13.577 -0.235527 53 39 33
-34.0382 -13.4674 -0.238865 89 61 61
-32.9346 -12.8499 -0.223531 108 88 79
-33.9121 -13.1113 -0.235826 142 113 99
-33.285 -12.748 -0.227066 102 79 62
-33.4395 -12.2705 -0.226756 98 95 89
-4.91735 -11.9524 -0.120175 102 99 80
-5.25634 -11.7358 -0.118323 115 109 105
-5.53154 -11.7707 -0.121972 114 105 100
-5.54557 -11.7049 -0.120584 112 108 107
-5.59559 -11.7191 -0.121446 105 95 99
-5.65169 -11.6974 -0.121542 118 113 107
-20.8319 -43.0545 -0.380873 92 93 89
-21.065 -43.0221 -0.381737 86 89 82
-21.2237 -43.0069 -0.382404 86 88 82
-21.3887 -43.0037 -0.383243 84 86 85
-21.7848 -42.9582 -0.384872 83 86 85
-21.9368 -42.9262 -0.385341 81 87 84
-22.1898 -42.9251 -0.386721 76 80 78
-22.3419 -42.8917 -0.38719 95 101 89
-32.9114 -30.6823 -0.34324 111 71 69
-22.3909 -17.1564 -0.234155 125 110 94
-22.4772 -17.112 -0.2348 58 57 62
-10.4838 -6.88352 -0.108939 141 113 73
-10.5202 -6.83792 -0.109085 137 115 76
-37.9434 -13.5959 -0.284035 90 84 82
-5.04367 -12.1666 -0.126462 100 100 83
-5.25873 -12.3207 -0.132172 72 75 64
-5.23782 -12.1606 -0.128174 88 83 78
-5.20073 -11.9638 -0.123153 99 92 77
-5.38677 -12.1474 -0.12933 91 84 77
-22.5869 -16.9195 -0.234327 125 121 105
-23.9678 -17.0418 -0.252925 206 163 76
-23.836 -16.8363 -0.249356 133 92 53
-23.3233 -16.3101 -0.237986 125 85 79
-23.7985 -16.5334 -0.246115 124 82 71
-24.3154 -13.3728 -0.22655 121 85 85
-24.2968 -13.2641 -0.225467 116 90 87
-24.3059 -13.171 -0.224888 81 77 68
-24.3305 -13.0864 -0.224591 97 87 87
-24.5358 -13.0493 -0.22715 117 100 90
-24.7473 -13.0632 -0.230183 121 99 86
-38.4421 -13.6398 -0.289952 75 71 72
-38.9196 -13.6045 -0.295304 79 74 71
-39.3027 -13.601 -0.299706 86 81 78
-39.7806 -13.6278 -0.305329 90 83 72
-41.7032 -13.7804 -0.328173 121 95 98
-41.7359 -13.6464 -0.328033 80 48 56
-41.8957 -13.4812 -0.329257 115 63 60
-41.7657 -13.295 -0.327042 97 61 52
-41.7988 -13.1614 -0.326927 124 104 93
-25.0295 -7.82911 -0.202407 181 151 107
-25.136 -7.73313 -0.203554 108 80 54
-5.20369 -12.4619 -0.135001 96 95 82
-5.73616 -12.7015 -0.145893 121 116 117
-11.752 -6.79765 -0.135444 96 80 68
-11.7034 -6.72082 -0.133397 87 61 68
-11.8016 -6.70499 -0.135378 89 57 62
-11.8547 -6.68706 -0.136339 134 97 98
-26.6931 -13.9853 -0.263964 125 107 92
-26.1116 -13.5249 -0.252514 73 73 56
-26.3132 -13.5256 -0.255326 71 69 69
-42.7148 -14.4882 -0.342666 96 85 68
-42.7778 -14.2858 -0.342596 118 86 80
-42.7649 -12.807 -0.336909 142 104 65
-42.7472 -12.583 -0.335913 133 99 53
-42.8719 -12.474 -0.336993 119 86 51
-46.2657 -13.3085 -0.379661 129 101 63
-46.8188 -13.2301 -0.385887 142 109 63
-46.89 -13.0917 -0.386259 175 130 95
-5.4418 -12.9474 -0.148809 87 85 76
-5.73531 -13.0894 -0.155022 140 130 99
-5.88496 -12.9372 -0.152946 87 81 84
-5.83273 -12.7089 -0.147055 123 114 107
-5.98394 -12.9455 -0.154159 120 117 111
-26.1291 -26.194 -0.373185 61 63 50
-26.1426 -26.0446 -0.371653 86 88 78
-26.4701 -25.9638 -0.374382 81 77 73
-26.7864 -26.1119 -0.379557 86 79 78
-26.8783 -25.7957 -0.377089 111 80 87
-26.9483 -25.7022 -0.376848 116 85 90
-27.2707 -25.4479 -0.377729 124 82 77
-27.357 -25.3696 -0.377866 129 87 81
-28.3697 -20.6511 -0.342324 112 108 91
-28.5745 -20.6646 -0.345041 94 72 78
-28.455 -13.8502 -0.287638 81 85 72
-28.5929 -13.8073 -0.289287 64 64 59
-28.6011 -13.7014 -0.288674 62 63 66
-28.4205 -13.4515 -0.284418 68 69 55
-28.6319 -13.4424 -0.287354 114 114 84
-28.7983 -13.4111 -0.289504 75 53 53
-28.913 -13.3001 -0.290397 123 86 87
-29.0266 -13.2427 -0.291637 133 98 96
-29.1365 -13.1832 -0.292815 79 75 70
-29.1879 -13.0969 -0.292988 85 87 74
-29.4752 -13.0602 -0.296863 63 64 56
-30.7513 -13.511 -0.318036 73 75 64
-29.8305 -12.6094 -0.299138 70 70 71
-47.7711 -13.1773 -0.396904 127 99 74
-49.4872 -13.4857 -0.418115 118 94 69
-50.6575 -13.2102 -0.431035 115 84 70
-52.8904 -13.5291 -0.458413 108 79 78
-28.2741 -7.07606 -0.248183 239 217 190
-28.2604 -6.97877 -0.247607 104 76 46
-51.7469 -12.46 -0.441667 88 52 19
-16.8709 -34.5818 -0.398928 93 92 96
-6.49668 -13.0517 -0.162129 85 87 86
-17.3143 -34.5318 -0.401241 90 92 87
-6.61362 -13.0876 -0.164261 85 87 84
-17.6438 -34.5166 -0.403319 75 79 77
-17.7804 -34.5189 -0.404311 79 84 79
-6.77087 -13.049 -0.165158 74 78 78
-7.19426 -13.0749 -0.170727 76 80 68
-30.8863 -13.4554 -0.319621 106 100 96
-31.2333 -13.4328 -0.324468 72 66 65
-33.7533 -13.7112 -0.362595 62 55 61
-55.3974 -12.975 -0.486491 89 77 61
-55.963 -12.8303 -0.49281 84 62 43
-59.3129 -13.2097 -0.533725 118 98 83
-59.633 -12.9868 -0.536946 112 94 83
-53.7649 -7.95347 -0.455196 96 78 74
-48.822 -6.98422 -0.393765 255 251 230
-10.4386 -6.87889 -0.153312 149 112 62
-10.4634 -6.82578 -0.153071 141 113 53
-34.36 -14.6504 -0.377089 76 81 74
-34.6072 -14.3105 -0.378572 68 63 70
-34.3383 -14.0739 -0.373251 68 61 74
-33.9894 -13.6217 -0.365494 74 59 61
-33.9647 -13.3661 -0.36364 131 109 107
-33.9967 -13.1948 -0.363119 117 95 78
-33.9886 -13.0697 -0.362287 155 124 103
-60.2798 -12.9301 -0.54451 106 87 82
-61.1787 -12.9228 -0.555221 161 146 128
-61.7381 -12.8391 -0.561687 134 97 66
-62.6579 -12.7234 -0.572395 146 109 85
-62.9767 -12.5826 -0.57586 130 102 81
-66.1634 -13.0055 -0.615031 142 106 88
-67.9173 -13.0193 -0.636077 118 86 72
-58.8161 -7.57428 -0.515614 121 107 98
-5.20434 -11.7541 -0.164763 94 89 71
-9.93963 -13.2565 -0.212241 80 83 66
-10.0059 -13.2169 -0.212435 81 82 84
-9.97385 -13.0883 -0.209309 56 60 60
-9.97816 -13.0095 -0.207766 87 89 83
-10.053 -12.9824 -0.20837 45 54 54
-10.1268 -12.9959 -0.209791 80 81 83
-10.1972 -13.0043 -0.211059 47 53 49
-10.2808 -12.9871 -0.21202 63 71 72
-10.349 -12.9916 -0.213186 46 53 55
-10.416 -12.9942 -0.2143 81 87 85
-63.8394 -7.81658 -0.576812 110 102 96
-68.9335 -7.67447 -0.63835 151 140 124
-57.9169 -1.13766 -0.498693 64 82 104
-57.8335 -0.954065 -0.497633 111 136 145
-5.15287 -12.2045 -0.176386 95 95 87
-5.14887 -12.0874 -0.17316 82 89 73
-5.21387 -12.0343 -0.172444 84 82 70
-5.28596 -12.0494 -0.173666 117 112 82
-10.0075 -14.4033 -0.237178 145 98 91
-10.0067 -14.2581 -0.2341 127 90 82
-9.95763 -14.0924 -0.2299 133 86 83
-10.0671 -14.1568 -0.232854 145 96 95
-10.2962 -14.2487 -0.23815 134 89 83
-10.2072 -13.9381 -0.230362 76 60 53
-10.1044 -13.5698 -0.221194 75 74 71
-11.2208 -13.798 -0.2432 70 81 77
-11.7171 -6.79723 -0.183948 70 55 58
-11.7272 -6.7547 -0.18359 75 49 58
-11.7632 -6.7028 -0.183757 91 59 59
-11.7955 -6.67303 -0.184158 93 59 58
-14.7493 -7.51473 -0.211551 74 74 72
-14.7844 -7.47501 -0.211899 71 71 67
-14.7999 -7.4252 -0.211687 61 63 65
-14.8544 -7.39511 -0.212596 61 64 57
-42.2079 -14.6562 -0.491854 84 77 74
-42.3097 -14.5434 -0.492776 89 81 70
-42.5968 -14.4931 -0.496771 97 84 70
-42.7304 -14.3896 -0.498227 114 89 80
-41.8121 -13.7173 -0.481216 66 39 47
-41.9189 -13.6072 -0.482264 129 82 83
-41.9303 -13.3936 -0.481396 172 123 114
-41.8969 -13.2386 -0.480154 118 90 81
-42.8326 -12.7272 -0.491789 224 175 135
-42.9009 -12.5285 -0.491925 141 116 86
-5.07766 -12.4027 -0.180972 101 81 71
-5.0622 -12.2519 -0.176692 93 83 63
-5.22635 -12.554 -0.186694 122 131 97
-5.63503 -12.4991 -0.189797 116 116 114
-5.56057 -12.2241 -0.181538 79 82 87
-10.0223 -14.9703 -0.249444 91 80 79
-9.98178 -14.8075 -0.245396 89 74 87
-10.0727 -14.845 -0.247482 140 119 134
-10.0839 -14.712 -0.244813 167 134 152
-10.021 -14.5202 -0.239845 166 129 128
-11.4148 -13.8637 -0.247625 79 81 80
-12.0069 -14.3668 -0.267171 58 59 54
-12.0436 -14.1845 -0.264186 53 58 50
-12.2469 -14.1126 -0.266146 76 79 78
-12.2942 -14.0792 -0.266289 70 72 66
-12.3624 -14.0698 -0.267249 68 71 76
-12.4023 -13.8956 -0.264571 67 68 60
-12.3473 -13.7463 -0.26078 79 81 75
-12.6666 -13.8883 -0.268931 79 82 60
-12.4872 -13.6028 -0.260442 82 85 65
-12.6243 -13.6691 -0.264058 88 90 83
-46.5574 -13.279 -0.550247 130 93 67
-47.4161 -13.283 -0.563207 195 139 109
-47.5571 -13.162 -0.564818 152 107 84
-49.7054 -13.0043 -0.596656 152 110 77
-49.9796 -12.9088 -0.600429 132 92 71
-5.41176 -12.6205 -0.190535 90 98 77
-5.70898 -12.8328 -0.199636 108 104 97
-5.85373 -12.7866 -0.200082 94 95 98
-5.958 -12.9149 -0.204756 104 99 108
-6.03849 -12.9334 -0.206212 122 117 120
-6.07413 -12.906 -0.205911 138 135 131
-6.13877 -12.9421 -0.207659 115 114 120
-6.20896 -12.936 -0.208354 114 116 108
-12.008 -14.4596 -0.26902 70 71 62
-12.4146 -14.5375 -0.277202 72 73 67
-12.5238 -14.5754 -0.279746 76 78 74
-12.5079 -14.1491 -0.271223 54 59 56
-12.7331 -14.0949 -0.273999 62 61 60
-12.8949 -13.7501 -0.270267 66 73 57
-12.978 -13.754 -0.271789 81 85 72
-13.023 -13.7166 -0.27188 91 95 72
-13.1072 -13.6777 -0.272635 83 88 72
-13.3664 -13.7797 -0.279099 81 94 64
-13.6023 -13.8958 -0.28542 72 76 59
-14.0488 -13.4907 -0.286188 93 62 68
-14.1617 -13.4737 -0.287964 105 63 67
-14.5572 -13.4713 -0.295271 123 82 78
-14.5226 -13.3551 -0.292605 121 80 76
-14.5915 -13.3357 -0.293564 110 85 81
-14.646 -13.2608 -0.293297 88 88 75
-14.6705 -13.2004 -0.292725 53 60 52
-14.7169 -13.1601 -0.292918 56 60 54
-14.7408 -13.058 -0.29163 75 74 68
-14.7794 -13.0108 -0.291568 65 70 60
-14.8851 -13.0231 -0.293803 67 73 61
-14.985 -13.0295 -0.295834 68 72 57
-51.907 -12.3698 -0.627663 136 96 75
-55.1816 -12.9662 -0.679744 125 105 82
-55.5467 -12.8683 -0.684958 152 136 103
-55.9512 -12.685 -0.690483 124 104 78
-47.9945 -7.14429 -0.551715 167 164 152
-47.9546 -6.98471 -0.550728 133 129 113
-48.8994 -6.88697 -0.565155 166 131 100
-6.7529 -13.0367 -0.217938 82 87 83
-7.16867 -13.0486 -0.223849 82 95 74
-10.5478 -17.0808 -0.302309 65 68 63
-10.5996 -17.0465 -0.302247 81 87 81
-10.6982 -17.0888 -0.304486 76 82 79
-10.7336 -16.9679 -0.302327 82 85 82
-10.7776 -16.9212 -0.301907 66 76 76
-10.8469 -16.915 -0.302714 78 84 82
-10.951 -16.7889 -0.301414 82 86 88
-11.0471 -16.8241 -0.303499 69 74 76
-11.0917 -16.7209 -0.301903 89 92 93
-14.1495 -14.2843 -0.302301 87 92 75
-14.157 -14.2033 -0.300962 70 78 63
-14.3045 -14.2195 -0.303912 77 81 71
-14.2721 -14.0986 -0.301143 83 86 77
-14.7047 -14.2182 -0.311167 79 56 64
-14.5635 -13.7754 -0.300717 114 72 72
-14.5972 -13.7218 -0.3004 124 84 80
-14.5727 -13.6132 -0.29804 112 73 68
-15.1011 -13.0081 -0.297711 64 69 59
-15.2165 -13.0265 -0.300252 65 72 55
-15.7892 -13.4381 -0.318208 70 78 62
-15.5977 -13.1477 -0.309672 62 69 59
-15.9777 -13.3026 -0.319653 54 60 48
-16.0768 -13.3016 -0.321581 68 76 63
-16.2383 -13.3092 -0.324886 112 111 97
-58.7088 -12.9227 -0.733448 110 95 53
-59.3061 -12.7618 -0.742043 117 105 78
-59.2531 -12.5562 -0.740548 118 103 83
-62.3099 -12.4899 -0.787212 140 117 74
-62.8995 -12.4029 -0.795997 147 121 84
-8.7635 -18.1651 -0.305276 82 88 74
-8.83456 -18.0958 -0.304447 83 87 86
-9.092 -18.344 -0.31302 73 81 76
-10.3945 -18.1429 -0.323833 86 94 78
-10.4359 -18.0847 -0.323055 71 73 70
-10.5707 -18.125 -0.325651 73 81 67
-10.4697 -17.8185 -0.317561 76 83 72
-10.4229 -17.6098 -0.312334 88 94 80
-10.3972 -17.3769 -0.306852 83 91 87
-10.4689 -17.2524 -0.305041 77 81 71
-9.94665 -13.0628 -0.268037 58 64 60
-9.94709 -12.9795 -0.266098 85 85 91
-10.0099 -12.9791 -0.267199 65 75 74
-10.0957 -12.966 -0.268417 99 99 97
-16.4827 -13.4263 -0.331611 80 76 67
-16.5455 -13.3926 -0.332314 73 67 57
-16.5936 -13.3038 -0.331842 84 74 72
-16.6065 -13.2295 -0.330912 99 93 92
-16.8202 -13.3163 -0.336565 68 67 70
-16.932 -13.2773 -0.338186 59 63 57
-16.8561 -13.0483 -0.33306 61 65 62
-65.9656 -12.4698 -0.843336 140 113 77
-58.8975 -7.72514 -0.722073 107 93 94
-63.9741 -7.67502 -0.800838 104 94 96
-7.64509 -14.4195 -0.265888 76 81 78
-7.74727 -14.4517 -0.268102 66 77 68
-10.7433 -19.2574 -0.353118 98 106 85
-10.8428 -19.2251 -0.353617 86 92 86
-10.0222 -13.4657 -0.278823 71 72 70
-9.88102 -13.1872 -0.26981 90 93 84
-9.97682 -13.1879 -0.271495 84 89 87
-10.1611 -12.968 -0.269635 46 49 48
-10.2267 -12.9698 -0.270853 83 82 87
-10.3227 -12.9679 -0.272538 52 53 54
-10.391 -12.9721 -0.273873 82 83 85
-18.2623 -13.3024 -0.36567 58 55 54
-18.2985 -13.1553 -0.364218 168 142 84
-18.5832 -13.1434 -0.369958 102 65 37
-18.7261 -13.1581 -0.373161 109 78 68
-19.4822 -13.2011 -0.389679 72 60 34
-19.4986 -13.0795 -0.388288 105 86 60
-18.9819 -12.3471 -0.366969 113 97 57
-19.3687 -12.1335 -0.372368 108 102 90
-19.4925 -12.085 -0.374395 134 134 147
-19.7381 -12.1536 -0.380657 149 146 155
-19.6557 -11.8919 -0.37538 132 118 110
-19.7197 -11.7637 -0.375102 138 120 46
-14.7679 -7.47391 -0.27186 64 62 58
-14.7619 -7.41339 -0.270918 73 76 75
-14.8191 -7.3557 -0.271667 74 70 69
-67.0726 -7.51214 -0.848728 155 147 143
-7.60309 -14.5583 -0.268948 80 87 90
-7.65251 -14.544 -0.269231 67 73 69
-10.6892 -19.8143 -0.365029 95 110 84
-10.7862 -19.6259 -0.361937 93 101 81
-10.8498 -19.5979 -0.362079 73 75 71
-9.90983 -14.701 -0.306608 93 74 77
-10.0717 -14.5984 -0.306753 103 63 62
-9.91613 -14.2738 -0.296335 118 73 66
-10.1798 -14.514 -0.306498 125 76 70
-10.1676 -14.4005 -0.303565 146 98 94
-10.1661 -14.3037 -0.301216 130 85 82
-10.1364 -14.0281 -0.294121 135 90 84
-10.2811 -14.0464 -0.297025 79 60 57
-11.1135 -13.6675 -0.302963 71 71 75
-11.1995 -13.6876 -0.304999 62 61 67
-11.2593 -13.6746 -0.305807 75 76 71
-12.8955 -13.0812 -0.324769 75 81 65
-19.1239 -14.7285 -0.405151 64 69 66
-19.2239 -14.6632 -0.406158 63 65 65
-19.2595 -14.5959 -0.405839 66 66 67
-19.5532 -13.4284 -0.394448 109 90 50
-19.4908 -13.2959 -0.391222 132 125 82
-19.5752 -13.0431 -0.389399 104 88 55
-20.2075 -12.9285 -0.401323 152 121 59
-19.9428 -12.6702 -0.392079 143 116 49
-19.9328 -12.5768 -0.390588 167 130 78
-20.1612 -12.3299 -0.392222 181 175 175
-20.0849 -12.0685 -0.387098 112 78 45
-20.1687 -11.9061 -0.386818 114 116 68
-20.2241 -11.8542 -0.387368 58 57 54
-15.1082 -7.70541 -0.283769 74 70 62
-20.0747 -7.59237 -0.337113 105 98 62
-20.0864 -7.52523 -0.336798 74 68 60
-9.9424 -14.8498 -0.310769 59 50 53
-10.0072 -14.7485 -0.309346 123 98 111
-10.1662 -14.8364 -0.314072 129 95 104
-12.0135 -14.3728 -0.335594 81 81 80
-12.073 -14.354 -0.336285 64 63 59
-12.1281 -14.2841 -0.335748 56 56 53
-12.2546 -14.3442 -0.339478 86 85 81
-12.2703 -14.2727 -0.338181 69 68 71
-12.3626 -14.2459 -0.339339 89 89 88
-12.426 -14.2303 -0.340204 45 48 44
-12.3715 -14.0787 -0.335811 74 78 79
-12.4328 -13.8423 -0.331804 80 80 69
-12.4834 -13.8127 -0.332144 74 75 58
-12.7439 -13.7989 -0.336962 76 81 70
-13.0446 -13.9092 -0.345296 56 66 48
-12.9114 -13.6804 -0.337747 89 99 76
-12.937 -13.6228 -0.337035 89 98 75
-13.2382 -13.8132 -0.347132 77 81 70
-13.3133 -13.7208 -0.346701 77 87 65
-13.3714 -13.653 -0.346456 77 84 66
-14.0609 -13.3719 -0.354991 108 71 72
-21.9657 -16.2917 -0.48713 63 71 64
-21.8863 -15.2984 -0.470639 109 80 74
-21.6297 -14.9671 -0.460422 111 84 66
-12.2845 -23.1953 -0.460642 79 83 79
-13.4506 -15.0817 -0.378683 84 83 79
-13.1927 -14.4693 -0.360299 79 81 64
-14.1022 -14.228 -0.373426 94 105 77
-14.1741 -14.2126 -0.374583 67 77 65
-14.1427 -14.0489 -0.37054 78 85 77
-14.217 -14.0359 -0.371814 74 74 66
-14.381 -14.1112 -0.376769 80 71 66
-14.2663 -13.7817 -0.367632 71 51 63
-14.415 -13.8401 -0.371944 77 47 53
-14.1569 -13.3805 -0.3572 125 81 79
-14.3809 -13.5095 -0.364549 119 75 69
-14.4457 -13.4867 -0.365472 124 80 75
-14.4381 -13.3539 -0.362657 120 78 72
-14.4439 -13.2764 -0.361244 119 78 72
-14.445 -13.1949 -0.359656 88 66 60
-14.6833 -13.2889 -0.366653 70 71 65
-14.6709 -13.1949 -0.364539 62 64 55
-14.701 -13.1399 -0.364119 85 87 74
-14.7216 -13.0353 -0.36253 68 69 60
-14.7706 -12.9974 -0.36287 68 71 62
-14.872 -13.0056 -0.365253 69 72 62
-14.9781 -13.0172 -0.367812 73 75 63
-15.0973 -12.9982 -0.370078 74 77 59
-15.2372 -13.0372 -0.373921 63 71 54
-15.5535 -13.2261 -0.384539 64 70 60
-15.6209 -13.1586 -0.38476 69 71 67
-22.5098 -16.9728 -0.508693 66 68 66
-22.3014 -16.6509 -0.499492 64 69 65
-23.0723 -17.008 -0.52074 61 67 65
-23.1792 -16.8096 -0.519944 80 69 73
-24.3563 -13.3908 -0.49853 127 85 86
-24.3062 -13.215 -0.495252 48 31 30
-24.3274 -13.1284 -0.494678 81 76 68
-24.3782 -13.0578 -0.494971 91 80 78
-24.5854 -13.071 -0.499802 109 95 84
-24.7959 -13.0348 -0.504121 116 97 84
-12.2885 -23.8366 -0.47531 66 78 68
-12.1878 -23.4548 -0.465426 79 83 84
-12.2788 -23.4527 -0.466435 65 73 75
-10.492 -17.2769 -0.379556 99 105 90
-10.5466 -17.1855 -0.378082 68 79 81
-10.5821 -17.124 -0.377077 65 69 64
-10.6204 -17.0675 -0.376247 76 84 76
-10.6847 -17.0535 -0.37688 81 94 84
-10.7567 -16.9921 -0.376459 80 88 85
-10.8829 -16.9594 -0.377607 82 88 88
-11.0929 -16.9978 -0.381854 90 93 94
-15.892 -13.3042 -0.393567 67 70 61
-16.0065 -13.3162 -0.396358 76 88 68
-16.0543 -13.2299 -0.39582 63 72 53
-16.3248 -13.3691 -0.40451 68 78 63
-16.3442 -13.3005 -0.40368 71 77 69
-16.4331 -13.2886 -0.405479 63 67 61
-16.5444 -13.2517 -0.407335 60 62 60
-16.5742 -13.1914 -0.406915 82 84 78
-16.6476 -13.1658 -0.40813 102 102 96
-16.6929 -13.0755 -0.407533 64 65 60
-16.7157 -13.0099 -0.406879 78 79 74
-25.3373 -14.297 -0.531664 84 51 59
-25.3669 -14.1573 -0.530578 104 64 68
-26.1423 -13.6432 -0.541784 112 94 82
-26.1558 -13.5465 -0.540955 89 77 68
-27.0699 -13.175 -0.557578 64 66 54
-25.0111 -7.76618 -0.457901 116 71 45
-25.0307 -7.68652 -0.457789 133 82 62
-8.78918 -18.2004 -0.380077 98 110 90
-10.4247 -17.8502 -0.393064 79 89 78
-10.403 -17.6849 -0.388549 72 81 80
-10.5018 -17.7288 -0.391111 64 71 66
-10.5034 -17.5424 -0.386421 83 88 80
-11.455 -17.2647 -0.39417 86 88 85
-17.3909 -13.1514 -0.425048 61 67 62
-26.8964 -19.2714 -0.633736 156 129 85
-18.5801 -13.1228 -0.452609 86 54 30
-10.4226 -6.84883 -0.251942 128 125 57
-10.4632 -6.82978 -0.252832 126 105 39
-28.0491 -15.5494 -0.607711 136 91 87
-27.3716 -13.1642 -0.564394 90 91 84
-27.5992 -13.1682 -0.569682 76 76 72
-27.7369 -13.128 -0.572421 92 92 81
-28.5094 -13.3323 -0.592489 67 76 49
-28.6914 -13.3087 -0.596451 85 85 57
-28.2737 -13.0066 -0.583542 106 95 72
-28.4986 -13.0029 -0.588727 110 106 70
-28.5514 -12.8655 -0.588508 105 109 88
-28.5034 -12.7366 -0.586048 120 119 110
-28.6828 -12.7098 -0.589959 127 121 122
-29.0302 -12.7018 -0.597997 97 91 93
-8.91964 -18.2555 -0.383168 94 93 88
-10.9181 -19.332 -0.437975 83 89 87
-10.9897 -19.1793 -0.435086 68 70 71
-11.1345 -19.2256 -0.43835 67 74 69
-18.8996 -14.6239 -0.486215 85 81 80
-18.9509 -14.5698 -0.486436 66 66 64
-19.096 -13.3112 -0.468112 102 72 64
-19.5781 -13.5129 -0.483042 114 80 67
-19.5093 -13.3758 -0.479119 141 115 82
-19.4564 -13.2506 -0.475779 104 87 59
-19.4797 -13.1336 -0.474424 72 69 53
-19.4802 -13.046 -0.47301 95 86 68
-19.5717 -13.0195 -0.474808 86 74 47
-19.9239 -12.5501 -0.476004 139 100 57
-20.5532 -12.7249 -0.494304 135 137 150
-19.7554 -12.1449 -0.465579 165 161 169
-20.2305 -12.3511 -0.480565 178 171 172
-20.3577 -12.2986 -0.482945 126 116 109
-20.1231 -12.0713 -0.473654 159 132 87
-20.0297 -11.9305 -0.469207 135 109 64
-30.658 -13.19 -0.641087 104 93 87
-29.8247 -12.554 -0.615167 77 69 67
-32.0067 -13.2421 -0.673339 68 58 66
-20.0969 -7.58929 -0.416113 91 84 74
-20.0599 -7.50392 -0.414238 84 79 76
-28.323 -7.03067 -0.534451 150 112 82
-15.1346 -30.2981 -0.655861 78 83 78
-15.2404 -30.2745 -0.656509 85 94 79
-21.482 -15.3312 -0.559101 199 157 78
-21.4644 -15.0675 -0.554227 131 98 88
-20.802 -13.2863 -0.509178 129 93 61
-21.3705 -13.5568 -0.527433 110 71 33
-22.1374 -13.8519 -0.550985 115 98 80
-21.0706 -12.4187 -0.502631 62 54 41
-21.1379 -12.3699 -0.503611 71 65 53
-11.7042 -6.77893 -0.291558 80 60 59
-11.7022 -6.72945 -0.290579 103 72 71
-11.7811 -6.72711 -0.293111 89 54 64
-11.7841 -6.65624 -0.291908 147 105 106
-33.8695 -14.7046 -0.731668 153 151 140
-32.9225 -13.9863 -0.702229 71 61 58
-32.319 -13.1944 -0.680254 68 62 48
-32.4389 -13.1254 -0.682431 62 54 45
-32.7032 -13.1138 -0.688583 77 63 52
-32.6598 -12.9185 -0.685714 95 96 64
-32.4987 -12.737 -0.680196 89 83 65
-32.7682 -12.725 -0.6865 112 93 79
-32.6973 -12.5796 -0.683479 145 115 92
-5.07833 -11.6577 -0.262902 85 87 76
-5.52456 -11.7482 -0.272654 85 99 74
-22.1246 -16.6392 -0.596857 62 70 62
-22.3123 -16.6179 -0.600869 70 78 70
-22.0155 -16.2897 -0.588186 63 70 63
-21.9371 -16.126 -0.583501 61 65 63
-23.3333 -16.9882 -0.631298 65 63 63
-21.8947 -15.8335 -0.577459 94 81 76
-22.1737 -15.9309 -0.585734 123 100 74
-24.223 -13.3789 -0.596527 146 95 91
-24.2448 -13.2924 -0.595872 138 92 88
-24.3027 -13.1766 -0.595741 129 117 124
-24.2904 -13.0721 -0.593977 104 94 101
-37.7878 -13.6036 -0.814393 104 99 80
-31.4279 -7.70138 -0.615476 232 197 152
-4.88893 -11.9263 -0.269605 81 70 58
-5.20395 -12.0704 -0.279004 77 79 75
-5.21641 -11.8898 -0.272927 104 109 85
-5.247 -11.8074 -0.270524 84 93 79
-5.36892 -11.8917 -0.275227 86 102 74
-5.46142 -11.9537 -0.278738 84 91 79
-12.3657 -22.9406 -0.551119 69 74 70
-12.6218 -22.9888 -0.555889 60 66 64
-12.649 -22.7004 -0.548842 75 83 75
-24.4168 -13.0422 -0.596822 99 89 84
-24.6245 -13.0547 -0.602352 120 103 96
-24.7804 -12.9891 -0.605488 112 95 88
-26.2378 -13.6497 -0.652146 71 63 51
-41.688 -15.1612 -0.921513 88 82 62
-41.2453 -14.6346 -0.906344 104 99 78
-41.2657 -14.4964 -0.905665 107 104 87
-39.1538 -13.614 -0.847361 106 99 73
-40.003 -13.7701 -0.869152 105 96 82
-40.0287 -13.5687 -0.868116 102 85 75
-41.6633 -13.9795 -0.910998 103 78 75
-41.5716 -13.8038 -0.907365 100 75 71
-41.7434 -13.6433 -0.910251 76 47 51
-41.9142 -13.5541 -0.913699 129 78 74
-41.796 -13.3712 -0.909404 160 105 93
-5.04081 -12.1518 -0.279555 67 72 54
-5.13525 -12.2817 -0.285388 112 116 89
-5.22243 -12.3908 -0.290397 86 89 76
-5.65052 -12.2869 -0.293028 88 99 79
-6.1952 -12.5673 -0.311083 78 85 69
-11.9342 -23.7092 -0.565442 82 93 78
-28.0283 -15.598 -0.725138 149 103 102
-26.6348 -13.0217 -0.654264 83 85 56
-26.9551 -13.0743 -0.66335 63 57 34
-27.183 -13.0279 -0.66876 62 52 40
-26.7521 -12.7187 -0.653521 77 75 55
-27.4921 -12.9657 -0.67614 89 90 63
-27.5919 -12.8549 -0.677408 76 81 50
-28.2279 -13.0443 -0.696585 94 95 64
-28.4459 -13.0374 -0.702287 90 88 56
-28.5167 -12.9622 -0.703264 90 96 62
-41.8233 -13.1633 -0.908469 130 99 92
-25.0012 -7.73523 -0.553136 200 131 102
-25.0111 -7.65269 -0.552718 206 138 116
-42.8035 -12.6658 -0.928715 204 139 99
-45.6063 -13.1101 -1.00056 185 138 93
-5.36206 -12.571 -0.298625 66 73 62
-5.72098 -12.8271 -0.312662 70 78 65
-5.92852 -12.8164 -0.315402 91 104 79
-6.07822 -12.8846 -0.320028 86 102 71
-6.13355 -12.9008 -0.321443 92 103 86
-6.18409 -12.9059 -0.322408 96 107 85
-8.35764 -13.0352 -0.365524 82 86 89
-10.4192 -6.86402 -0.302794 66 59 39
-10.4682 -6.8504 -0.304195 108 91 50
-28.5657 -12.8232 -0.702899 136 120 97
-28.6816 -12.7677 -0.705335 146 114 101
-28.8798 -12.748 -0.710395 146 110 107
-29.0744 -12.5634 -0.713457 126 100 94
-30.4719 -13.0544 -0.756602 121 96 85
-29.6637 -12.5438 -0.729058 133 105 91
-45.7481 -12.9957 -1.00324 171 127 88
-46.5371 -13.063 -1.02309 166 131 87
-46.3078 -12.8419 -1.01595 158 120 72
-46.4612 -12.6493 -1.01842 164 132 76
-46.4208 -12.4819 -1.01632 181 135 93
-46.9391 -12.464 -1.02899 187 138 99
-47.429 -12.3558 -1.04038 182 140 98
-48.033 -12.3528 -1.05529 183 140 97
-48.682 -12.3576 -1.07137 128 98 76
-14.3963 -28.4607 -0.722173 70 80 60
-9.91886 -13.2352 -0.404679 69 70 62
-9.91822 -13.1484 -0.402051 93 94 87
-9.94356 -13.0545 -0.399797 71 75 73
-9.93473 -12.9583 -0.396721 84 86 76
-9.97099 -12.923 -0.396488 74 80 72
-10.0636 -12.9199 -0.398497 92 91 89
-10.1421 -12.9396 -0.400881 76 78 74
-10.194 -12.9242 -0.401619 92 87 84
-10.2741 -12.9449 -0.404078 71 67 65
-10.3624 -12.9336 -0.405788 94 86 81
-10.4257 -12.9315 -0.407199 71 67 63
-14.8208 -7.5096 -0.4074 123 102 83
-14.7368 -7.40905 -0.402912 118 95 78
-14.7698 -7.36847 -0.403351 123 109 87
-14.8481 -7.32159 -0.405208 111 108 80
-31.397 -13.0459 -0.781402 118 87 85
-31.3077 -12.8942 -0.777305 92 70 72
-31.954 -12.9852 -0.795776 100 98 79
-32.3941 -13.0461 -0.808358 95 92 76
-32.5175 -12.9778 -0.810968 98 88 73
-32.3357 -12.7296 -0.80337 96 87 75
-32.4771 -12.6681 -0.806563 108 94 84
-32.3444 -12.5 -0.801184 145 116 95
-28.2005 -7.10383 -0.638263 157 150 134
-28.2755 -6.98149 -0.639535 150 104 70
-51.4416 -12.2896 -1.13934 166 115 81
-52.3006 -12.2354 -1.16036 202 159 119
-53.182 -12.2662 -1.18245 225 184 157
-54.0426 -12.2868 -1.20398 183 152 134
-14.1303 -28.708 -0.725263 70 79 60
-7.47478 -14.1871 -0.386761 73 78 74
-7.5476 -14.2212 -0.389148 82 86 81
-7.57685 -14.1699 -0.387942 58 69 65
-7.74017 -14.2145 -0.392265 75 85 84
-7.78494 -14.1927 -0.392331 53 66 59
-7.82965 -14.1708 -0.392397 75 82 73
-7.94672 -14.2299 -0.396429 78 88 77
-10.0206 -14.0983 -0.433172 136 87 82
-10.1627 -14.0684 -0.435321 142 93 86
-10.123 -13.9198 -0.429926 135 88 80
-10.1635 -13.8854 -0.429766 83 61 55
-10.2447 -13.9077 -0.432225 70 71 61
-11.1619 -13.7789 -0.44922 73 72 72
-11.1785 -13.6679 -0.446367 80 74 77
-11.2881 -13.0388 -0.430881 90 86 78
-11.7123 -13.0375 -0.441298 79 80 72
-11.872 -13.0544 -0.445764 75 79 78
-11.7199 -6.80028 -0.347497 77 55 57
-11.7628 -6.77685 -0.348566 93 60 61
-11.7072 -6.67227 -0.344415 92 56 63
-11.7672 -6.65857 -0.346313 79 37 41
-11.8202 -6.64064 -0.34788 150 97 84
-33.7464 -12.8597 -0.843154 113 104 79
-33.026 -12.0557 -0.815279 90 81 72
-54.8062 -12.1897 -1.22245 149 134 122
-55.2273 -12.1018 -1.23246 149 140 129
-55.2681 -11.929 -1.23255 136 125 116
-55.4204 -11.6889 -1.23508 140 128 118
-55.624 -11.5497 -1.23944 140 127 122
-55.8448 -11.4129 -1.24426 140 125 120
-56.0439 -11.2704 -1.24852 144 133 128
-56.3265 -11.0515 -1.25451 143 133 134
-56.5913 -10.9192 -1.2605 141 134 133
-56.8479 -10.7838 -1.26629 143 132 136
-56.9894 -10.5327 -1.26867 143 134 139
-47.5861 -7.25181 -1.01825 85 72 80
-47.5656 -7.01942 -1.01687 186 159 138
-48.0211 -6.93286 -1.02806 169 141 111
-48.8303 -6.89367 -1.04836 223 209 180
-7.25626 -14.5312 -0.394672 79 87 73
-7.2516 -14.4068 -0.390397 71 85 66
-7.27157 -14.3345 -0.388293 79 91 70
-7.33388 -14.2924 -0.38791 86 99 77
-7.44793 -14.2994 -0.390063 85 91 79
-9.98364 -14.7199 -0.451635 109 83 97
-10.0562 -14.5816 -0.448847 98 56 59
-10.5742 -14.2256 -0.449119 97 98 90
-12.197 -14.4281 -0.492606 96 92 90
-12.2671 -14.2847 -0.49019 62 67 60
-12.2967 -14.1403 -0.486804 76 75 70
-12.2711 -13.8895 -0.47908 81 78 71
-12.6368 -13.6964 -0.482828 93 95 82
-12.7515 -13.737 -0.486855 57 58 50
-13.14 -13.8567 -0.500055 68 76 62
-13.1239 -13.7534 -0.496829 100 98 84
-13.2766 -13.7006 -0.499349 69 70 62
-14.1062 -13.3531 -0.512221 121 78 72
-14.0549 -13.221 -0.507426 117 72 66
-14.2272 -13.3025 -0.514217 129 82 75
-14.3659 -13.2259 -0.516062 122 83 76
-14.4646 -13.1528 -0.516937 67 57 50
-41.1015 -14.8558 -1.06471 96 87 78
-38.2945 -13.5038 -0.9743 78 69 59
-39.2889 -13.5782 -1.00243 85 76 64
-39.7068 -13.5835 -1.01402 98 85 68
-57.1745 -10.3814 -1.27263 139 132 136
-57.4044 -10.2371 -1.27775 139 133 137
-58.3002 -9.73714 -1.29812 137 131 131
-58.5778 -9.59457 -1.30452 139 133 135
-58.6923 -9.32953 -1.30634 138 132 132
-58.8408 -9.16375 -1.30943 149 138 135
-5.09593 -11.734 -0.317647 85 94 77
-5.47524 -11.8155 -0.32698 75 83 70
-10.42 -14.9223 -0.46708 128 81 65
-12.3203 -14.9049 -0.509316 63 59 55
-12.2098 -14.675 -0.500031 76 76 69
-12.2399 -14.572 -0.497776 72 69 70
-13.0887 -14.5108 -0.516807 60 64 62
-13.5498 -14.0751 -0.516555 65 66 53
-14.1899 -14.569 -0.546512 69 70 67
-14.2409 -14.4857 -0.545602 78 80 68
-14.1755 -14.3285 -0.539685 81 85 71
-14.2003 -14.1316 -0.535101 75 74 72
-14.1297 -13.9729 -0.529034 57 53 54
-14.122 -13.7923 -0.524078 55 49 50
-14.2216 -13.7615 -0.525935 69 50 54
-14.0598 -13.5178 -0.515234 85 59 64
-14.2717 -13.6397 -0.524118 85 54 60
-14.5017 -13.4789 -0.52624 127 83 76
-14.7252 -13.4775 -0.532346 125 89 87
-14.6684 -13.216 -0.524175 73 63 61
-14.6971 -13.1597 -0.523566 86 79 71
-14.6931 -13.0739 -0.521313 73 66 60
-14.7299 -12.984 -0.520105 66 62 52
-14.813 -12.9767 -0.522261 76 71 66
-14.9156 -12.9862 -0.525389 75 75 62
-15.0184 -12.9951 -0.528517 63 65 52
-15.1343 -12.9735 -0.53127 68 69 61
-15.5878 -13.284 -0.551736 62 64 62
-15.6558 -13.2589 -0.55307 60 63 59
-15.6443 -13.1238 -0.54947 72 82 63
-15.7303 -13.1137 -0.5517 73 82 61
-16.0335 -13.1596 -0.561541 72 80 55
-16.0939 -13.1262 -0.562501 63 74 56
-41.2544 -14.7651 -1.06802 87 79 67
-41.3258 -14.4266 -1.0667 91 81 72
-40.1633 -13.529 -1.02613 108 89 76
-40.5781 -13.5273 -1.0376 118 92 79
-41.5361 -13.7019 -1.06574 127 92 76
-41.6696 -13.5291 -1.06788 113 67 54
-41.7015 -13.3952 -1.06757 106 60 45
-41.733 -13.2612 -1.06726 188 142 122
-41.7789 -13.0599 -1.06678 119 95 74
-42.9805 -12.7727 -1.0979 187 126 91
-42.7857 -12.5691 -1.09077 176 113 76
-59.6788 -8.14531 -1.32687 154 139 139
-59.8595 -7.9785 -1.33088 164 149 149
-58.8007 -7.64884 -1.30301 97 84 88
-60.2433 -7.64476 -1.3395 144 133 131
-60.565 -7.39571 -1.34687 125 110 112
-60.8467 -7.23622 -1.35353 129 117 116
-61.0427 -7.06511 -1.35799 128 120 114
-61.2431 -6.79585 -1.36231 150 140 138
-5.1835 -11.8423 -0.323203 96 110 87
-5.46219 -11.8848 -0.329395 77 88 76
-16.0731 -13.3189 -0.566486 76 87 61
-16.2236 -13.1496 -0.566824 60 72 57
-16.4665 -13.2644 -0.576601 62 72 62
-16.7048 -13.3304 -0.585107 59 67 60
-16.6057 -13.1659 -0.57837 69 76 68
-16.6336 -13.1043 -0.57776 64 71 60
-16.7694 -13.0859 -0.581334 65 67 66
-16.9524 -13.1458 -0.588122 60 63 62
-17.4922 -13.0959 -0.60308 59 60 56
-17.6501 -13.0871 -0.607625 60 60 60
-42.8529 -12.4431 -1.09163 185 133 94
-44.1918 -12.6063 -1.1305 157 123 81
-44.1957 -12.4577 -1.12943 153 111 77
-44.2818 -12.3323 -1.13087 148 104 70
-44.805 -12.251 -1.14496 147 103 73
-45.1375 -12.1899 -1.15387 144 99 63
-45.808 -12.2167 -1.17297 142 96 62
-4.93605 -12.0811 -0.328564 105 85 72
-5.0609 -12.2337 -0.336362 77 79 67
-5.09822 -12.1089 -0.332114 79 82 66
-5.21458 -12.234 -0.33875 86 94 79
-5.29992 -12.3349 -0.343973 99 109 93
-5.65199 -12.5801 -0.359048 71 85 62
-5.56763 -12.2269 -0.34418 80 91 83
-6.22752 -12.6573 -0.371842 116 127 97
-10.6829 -17.3204 -0.547977 65 73 69
-10.8818 -16.8689 -0.537511 72 73 77
-10.9742 -16.8404 -0.538472 65 66 68
-11.0424 -16.8319 -0.539583 80 88 90
-11.1788 -16.9287 -0.545407 54 59 57
-11.1443 -16.703 -0.537615 53 54 59
-17.9258 -13.1218 -0.616716 72 72 59
-19.4075 -12.957 -0.6587 87 73 49
-46.4442 -12.2303 -1.19103 228 192 159
-47.1679 -12.1836 -1.21112 250 215 177
-47.8943 -12.2109 -1.23185 196 161 138
-49.5158 -11.882 -1.2755 215 185 155
-49.7018 -11.7618 -1.27997 190 156 128
-57.6928 -0.993411 -1.24615 95 109 136
-57.5252 -0.813782 -1.24164 79 88 116
-57.3559 -0.459189 -1.23696 51 64 91
-57.3067 -0.194937 -1.23548 60 67 106
-57.2703 -0.0190436 -1.23443 57 74 112
-5.28574 -12.69 -0.357445 87 97 70
-5.7284 -12.9779 -0.375502 79 91 70
-5.61402 -12.5988 -0.359139 86 95 79
-6.02 -12.8821 -0.376702 80 89 83
-6.05965 -12.864 -0.376695 73 89 74
-6.12828 -12.9093 -0.379593 87 95 77
-6.1747 -12.9054 -0.38025 92 95 82
-6.2431 -12.8955 -0.381072 75 88 57
-7.76211 -13.016 -0.414818 68 71 71
-10.8078 -17.4054 -0.553128 88 93 89
-11.0525 -17.5004 -0.560962 90 92 94
-9.91431 -13.2322 -0.47155 62 64 60
-9.91226 -13.1439 -0.468554 56 56 54
-9.9398 -13.0533 -0.46622 53 55 54
-9.93433 -12.9621 -0.463059 79 80 73
-9.9754 -12.9331 -0.463132 67 70 59
-10.0669 -12.9282 -0.465279 87 86 81
-10.1335 -12.932 -0.467094 70 72 61
-10.205 -12.9419 -0.469242 82 72 66
-10.2706 -12.9435 -0.470974 58 56 51
-10.3603 -12.9336 -0.472955 92 94 87
-10.4311 -12.9408 -0.475019 68 74 66
-19.92 -13.9409 -0.695309 136 111 71
-19.8861 -13.8248 -0.691785 101 73 52
-19.4783 -13.4035 -0.670255 119 92 71
-19.439 -13.2871 -0.666582 109 86 55
-19.4337 -13.1948 -0.664478 95 84 35
-19.4551 -13.0769 -0.662672 107 96 64
-19.9659 -13.0209 -0.677486 112 87 59
-20.1277 -13.0383 -0.682926 84 71 37
-19.6741 -12.6547 -0.660878 92 77 35
-20.147 -12.8291 -0.679315 171 140 102
-19.7285 -12.3878 -0.657255 96 88 69
-20.4953 -12.7408 -0.688613 124 126 138
-19.7691 -12.1149 -0.653184 162 157 162
-20.401 -12.4188 -0.679314 167 157 159
-20.3488 -12.0843 -0.671209 76 63 51
-14.7314 -7.46335 -0.470714 89 91 52
-14.7361 -7.40839 -0.469877 91 95 57
-14.7639 -7.36509 -0.470117 88 92 55
-14.8441 -7.31898 -0.472261 89 98 60
-20.4074 -7.74575 -0.603018 97 85 90
-20.0933 -7.55381 -0.589498 81 73 75
-20.0675 -7.47265 -0.587547 81 72 72
-49.8609 -11.5518 -1.2831 176 147 124
-49.9759 -11.4134 -1.28548 182 154 132
-50.0224 -11.259 -1.28581 179 157 136
-50.2886 -11.0704 -1.2922 178 157 140
-50.4863 -10.9479 -1.29708 177 155 142
-50.7892 -10.8467 -1.30511 171 151 143
-51.0306 -10.6472 -1.3108 171 151 145
-51.2038 -10.5157 -1.31498 166 148 144
-51.4003 -10.388 -1.31986 157 142 139
-51.471 -10.2343 -1.32101 155 140 138
-51.6099 -10.0095 -1.32374 145 135 129
-8.67683 -17.9949 -0.534815 80 93 65
-11.2879 -13.0375 -0.500799 79 82 68
-17.3038 -18.9712 -0.746627 78 82 80
-17.5991 -18.8805 -0.751593 62 61 60
-21.6736 -16.0017 -0.793652 70 69 67
-21.7951 -15.831 -0.793547 79 66 58
-21.905 -15.8075 -0.796372 75 48 36
-22.0426 -15.8035 -0.800467 189 155 69
-21.4635 -15.1323 -0.768237 83 51 19
-21.9391 -13.1306 -0.7424 147 135 96
-22.2747 -13.0983 -0.752604 98 86 91
-51.8071 -9.87905 -1.32867 155 141 135
-51.9706 -9.74121 -1.33262 151 136 131
-52.1664 -9.52376 -1.33709 142 131 129
-52.3368 -9.38517 -1.34127 137 125 123
-52.4537 -9.23623 -1.34388 139 126 123
-52.5647 -9.00072 -1.3459 148 133 125
-52.7652 -8.86457 -1.35102 156 142 134
-52.9221 -8.72011 -1.35485 152 138 132
-53.0667 -8.57285 -1.35833 146 131 127
-53.4037 -8.3692 -1.36711 138 127 127
-47.5105 -7.1431 -1.19179 130 115 109
-47.604 -6.92796 -1.19358 204 170 145
-48.8353 -6.94998 -1.22923 243 235 202
-7.26671 -14.2745 -0.45117 82 88 77
-7.28761 -14.2059 -0.449003 86 96 78
-7.36614 -14.1437 -0.448156 84 89 78
-7.42919 -14.1047 -0.447898 81 88 73
-7.51745 -14.1691 -0.451957 79 82 71
-7.54641 -14.1179 -0.45062 87 93 87
-7.65269 -14.0549 -0.450354 84 87 81
-7.72792 -14.0915 -0.453167 88 93 73
-7.79496 -14.112 -0.455233 81 85 74
-7.93967 -14.222 -0.462113 60 70 60
-10.8369 -19.3067 -0.615373 77 84 70
-7.96721 -14.168 -0.460693 81 87 73
-8.08412 -14.2766 -0.466992 84 90 80
-11.4336 -19.5216 -0.633348 82 86 72
-10.0105 -14.5107 -0.517209 99 61 69
-9.996 -14.2974 -0.509556 131 86 79
-10.0424 -14.1285 -0.504889 138 89 82
-10.0538 -14.0518 -0.502556 139 91 86
-10.1953 -14.1129 -0.508021 134 85 78
-10.226 -14.0637 -0.507099 137 87 78
-10.2787 -14.0452 -0.507753 106 76 67
-10.5255 -14.2951 -0.522179 89 85 78
-10.3776 -13.9529 -0.507068 70 71 66
-11.1743 -13.7909 -0.521878 72 77 68
-11.3059 -13.8231 -0.526346 71 64 57
-12.2056 -14.2028 -0.562354 80 86 70
-12.8778 -14.0842 -0.577101 75 74 69
-14.1938 -13.3414 -0.593364 129 86 80
-14.2333 -13.2959 -0.593269 121 79 71
-14.2366 -13.175 -0.589941 121 82 76
-14.3459 -13.1947 -0.593826 119 79 75
-14.4157 -13.1772 -0.595473 120 90 88
-14.723 -12.9649 -0.599063 58 61 51
-21.9275 -16.7799 -0.818756 56 55 60
-22.2783 -16.9411 -0.832863 61 62 62
-22.3717 -16.903 -0.834791 67 67 65
-22.4168 -15.9687 -0.815469 203 159 62
-24.1806 -13.329 -0.818962 157 110 92
-24.2389 -13.2629 -0.819696 146 97 80
-24.2476 -13.1204 -0.81744 140 96 87
-24.2719 -13.036 -0.816755 96 67 68
-24.4261 -13.0214 -0.821595 107 92 89
-24.5891 -13.0106 -0.826809 109 91 80
-54.3906 -8.34854 -1.39548 98 78 81
-54.4251 -7.30708 -1.3922 154 144 144
-54.5004 -7.143 -1.39376 158 147 146
-54.6268 -6.98507 -1.39683 139 134 130
-54.7963 -6.83182 -1.40119 140 131 132
-55.0274 -6.59735 -1.40706 143 133 136
-7.14644 -14.7149 -0.465491 78 88 69
-7.18511 -14.5037 -0.458252 92 105 79
-7.19768 -14.4154 -0.455171 86 89 82
-7.21153 -14.3307 -0.452258 85 92 76
-12.4549 -21.6998 -0.723243 80 82 70
-12.571 -21.6681 -0.724352 77 79 72
-12.7541 -21.52 -0.722966 84 92 77
-12.9363 -21.447 -0.724061 45 53 41
-12.9906 -21.3864 -0.72315 72 81 68
-13.4178 -21.0453 -0.720601 76 82 80
-9.99742 -14.7367 -0.524697 93 65 80
-12.2226 -14.773 -0.58099 77 72 66
-12.436 -14.892 -0.590434 92 91 87
-12.5239 -14.9043 -0.593161 54 54 47
-12.8113 -14.5014 -0.588188 83 86 80
-12.9034 -14.5157 -0.591162 79 81 69
-13.0592 -14.4647 -0.593876 73 75 73
-13.4069 -14.0432 -0.590799 104 95 84
-14.1825 -14.6353 -0.63083 67 64 64
-14.1236 -14.4835 -0.624599 79 83 82
-14.1755 -14.402 -0.623674 66 67 61
-14.2883 -14.4279 -0.627726 71 72 66
-14.1238 -14.1716 -0.615359 80 77 72
-14.1319 -14.0478 -0.611946 78 78 74
-14.185 -14.0138 -0.612515 73 69 66
-14.0294 -13.6872 -0.598396 56 61 54
-14.0271 -13.5576 -0.59457 90 76 67
-14.3029 -13.6562 -0.605658 107 73 70
-14.2335 -13.4626 -0.598018 128 86 75
-14.5563 -13.2242 -0.6011 73 62 66
-14.6294 -13.167 -0.601751 72 60 63
-14.6906 -13.1403 -0.602901 81 77 71
-14.6864 -13.0546 -0.600402 61 58 53
-14.8227 -12.972 -0.602368 83 83 78
-14.9241 -12.9799 -0.605756 67 66 61
-15.0301 -12.9912 -0.609393 59 58 54
-15.1538 -12.9759 -0.612862 57 57 56
-15.6422 -13.3137 -0.637389 61 62 65
-15.7955 -13.3609 -0.643512 67 68 70
-15.7522 -13.1982 -0.637779 58 65 57
-10.464 -6.87539 -0.389599 95 82 54
-10.4681 -6.83191 -0.388624 127 108 63
-25.6517 -14.4088 -0.886727 85 61 61
-25.727 -14.2931 -0.887084 145 104 96
-24.8927 -13.0234 -0.837099 114 95 81
-25.1093 -13.038 -0.844553 117 101 76
-25.3245 -13.0503 -0.851931 67 56 23
-26.2761 -12.9268 -0.881728 93 103 64
-26.1438 -12.76 -0.874546 79 91 56
-26.1469 -12.6606 -0.873039 90 100 67
-26.3724 -12.6182 -0.879967 117 102 79
-55.2931 -6.45298 -1.41427 139 134 132
-55.7787 -6.33189 -1.42795 145 136 136
-57.5728 -6.26003 -1.47974 142 134 132
-59.5921 -6.2893 -1.5384 135 128 124
-60.0937 -6.15118 -1.55255 129 122 120
-12.3557 -21.8407 -0.726038 79 85 75
-12.4506 -21.8514 -0.72812 88 94 77
-12.8691 -15.2244 -0.612559 86 89 77
-16.1567 -13.4548 -0.657497 47 55 42
-16.1582 -13.3712 -0.65533 64 68 61
-16.4125 -13.4547 -0.665679 63 64 57
-16.4277 -13.382 -0.664257 62 66 54
-16.4084 -13.2817 -0.661013 56 60 53
-16.6074 -13.3588 -0.669456 53 57 54
-16.6039 -13.2286 -0.665961 52 54 52
-16.8694 -13.3562 -0.677886 75 77 74
-16.8212 -13.233 -0.673149 60 62 61
-16.7914 -13.0828 -0.668328 65 66 70
-16.8977 -13.0821 -0.671798 59 58 61
-17.0247 -13.0967 -0.676345 68 62 68
-17.1297 -13.0511 -0.678652 76 75 72
-17.2587 -13.0655 -0.683282 72 69 64
-17.38 -13.0731 -0.687497 83 80 71
-17.5047 -13.0826 -0.691878 79 79 69
-17.6582 -13.0698 -0.696671 88 85 80
-17.7801 -13.0754 -0.700886 86 81 75
-26.5333 -12.5941 -0.885031 65 53 40
-26.7863 -12.6126 -0.893902 91 86 61
-27.2725 -12.6872 -0.911582 64 73 45
-27.8033 -12.8302 -0.931876 70 76 50
-27.7121 -12.683 -0.926486 104 104 76
-28.4295 -12.8525 -0.953572 105 97 79
-24.9929 -7.7091 -0.765318 187 132 93
-24.9532 -7.61138 -0.762845 184 132 94
-11.3509 -17.0003 -0.634166 49 49 56
-17.9377 -13.1063 -0.706924 81 77 73
-18.0823 -13.0834 -0.71122 74 59 43
-18.4477 -13.2622 -0.727866 174 149 72
-19.4527 -13.3556 -0.764252 113 89 51
-19.4509 -13.2656 -0.762085 91 78 26
-19.4421 -13.1711 -0.759587 102 104 32
-19.4634 -13.0532 -0.757584 92 85 34
-19.5084 -12.9958 -0.75782 106 88 60
-19.5556 -12.722 -0.753223 86 77 46
-19.5541 -12.0388 -0.738054 148 146 157
-11.7264 -6.79165 -0.43977 102 73 65
-11.7899 -6.7804 -0.44218 91 61 49
-11.7672 -6.71872 -0.439754 92 57 48
-11.7823 -6.6549 -0.438875 113 76 71
-28.7742 -12.9012 -0.966101 105 92 73
-28.77 -12.7914 -0.964295 101 95 68
-28.8127 -12.7029 -0.96443 109 98 76
-28.7123 -12.4977 -0.957919 147 129 121
-28.9352 -12.4879 -0.965445 89 67 65
-30.0523 -12.8617 -1.0094 103 83 81
-29.6215 -12.512 -0.989454 110 100 72
-57.7914 -0.699093 -1.45482 55 75 94
-10.6313 -17.2147 -0.625732 65 70 64
-11.1545 -17.6425 -0.652254 86 91 89
-11.3595 -17.6047 -0.655456 77 81 79
-11.538 -17.4629 -0.654509 52 54 56
-20.6711 -14.7727 -0.839404 197 159 54
-19.746 -13.8771 -0.786585 114 79 61
-19.8131 -13.8326 -0.787815 104 71 61
-19.8884 -13.7936 -0.789459 106 79 52
-19.7269 -12.7468 -0.759757 126 122 62
-20.1805 -12.9524 -0.780211 158 131 81
-20.6746 -13.1349 -0.801575 92 61 29
-20.1837 -12.7337 -0.775462 105 77 46
-19.802 -12.4058 -0.754817 126 107 89
-20.3327 -12.4333 -0.774167 166 159 166
-20.2532 -12.0832 -0.763855 85 59 55
-20.2748 -12.0107 -0.763097 86 58 51
-20.4559 -11.9895 -0.769131 90 65 61
-30.9968 -12.8687 -1.04213 101 88 65
-31.1209 -12.8066 -1.04555 101 96 75
-31.3368 -12.7242 -1.05188 109 105 87
-31.8046 -12.7994 -1.06918 88 80 67
-32.6433 -13.0204 -1.10142 61 64 48
-32.6161 -12.8322 -1.09789 75 81 67
-32.9486 -12.8448 -1.10967 114 93 85
-32.3744 -12.5032 -1.08502 140 114 97
-20.0066 -7.57323 -0.673589 142 133 131
-20.0145 -7.50499 -0.672916 145 134 133
-20.0727 -7.45555 -0.67448 146 136 131
-28.2701 -7.10386 -0.877692 168 160 146
-15.6909 -19.1474 -0.812849 66 61 55
-16.1724 -18.6477 -0.809751 78 85 68
-16.7647 -18.2176 -0.812706 62 63 56
-16.798 -18.1405 -0.811282 64 66 64
-16.8866 -18.1234 -0.813259 62 62 58
-17.1073 -18.0778 -0.818123 90 88 76
-17.2966 -17.9965 -0.821079 62 62 50
-21.4408 -15.1746 -0.875107 126 87 34
-21.4464 -13.0257 -0.826436 156 150 151
-21.6229 -12.9952 -0.832056 132 101 88
-28.1998 -6.94526 -0.873725 184 162 142
-11.3845 -19.5405 -0.724906 82 81 73
-11.446 -19.5071 -0.724977 91 89 82
-13.3668 -20.4189 -0.798907 90 94 93
-13.6166 -20.3166 -0.801024 65 56 55
-23.2958 -13.0338 -0.892993 126 87 78
-23.5026 -13.0058 -0.899937 100 67 52
-23.6981 -13.018 -0.907296 130 94 70
-23.894 -13.0291 -0.914656 143 106 84
-24.1157 -13.0043 -0.922262 130 99 90
-24.3174 -13.0157 -0.92987 94 79 79
-24.3574 -12.9396 -0.929856 104 88 80
-24.487 -12.911 -0.934067 116 98 85
-36.8155 -13.4384 -1.25304 107 91 85
-37.1264 -13.4208 -1.26377 113 93 86
-37.3926 -13.3853 -1.27271 123 105 98
-37.6083 -13.2637 -1.27882 131 115 109
-37.7373 -13.1767 -1.28231 141 122 116
-37.8924 -13.0981 -1.28684 143 126 122
-38.1074 -12.9724 -1.29295 154 143 141
-38.2943 -12.9026 -1.29875 147 133 127
-38.4641 -12.8261 -1.30389 150 132 130
-12.5126 -21.0556 -0.802883 69 72 63
-12.6657 -20.9415 -0.802027 65 72 67
-12.7122 -20.8715 -0.80052 85 90 84
-12.8969 -20.8105 -0.802319 75 81 77
-13.2004 -20.6515 -0.803345 78 85 73
-13.3142 -20.4768 -0.79975 54 56 50
-24.9519 -13.0077 -0.953022 117 98 83
-25.0945 -12.9829 -0.957813 91 73 60
-24.8645 -12.7655 -0.945208 72 69 55
-26.1571 -12.8176 -0.994173 97 111 68
-25.9577 -12.6194 -0.983142 87 99 56
-25.946 -12.5138 -0.980809 96 104 70
-26.1281 -12.4512 -0.986509 83 77 51
-26.5559 -12.5539 -1.00439 103 106 75
-38.6225 -12.7448 -1.30857 149 135 132
-38.829 -12.611 -1.31438 150 134 128
-38.9851 -12.5271 -1.31899 154 138 130
-39.1657 -12.4501 -1.32457 162 143 133
-39.3523 -12.3062 -1.32963 125 110 103
-40.0208 -11.899 -1.34919 204 173 148
-40.1622 -11.8044 -1.35328 209 180 151
-40.3073 -11.71 -1.35752 181 154 126
-4.85851 -11.9401 -0.409983 130 102 88
-4.91311 -11.9723 -0.412399 92 85 70
-5.0238 -11.8744 -0.409956 83 90 79
-5.09518 -11.9465 -0.414504 83 95 82
-5.12741 -11.8664 -0.411493 85 95 80
-5.18809 -11.9103 -0.414587 84 86 80
-5.28493 -12.0406 -0.422235 82 95 75
-5.48419 -12.2529 -0.435495 64 75 66
-12.1999 -21.3514 -0.807097 82 92 70
-12.214 -21.2217 -0.802685 82 85 74
-10.4447 -6.88407 -0.44933 126 97 61
-10.4938 -6.87041 -0.451133 143 123 76
-14.7613 -7.50882 -0.585953 88 93 61
-14.753 -7.41803 -0.583622 80 89 54
-14.7718 -7.37023 -0.58342 81 95 56
-14.8333 -7.34385 -0.585539 90 106 62
-27.1003 -12.7085 -1.02756 101 106 73
-27.1861 -12.5937 -1.02879 65 62 41
-27.6472 -12.703 -1.04807 82 81 66
-27.49 -12.5268 -1.03912 77 78 54
-27.4149 -12.3377 -1.03305 87 84 55
-27.8482 -12.4286 -1.05101 82 80 55
-28.6089 -12.6617 -1.08379 102 97 68
-28.4339 -12.4781 -1.07409 111 100 83
-24.9655 -7.66501 -0.869886 177 154 138
-24.9695 -7.58094 -0.869047 180 159 142
-40.5009 -11.5601 -1.36295 176 149 127
-40.7701 -11.4992 -1.37204 180 160 137
-41.0527 -11.4404 -1.38165 186 164 141
-41.2782 -11.2944 -1.38835 190 167 149
-41.5107 -11.2185 -1.39602 187 163 147
-41.6892 -11.1268 -1.4016 186 164 144
-41.8984 -11.0422 -1.40837 181 158 137
-42.1593 -10.8993 -1.41649 180 156 137
-42.4087 -10.8222 -1.42483 139 115 104
-5.08627 -12.3094 -0.430706 94 102 79
-5.10624 -12.192 -0.425757 71 81 60
-5.51468 -12.4873 -0.446548 84 95 79
-5.55866 -12.3228 -0.440042 83 91 77
-5.96363 -12.7763 -0.46811 89 100 89
-6.13308 -12.6784 -0.467208 90 98 83
-6.18021 -12.6253 -0.465844 89 94 88
-9.9318 -13.2489 -0.585768 71 75 58
-9.9383 -13.1717 -0.582951 67 68 56
-9.93135 -13.077 -0.579068 83 88 78
-9.9443 -12.9672 -0.575185 83 86 71
-9.98416 -12.9366 -0.575175 90 88 77
-10.0492 -12.9393 -0.577199 62 62 51
-10.1432 -12.9374 -0.5799 73 78 63
-10.2109 -12.9426 -0.582117 77 80 69
-10.2715 -12.938 -0.583754 74 74 60
-10.3444 -12.9489 -0.586358 100 96 77
-10.4353 -12.9403 -0.588768 82 88 66
-11.4286 -13.0369 -0.62321 80 89 64
-28.9767 -12.5549 -1.09602 105 89 79
-30.0879 -12.9255 -1.14446 102 89 73
-28.9964 -12.3489 -1.09343 105 100 77
-29.4636 -12.3852 -1.11188 102 90 77
-30.8685 -12.8631 -1.17331 87 84 61
-43.0226 -10.3348 -1.44283 175 153 140
-43.1435 -10.1494 -1.44565 172 152 143
-43.25 -10.0314 -1.44854 174 154 146
-43.3192 -9.90436 -1.45002 175 155 144
-43.4133 -9.7827 -1.45247 172 151 137
-43.5066 -9.58872 -1.45432 175 151 137
-43.6329 -9.4732 -1.45803 180 153 141
-5.82746 -12.8435 -0.468423 84 89 79
-5.92781 -12.9106 -0.473357 79 92 77
-5.93547 -12.8197 -0.469474 69 80 65
-6.09406 -12.9078 -0.476532 87 103 76
-6.13464 -12.8913 -0.476621 90 101 77
-6.19089 -12.9092 -0.478551 77 86 74
-12.9208 -13.16 -0.676666 58 54 54
-13.0318 -13.0698 -0.677321 74 74 76
-14.0366 -13.2024 -0.716708 118 79 74
-14.19 -13.2662 -0.724245 116 75 69
-11.7679 -6.83268 -0.508206 132 91 86
-11.8247 -6.81715 -0.510435 129 85 81
-11.7173 -6.70666 -0.502546 123 85 78
-11.7964 -6.67969 -0.50552 114 76 65
-11.8478 -6.66071 -0.507429 92 62 52
-31.109 -12.8495 -1.18233 95 99 69
-31.0999 -12.6752 -1.17924 94 81 65
-31.3663 -12.6698 -1.18942 87 75 63
-32.0407 -12.8261 -1.21781 94 90 77
-32.0781 -12.7249 -1.21771 79 71 61
-33.0717 -12.9401 -1.25934 97 85 81
-33.0797 -12.8241 -1.25792 139 117 101
-32.3215 -12.4138 -1.22246 117 89 68
-43.6966 -9.34355 -1.45936 182 155 136
-43.8621 -9.16327 -1.46405 204 176 151
-43.9717 -9.04231 -1.46717 208 175 152
-44.0342 -8.91121 -1.46849 206 173 153
-44.1842 -8.79739 -1.47318 197 168 149
-44.2946 -8.60273 -1.47585 180 156 139
-44.3772 -8.47434 -1.478 182 159 146
-44.4928 -8.35181 -1.48142 180 159 142
-44.6307 -8.16029 -1.48521 180 158 146
-7.35116 -14.0975 -0.555006 85 93 82
-7.38834 -14.0628 -0.554319 77 87 75
-7.51543 -14.15 -0.560898 77 84 75
-7.50338 -14.0189 -0.55498 72 80 69
-7.68397 -14.0995 -0.562518 84 87 83
-7.70786 -14.0391 -0.560475 81 88 72
-7.8074 -14.1214 -0.566279 81 87 75
-7.89673 -14.1297 -0.568691 83 90 78
-8.03354 -14.1725 -0.573711 82 90 78
-8.24785 -14.2995 -0.584154 85 89 79
-10.1502 -14.5219 -0.642217 161 125 111
-10.1068 -14.2188 -0.628929 139 92 89
-10.5036 -14.5978 -0.655056 138 94 88
-10.5703 -14.5477 -0.654948 136 98 85
-10.4588 -14.2958 -0.641865 113 89 82
-10.5203 -14.2879 -0.643307 94 90 83
-10.7003 -14.3961 -0.652689 91 91 69
-12.8471 -14.7844 -0.732325 79 88 69
-12.9212 -14.5468 -0.725998 77 86 67
-13.0598 -14.4765 -0.727911 86 96 81
-13.4212 -13.9817 -0.722193 67 66 60
-14.1323 -14.328 -0.75825 80 78 74
-14.2413 -14.2167 -0.758129 78 74 76
-14.1445 -14.0308 -0.748439 82 78 77
-14.1772 -13.9325 -0.7462 84 81 78
-14.0487 -13.7183 -0.734478 76 75 69
-14.0696 -13.6537 -0.733015 82 74 69
-14.1229 -13.5785 -0.732325 85 58 60
-14.2591 -13.6265 -0.738701 92 56 57
-14.1962 -13.481 -0.731625 90 48 48
-14.3367 -13.3222 -0.731299 124 82 78
-14.5427 -13.3904 -0.740868 122 83 80
-14.6996 -13.369 -0.745781 62 51 50
-14.5716 -13.1681 -0.73464 74 63 61
-14.674 -13.1378 -0.737337 76 69 61
-14.701 -13.0802 -0.736455 55 50 47
-14.6981 -12.9959 -0.733637 67 64 59
-14.803 -12.9672 -0.736528 51 44 52
-14.9116 -12.982 -0.740968 59 52 62
-15.013 -12.9897 -0.744924 51 46 51
-15.1364 -12.9747 -0.748976 54 53 46
-15.7604 -13.4328 -0.786413 52 49 41
-15.9091 -13.2646 -0.786667 59 53 50
-15.9284 -13.1971 -0.7853 71 64 60
-15.9138 -13.1016 -0.781805 64 56 48
-16.0145 -13.0603 -0.784308 66 59 40
