-11.3793 14.2122 -1.80142 102 100 111
-11.3217 14.2745 -1.80338 107 105 118
-11.2852 14.3191 -1.80513 107 105 116
-11.2292 14.336 -1.803 107 105 116
-11.1563 14.3765 -1.80198 106 103 114
-10.2538 15.7381 -1.79059 91 93 105
-10.2055 15.7699 -1.79095 91 90 103
-10.1482 15.7861 -1.78933 86 89 98
-10.0738 15.8298 -1.78944 80 81 88
-5.75092 14.1178 -1.30559 94 90 87
-5.63856 13.9996 -1.29048 97 89 82
-5.60333 14.0439 -1.29364 87 79 76
-20.8083 1.65219 -1.94793 156 154 166
-20.8208 1.8074 -1.95107 144 130 130
-20.7906 1.86627 -1.94845 154 127 108
-19.7732 3.29067 -1.95112 92 98 113
-19.7601 3.34821 -1.9509 90 92 110
-19.7799 3.41189 -1.95458 92 95 110
-19.7531 3.4969 -1.95346 94 97 114
-19.7646 3.55929 -1.95622 91 96 115
-19.7545 3.61755 -1.95645 92 97 116
-17.489 8.46268 -2.04218 90 92 107
-17.4633 8.51437 -2.0424 92 91 107
-17.4602 8.57805 -2.04579 92 91 107
-17.4328 8.66152 -2.04771 91 93 108
-17.4135 8.71682 -2.0489 92 92 107
-17.3939 8.77209 -2.05009 91 91 107
-17.3725 8.82637 -2.05104 92 92 106
-17.3472 8.91156 -2.05345 92 91 105
-17.3218 8.96383 -2.0539 90 92 107
-17.3153 9.02672 -2.05705 91 93 107
-17.2769 9.10497 -2.05774 91 93 106
-17.2612 9.16297 -2.05966 92 91 109
-17.2384 9.217 -2.0606 91 92 110
-17.2163 9.30496 -2.06374 93 93 108
-17.1862 9.35489 -2.0637 88 87 104
-17.1645 9.40977 -2.06489 83 83 100
-17.1562 9.47275 -2.06803 73 76 90
-17.2023 9.60261 -2.08119 104 109 120
-17.0526 9.58047 -2.06403 135 135 146
-17.0115 9.62369 -2.06253 148 147 156
-16.9601 9.69447 -2.06175 116 117 122
-16.9911 9.78237 -2.07076 88 85 94
-16.9528 9.8274 -2.06974 81 78 89
-16.8988 9.89679 -2.06871 96 92 107
-16.8601 9.94148 -2.06769 88 85 102
-16.833 9.99353 -2.06838 81 80 96
-16.7667 10.0547 -2.06564 75 79 91
-16.7226 10.0957 -2.06389 77 81 91
-16.6105 10.0918 -2.0521 83 86 96
-16.4968 10.0862 -2.04008 84 87 96
-16.384 10.1147 -2.03049 86 90 101
-16.2576 10.0989 -2.01651 89 92 104
-16.1364 10.0858 -2.00326 91 94 104
-16.0257 10.113 -1.99392 92 94 104
-13.9525 11.0426 -1.86269 131 125 128
-13.8757 11.0814 -1.85871 130 125 132
-13.8445 11.1248 -1.85939 124 122 130
-13.8072 11.163 -1.8591 122 119 130
-13.7433 11.2127 -1.85732 115 111 122
-13.7057 11.2505 -1.85702 113 110 118
-13.6636 11.2842 -1.85598 119 116 123
-13.6244 11.3204 -1.85544 117 115 123
-13.5555 11.3651 -1.85293 111 112 123
-13.5117 11.3969 -1.85165 114 112 124
-13.491 11.4502 -1.85428 113 111 122
-13.4158 11.4886 -1.85079 121 118 131
-13.3847 11.5322 -1.85171 116 115 123
-11.1125 14.4109 -1.80236 102 99 111
-11.0553 14.4255 -1.8 106 104 117
-10.9709 14.4487 -1.7967 104 102 115
-10.9269 14.4826 -1.79708 104 103 111
-10.874 14.5031 -1.79563 104 101 109
-10.0164 15.8455 -1.78782 83 83 93
-9.96004 15.8628 -1.78643 85 86 91
-9.90167 15.8764 -1.78459 90 90 98
-9.82307 15.912 -1.78382 88 92 97
-5.54465 14.0143 -1.2889 84 83 81
-5.47534 14.0274 -1.28798 84 82 86
-5.42461 14.022 -1.28588 83 81 86
-20.8903 1.38111 -1.95419 97 108 126
-20.8653 1.441 -1.95202 97 108 128
-20.8773 1.53441 -1.95426 108 113 132
-20.8083 1.59061 -1.94725 154 148 157
-19.7505 3.01805 -1.94281 90 96 114
-19.7637 3.07984 -1.94558 92 99 116
-19.7902 3.1441 -1.94994 90 96 115
-19.7619 3.19896 -1.94789 90 97 113
-17.8824 7.09754 -2.0124 90 93 109
-17.8644 7.18254 -2.01459 90 95 110
-17.8518 7.2392 -2.01603 92 94 109
-17.8427 7.29745 -2.01797 91 94 109
-17.7983 7.37114 -2.01672 91 94 108
-17.7815 7.42609 -2.01768 91 94 109
-17.7826 7.4892 -2.02108 91 93 108
-17.778 7.54993 -2.02374 92 94 109
-17.7415 7.62736 -2.02372 92 96 108
-17.7166 7.67889 -2.02369 92 94 107
-17.706 7.73709 -2.02562 93 95 108
-17.6811 7.82016 -2.02731 91 95 107
-17.6771 7.88182 -2.03022 91 93 108
-17.6461 7.93055 -2.02946 92 94 109
-17.6327 8.0196 -2.03286 92 94 108
-17.6066 8.0708 -2.03283 93 92 108
-17.5839 8.12368 -2.03329 94 93 109
-17.5629 8.17739 -2.03399 93 92 108
-17.5446 8.26462 -2.0369 92 91 107
-17.5389 8.32639 -2.0398 94 93 109
-17.5225 8.38276 -2.04124 92 94 109
-13.3562 11.5785 -1.85312 119 118 127
-13.2821 11.6174 -1.84987 115 112 123
-13.2419 11.6524 -1.84932 118 116 127
-13.2044 11.69 -1.84926 119 117 128
-13.181 11.7414 -1.85165 117 115 126
-13.0951 11.7681 -1.84644 117 114 125
-13.0643 11.8122 -1.84761 117 115 125
-13.0431 11.8661 -1.85048 117 116 124
-12.957 11.8919 -1.84527 118 117 124
-12.9244 11.9343 -1.84619 119 117 125
-10.9195 11.2704 -1.6192 131 125 114
-10.9119 11.3702 -1.62791 134 127 120
-10.8086 11.3218 -1.61516 129 125 117
-10.8265 14.5317 -1.79533 104 101 111
-10.7409 14.552 -1.7918 103 102 110
-10.6824 14.5635 -1.78921 102 101 107
-10.6316 14.5865 -1.78821 101 100 111
-10.5598 14.6274 -1.78765 102 100 113
-9.77412 15.9426 -1.78417 90 90 99
-9.71282 15.9502 -1.78168 87 90 97
-9.62276 15.9639 -1.77828 99 99 107
-9.55138 15.9517 -1.77339 103 102 108
-7.35876 13.6897 -1.44284 104 103 111
-5.37681 14.0259 -1.28479 97 94 95
-5.3047 14.0287 -1.28285 92 85 77
-20.9127 1.16667 -1.95475 95 107 129
-20.9081 1.22807 -1.95478 96 108 129
-20.8855 1.31909 -1.95307 98 111 130
-19.7621 2.6046 -1.93629 133 131 140
-19.7511 2.66216 -1.93607 119 126 138
-19.7653 2.81241 -1.94047 85 98 117
-19.787 2.87521 -1.94415 82 92 110
-19.7888 2.93504 -1.94554 83 93 111
-18.0526 6.25195 -1.99208 94 93 109
-18.0723 6.34956 -1.99868 95 96 112
-18.057 6.4042 -1.99939 94 96 111
-18.0452 6.46025 -2.0006 94 97 112
-18.036 6.54755 -2.00352 92 98 112
-18.0108 6.5985 -2.00301 92 98 112
-17.9929 6.65231 -2.00349 91 99 112
-17.9864 6.74111 -2.0069 90 98 111
-17.9716 6.79636 -2.00786 88 96 109
-17.9586 6.85235 -2.00906 89 96 110
-17.9398 6.90605 -2.00953 89 95 111
-17.9319 6.99497 -2.01294 90 93 108
-17.8945 7.04088 -2.01096 91 94 109
-15.1401 10.1214 -1.95328 91 90 103
-15.0245 10.1371 -1.94272 94 92 105
-14.9235 10.1293 -1.93192 97 93 107
-14.8257 10.1234 -1.92162 92 90 104
-14.7123 10.1381 -1.91131 82 85 97
-14.6181 10.1334 -1.90151 85 89 101
-14.5178 10.1234 -1.89071 94 97 108
-14.427 10.1201 -1.88141 105 106 118
-14.3237 10.1393 -1.8726 120 120 131
-14.2583 10.1546 -1.8673 125 123 134
-14.224 10.1941 -1.867 120 118 130
-14.1643 10.2463 -1.8652 114 114 124
-14.1343 10.2893 -1.86565 112 111 121
-14.095 10.3246 -1.8646 117 116 126
-14.0348 10.3761 -1.86279 112 111 121
-13.9937 10.4099 -1.86149 115 112 125
-13.9571 10.4473 -1.86094 114 111 123
-13.9128 10.4782 -1.85914 108 106 117
-13.8717 10.5453 -1.86058 117 117 123
-13.8332 10.581 -1.85978 109 108 114
-13.8006 10.6217 -1.85997 118 116 122
-13.7467 10.678 -1.85941 133 127 135
-13.7003 10.7068 -1.85736 132 124 133
-13.6494 10.7315 -1.85456 129 121 131
-12.8763 11.9609 -1.84442 118 116 127
-12.819 12.0156 -1.84434 114 112 123
-12.7708 12.0418 -1.84257 118 116 127
-12.7581 12.1053 -1.84715 115 113 124
-12.6919 12.1125 -1.84221 117 114 125
-12.6326 12.1649 -1.84188 116 112 126
-12.5962 12.2035 -1.84231 116 113 125
-12.5354 12.2158 -1.83834 119 116 125
-10.5099 14.6517 -1.78689 103 101 114
-10.4334 14.6339 -1.78041 99 97 110
-10.3793 14.7024 -1.78374 101 101 109
-10.3417 14.7463 -1.78571 101 102 106
-10.2852 14.7597 -1.78358 101 101 105
-9.48935 15.9568 -1.77068 100 99 106
-9.39771 15.9658 -1.76685 104 105 110
-9.32947 15.958 -1.76261 108 109 114
-9.26676 15.9605 -1.75968 108 108 117
-5.31401 14.2265 -1.30244 99 94 87
-20.9602 0.891534 -1.95792 91 103 125
-20.9624 0.953357 -1.95861 99 112 131
-20.9391 1.04476 -1.95668 92 103 127
-20.9468 1.10689 -1.95802 93 105 127
-19.7432 2.33658 -1.92956 146 127 111
-19.7664 2.39853 -1.93325 153 134 123
-19.8574 2.52916 -1.94589 114 116 131
-18.2179 5.7139 -1.98828 98 99 117
-18.2065 5.76942 -1.98924 96 97 115
-18.1931 5.82428 -1.98997 98 99 117
-18.1703 5.90555 -1.99069 93 99 115
-18.1752 5.96696 -1.99386 88 94 110
-18.15 6.01779 -1.99311 89 92 109
-18.0684 6.078 -1.98625 117 116 130
-18.0689 6.13799 -1.98893 122 123 136
-18.0655 6.19668 -1.99112 115 116 131
-17.0356 8.02901 -2.01707 92 93 108
-17.0325 8.09018 -2.02029 91 93 108
-16.9917 8.16326 -2.02001 91 93 108
-16.9863 8.22356 -2.02298 91 93 108
-16.9631 8.27462 -2.02345 92 92 108
-16.9407 8.35766 -2.02592 93 92 108
-16.9101 8.40484 -2.02539 90 92 107
-16.9125 8.46992 -2.02961 89 92 107
-16.8746 8.51318 -2.02808 90 93 108
-16.8457 8.59317 -2.02979 90 94 106
-16.8542 8.66225 -2.03501 90 93 105
-16.8037 8.69841 -2.03173 92 91 107
-16.7877 8.78605 -2.03544 92 91 105
-16.7524 8.8307 -2.03441 92 91 105
-16.7478 8.89306 -2.03787 93 92 108
-16.7085 8.96774 -2.03833 91 93 108
-16.7051 9.03115 -2.04205 93 92 108
-16.6691 9.07546 -2.04101 93 91 107
-16.667 9.13993 -2.04498 92 90 107
-16.6128 9.20609 -2.04344 92 94 109
-16.6051 9.26752 -2.04665 89 92 105
-16.5684 9.31142 -2.04561 85 88 99
-16.5574 9.4041 -2.05057 78 78 90
-16.5203 9.44779 -2.04953 85 84 99
-16.5267 9.51872 -2.055 118 118 132
-16.5497 9.63384 -2.06521 149 149 157
-16.445 9.63483 -2.05416 138 139 143
-16.4156 9.68344 -2.05437 103 101 107
-16.381 9.72873 -2.05383 94 90 99
-16.3658 9.8203 -2.05853 83 80 92
-16.3424 9.87304 -2.05974 94 91 101
-16.3106 9.92026 -2.0597 90 88 102
-16.2778 10.0008 -2.0619 86 83 97
-16.234 10.0401 -2.0601 82 80 94
-16.2 10.0859 -2.05981 95 93 107
-16.114 10.1303 -2.054 79 79 92
-16.0225 10.1363 -2.04495 84 85 98
-15.9084 10.126 -2.0324 88 89 102
-15.7884 10.1447 -2.02134 86 90 100
-15.6698 10.1296 -2.00804 94 95 106
-15.5725 10.1288 -1.99799 94 94 105
-15.4608 10.1172 -1.98569 96 96 107
-15.3463 10.1362 -1.97538 93 93 105
-15.2383 10.1256 -1.96358 93 92 106
-13.592 10.7845 -1.85349 114 113 124
-13.5454 10.8126 -1.85144 116 115 123
-13.5136 10.8538 -1.85189 114 114 124
-13.4713 10.8856 -1.85058 116 116 128
-13.4191 10.943 -1.85052 114 112 125
-13.384 10.9811 -1.85046 116 114 125
-13.3589 11.0285 -1.85216 120 119 129
-13.2886 11.0692 -1.84909 116 114 125
-13.2472 11.1016 -1.84804 116 114 125
-13.2144 11.1419 -1.84848 116 114 125
-13.1553 11.1926 -1.84741 123 122 130
-13.1279 11.2381 -1.84886 120 118 129
-12.4675 12.2586 -1.83655 115 114 122
-12.4388 12.3056 -1.83844 116 114 124
-12.4006 12.3421 -1.83862 115 112 123
-12.3243 12.3754 -1.83537 116 113 125
-12.274 12.3983 -1.83335 108 107 114
-12.2316 12.4299 -1.8328 109 107 112
-12.1734 12.483 -1.83296 113 111 115
-12.1111 12.4919 -1.82874 122 116 117
-10.238 14.7882 -1.7835 98 97 102
-10.1613 14.8204 -1.78202 95 94 102
-10.1109 14.8433 -1.78126 105 104 109
-10.0533 14.8542 -1.7789 97 97 102
-9.17275 15.963 -1.75519 104 104 112
-9.10667 15.9578 -1.75139 110 111 116
-9.04948 15.9702 -1.74977 106 105 111
-8.98267 15.9628 -1.74575 99 98 103
-5.97361 11.2804 -1.19668 104 102 106
-5.92116 11.2571 -1.19183 99 96 102
-5.88956 11.283 -1.19314 100 98 106
-20.9772 0.676251 -1.95847 92 105 124
-20.9801 0.738058 -1.95916 94 104 124
-20.9835 0.830793 -1.96009 98 109 132
-19.7354 2.04218 -1.92418 89 92 106
-19.7425 2.1309 -1.92628 95 101 114
-19.7547 2.19106 -1.92859 92 103 122
-19.8886 2.26642 -1.94513 90 87 100
-18.3493 5.19648 -1.98344 91 100 115
-18.3181 5.27474 -1.98271 93 100 116
-18.3083 5.33037 -1.98368 93 99 115
-18.3001 5.3866 -1.98489 95 101 117
-18.2794 5.46821 -1.98562 93 99 115
-18.2575 5.52013 -1.98512 92 99 115
-18.2412 5.57382 -1.98536 90 97 113
-18.2379 5.63186 -1.9873 94 100 116
-17.3863 6.84664 -1.99276 91 93 108
-17.3677 6.92857 -1.99475 90 93 110
-17.356 6.98371 -1.99623 90 96 112
-17.3368 7.03565 -1.9967 89 95 111
-17.3155 7.1167 -1.99844 91 94 109
-17.3031 7.1718 -1.99992 90 93 108
-17.3159 7.23837 -2.0049 91 94 109
-17.2724 7.27951 -2.00212 93 95 110
-17.2588 7.36462 -2.0051 92 94 107
-17.2259 7.41046 -2.00382 92 96 108
-17.2268 7.47223 -2.0073 93 95 108
-17.1836 7.54371 -2.00628 92 94 107
-17.193 7.60984 -2.01101 94 96 109
-17.1557 7.65363 -2.00923 94 93 109
-17.149 7.74303 -2.01346 92 95 110
-17.1061 7.78396 -2.01092 91 94 109
-17.1163 7.85121 -2.0159 94 93 109
-17.0766 7.8937 -2.01387 94 93 109
-17.058 7.97777 -2.0166 93 92 108
-13.0803 11.2644 -1.8468 119 118 124
-13.0264 11.3199 -1.84673 116 115 123
-12.9872 11.3541 -1.84617 118 116 127
-12.9535 11.3936 -1.84662 118 116 127
-12.9084 11.422 -1.84506 117 115 126
-12.8369 11.46 -1.84199 117 116 124
-12.8028 11.4991 -1.84243 117 114 125
-12.7673 11.5368 -1.84262 116 114 125
-12.7051 11.5838 -1.8413 118 116 127
-12.6624 11.6141 -1.84024 118 116 127
-12.0736 12.529 -1.82917 112 106 114
-11.9407 12.7386 -1.83816 134 129 117
-9.98137 14.894 -1.77856 99 101 111
-9.93275 14.9198 -1.77825 96 98 110
-9.88904 14.954 -1.77908 98 98 109
-9.81178 14.9844 -1.77761 98 99 104
-8.88572 15.9566 -1.74039 104 103 108
-8.82006 15.9503 -1.73659 102 101 106
-8.76136 15.9581 -1.73454 107 107 108
-8.67083 15.9632 -1.73071 107 107 109
-21.0097 0.461144 -1.96099 93 105 127
-21.0132 0.522988 -1.96168 94 107 127
-20.982 0.614713 -1.95866 94 106 128
-19.8544 1.79072 -1.93441 144 132 124
-19.7789 1.84185 -1.9264 154 131 115
-19.7652 1.92826 -1.92598 108 99 90
-18.4193 4.69308 -1.97368 94 101 117
-18.4151 4.74982 -1.97515 95 102 118
-18.3918 4.83012 -1.97515 94 100 119
-18.3948 4.88905 -1.97759 95 100 119
-18.3862 4.94474 -1.97857 94 99 118
-18.3773 5.00043 -1.97954 93 100 116
-18.349 5.07944 -1.97905 93 100 118
-18.3587 5.14079 -1.98247 92 101 118
-17.5674 6.12003 -1.97895 121 120 134
-17.5418 6.16889 -1.97819 105 102 119
-17.5678 6.23763 -1.98443 93 92 106
-17.5246 6.30903 -1.98266 95 100 114
-17.5408 6.37445 -1.98765 94 97 112
-17.4997 6.41728 -1.98488 97 100 115
-17.4942 6.50382 -1.98837 92 98 112
-17.4674 6.55234 -1.9876 90 98 111
-17.4607 6.60905 -1.98959 91 99 112
-17.4373 6.65895 -1.98932 90 98 112
-17.4196 6.74096 -1.9913 90 94 111
-17.3994 6.79227 -1.99153 92 94 109
-12.6182 11.6428 -1.83893 120 118 131
-12.5528 11.6862 -1.83711 116 114 125
-12.518 11.7245 -1.83755 119 117 126
-12.4776 11.757 -1.83699 117 116 126
-12.4426 11.795 -1.83743 115 115 125
-12.3876 11.8491 -1.8376 118 116 127
-12.3428 11.8768 -1.83629 114 112 126
-12.31 11.9174 -1.83723 115 113 125
-10.9603 11.3688 -1.67243 113 110 121
-10.9032 11.3751 -1.66837 117 112 124
-10.8271 11.3585 -1.66057 113 108 118
-10.7943 11.4294 -1.66474 121 119 115
-11.9026 12.8163 -1.84247 135 126 116
-11.8615 12.8497 -1.8424 135 126 119
-11.814 12.8754 -1.84111 137 128 119
-11.7386 12.9082 -1.83834 140 130 121
-11.6897 12.9319 -1.83681 138 130 124
-11.6407 12.9554 -1.83528 128 120 116
-11.5904 12.9772 -1.8335 118 109 110
-9.7511 14.989 -1.77456 95 98 107
-9.71784 15.0417 -1.7779 94 97 106
-9.64512 15.0799 -1.77756 97 99 111
-9.59112 15.096 -1.77611 95 97 109
-8.608 15.9615 -1.72756 105 104 107
-8.54443 15.9578 -1.7242 99 99 101
-8.45341 15.9599 -1.72015 98 97 100
-6.66573 13.8907 -1.43278 76 78 88
-21.0039 0.3993 -1.96008 95 107 129
-19.8711 1.52807 -1.93317 157 158 173
-19.8042 1.58091 -1.92608 150 144 155
-19.8017 1.66841 -1.92681 140 145 157
-18.4809 4.30629 -1.9683 100 107 123
-18.4741 4.36199 -1.96928 102 109 125
-18.4545 4.44305 -1.96953 101 108 124
-18.4435 4.49772 -1.97002 101 106 122
-18.4611 4.56 -1.97417 102 104 122
-18.4386 4.64051 -1.97418 90 97 113
-17.7353 5.5702 -1.9748 95 100 116
-17.7132 5.62041 -1.97429 95 99 116
-17.7158 5.70802 -1.97829 96 100 116
-17.6802 5.75351 -1.97602 96 101 117
-17.6855 5.81352 -1.97927 97 100 117
-17.6311 5.88106 -1.97575 95 98 115
-17.6378 5.94178 -1.97924 90 92 107
-17.6053 5.98817 -1.97748 92 94 110
-17.6154 6.05036 -1.98147 112 113 131
-12.2624 11.9796 -1.8389 116 113 123
-12.2173 12.0068 -1.83759 117 115 124
-12.1708 12.0324 -1.83603 117 117 123
-12.1092 12.0793 -1.8352 115 114 122
-12.0625 12.1045 -1.83364 116 114 124
-12.0211 12.1355 -1.83308 114 112 123
-11.9769 12.1633 -1.83202 118 116 126
-11.9109 12.2048 -1.83044 119 117 128
-11.5062 12.9979 -1.82902 118 110 111
-11.4571 13.0208 -1.82749 113 105 106
-11.3933 13.0247 -1.82303 109 103 108
-11.3164 13.0537 -1.82001 115 107 123
-11.2709 13.0806 -1.81921 115 113 126
-11.2386 13.1247 -1.82109 114 110 123
-11.1531 13.1417 -1.81637 116 114 123
-9.54192 15.1206 -1.7758 99 103 109
-9.49644 15.1519 -1.77641 101 101 109
-9.42132 15.1856 -1.77561 97 99 111
-8.33414 15.9673 -1.71539 102 102 104
-8.2677 15.9553 -1.71115 102 102 105
-8.18114 15.965 -1.70819 99 97 101
-6.50149 13.9282 -1.4299 84 85 96
-6.41921 13.8467 -1.41826 83 84 95
-6.3706 13.852 -1.41687 86 85 97
-19.8655 1.32258 -1.93033 94 107 126
-19.8703 1.38149 -1.9315 91 104 121
-19.847 1.46747 -1.92971 95 103 125
-18.5259 3.91753 -1.96191 85 91 107
-18.5123 3.99967 -1.96266 91 97 113
-18.5085 4.05577 -1.96389 87 93 109
-18.5064 4.11235 -1.96535 86 94 110
-18.4861 4.19305 -1.96537 95 102 116
-18.4913 4.25156 -1.96781 100 107 121
-17.8109 5.07901 -1.9641 92 100 116
-17.8017 5.13312 -1.9651 93 100 116
-17.7904 5.18661 -1.96584 93 100 117
-17.7707 5.26591 -1.96659 92 98 117
-17.7646 5.3212 -1.96808 93 98 116
-17.7659 5.37898 -1.97057 92 99 115
-17.75 5.4312 -1.97081 92 99 115
-17.7366 5.51294 -1.97256 94 100 114
-11.864 12.2292 -1.82887 114 114 122
-11.8209 12.258 -1.82806 118 117 125
-11.5728 12.4415 -1.82545 123 118 117
-11.1133 13.176 -1.81679 123 118 121
-11.0544 13.1847 -1.8133 83 72 80
-10.989 13.2277 -1.81272 88 80 85
-10.9348 13.2423 -1.81021 78 72 80
-10.8994 13.2824 -1.81161 116 115 123
-9.36621 15.1992 -1.77393 97 101 110
-9.32602 15.2405 -1.7759 97 100 106
-9.24684 15.2664 -1.77419 89 92 99
-9.19898 15.2934 -1.77434 95 98 105
-8.12133 15.967 -1.7057 97 95 98
-7.56789 15.5014 -1.63445 98 95 104
-6.30368 13.8746 -1.41655 83 84 99
-6.24473 13.8516 -1.41189 87 88 99
-6.19349 13.849 -1.40963 89 89 97
-19.9149 1.12099 -1.93414 94 106 128
-19.8967 1.1784 -1.93255 96 108 130
-19.8763 1.26482 -1.93099 97 109 131
-18.5761 3.56006 -1.95797 88 96 109
-18.5582 3.61286 -1.95724 90 96 110
-18.5576 3.66929 -1.95871 91 97 113
-18.5646 3.72743 -1.96116 88 97 112
-18.5538 3.8101 -1.96216 93 97 114
-18.539 3.86362 -1.96191 97 99 114
-17.8466 4.55333 -1.94911 95 104 119
-17.8548 4.63968 -1.95312 94 101 119
-17.8317 4.68936 -1.95211 96 101 120
-17.8599 4.75382 -1.95786 94 99 118
-17.8251 4.80013 -1.95535 94 99 118
-17.8187 4.88285 -1.95761 94 99 118
-17.8272 4.94204 -1.96086 93 100 118
-17.8127 4.99439 -1.9611 92 99 117
-11.5329 12.4739 -1.82539 115 112 118
-11.467 12.5146 -1.82406 121 119 118
-11.4119 12.5282 -1.82099 125 124 120
-11.3767 12.5663 -1.82193 130 122 120
-11.3302 12.5904 -1.82061 130 122 119
-10.8498 13.3031 -1.81007 109 106 117
-10.7966 13.3628 -1.81217 110 107 118
-10.7399 13.3735 -1.80918 108 106 118
-10.6901 13.3936 -1.80764 108 107 115
-10.6238 13.4349 -1.80706 109 106 116
-9.14734 15.3132 -1.77357 96 96 106
-9.07611 15.354 -1.77391 96 96 106
-9.03245 15.3893 -1.7752 99 99 109
-7.69914 15.9601 -1.68655 100 99 104
-6.16239 13.9697 -1.42087 93 93 94
-19.9658 0.86004 -1.93791 94 106 128
-19.9444 0.917608 -1.93587 103 116 133
-19.9272 1.00454 -1.93455 95 106 124
-19.9251 1.06301 -1.9348 95 106 124
-18.5643 3.22037 -1.94789 92 96 111
-18.5825 3.27988 -1.95156 101 106 122
-18.5816 3.36393 -1.95354 95 101 117
-18.576 3.41911 -1.95428 89 95 111
-18.5818 3.47663 -1.95649 94 97 114
-17.9166 4.18146 -1.9451 81 90 103
-17.9209 4.26598 -1.94836 91 94 109
-17.8952 4.31501 -1.94686 88 94 110
-17.9038 4.3731 -1.94986 91 94 111
-17.8631 4.44591 -1.94736 97 97 115
-17.8846 4.50774 -1.95212 100 106 122
-11.2947 12.6688 -1.82552 127 121 115
-11.2615 12.7097 -1.82695 131 126 113
-11.2134 12.7318 -1.82538 140 134 121
-11.1502 12.7756 -1.8248 136 129 123
-11.108 12.8051 -1.82448 122 117 114
-11.0682 12.8376 -1.82466 100 94 97
-10.5728 13.453 -1.80528 111 107 116
-10.5319 13.4855 -1.8057 108 106 117
-10.4607 13.5195 -1.80414 107 104 116
-10.4207 13.5534 -1.8048 111 107 119
-10.375 13.579 -1.80424 110 107 119
-8.98148 15.4103 -1.77466 101 101 110
-8.92423 15.4188 -1.77252 93 96 106
-8.84981 15.4533 -1.77218 97 98 103
-7.63986 15.9603 -1.68406 102 101 105
-7.55628 15.9723 -1.68176 100 99 103
-6.10961 13.9629 -1.41817 90 87 88
-6.05623 13.9541 -1.41526 91 87 90
-5.99476 13.9921 -1.4169 90 88 93
-19.9746 0.655253 -1.93758 96 109 128
-19.9894 0.714461 -1.93967 94 105 123
-19.9593 0.801124 -1.93674 93 104 126
-18.5893 3.02919 -1.94639 87 94 110
-18.5692 3.08149 -1.94517 87 93 107
-18.5985 3.17066 -1.95082 90 98 113
-17.9569 3.83143 -1.93908 93 95 113
-17.9498 3.88495 -1.93984 92 94 112
-17.9405 3.93801 -1.94034 84 87 104
-17.9249 4.0171 -1.94085 85 93 106
-17.9268 4.07297 -1.94285 86 92 106
-17.9401 4.13179 -1.94635 82 88 102
-10.9901 12.8617 -1.82108 109 100 99
-10.95 12.8939 -1.82126 107 101 101
-10.9016 12.9149 -1.81969 106 101 101
-10.8519 12.9341 -1.81788 78 67 74
-10.7796 12.9649 -1.81554 86 76 82
-10.7298 12.9837 -1.81373 78 67 75
-10.3227 13.5945 -1.80221 111 108 119
-10.2588 13.6389 -1.80236 109 106 117
-10.2118 13.6623 -1.80156 108 108 118
-10.1636 13.6839 -1.80051 113 113 125
-8.80392 15.4844 -1.77301 103 102 107
-8.75182 15.5029 -1.77224 97 96 101
-8.67359 15.5294 -1.77098 97 98 105
-8.62224 15.5493 -1.77044 95 95 107
-7.44387 15.9863 -1.67853 105 106 111
-7.39348 16.0079 -1.67866 104 103 109
-5.94538 13.9941 -1.41529 84 85 91
-5.8986 14.0035 -1.41456 89 87 96
-5.84734 13.9996 -1.4123 87 80 88
-20.0088 0.451132 -1.94045 94 107 126
-20.0006 0.509561 -1.93979 93 106 123
-19.9912 0.59722 -1.93916 92 105 124
-18.5342 2.57627 -1.9299 137 136 145
-18.5312 2.63102 -1.93064 135 135 144
-18.0533 3.52262 -1.94205 93 101 114
-18.0511 3.57717 -1.94331 92 95 112
-18.0255 3.65412 -1.94232 84 92 105
-17.9919 3.70172 -1.93957 86 93 107
-18.0026 3.75927 -1.94257 91 95 109
-10.6836 13.007 -1.81266 114 113 119
-10.6041 13.0273 -1.80883 116 114 125
-10.5531 13.0438 -1.80676 112 108 122
-10.5056 13.065 -1.80544 115 109 120
-10.4466 13.1134 -1.8061 111 108 115
-10.096 13.7226 -1.79992 107 105 116
-10.0424 13.7355 -1.79765 108 105 114
-9.9973 13.7615 -1.79734 109 107 118
-9.94534 13.8245 -1.80041 106 104 115
-9.88201 13.8217 -1.79594 109 106 118
-8.56744 15.5619 -1.76899 96 94 105
-8.49491 15.6001 -1.76933 94 94 102
-8.43503 15.6014 -1.76651 92 91 101
-5.76788 13.984 -1.40783 71 62 62
-5.74295 14.0587 -1.41473 86 83 79
-20.003 0.333731 -1.93925 91 103 125
-20.0129 0.392572 -1.94065 94 106 128
-18.5447 2.32992 -1.92641 147 128 114
-18.5843 2.52839 -1.93502 116 118 133
-18.0883 3.22819 -1.93851 94 101 115
-18.0754 3.28037 -1.93827 94 101 116
-18.0856 3.33719 -1.94103 93 97 115
-18.0767 3.4176 -1.94205 86 93 107
-18.0845 3.47419 -1.94455 87 95 108
-13.3984 10.1114 -1.91606 96 96 108
-13.3142 10.1064 -1.90695 90 89 103
-13.2021 10.1095 -1.89569 86 87 100
-13.1228 10.1073 -1.88738 76 78 90
-13.0556 10.115 -1.8812 93 96 105
-12.9635 10.133 -1.8734 111 114 124
-12.9189 10.1594 -1.87122 120 123 131
-12.8832 10.1934 -1.87064 127 128 135
-12.8355 10.2169 -1.86792 123 122 128
-10.399 13.1342 -1.80478 113 110 119
-10.3569 13.163 -1.80471 111 109 116
-10.2828 13.1896 -1.80212 114 112 120
-10.2394 13.2163 -1.8018 109 107 118
-10.1927 13.238 -1.80073 110 106 120
-9.84508 13.8607 -1.79758 111 107 121
-9.77883 13.9012 -1.79748 107 103 117
-9.73118 13.923 -1.79667 104 100 114
-9.67313 13.9277 -1.79343 107 105 116
-8.38185 15.6169 -1.76551 98 97 106
-8.31395 15.6651 -1.76722 95 93 101
-8.26634 15.6929 -1.76782 88 89 94
-5.70159 14.0845 -1.41597 84 79 75
-5.62214 14.068 -1.41149 87 77 78
-5.57283 14.0688 -1.40989 84 78 80
-18.594 2.28144 -1.93154 102 94 103
-18.0603 2.84227 -1.92568 93 100 118
-18.07 2.89816 -1.92819 84 93 110
-18.0718 2.95274 -1.9297 86 92 108
-18.0764 3.03505 -1.93222 89 94 110
-18.0855 3.09121 -1.93473 90 97 113
-18.0729 3.14338 -1.93449 92 98 114
-16.115 7.10947 -2.00301 90 93 108
-16.1055 7.19129 -2.00672 91 95 108
-16.0696 7.2317 -2.00482 91 95 107
-16.0656 7.28768 -2.00773 92 94 109
-16.0374 7.36073 -2.00877 92 94 109
-16.0135 7.40701 -2.00875 92 94 107
-16.0159 7.46661 -2.01272 92 94 107
-15.9903 7.54131 -2.0143 91 95 110
-15.9552 7.58201 -2.01267 91 94 111
-15.9359 7.63077 -2.01344 92 94 109
-15.9233 7.68317 -2.01528 93 95 110
-15.888 7.75296 -2.01551 94 92 110
-15.8837 7.80996 -2.01869 92 92 108
-15.8793 7.86701 -2.02186 92 93 111
-15.8395 7.93474 -2.02156 92 93 111
-15.819 7.98327 -2.02233 89 90 108
-15.7965 8.03079 -2.02283 90 91 109
-15.7578 8.09908 -2.0228 90 91 107
-15.7384 8.14837 -2.02383 92 92 108
-15.7344 8.20642 -2.02727 93 93 109
-15.7164 8.25667 -2.02857 91 91 107
-15.704 8.3404 -2.0328 90 93 108
-15.6616 8.37672 -2.03037 89 93 108
-15.6703 8.44284 -2.03594 88 94 108
-15.633 8.51256 -2.03643 89 95 106
-15.5952 8.55152 -2.0348 90 93 105
-15.6031 8.61783 -2.04036 92 92 108
-15.5616 8.68522 -2.04032 90 93 108
-15.5268 8.72593 -2.03922 93 92 108
-15.5238 8.78619 -2.04319 93 92 108
-15.5105 8.84028 -2.04555 93 92 108
-15.4646 8.90515 -2.04497 91 90 108
-15.4442 8.95495 -2.04627 93 92 110
-15.4403 9.01532 -2.05023 93 93 109
-15.3786 9.07022 -2.04726 92 90 107
-15.3808 9.13487 -2.05229 92 91 109
-15.3563 9.18238 -2.05305 92 91 105
-15.2972 9.23886 -2.0506 92 93 106
-15.3037 9.30689 -2.05643 89 91 106
-15.2786 9.35421 -2.05719 90 92 107
-15.2319 9.41901 -2.05687 86 87 106
-15.2195 9.47502 -2.05977 78 78 98
-15.2167 9.53775 -2.06426 84 85 101
-15.1566 9.56136 -2.05942 101 104 114
-15.1106 9.62669 -2.05937 142 142 147
-15.0731 9.6656 -2.05826 152 147 154
-15.0613 9.72258 -2.06142 128 124 128
-15.0146 9.78747 -2.06136 91 85 88
-14.9991 9.84212 -2.06399 80 78 90
-14.9642 9.8829 -2.06341 85 82 94
-14.9167 9.94734 -2.06336 94 92 104
-14.8766 9.98434 -2.06198 86 87 99
-14.8492 10.0306 -2.06273 96 95 107
-14.8121 10.0697 -2.06189 77 77 89
-14.7226 10.1026 -2.0549 81 80 94
-14.6457 10.1115 -2.04738 74 74 86
-14.5595 10.1128 -2.03827 86 86 98
-14.434 10.1164 -2.02515 91 91 103
-14.3371 10.1082 -2.01416 86 86 98
-14.2451 10.1032 -2.00398 87 89 101
-14.1468 10.1252 -1.99539 88 88 100
-14.0411 10.1081 -1.98281 94 96 108
-13.9635 10.1125 -1.97503 95 95 107
-13.8644 10.0993 -1.96352 92 92 104
-13.7605 10.1138 -1.95386 94 93 107
-13.6726 10.1082 -1.94421 94 93 106
-13.5879 10.1046 -1.9351 94 95 107
-13.4813 10.1147 -1.92491 97 97 109
-12.7923 10.2766 -1.86893 123 123 133
-12.7386 10.2944 -1.86515 120 118 129
-12.6995 10.3251 -1.86403 118 115 126
-12.6324 10.363 -1.86077 112 110 120
-12.6034 10.4028 -1.86152 114 113 122
-12.5698 10.4384 -1.86147 112 110 121
-12.5169 10.489 -1.86087 117 115 126
-12.4946 10.5351 -1.86295 116 113 124
-12.465 10.5745 -1.8637 115 113 124
-12.4238 10.6029 -1.86231 116 115 123
-12.3758 10.6582 -1.86278 115 114 122
-10.1525 13.2695 -1.80116 114 112 121
-10.0869 13.3081 -1.80057 108 106 117
-10.0487 13.3425 -1.80149 111 109 121
-10.0016 13.3636 -1.80042 109 105 120
-9.65215 13.9933 -1.79896 107 105 116
-9.56183 13.9938 -1.79325 106 104 115
-9.51903 14.0234 -1.79366 107 105 117
-9.46704 14.0376 -1.79188 101 101 111
-8.20727 15.6951 -1.76522 95 95 104
-8.1523 15.7063 -1.76377 94 94 105
-8.08218 15.7499 -1.76502 93 93 103
-6.46431 13.8198 -1.48818 97 98 103
-5.51703 14.0486 -1.40589 87 82 86
-5.44578 14.0558 -1.40425 76 76 78
-18.5716 1.8127 -1.9211 157 135 115
-18.5621 1.89361 -1.92114 160 141 130
-18.0628 2.59968 -1.92062 130 131 145
-18.0479 2.6512 -1.91988 117 120 135
-16.4043 6.27495 -1.99159 97 99 112
-16.3929 6.32616 -1.9929 97 99 114
-16.3795 6.37661 -1.99395 95 97 113
-16.3394 6.44368 -1.9926 96 97 115
-16.3274 6.4948 -1.99391 93 96 113
-16.3207 6.54828 -1.99603 92 97 112
-16.2835 6.61658 -1.99521 91 95 111
-16.2619 6.66361 -1.99519 90 94 110
-16.269 6.72351 -1.99943 90 96 109
-16.2292 6.7907 -1.99835 88 94 110
-16.2322 6.84909 -2.00206 90 96 112
-16.1901 6.88685 -1.9991 87 93 109
-16.1764 6.96615 -2.00201 91 94 112
-16.1501 7.01117 -2.00145 90 93 110
-16.1451 7.06627 -2.0041 89 94 108
-12.3386 10.6904 -1.86219 114 113 122
-12.2928 10.7142 -1.86001 117 116 125
-12.2386 10.7635 -1.85941 111 110 119
-12.2068 10.8007 -1.85989 117 115 126
-12.1776 10.8407 -1.8609 118 116 130
-12.1116 10.8782 -1.85817 118 114 128
-12.0655 10.9011 -1.85598 117 115 128
-12.0192 10.9238 -1.8538 114 112 125
-11.9766 10.9844 -1.85559 116 114 125
-9.93348 13.3982 -1.79933 109 105 119
-9.88521 13.4172 -1.79801 111 108 119
-9.84546 13.4494 -1.79869 110 105 114
-9.76106 13.4581 -1.79385 110 106 120
-9.39496 14.0678 -1.79056 107 106 120
-9.34292 14.0815 -1.78878 108 108 119
-9.29879 14.1087 -1.78894 105 105 113
-8.03106 15.7697 -1.7647 90 90 101
-7.91949 15.6491 -1.74683 90 89 97
-6.41795 13.8308 -1.48742 97 102 106
-6.36529 13.825 -1.48461 100 104 107
-6.29305 13.8327 -1.48245 100 101 106
-5.39956 14.0655 -1.40374 77 75 83
-5.35045 14.0655 -1.40213 69 68 73
-18.6067 1.57044 -1.92199 148 143 149
-18.5983 1.6515 -1.92203 158 160 171
-18.6175 1.76272 -1.92598 117 107 112
-18.0772 2.33308 -1.91704 146 125 108
-18.0574 2.41069 -1.91607 144 134 131
-18.1952 2.53915 -1.93586 141 140 151
-16.5491 5.64104 -1.97762 95 101 117
-16.562 5.70062 -1.98214 95 100 116
-16.5229 5.74084 -1.97919 96 102 116
-16.5428 5.80334 -1.98478 98 101 116
-16.5146 5.87505 -1.98477 97 100 117
-16.5008 5.92494 -1.98555 95 98 115
-16.4906 5.97625 -1.98687 88 91 107
-16.4578 6.04626 -1.98632 99 101 116
-16.4398 6.09456 -1.98657 116 119 133
-16.418 6.14132 -1.98628 122 124 138
-16.4082 6.22073 -1.9892 109 111 124
-11.9398 11.0167 -1.85527 116 114 125
-11.9099 11.0559 -1.85628 118 116 127
-11.8798 11.0951 -1.85729 118 117 127
-11.8048 11.1223 -1.85296 117 115 127
-11.7622 11.1483 -1.85157 118 117 128
-11.729 11.1842 -1.85204 118 116 129
-11.6808 11.2393 -1.85304 119 119 131
-11.6447 11.2721 -1.85298 120 120 130
-9.72855 13.5017 -1.79627 107 104 116
-9.67796 13.5166 -1.79445 111 108 120
-9.6347 13.5431 -1.79438 109 105 119
-9.56486 13.5742 -1.79304 107 105 118
-9.51934 13.597 -1.79246 107 106 119
-9.2304 14.145 -1.7886 104 104 113
-9.189 14.1771 -1.78949 104 104 112
-9.14942 14.2125 -1.79088 104 104 111
-9.10778 14.2444 -1.79178 105 104 110
-6.03722 11.3684 -1.30754 94 94 103
-5.94064 11.2431 -1.28874 96 96 105
-5.88906 11.2709 -1.28939 97 96 104
-6.24398 13.8357 -1.48078 103 101 107
-6.1834 13.8069 -1.47524 104 103 108
-6.11278 13.8174 -1.47354 97 98 102
-5.3378 14.1871 -1.41448 85 79 78
-18.7427 1.52767 -1.93812 117 116 132
-18.0487 2.08854 -1.90896 95 98 116
-18.0949 2.17465 -1.91625 98 100 120
-18.1049 2.22959 -1.91852 99 95 115
-18.2129 2.29817 -1.9333 128 119 116
-16.6679 5.16751 -1.97076 91 98 116
-16.6958 5.23094 -1.97716 91 98 114
-16.6478 5.29563 -1.97395 91 98 114
-16.6546 5.35221 -1.97741 91 98 114
-16.6276 5.3971 -1.97606 90 99 114
-16.6311 5.47982 -1.98032 92 97 116
-16.5925 5.52054 -1.97737 92 97 116
-16.5874 5.57324 -1.97923 94 99 118
-11.6098 11.3062 -1.85319 116 114 125
-11.5716 11.3726 -1.85631 118 116 129
-11.5736 11.4475 -1.86398 116 114 125
-11.5766 11.5241 -1.87191 115 115 125
-10.9617 11.3383 -1.79855 116 114 128
-10.884 11.3207 -1.78997 117 115 128
-10.8336 11.3707 -1.79069 114 114 125
-9.47376 13.6197 -1.79189 108 107 118
-9.41487 13.6687 -1.79329 106 105 113
-9.36402 13.6825 -1.79147 107 105 116
-9.3172 13.7029 -1.79064 106 104 115
-9.03685 14.2763 -1.79094 103 101 112
-8.98827 14.2957 -1.79013 101 101 113
-8.92733 14.2922 -1.78616 102 101 114
-7.63572 15.8139 -1.75135 91 94 100
-7.59934 15.869 -1.7556 99 100 104
-7.54567 15.8818 -1.7546 97 98 102
-6.16393 14.1019 -1.50627 92 91 96
-5.32147 14.382 -1.43443 98 88 75
-18.0877 1.85331 -1.90989 158 131 114
-18.0731 1.90494 -1.9089 129 119 109
-18.0777 2.03878 -1.9117 92 94 111
-16.71 4.69982 -1.95615 88 95 111
-16.7227 4.75686 -1.96014 91 97 113
-16.7013 4.80345 -1.95933 91 98 114
-16.7003 4.88303 -1.96253 91 98 114
-16.6747 4.92831 -1.96119 92 99 115
-16.7036 4.99112 -1.96759 92 99 117
-16.681 5.06417 -1.96785 91 98 114
-16.6999 5.12424 -1.97291 92 99 115
-15.3855 7.3381 -1.99489 91 94 109
-15.3686 7.38605 -1.99596 90 93 108
-15.3381 7.45513 -1.99675 93 95 110
-15.3296 7.50767 -1.9992 94 96 111
-15.3156 7.55741 -2.00082 93 95 110
-15.3051 7.6377 -2.00491 91 94 109
-15.2786 7.68076 -2.00461 93 95 110
-15.2692 7.73335 -2.00705 93 95 110
-15.2198 7.79241 -2.00509 92 93 109
-15.2203 7.85077 -2.00918 92 92 109
-15.212 7.90432 -2.0119 94 92 109
-15.1674 7.93723 -2.00884 92 90 104
-15.1566 8.01847 -2.01321 88 86 100
-15.1374 8.06603 -2.01427 87 88 103
-15.1282 8.11957 -2.01699 89 91 106
-15.1095 8.1969 -2.02025 90 92 108
-15.0761 8.23626 -2.01912 90 93 107
-15.0511 8.28059 -2.01936 92 96 109
-15.0095 8.3444 -2.01904 91 93 106
-14.9875 8.39062 -2.01983 94 93 109
-14.9637 8.43575 -2.02035 92 91 107
-14.9448 8.48395 -2.02168 91 90 108
-14.929 8.5641 -2.02577 91 92 111
-14.9164 8.61649 -2.0282 91 94 108
-14.8768 8.65188 -2.02624 92 94 109
-14.8634 8.73413 -2.03087 92 94 107
-14.8517 8.78757 -2.03358 93 90 107
-14.8134 8.82371 -2.03189 93 91 109
-14.794 8.9027 -2.0357 90 92 107
-14.7652 8.94516 -2.03566 89 92 108
-14.7313 8.98422 -2.03479 92 93 108
-14.7285 9.04418 -2.03915 93 92 110
-12.684 10.076 -1.90286 99 97 110
-12.581 10.0811 -1.89264 93 91 102
-12.5116 10.0837 -1.88572 89 87 100
-12.4365 10.0806 -1.87771 89 85 100
-12.3442 10.0933 -1.86941 99 102 115
-12.2767 10.096 -1.86278 116 116 128
-12.231 10.1186 -1.86026 130 130 141
-11.5858 11.6082 -1.88118 119 117 130
-11.567 11.6983 -1.88856 117 115 126
-11.5739 11.7812 -1.89755 116 116 126
-11.5765 11.8598 -1.90575 118 116 127
-9.2528 13.7427 -1.79079 109 107 118
-9.2118 13.7731 -1.79147 104 104 115
-9.17168 13.805 -1.79239 103 103 115
-8.86093 14.332 -1.78654 102 102 112
-8.8169 14.3595 -1.78695 103 101 112
-8.77 14.3817 -1.78662 102 100 113
-8.67095 14.3592 -1.77848 103 102 110
-7.46045 15.8877 -1.75151 85 85 91
-7.4133 15.9166 -1.75257 96 99 106
-6.12469 14.1344 -1.50824 92 90 93
-6.02736 14.0002 -1.48994 95 93 96
-18.1312 1.61826 -1.91181 152 149 158
-18.1455 1.80637 -1.91638 154 132 116
-16.8485 4.36993 -1.96098 104 107 122
-16.8472 4.42244 -1.96284 99 105 119
-16.8122 4.4917 -1.96097 94 95 112
-16.7497 4.52646 -1.95429 94 95 113
-16.7555 4.58106 -1.95722 94 102 119
-16.7516 4.63292 -1.95881 94 101 119
-15.7409 6.37035 -1.97993 94 97 113
-15.7309 6.42055 -1.98156 92 97 113
-15.6864 6.4553 -1.97796 89 96 112
-15.6911 6.53948 -1.98344 91 98 114
-15.6751 6.58716 -1.98425 93 96 113
-15.6392 6.62566 -1.98202 92 95 112
-15.6373 6.67992 -1.98502 91 94 111
-15.5906 6.74067 -1.9828 90 93 111
-15.5954 6.79835 -1.9869 91 94 111
-15.5607 6.83725 -1.98495 89 95 109
-15.5578 6.91915 -1.9896 89 95 109
-15.5139 6.95349 -1.98628 89 95 109
-15.5303 7.01745 -1.9923 91 94 109
-15.4786 7.07563 -1.98953 91 94 109
-15.4855 7.13533 -1.99417 91 94 111
-15.4464 7.17183 -1.99167 91 94 109
-15.4469 7.25659 -1.99714 92 94 109
-15.4145 7.29649 -1.99574 90 93 108
-14.6932 9.11309 -2.04048 93 94 109
-14.6507 9.14629 -2.03824 90 94 106
-14.6488 9.2074 -2.04287 91 92 107
-14.6062 9.27151 -2.0431 93 92 106
-14.5714 9.30998 -2.04223 96 95 110
-14.5494 9.35746 -2.04356 92 89 107
-14.5237 9.43376 -2.04681 79 80 98
-14.5045 9.48346 -2.04869 68 73 90
-14.522 9.5598 -2.05689 76 79 94
-14.4201 9.58136 -2.04722 128 131 142
-14.3972 9.62852 -2.04855 148 151 157
-14.3597 9.66505 -2.04741 146 147 151
-14.3555 9.72626 -2.05204 114 113 120
-14.3041 9.78431 -2.05116 77 73 88
-14.2757 9.82764 -2.05166 81 77 93
-14.255 9.87689 -2.05354 82 84 97
-14.2028 9.93443 -2.05266 91 93 108
-14.1677 9.97264 -2.05207 91 93 108
-14.1418 10.018 -2.05312 77 75 92
-14.0532 10.0468 -2.04592 74 72 87
-14.0115 10.0796 -2.04423 74 72 85
-13.9326 10.0827 -2.03594 78 78 90
-13.8414 10.0754 -2.02545 86 89 98
-13.7392 10.0911 -2.01578 82 82 94
-13.653 10.0865 -2.00612 87 88 101
-13.5608 10.0765 -1.99537 88 90 101
-13.4606 10.0915 -1.98597 90 90 101
-13.3748 10.0854 -1.97631 95 93 104
-13.2908 10.0803 -1.96693 99 97 108
-13.1819 10.0858 -1.95588 96 94 107
-13.1042 10.0847 -1.94759 86 84 96
-13.0237 10.0807 -1.93876 95 93 104
-12.9462 10.0789 -1.93047 97 95 106
-12.8501 10.0923 -1.92163 99 97 110
-12.7699 10.087 -1.91279 96 94 107
-12.1897 10.177 -1.86156 128 128 137
-12.1454 10.2006 -1.85932 132 131 140
-12.1154 10.2375 -1.85982 125 124 134
-12.0724 10.2621 -1.85784 120 120 126
-12.0117 10.3021 -1.85558 113 111 121
-11.9657 10.3236 -1.85306 112 110 120
-11.9381 10.3628 -1.85411 115 110 121
-11.8743 10.3993 -1.8513 114 111 123
-11.8464 10.4382 -1.85235 116 114 125
-11.796 10.4548 -1.849 116 115 124
-11.7458 10.5045 -1.84893 113 111 124
-11.5638 11.9593 -1.91473 120 118 130
-11.1774 11.8517 -1.86999 117 117 127
-11.3161 12.0938 -1.90694 117 117 125
-9.10286 13.8373 -1.79154 105 105 115
-9.05076 13.8482 -1.78947 105 104 112
-8.99868 13.859 -1.7874 109 108 116
-8.95241 13.88 -1.78683 103 102 108
-8.64599 14.4232 -1.784 101 101 109
-8.58346 14.4148 -1.77954 100 99 110
-8.52091 14.4618 -1.78114 99 97 108
-7.35167 15.9084 -1.74906 98 100 107
-5.97143 14.0549 -1.4937 98 96 99
-5.92132 14.0549 -1.4918 97 91 95
-5.86875 14.0473 -1.48899 94 83 89
-5.75197 13.9188 -1.47066 75 65 64
-18.182 1.43658 -1.91574 97 105 126
-18.1765 1.48939 -1.91576 94 96 112
-18.1843 1.57009 -1.9178 151 145 158
-16.8746 4.00935 -1.95111 83 84 102
-16.8841 4.06413 -1.95431 85 85 103
-16.8717 4.13942 -1.95538 96 97 114
-16.8578 4.18822 -1.95538 97 102 116
-16.8438 4.23699 -1.95537 100 103 118
-16.8458 4.31639 -1.95858 102 105 120
-15.9296 5.69508 -1.96722 94 100 116
-15.9311 5.74901 -1.97023 95 100 117
-15.9233 5.82597 -1.97324 95 99 115
-15.8894 5.86595 -1.97103 96 99 116
-15.8903 5.91997 -1.97403 92 95 111
-15.8707 5.99244 -1.97539 86 92 106
-15.84 6.03362 -1.97372 107 110 125
-15.8148 6.07698 -1.97288 120 122 135
-15.7966 6.12333 -1.97314 123 122 134
-15.7851 6.1994 -1.97587 105 104 120
-15.7902 6.25591 -1.9797 93 94 109
-15.757 6.29586 -1.97775 91 94 109
-11.6953 10.5206 -1.84559 116 115 123
-11.6711 10.5633 -1.84745 113 111 122
-11.6316 10.5904 -1.8463 116 114 127
-11.5808 10.6394 -1.84624 115 113 126
-11.5466 10.6718 -1.84618 115 113 124
-11.5232 10.7156 -1.84832 117 115 126
-11.4718 10.7641 -1.84825 114 114 126
-11.2278 12.1047 -1.90047 115 115 121
-11.1587 12.0994 -1.89402 116 116 128
-11.0885 12.0923 -1.8873 118 118 126
-11.0196 12.0865 -1.88085 123 124 129
-10.9345 12.0986 -1.87491 117 116 128
-10.8622 12.0874 -1.86766 120 117 130
-10.7999 12.0883 -1.86254 119 117 126
-10.7102 12.0929 -1.85553 117 114 126
-10.653 12.0993 -1.85147 116 112 127
-10.5935 12.1024 -1.84689 114 112 125
-8.88521 13.9146 -1.78647 108 107 112
-8.83118 13.9213 -1.78391 103 102 108
-8.78097 13.9348 -1.78233 104 102 113
-8.47728 14.4901 -1.78179 103 101 111
-8.42734 14.5059 -1.78074 101 99 112
-8.37294 14.5126 -1.77847 99 99 106
-6.02063 11.3203 -1.33378 94 95 108
-5.94881 11.301 -1.32797 97 97 109
-5.9087 11.3069 -1.32666 97 95 108
-5.73939 14.0312 -1.48242 80 75 71
-5.71395 14.1059 -1.48963 88 81 78
-18.1872 1.38375 -1.91572 97 105 126
-16.8847 3.64813 -1.94015 84 90 106
-16.8646 3.72092 -1.9399 82 88 104
-16.8867 3.77805 -1.9447 83 84 102
-16.9162 3.83725 -1.95057 84 86 104
-16.878 3.90585 -1.94791 87 91 110
-16.886 3.96001 -1.95084 89 92 109
-16.0611 5.26856 -1.96293 93 100 118
-16.0716 5.325 -1.96704 91 98 116
-16.0336 5.36388 -1.96401 92 99 117
-16.0315 5.44218 -1.96757 95 98 115
-16.0006 5.48355 -1.96563 93 95 113
-16.0103 5.54021 -1.96974 96 97 115
-15.968 5.5772 -1.96615 95 98 114
-15.9684 5.65697 -1.97026 93 99 115
-11.4793 10.8408 -1.85671 117 116 124
-11.5311 10.9653 -1.87421 116 114 125
-11.5311 11.0703 -1.88484 115 113 126
-10.5356 12.1465 -1.8468 116 115 121
-10.4941 12.1726 -1.84621 114 110 118
-10.455 12.2017 -1.84614 110 109 118
-10.3991 12.2086 -1.84235 116 113 124
-10.3241 12.2296 -1.83854 123 119 125
-10.2671 12.2343 -1.83449 85 76 81
-8.71634 13.9738 -1.78273 103 104 116
-8.66231 13.9799 -1.78016 102 103 115
-8.62315 14.0138 -1.78158 104 104 115
-8.29662 14.5321 -1.77641 98 96 109
-8.24488 14.5436 -1.77487 99 99 111
-8.20091 14.5711 -1.77552 100 101 110
-5.87771 11.3345 -1.32834 101 99 112
-5.61777 14.0366 -1.47859 85 73 75
-5.57105 14.0449 -1.47783 86 76 76
-16.9374 3.32492 -1.93694 85 90 106
-16.9474 3.37848 -1.93988 86 91 110
-16.9205 3.42413 -1.93774 84 90 106
-16.9552 3.48334 -1.94415 85 91 107
-16.905 3.54948 -1.93962 82 88 104
-16.9393 3.60901 -1.94603 84 90 106
-16.1377 4.74811 -1.94899 93 98 117
-16.1671 4.80936 -1.95558 95 100 119
-16.1641 4.88615 -1.9586 91 98 114
-16.1254 4.92526 -1.95529 93 100 116
-16.1503 4.98571 -1.96133 92 99 115
-16.1188 5.0272 -1.95912 89 96 112
-16.1111 5.10276 -1.96159 92 99 115
-16.0867 5.14663 -1.96048 91 98 114
-16.0921 5.20095 -1.96376 92 99 115
-11.5332 11.1434 -1.89247 117 115 129
-11.5428 11.2253 -1.90174 114 112 125
-11.521 11.309 -1.90825 119 117 130
-11.5285 11.3897 -1.91725 115 114 124
-10.2031 12.2293 -1.82883 97 86 92
-10.134 12.2572 -1.82635 89 78 86
-10.1005 12.2932 -1.82762 114 109 115
-10.0599 12.3195 -1.82729 110 108 112
-9.99055 12.3467 -1.82481 116 116 120
-8.5526 14.0416 -1.78048 103 101 115
-8.51042 14.0699 -1.78115 100 98 111
-8.4627 14.0876 -1.78032 101 99 110
-8.41311 14.1015 -1.779 104 102 113
-8.12703 14.5951 -1.77419 100 100 108
-8.08457 14.6258 -1.77533 101 101 111
-8.04618 14.6654 -1.77768 99 99 111
-5.5243 14.053 -1.47707 94 86 88
-5.37081 13.9504 -1.46049 96 90 90
-17.0006 3.08137 -1.93824 83 92 107
-16.9793 3.15396 -1.93745 84 94 106
-16.9452 3.19835 -1.93425 92 100 113
-16.9634 3.25337 -1.93826 88 94 108
-16.181 4.3005 -1.93585 104 110 124
-16.1742 4.34941 -1.93694 103 106 121
-16.173 4.40002 -1.93886 99 102 119
-16.1772 4.45239 -1.9416 99 102 119
-16.1875 4.53224 -1.94627 101 104 121
-16.1535 4.57308 -1.94352 98 104 120
-16.1817 4.6333 -1.94983 98 104 120
-16.1608 4.70391 -1.9501 96 102 118
-11.5382 11.4736 -1.92679 115 115 125
-11.5395 11.5488 -1.93469 114 114 124
-11.5235 11.6418 -1.94284 115 113 126
-11.5305 11.7247 -1.95211 116 116 126
-10.857 11.2793 -1.84433 117 115 125
-10.7979 11.3186 -1.84315 115 113 126
-10.7819 11.3729 -1.84748 118 116 128
-9.94975 12.3726 -1.82448 114 111 119
-9.90547 12.3936 -1.82335 114 109 117
-9.83822 12.4231 -1.8214 114 109 116
-9.79381 12.4437 -1.82027 114 108 118
-9.75949 12.4788 -1.82153 110 104 116
-8.3494 14.1425 -1.77989 104 103 111
-8.2953 14.1472 -1.77732 101 100 108
-8.24739 14.1641 -1.7765 102 100 111
-7.97448 14.694 -1.77709 96 96 108
-7.92496 14.7099 -1.77627 99 99 109
-7.88778 14.7527 -1.77911 101 101 112
-5.34259 14.0187 -1.46701 92 86 87
-5.33028 14.1421 -1.48014 91 82 83
-17.0223 2.80444 -1.93367 89 100 120
-17.0126 2.85369 -1.93367 91 100 118
-17.0047 2.90326 -1.93394 88 97 114
-16.9959 2.97814 -1.93476 87 96 113
-16.9876 3.02768 -1.93503 89 98 113
-16.2442 4.01439 -1.93311 99 102 117
-16.2364 4.06282 -1.93393 98 101 116
-16.2373 4.13893 -1.93695 98 101 118
-16.2158 4.18362 -1.93585 97 101 118
-16.2989 4.25817 -1.94987 96 98 113
-11.5345 11.8047 -1.96083 117 115 126
-11.5233 11.9056 -1.97035 118 117 123
-11.5173 11.9755 -1.97715 117 116 126
-9.69483 12.4697 -1.81561 116 108 120
-9.66847 12.5587 -1.82351 120 112 118
-9.62927 12.587 -1.82371 120 112 114
-9.58226 12.6035 -1.82204 130 121 121
-8.18155 14.2008 -1.77689 103 104 109
-8.13267 14.2155 -1.77581 104 103 111
-8.0803 14.223 -1.77374 104 102 113
-7.83073 14.752 -1.77611 98 98 110
-7.74894 14.7579 -1.77259 100 100 110
-7.7009 14.7766 -1.77227 97 97 108
-5.25887 14.1483 -1.47843 93 87 84
-17.003 2.57265 -1.92535 140 139 152
-16.996 2.62215 -1.92563 137 135 146
-16.3124 3.68 -1.93008 99 103 119
-16.3152 3.75592 -1.93311 96 101 117
-16.2814 3.7976 -1.93009 95 101 117
-16.3031 3.85352 -1.93503 98 104 118
-16.2653 3.89403 -1.93145 97 100 117
-16.2651 3.96953 -1.93421 98 99 116
-11.3021 12.0698 -1.96783 117 115 128
-11.2318 12.0634 -1.96091 115 113 127
-11.1464 12.0769 -1.9548 115 112 123
-11.0726 12.0651 -1.94706 114 111 122
-11.0065 12.0622 -1.94096 115 112 121
-10.9215 12.0743 -1.93485 107 104 118
-10.847 12.0599 -1.92683 111 108 120
-10.2056 11.7074 -1.83352 132 129 136
-10.1619 11.7278 -1.83209 142 140 145
-10.1255 11.7574 -1.8323 148 150 148
-9.52959 12.6545 -1.82382 121 116 112
-9.50965 12.712 -1.8288 134 127 122
-9.46885 12.7381 -1.82874 135 126 123
-8.01587 14.2625 -1.77463 103 104 109
-7.96007 14.2624 -1.77157 103 104 110
-7.91952 14.2944 -1.77298 100 100 108
-7.65759 14.8062 -1.7734 98 98 108
-7.58216 14.8256 -1.77183 99 98 106
-17.0231 2.32323 -1.92236 146 125 110
-17.0132 2.39737 -1.92265 147 129 118
-17.1349 2.51767 -1.94161 87 90 107
-16.3718 3.41914 -1.92925 96 102 116
-16.3564 3.46549 -1.9287 98 101 116
-16.3504 3.51406 -1.92953 106 109 126
-16.3502 3.58899 -1.93201 100 103 120
-16.3169 3.63102 -1.92898 94 97 112
-14.3739 7.47785 -1.99596 93 95 110
-14.3564 7.52283 -1.99709 87 87 101
-14.3286 7.58925 -1.9985 123 122 130
-10.7824 12.0576 -1.92101 120 116 123
-10.7052 12.0777 -1.91654 132 126 134
-10.6275 12.0575 -1.9077 142 140 145
-10.4602 11.9213 -1.87857 144 142 148
-10.083 11.7791 -1.83115 124 124 129
-10.0124 11.8018 -1.82778 119 117 119
-9.96981 11.8231 -1.82662 119 115 116
-9.92482 11.841 -1.82491 93 80 88
-9.85651 11.866 -1.82209 103 91 93
-9.4165 12.7903 -1.83077 128 122 119
-9.37868 12.8211 -1.83151 133 127 124
-9.35137 12.8684 -1.8349 136 129 118
-9.31749 12.9057 -1.83669 136 128 117
-7.85216 14.3278 -1.77312 104 103 114
-7.80884 14.354 -1.77379 104 104 116
-7.76294 14.3748 -1.77371 101 101 111
-6.49868 13.8119 -1.60594 100 99 104
-17.0537 2.10088 -1.92177 90 98 113
-17.0487 2.17566 -1.9226 94 100 123
-17.0488 2.22607 -1.92367 90 96 118
-17.1192 2.28663 -1.93436 110 105 111
-16.4528 3.21273 -1.93364 89 92 107
-16.4476 3.26149 -1.93446 90 93 112
-16.4307 3.30769 -1.93364 92 93 113
-16.4195 3.35513 -1.93364 95 96 114
-14.8505 6.25776 -1.97427 93 95 110
-14.8479 6.30859 -1.97715 93 95 110
-14.8219 6.34857 -1.97625 94 95 113
-14.7803 6.40709 -1.97449 92 95 112
-14.7808 6.4596 -1.97795 95 98 115
-14.7756 6.50961 -1.98053 93 96 113
-14.7494 6.5756 -1.98138 91 94 111
-14.7279 6.61779 -1.98136 92 95 111
-14.6992 6.65642 -1.98017 92 95 110
-14.6987 6.73539 -1.98537 92 95 109
-14.6803 6.77921 -1.98592 92 95 110
-14.6423 6.81313 -1.98328 91 94 109
-14.6447 6.86762 -1.98732 91 94 110
-14.6131 6.93132 -1.98758 90 93 110
-14.5835 6.96944 -1.98639 91 94 111
-14.5783 7.02034 -1.98927 90 93 110
-14.5618 7.09211 -1.99214 93 94 111
-14.523 7.12533 -1.9895 92 94 109
-14.5258 7.18093 -1.99382 91 94 109
-14.5084 7.25266 -1.99669 89 95 109
-14.4831 7.29317 -1.99637 91 94 111
-14.4524 7.33072 -1.99518 89 92 107
-14.4204 7.39456 -1.99573 91 93 108
-14.3998 7.4377 -1.99628 92 94 109
-14.3364 7.6491 -2.00398 120 118 129
-14.3166 7.69304 -2.00482 123 121 129
-14.2981 7.76544 -2.00797 99 98 110
-14.2831 7.81235 -2.00968 90 90 108
-14.2543 7.85109 -2.00907 82 83 101
-14.2249 7.91723 -2.01048 76 78 95
-14.1975 7.95679 -2.01015 75 78 94
-14.1868 8.00666 -2.01273 77 80 96
-14.1608 8.04713 -2.0127 87 88 105
-14.1237 8.10875 -2.01295 106 108 122
-14.1024 8.15221 -2.01378 121 124 134
-14.0892 8.20093 -2.01606 132 134 144
-14.0564 8.26546 -2.01718 146 148 156
-14.0461 8.3163 -2.02005 151 149 155
-14.0225 8.35851 -2.02059 141 137 144
-13.9756 8.41408 -2.01939 121 120 125
-13.9747 8.47142 -2.02399 101 100 105
-13.9522 8.51455 -2.02482 89 87 99
-13.918 8.54989 -2.02362 78 76 89
-13.8997 8.62491 -2.02764 75 74 86
-13.8946 8.68015 -2.03165 75 77 90
-13.8535 8.71076 -2.0293 81 80 94
-13.8051 8.76539 -2.02809 89 86 102
-13.8074 8.82627 -2.03356 92 91 106
-13.7805 8.86672 -2.03381 89 91 105
-13.7217 8.91406 -2.03086 89 92 107
-13.7057 8.96234 -2.03314 90 92 107
-13.6864 9.00828 -2.03484 92 91 107
-13.6796 9.06351 -2.03885 93 92 108
-13.6408 9.12537 -2.03967 90 92 105
-13.6033 9.1583 -2.03818 90 93 103
-13.5896 9.20879 -2.04104 94 94 106
-13.5469 9.26792 -2.04128 92 93 108
-13.5217 9.31001 -2.0421 93 94 107
-13.501 9.35563 -2.0438 92 90 107
-9.82073 11.8964 -1.82257 87 79 89
-9.77908 11.9186 -1.82169 115 111 123
-9.71631 11.9508 -1.82023 125 124 138
-9.67452 11.9727 -1.81935 139 139 150
-9.6361 11.9993 -1.81928 145 145 154
-9.24841 12.9321 -1.83474 136 126 114
-9.1996 12.9456 -1.8328 142 129 119
-9.15701 12.9691 -1.83247 135 126 115
-7.72024 14.4026 -1.77463 100 100 111
-7.64831 14.426 -1.77352 101 100 110
-7.60057 14.4426 -1.77294 102 102 110
-7.32613 14.947 -1.77309 97 97 109
-6.45157 13.8212 -1.6049 98 98 105
-6.38411 13.8422 -1.6043 99 98 103
-17.0614 1.8759 -1.91851 160 137 124
-17.0564 2.00069 -1.92015 88 91 106
-17.0119 2.04521 -1.91509 97 101 116
-16.4331 2.86189 -1.92067 84 92 109
-16.4427 2.9131 -1.92343 86 93 111
-16.4637 2.9667 -1.92783 83 89 106
-16.4605 3.04034 -1.92949 90 92 111
-16.452 3.08826 -1.92977 90 95 111
-16.453 3.13819 -1.93142 86 92 108
-15.0851 5.64145 -1.9687 94 100 115
-15.0339 5.69645 -1.96491 96 99 113
-15.0243 5.74331 -1.96634 96 99 114
-15.0218 5.79324 -1.96893 97 98 116
-15.0082 5.83858 -1.96979 97 98 116
-14.9834 5.9046 -1.97035 97 100 119
-14.9694 5.94987 -1.9712 86 93 111
