-27.8397 -10.6811 -1.60556 161 142 125
-23.3923 -7.28349 -1.28117 123 117 120
-23.2903 -7.13167 -1.27252 122 116 121
-5.1705 -12.5 -0.660132 120 79 77
-5.2 -12.4623 -0.658575 118 77 75
-5.23823 -12.4467 -0.658572 119 78 76
-6.81832 -16.1118 -0.850158 120 76 75
-20.4924 -12.1047 -1.32734 112 98 84
-20.5398 -12.0466 -1.32812 89 76 59
-20.6921 -12.0063 -1.33538 102 91 67
-20.817 -11.9925 -1.34198 99 87 68
-20.9213 -11.966 -1.34703 93 81 64
-21.0759 -11.9676 -1.35584 96 87 69
-21.1781 -11.895 -1.35934 99 93 71
-21.2842 -11.8676 -1.36452 97 94 64
-21.3328 -11.8078 -1.36543 98 90 69
-27.9596 -10.6272 -1.61128 154 138 128
-28.0496 -10.5613 -1.61506 161 142 132
-28.1689 -10.4557 -1.61969 161 144 132
-28.2511 -10.3859 -1.62298 159 142 133
-28.2995 -10.3034 -1.62408 156 139 133
-28.4141 -10.1945 -1.62847 149 132 122
-28.4938 -10.1227 -1.63164 146 128 118
-28.5658 -10.0478 -1.63432 147 129 119
-28.6984 -9.94344 -1.63992 135 122 120
-5.21907 -12.7959 -0.679165 120 77 75
-7.45035 -17.5158 -0.944133 121 77 76
-9.85686 -16.1905 -1.01135 92 89 70
-9.91609 -16.1756 -1.01251 89 92 72
-8.17609 -7.32965 -0.62949 118 85 73
-8.18043 -7.28841 -0.627632 104 75 63
-8.21378 -7.25054 -0.627629 103 88 63
-8.24605 -7.23447 -0.628709 94 92 54
-8.29474 -7.23277 -0.63149 93 96 51
-21.9153 -11.82 -1.3991 79 64 57
-22.0932 -11.7828 -1.40817 97 82 76
-22.2756 -11.7912 -1.41892 110 96 84
-22.4583 -11.7985 -1.42967 134 119 105
-22.636 -11.802 -1.44003 142 127 116
-22.8554 -11.7807 -1.45208 135 124 118
-23.0496 -11.79 -1.46361 125 115 105
-28.8 -9.87802 -1.64455 136 124 120
-28.9054 -9.81333 -1.64943 134 123 117
-29.02 -9.75126 -1.65491 131 118 114
-29.1251 -9.63466 -1.65881 128 119 115
-29.2375 -9.5706 -1.66417 141 132 123
-29.346 -9.50469 -1.66929 86 76 74
-29.416 -9.37493 -1.671 100 93 87
-29.5222 -9.30723 -1.67599 128 121 115
-25.7253 -7.18282 -1.41676 140 137 147
-25.6585 -7.07752 -1.41116 72 69 76
-25.674 -6.99536 -1.4108 108 106 111
-25.7487 -6.9293 -1.41421 143 137 132
-26.2935 -6.85639 -1.4454 83 79 77
-7.36808 -17.7067 -0.953026 119 78 76
-6.03532 -13.985 -0.770667 120 82 77
-9.0718 -16.1591 -0.984055 77 70 62
-9.02792 -15.9621 -0.971496 72 65 57
-9.52641 -16.2611 -1.00437 89 85 76
-9.47367 -16.0541 -0.991033 90 83 77
-9.82854 -16.5486 -1.03039 101 95 81
-9.68067 -16.1797 -1.00488 85 89 73
-13.1993 -7.29539 -0.872815 101 87 78
-13.2404 -7.26493 -0.874403 106 92 86
-23.2493 -11.8009 -1.47552 149 136 127
-23.4733 -11.7767 -1.48783 126 122 119
-23.6683 -11.7823 -1.49936 124 123 119
-23.869 -11.7895 -1.51127 122 121 119
-24.0328 -11.7307 -1.51918 117 115 111
-24.1693 -11.7041 -1.52643 127 120 118
-24.2051 -11.6283 -1.52643 122 115 110
-24.2676 -11.5654 -1.52838 114 107 104
-29.9215 -8.97206 -1.69354 134 124 125
-30.0631 -8.91219 -1.70085 131 126 125
-30.2127 -8.80242 -1.7078 71 64 77
-30.3214 -8.73133 -1.71304 87 88 97
-30.3937 -8.64921 -1.71596 93 87 93
-28.3224 -7.29418 -1.57234 144 143 133
-9.04909 -16.6643 -1.01216 78 70 59
-9.00697 -16.2791 -0.98885 71 62 56
-13.2457 -7.18766 -0.872089 157 148 145
-24.6171 -11.2638 -1.54081 123 117 114
-24.6951 -11.2064 -1.54392 117 112 106
-24.7931 -11.1577 -1.54846 122 114 112
-24.8764 -11.1019 -1.55196 119 112 110
-24.9841 -11.0099 -1.55597 121 114 116
-25.0708 -10.9547 -1.55973 122 116 117
-25.1738 -10.9063 -1.56465 124 120 118
-25.2901 -10.8161 -1.56932 66 59 53
-25.3783 -10.7602 -1.5732 97 85 85
-25.4829 -10.7108 -1.57826 99 87 80
-28.3323 -7.15478 -1.57088 133 128 130
-28.3943 -7.07592 -1.57344 123 118 119
-14.3123 -6.7672 -0.928004 119 113 109
-25.5691 -10.6062 -1.58085 122 122 122
-25.6513 -10.5465 -1.58435 123 121 121
-25.7278 -10.4841 -1.58746 124 121 121
-25.7856 -10.4139 -1.58927 121 120 121
-26.1735 -10.0976 -1.60534 124 118 120
-26.2341 -10.0269 -1.60741 119 115 117
-23.3168 -7.24021 -1.37012 136 122 116
-23.3211 -7.12172 -1.36817 131 119 119
-31.2779 -7.69483 -1.75386 123 120 117
-31.3457 -7.55531 -1.75594 141 135 132
-31.4419 -7.47438 -1.76057 136 130 127
-31.5574 -7.39747 -1.76642 142 138 135
-31.5853 -7.29963 -1.76678 141 137 136
-5.89833 -14.6686 -0.80849 117 76 70
-7.77383 -16.3471 -0.956658 67 63 58
-14.3684 -6.71211 -0.930026 126 121 121
-26.3524 -9.9778 -1.6135 120 116 122
-26.4487 -9.87262 -1.617 120 114 120
-26.5686 -9.82284 -1.62322 122 116 120
-26.6641 -9.76348 -1.62775 120 114 118
-26.7407 -9.69683 -1.63099 114 109 112
-26.8736 -9.60249 -1.63708 118 113 113
-26.9366 -9.53015 -1.63942 119 113 112
-27.0353 -9.47001 -1.64421 121 112 112
-27.0995 -9.34992 -1.64564 131 122 121
-31.7077 -7.17099 -1.77239 141 132 134
-31.8146 -7.09046 -1.77775 67 53 63
-31.9 -7.00462 -1.78177 91 80 86
-32.0367 -6.87685 -1.78835 134 130 132
-32.1546 -6.79683 -1.79445 132 128 124
-32.2782 -6.71734 -1.8009 125 108 87
-9.22341 -12.6288 -0.911594 92 75 55
-9.52906 -12.763 -0.932538 86 83 63
-9.44244 -12.5615 -0.917076 88 77 57
-9.65585 -12.7701 -0.938458 75 59 39
-9.54916 -12.5434 -0.920684 88 70 51
-9.80075 -12.7579 -0.944089 90 73 55
-9.87231 -12.7707 -0.947988 92 73 59
-9.93442 -12.7705 -0.950731 92 71 60
-10.0215 -12.7611 -0.954052 106 87 76
-10.0838 -12.7602 -0.956796 115 95 84
-10.1584 -12.7748 -0.960984 116 95 83
-10.221 -12.7734 -0.963728 120 100 86
-10.3123 -12.7668 -0.967482 126 104 98
-10.3614 -12.7476 -0.968637 132 105 104
-10.3459 -12.6471 -0.962277 127 99 95
-10.3945 -12.5868 -0.961119 109 83 79
-10.452 -12.578 -0.963285 114 84 81
-10.5499 -12.6184 -0.970074 109 78 75
-10.6362 -12.6034 -0.973251 109 80 74
-10.7462 -12.6565 -0.981341 114 83 79
-10.8987 -12.7595 -0.994199 116 84 82
-10.9841 -12.7808 -0.999399 122 92 88
-11.042 -12.7284 -0.999253 121 92 88
-11.0591 -12.6685 -0.996795 103 77 76
-11.0785 -12.6117 -0.994626 99 71 67
-11.1997 -12.6326 -1.00156 109 76 71
-11.2424 -12.6025 -1.00199 109 78 73
-11.46 -12.7714 -1.02164 110 80 74
-11.4967 -12.6929 -1.01918 115 86 80
-11.6206 -12.7525 -1.02843 104 74 66
-11.6491 -12.7047 -1.02727 111 81 73
-11.6854 -12.6658 -1.02698 113 82 77
-11.7602 -12.6292 -1.02871 106 88 78
-11.896 -12.6985 -1.03912 109 94 82
-12.0134 -12.7466 -1.0475 106 92 83
-11.9624 -12.5728 -1.03579 113 95 85
-12.1878 -12.7348 -1.05559 116 94 86
-12.2598 -12.7319 -1.05905 107 83 72
-12.2989 -12.6939 -1.05905 118 88 75
-12.4253 -12.7072 -1.06613 111 93 74
-12.5515 -12.7591 -1.07523 102 88 68
-12.5976 -12.7273 -1.07595 109 88 69
-12.6984 -12.7114 -1.08029 108 82 67
-12.7934 -12.7288 -1.08607 112 86 71
-12.737 -12.593 -1.07624 113 89 75
-13.0013 -12.7392 -1.09734 108 80 69
-13.0588 -12.7172 -1.09921 108 80 71
-13.1362 -12.7144 -1.10311 106 78 70
-13.2208 -12.7183 -1.10774 113 89 71
-12.9721 -12.3585 -1.07667 101 94 63
-13.0172 -12.3252 -1.07739 94 97 52
-13.0693 -12.2986 -1.07883 99 107 56
-13.2752 -12.379 -1.09372 96 101 51
-13.1827 -12.2148 -1.08071 101 97 56
-13.479 -12.4164 -1.10643 104 91 62
-13.5321 -12.3496 -1.10599 100 93 58
-14.2003 -12.4521 -1.14717 94 84 52
-14.3244 -12.3665 -1.14992 99 111 61
-14.2015 -12.182 -1.13445 83 89 48
-14.1816 -12.0883 -1.12896 92 95 49
-14.3374 -12.1078 -1.1385 89 93 55
-14.3745 -12.0632 -1.1385 99 97 61
-14.6897 -12.2541 -1.16494 104 89 70
-14.7586 -12.1958 -1.1661 72 56 39
-14.9053 -12.1636 -1.17289 98 92 55
-27.126 -9.26424 -1.64551 117 113 112
-27.1976 -9.19382 -1.64849 127 122 124
-27.3278 -9.1426 -1.65548 132 123 121
-27.4285 -9.03327 -1.6595 142 132 126
-27.5451 -8.97621 -1.66559 69 62 54
-27.6065 -8.90077 -1.66792 112 104 96
-27.6929 -8.78526 -1.67103 159 150 141
-27.7786 -8.71683 -1.67505 155 143 134
-25.7987 -7.17514 -1.52388 149 147 152
-32.0081 -6.50371 -1.78214 135 110 113
-31.8987 -6.37715 -1.7741 131 127 132
-32.4938 -6.39083 -1.81005 128 130 134
-32.6105 -6.30766 -1.81614 132 130 131
-32.7621 -6.17718 -1.82382 131 128 134
-32.8313 -6.08364 -1.82698 133 128 135
-7.18613 -17.0471 -0.982973 124 84 77
-7.23119 -17.0069 -0.981676 131 91 83
-8.34431 -12.7242 -0.881285 83 76 58
-8.76747 -12.9419 -0.911327 99 99 78
-8.81605 -12.9284 -0.912481 85 88 61
-8.86574 -12.9163 -0.913779 89 91 64
-8.92903 -12.8805 -0.91421 84 81 56
-8.96303 -12.8449 -0.913485 80 77 46
-9.0362 -12.8668 -0.917818 101 98 65
-9.09266 -12.8637 -0.919983 92 85 50
-9.15917 -12.8317 -0.920847 98 89 52
-9.20432 -12.8118 -0.921568 111 99 61
-9.22994 -12.7639 -0.919832 106 93 59
-9.37923 -12.7642 -0.926185 95 78 58
-9.44521 -12.7727 -0.929506 77 61 52
-14.4298 -12.5375 -1.16379 87 94 52
-14.9322 -12.2634 -1.17896 94 85 53
-14.9909 -12.1181 -1.17563 83 76 49
-15.1716 -12.1885 -1.18907 85 80 47
-15.4072 -12.3017 -1.20757 94 91 53
-15.4775 -12.28 -1.2106 92 92 54
-15.5935 -12.2549 -1.2161 97 94 55
-15.6483 -12.22 -1.21768 95 88 55
-15.7484 -12.2205 -1.22346 97 84 63
-15.9196 -12.2363 -1.23401 97 87 62
-16.0123 -12.2294 -1.23907 83 77 45
-16.1682 -12.2706 -1.24991 102 89 55
-16.2693 -12.2288 -1.25396 107 96 66
-16.4005 -12.2491 -1.26248 105 100 62
-28.0926 -8.3825 -1.6884 169 148 128
-28.1831 -8.31348 -1.6928 178 155 137
-28.3074 -8.20569 -1.69863 90 85 100
-28.4032 -8.13712 -1.70343 95 93 99
-25.6835 -7.05673 -1.51469 117 116 114
-25.7163 -6.97923 -1.51547 138 125 117
-25.802 -6.87244 -1.51909 63 46 51
-26.2242 -6.89666 -1.54604 90 81 84
-32.9982 -6.00763 -1.83625 132 129 134
-33.1506 -5.87432 -1.84404 124 121 131
-33.5739 -5.84109 -1.86926 119 116 124
-7.51859 -12.7839 -0.853725 79 74 72
-7.92873 -12.8488 -0.872925 84 74 60
-8.32504 -12.8695 -0.88938 87 73 56
-8.4836 -13.0329 -0.905559 95 83 66
-8.63356 -13.045 -0.912201 67 60 55
-8.65205 -12.9851 -0.909309 78 69 71
-8.70178 -12.9736 -0.910607 79 73 60
-16.4906 -12.2375 -1.26725 94 91 52
-16.5808 -12.2254 -1.27202 88 89 45
-16.6821 -12.181 -1.27607 88 96 59
-16.766 -12.1633 -1.28026 89 102 60
-16.8998 -12.1815 -1.28893 80 96 51
-16.9771 -12.1176 -1.29081 84 95 52
-17.0029 -12.0565 -1.28979 80 91 52
-17.2199 -12.1319 -1.30583 81 85 51
-17.3465 -12.1415 -1.31378 102 103 60
-17.4727 -12.1095 -1.32 91 89 58
-17.5784 -12.1028 -1.32607 84 80 56
-17.6401 -12.065 -1.32823 78 74 44
-17.732 -12.0072 -1.33141 97 94 57
-17.8115 -11.981 -1.33517 86 89 56
-17.8135 -11.902 -1.33214 87 93 63
-17.8784 -11.8252 -1.333 89 93 64
-17.9611 -11.8003 -1.33705 83 82 55
-18.0886 -11.8046 -1.345 75 80 51
-28.3759 -8.03332 -1.69993 99 94 97
-29.1434 -7.56411 -1.74036 103 98 97
-28.3191 -7.25631 -1.68362 140 134 129
-28.3618 -7.12533 -1.68427 137 126 124
-34.2563 -5.84975 -1.91057 137 134 135
-35.0248 -5.812 -1.95662 137 132 134
-35.8121 -5.82789 -2.00438 141 137 141
-3.27595 -7.14898 -0.439925 87 83 81
-3.30066 -7.14693 -0.440593 86 83 76
-3.33353 -7.13268 -0.440589 92 87 84
-3.36605 -7.14873 -0.442937 86 78 78
-6.81088 -12.7503 -0.826886 83 77 72
-6.86836 -12.7651 -0.829773 80 73 71
-6.91774 -12.7638 -0.831359 83 78 75
-6.8324 -12.457 -0.808818 78 73 69
-6.94156 -12.5702 -0.819795 84 74 72
-7.12469 -12.82 -0.842042 83 71 71
-7.3906 -12.8822 -0.855322 76 68 62
-7.74659 -12.9509 -0.872501 78 72 57
-8.75878 -13.8001 -0.963214 112 97 78
-18.2314 -11.818 -1.35425 82 85 60
-18.3762 -11.7912 -1.36205 84 79 59
-18.5094 -11.7964 -1.37044 82 74 56
-18.6563 -11.8094 -1.37997 97 88 74
-18.8101 -11.7849 -1.3885 122 114 100
-18.9507 -11.7919 -1.39746 146 138 120
-19.0915 -11.7981 -1.40642 151 140 131
-19.2629 -11.7809 -1.4164 154 146 140
-19.406 -11.7863 -1.4255 87 78 73
-29.1389 -7.22293 -1.73479 133 122 116
-29.2014 -7.14134 -1.73751 134 120 113
-29.2804 -7.0149 -1.74062 151 136 131
-29.3811 -6.94168 -1.74593 147 133 130
-29.505 -6.87333 -1.7528 151 138 130
-36.6392 -5.84516 -2.05458 135 130 132
-37.2661 -5.82575 -2.09235 134 132 139
-37.2883 -5.64925 -2.09211 146 149 163
-37.3876 -5.54426 -2.09723 141 148 160
-3.23622 -7.20908 -0.443292 106 99 90
-3.26486 -7.1841 -0.442281 95 87 85
-5.98245 -12.4331 -0.779681 81 73 73
-6.16265 -12.5685 -0.794122 85 80 76
-6.1733 -12.4904 -0.789351 86 81 77
-6.27578 -12.6069 -0.800183 81 71 69
-6.3309 -12.5712 -0.799602 87 80 80
-6.37738 -12.5683 -0.800899 90 79 78
-6.51916 -12.7604 -0.817944 81 74 67
-6.59169 -12.7576 -0.820108 79 76 65
-6.64336 -12.7626 -0.822128 81 78 71
-6.67726 -12.7319 -0.821258 83 79 77
-6.74072 -12.7597 -0.825156 90 85 82
-7.62335 -13.5011 -0.902715 76 69 62
-8.24286 -13.7132 -0.93838 81 71 60
-8.21813 -7.37003 -0.705108 112 108 69
-8.21545 -7.32192 -0.70225 101 97 63
-8.23905 -7.29803 -0.702415 103 102 62
-8.25666 -7.26871 -0.701909 96 97 56
-8.30923 -7.24792 -0.704091 84 83 42
-19.5543 -11.7941 -1.43504 116 102 92
-19.7079 -11.8042 -1.44501 106 92 84
-19.8718 -11.7772 -1.45426 122 118 120
-20.026 -11.7853 -1.46424 122 120 124
-20.189 -11.7976 -1.47493 118 115 118
-20.3604 -11.7712 -1.48476 129 124 124
-20.505 -11.7705 -1.49387 109 106 104
-20.6187 -11.7511 -1.50037 116 112 111
-20.711 -11.676 -1.50355 108 104 104
-20.7727 -11.626 -1.50572 122 117 115
-13.1777 -7.24234 -0.946246 113 108 110
-13.1811 -7.16444 -0.943616 116 111 114
-13.2237 -7.13471 -0.94547 117 111 115
-18.2639 -7.3359 -1.20826 120 118 124
-18.2733 -7.24054 -1.20638 120 118 125
-18.3155 -7.19143 -1.20797 120 119 126
-29.5781 -6.79268 -1.7563 151 138 134
-29.6966 -6.67292 -1.76213 154 141 135
-29.7906 -6.59598 -1.76705 156 141 136
-29.8747 -6.5164 -1.77133 139 126 117
-29.9999 -6.39592 -1.77768 132 117 112
-40.2872 -3.0637 -2.16671 88 103 123
-40.3494 -2.94554 -2.17001 120 134 152
-5.71632 -12.5648 -0.780423 77 75 72
-5.78905 -12.5719 -0.78302 76 75 73
-5.81008 -12.5144 -0.779838 82 77 76
-5.87041 -12.5461 -0.783736 80 74 74
-5.92787 -12.5178 -0.783588 82 74 72
-5.96474 -12.4964 -0.783296 77 71 71
-6.17249 -12.6918 -0.802504 89 81 78
-7.80222 -13.9328 -0.93638 72 62 51
-7.92916 -13.9603 -0.942588 72 65 57
-8.08937 -13.9936 -0.950384 82 72 62
-8.09246 -13.8977 -0.944458 70 64 56
-9.04345 -14.4634 -1.01494 87 76 58
-9.50874 -14.8635 -1.05741 92 76 60
-21.1096 -11.3452 -1.51757 124 119 123
-21.1987 -11.2659 -1.52061 123 119 122
-21.2806 -11.2249 -1.52451 121 120 118
-21.343 -11.1732 -1.52682 117 115 117
-21.423 -11.1305 -1.53058 121 121 123
-21.4955 -11.0409 -1.53232 112 104 100
-21.5611 -10.99 -1.53492 142 132 121
-21.6318 -10.9416 -1.53796 120 115 115
-21.7374 -10.8678 -1.54244 118 117 123
-30.0796 -6.31434 -1.7817 109 92 79
-30.157 -6.23192 -1.78558 124 100 82
-30.2596 -6.10473 -1.79051 134 126 121
-30.3169 -6.01741 -1.7931 126 121 117
-30.4641 -5.94729 -1.80165 127 122 123
-30.5896 -5.87218 -1.80878 126 123 123
-9.50111 -15.5988 -1.1025 86 69 49
-9.40249 -15.2157 -1.07505 86 73 57
-21.8061 -10.8176 -1.54533 119 118 123
-21.8819 -10.7706 -1.5488 118 117 122
-21.9798 -10.6916 -1.5527 120 118 123
-22.0464 -10.6393 -1.55545 119 116 123
-22.1183 -10.5894 -1.55863 119 118 126
-14.2593 -6.74932 -1.00438 121 120 126
-14.2936 -6.68417 -1.00469 119 118 124
-22.4644 -10.3711 -1.57482 119 118 124
-22.5519 -10.2839 -1.578 118 117 124
-22.6321 -10.2356 -1.5819 119 118 123
-31.14 -5.82554 -1.84337 128 119 120
-31.7562 -5.83723 -1.88288 132 124 128
-32.408 -5.85147 -1.92473 140 136 136
-5.16296 -12.6012 -0.767458 117 78 73
-5.14037 -12.4279 -0.755175 118 79 72
-5.24489 -12.5236 -0.764417 116 75 71
-9.5013 -15.7103 -1.10944 73 55 41
-10.2257 -12.5104 -1.03084 104 79 65
-10.3251 -12.5141 -1.03594 111 85 73
-10.3383 -12.4514 -1.03285 110 82 77
-10.5196 -12.5933 -1.05032 113 85 81
-10.5818 -12.5492 -1.05078 110 85 78
-10.7136 -12.6281 -1.06206 108 83 75
-10.8954 -12.685 -1.07458 104 80 68
-10.993 -12.6799 -1.07922 111 89 79
-10.9188 -12.5145 -1.06577 111 85 79
-10.9572 -12.4808 -1.06577 108 85 75
-11.0753 -12.4989 -1.07288 109 87 72
-11.1374 -12.4916 -1.07566 122 95 80
-11.2959 -12.593 -1.08973 121 95 78
-11.3994 -12.591 -1.09498 114 88 73
-11.5181 -12.6447 -1.10426 107 79 69
-11.3174 -12.3446 -1.07658 111 84 76
-11.4358 -12.398 -1.08586 111 88 75
-11.5998 -12.4607 -1.09807 105 88 77
-11.772 -12.5696 -1.11338 106 92 81
-11.8119 -12.5346 -1.11353 110 92 82
-11.8386 -12.4464 -1.10997 110 92 80
-11.8946 -12.4285 -1.11198 114 97 83
-11.9519 -12.4119 -1.11414 102 89 69
-12.1172 -12.4684 -1.1262 100 92 62
-12.1443 -12.4194 -1.12497 104 104 65
-12.2644 -12.466 -1.13409 101 106 61
-12.3347 -12.4608 -1.13764 95 93 50
-12.3966 -12.4076 -1.13811 107 93 67
-12.4586 -12.3932 -1.14073 106 92 66
-12.5149 -12.3729 -1.14274 105 89 62
-12.6175 -12.3595 -1.14769 107 87 65
-12.7194 -12.3832 -1.15465 121 101 77
-12.823 -12.4078 -1.16176 103 88 64
-12.8467 -12.3542 -1.16021 101 90 63
-12.8967 -12.2874 -1.15944 86 94 53
-12.9719 -12.2832 -1.16346 79 91 42
-13.0341 -12.2663 -1.16608 99 111 59
-13.0139 -12.1332 -1.15789 99 110 57
-13.1239 -12.1609 -1.16562 92 91 41
-13.2853 -12.2354 -1.17876 105 104 59
-13.358 -12.1884 -1.18046 95 100 48
-13.4013 -12.1523 -1.18108 81 86 34
-13.9826 -12.1406 -1.21432 121 113 79
-14.1146 -12.1795 -1.22406 109 96 67
-14.1369 -12.1226 -1.22251 120 102 68
-14.1596 -12.0281 -1.21911 109 92 59
-14.2086 -11.9944 -1.22035 98 82 53
-14.2987 -11.9952 -1.22576 115 96 76
-14.4652 -12.0597 -1.2389 108 89 65
-14.5593 -12.024 -1.24277 112 96 73
-22.6941 -10.1787 -1.58436 117 115 126
-22.7791 -10.0891 -1.5874 117 116 124
-22.8899 -10.0532 -1.59376 119 118 124
-22.9934 -10.0136 -1.59954 119 118 124
-23.0568 -9.95587 -1.60214 119 116 125
-23.1409 -9.86402 -1.60518 91 84 86
-23.2222 -9.81339 -1.60923 111 99 93
-23.2722 -9.74916 -1.61082 96 87 90
-23.3353 -9.64744 -1.61226 118 117 125
-23.3886 -9.58422 -1.61414 119 118 126
-33.0911 -5.81351 -1.968 130 124 119
-33.7811 -5.82497 -2.01231 133 124 119
-40.8195 -1.11744 -2.19398 104 129 149
-40.7085 -0.990532 -2.18709 112 133 153
-40.6124 -0.802972 -2.18107 118 130 154
-5.17245 -12.7431 -0.777285 118 80 77
-3.26577 -7.22515 -0.465799 71 69 66
-3.27746 -7.19194 -0.463538 73 69 62
-3.31265 -7.18324 -0.464055 75 66 58
-3.33505 -7.17552 -0.464225 68 62 55
-3.36455 -7.18413 -0.465957 61 56 52
-8.99537 -12.7405 -0.987432 95 77 53
-9.07724 -12.7317 -0.990522 105 92 60
-9.13926 -12.7364 -0.993612 108 87 62
-9.13343 -12.645 -0.98758 103 82 52
-9.26044 -12.6984 -0.9967 110 91 63
-9.19923 -12.531 -0.983401 106 86 57
-9.40615 -12.735 -1.00566 104 80 60
-9.25555 -12.4054 -0.97814 108 73 67
-9.40477 -12.5277 -0.992672 104 72 67
-9.53702 -12.6252 -1.00488 105 74 65
-9.5519 -12.5639 -1.00179 105 78 61
-9.75534 -12.7123 -1.0205 106 88 67
-9.70516 -12.5648 -1.00905 108 94 67
-9.8974 -12.736 -1.02869 109 91 70
-9.94668 -12.6776 -1.02745 107 78 73
-9.9978 -12.6627 -1.02899 108 78 72
-10.1189 -12.7371 -1.03935 108 78 72
-10.1829 -12.6965 -1.03997 111 83 75
-10.2504 -12.701 -1.04352 105 79 74
-10.2731 -12.6491 -1.04151 113 89 78
-10.8782 -12.7444 -1.07721 109 86 74
-8.22597 -7.37918 -0.736624 96 95 51
-8.22455 -7.33251 -0.733843 87 85 46
-8.25212 -7.28918 -0.733146 93 92 53
-8.27851 -7.26774 -0.733664 99 94 56
-8.33914 -7.27652 -0.738177 111 101 74
-14.736 -12.0943 -1.25684 108 91 66
-14.7484 -12.0282 -1.25436 107 91 65
-14.8458 -11.9932 -1.25854 121 98 80
-14.9911 -12.0347 -1.26936 131 107 84
-15.1321 -12.0717 -1.27972 131 107 83
-15.219 -12.0643 -1.28467 108 89 64
-15.3452 -12.0488 -1.29163 99 82 59
-15.3978 -12.0133 -1.29318 114 96 73
-15.4849 -12.0046 -1.29812 105 89 63
-15.572 -11.9566 -1.30122 118 99 77
-15.6465 -11.9372 -1.30493 110 89 70
-15.7608 -11.9477 -1.3125 118 96 81
-15.8081 -11.868 -1.31173 122 104 84
-15.8556 -11.8271 -1.31281 108 89 72
-15.9142 -11.7944 -1.31498 104 88 70
-16.0112 -11.7898 -1.32085 97 84 66
-16.1429 -11.7715 -1.32828 85 81 61
-16.2595 -11.7798 -1.33601 72 66 40
-16.3667 -11.7806 -1.34281 81 73 46
-23.4619 -9.52905 -1.61761 118 117 124
-23.7779 -9.27108 -1.63222 116 115 127
-23.8482 -9.17008 -1.63439 117 116 127
-23.9411 -9.12031 -1.63945 117 116 123
-24.032 -9.06934 -1.64436 114 113 121
-34.257 -5.79603 -2.0425 131 122 117
-34.3757 -5.64969 -2.04859 117 113 113
-34.4082 -5.54419 -2.04963 106 104 106
-34.399 -5.43204 -2.04794 97 95 107
-34.4525 -5.32971 -2.05041 99 101 114
-40.5505 -0.12431 -2.17722 89 110 137
-7.78893 -12.5513 -0.923773 130 108 101
-7.8263 -12.4816 -0.920678 134 112 104
-8.00148 -12.6799 -0.94093 134 111 100
-8.0824 -12.7232 -0.947112 121 97 85
-8.1636 -12.7215 -0.950356 126 100 90
-8.175 -12.6528 -0.946333 132 104 93
-8.27582 -12.7253 -0.955298 131 104 95
-8.36172 -12.7292 -0.959161 110 80 78
-8.4181 -12.7303 -0.961632 112 80 78
-8.47892 -12.7379 -0.964722 110 76 77
-8.53878 -12.7436 -0.967658 105 70 72
-8.61324 -12.7276 -0.96982 103 68 66
-8.67441 -12.7344 -0.97291 99 67 64
-8.74128 -12.7491 -0.976773 97 63 61
-8.81042 -12.7237 -0.978162 98 64 60
-8.87981 -12.7411 -0.982334 101 69 60
-8.9336 -12.7352 -0.984342 92 66 56
-16.4957 -11.7574 -1.34993 136 126 104
-16.6178 -11.7672 -1.35812 142 134 111
-16.732 -11.7706 -1.36554 141 135 117
-16.8795 -11.7574 -1.37436 154 145 140
-16.999 -11.7628 -1.38225 149 139 136
-17.1203 -11.7686 -1.39029 144 138 132
-17.2451 -11.7761 -1.39864 142 135 129
-17.3903 -11.7569 -1.40715 139 132 127
-17.5172 -11.764 -1.41565 108 103 93
-17.6476 -11.7725 -1.42447 86 90 73
-17.7901 -11.7482 -1.43266 132 126 121
-24.1052 -8.96822 -1.64682 117 114 125
-24.1735 -8.9079 -1.65 115 112 119
-24.264 -8.8555 -1.65491 117 115 121
-24.3002 -8.78285 -1.65564 118 114 120
-24.3816 -8.68335 -1.65882 119 115 119
-24.4379 -8.61758 -1.66113 123 119 118
-24.4996 -8.55352 -1.66388 125 121 117
-24.582 -8.45327 -1.66721 137 132 126
-24.6321 -8.3846 -1.66909 140 132 125
-23.2977 -7.28234 -1.55258 126 121 125
-7.00194 -12.4797 -0.888249 86 69 59
-7.41854 -12.7251 -0.920702 96 76 70
-7.4833 -12.7474 -0.92472 126 106 108
-7.55034 -12.727 -0.925954 127 104 100
-7.60545 -12.7315 -0.928425 133 113 106
-7.65964 -12.7341 -0.930741 128 109 102
-7.6892 -12.6493 -0.926255 127 108 99
-7.72292 -12.6173 -0.925479 132 108 101
-7.78935 -12.6399 -0.929651 134 109 104
-17.9193 -11.7541 -1.44132 114 110 111
-18.0604 -11.7669 -1.45107 115 110 110
-18.1734 -11.7604 -1.45818 115 112 114
-18.3334 -11.7432 -1.46792 122 120 117
-18.4349 -11.7278 -1.47396 125 120 116
-18.4876 -11.6809 -1.4755 120 117 112
-18.5855 -11.6218 -1.47952 124 120 119
-18.6211 -11.5637 -1.47952 112 108 107
-18.67 -11.514 -1.48076 117 113 114
-18.7215 -11.4254 -1.48061 99 90 91
-18.7939 -11.3897 -1.48401 109 98 92
-18.8629 -11.3516 -1.4871 119 104 90
-18.9232 -11.3081 -1.48942 103 91 86
-18.9874 -11.2265 -1.49051 117 113 114
-19.0544 -11.1864 -1.49344 123 121 124
-19.1213 -11.1459 -1.49638 115 114 112
-24.68 -8.31503 -1.67082 140 132 127
-24.7633 -8.21407 -1.67429 134 130 129
-24.8184 -8.14643 -1.6766 119 109 111
-24.9092 -8.09026 -1.68166 96 85 92
-24.998 -8.03299 -1.68658 101 92 89
-25.0916 -7.9335 -1.69092 126 125 126
-23.331 -7.21284 -1.55345 130 130 131
-23.3219 -7.09025 -1.55027 127 124 127
-34.8281 -4.1067 -2.06441 90 106 129
-34.874 -3.94557 -2.06623 89 103 130
-5.74971 -14.3896 -0.903697 123 93 80
-6.70474 -12.5738 -0.883783 91 76 51
-6.62744 -12.3308 -0.8643 90 74 58
-6.68748 -12.3531 -0.868008 91 75 63
-6.79605 -12.4194 -0.876508 85 68 58
-6.97875 -12.6693 -0.900314 91 71 66
-7.06015 -12.7271 -0.907269 99 74 67
-7.18493 -12.7221 -0.911592 109 88 82
-7.23363 -12.7177 -0.913135 121 100 94
-7.29012 -12.727 -0.915915 121 96 91
-7.37158 -12.7336 -0.919468 130 105 96
-19.2073 -11.0762 -1.49948 119 117 122
-19.2774 -11.037 -1.50272 120 118 122
-19.3319 -10.9886 -1.50458 116 114 119
-19.4122 -10.9146 -1.50721 114 113 118
-19.4629 -10.8637 -1.50876 117 116 121
-19.5065 -10.8086 -1.50968 118 117 123
-19.8208 -10.623 -1.52438 116 116 124
-19.9138 -10.5534 -1.52825 117 116 123
-19.9742 -10.506 -1.53072 117 116 124
-20.0275 -10.4546 -1.53258 119 118 124
-20.1005 -10.3734 -1.53474 110 106 108
-18.2333 -7.2797 -1.30443 120 119 127
-18.2293 -7.21235 -1.30227 121 120 128
-18.277 -7.16546 -1.30443 120 119 127
-25.392 -7.63764 -1.70567 126 129 130
-25.4417 -7.56599 -1.70769 125 125 127
-25.5046 -7.49804 -1.71073 125 115 113
-25.5865 -7.39191 -1.71434 86 82 85
-25.6719 -7.3298 -1.71911 92 86 89
-34.8854 -3.83594 -2.06623 88 102 129
-34.9223 -3.72901 -2.06791 80 92 115
-6.38222 -15.1333 -0.970711 113 78 74
-6.17657 -12.5313 -0.862476 65 53 42
-6.19178 -12.4642 -0.858298 72 59 41
-6.23476 -12.4057 -0.855667 74 56 44
-6.3157 -12.4745 -0.863239 83 70 64
-6.35661 -12.4608 -0.8637 79 72 61
-6.43392 -12.4712 -0.867098 68 57 39
-6.58846 -12.6831 -0.887194 64 54 38
-6.66429 -12.736 -0.893529 67 53 40
-6.7306 -12.7198 -0.894763 109 91 70
-20.1711 -10.3306 -1.53815 132 125 116
-20.2346 -10.2838 -1.54093 142 134 129
-20.2927 -10.2339 -1.54325 118 117 124
-20.3826 -10.1601 -1.54696 119 117 128
-20.4708 -10.1246 -1.55191 120 118 129
-20.532 -10.0755 -1.55454 118 116 127
-20.6197 -9.99914 -1.5581 118 116 127
-20.6914 -9.95452 -1.56166 119 117 128
-20.7505 -9.90352 -1.56413 116 116 126
-25.7169 -7.25578 -1.72085 107 102 102
-25.7748 -7.14169 -1.72273 87 83 97
-25.8327 -7.07087 -1.72547 135 130 135
-25.9019 -7.00288 -1.72909 109 95 92
-25.976 -6.89225 -1.73227 76 62 61
-26.0987 -6.83766 -1.73993 78 68 64
-6.88314 -16.1621 -1.05349 114 81 74
-5.81609 -12.4602 -0.845644 74 65 55
-5.86229 -12.4086 -0.843476 88 76 63
-5.97835 -12.5612 -0.858005 89 74 61
-6.07703 -12.6734 -0.869133 95 78 68
-6.12818 -12.6296 -0.867738 74 56 47
-6.12617 -12.5246 -0.860314 66 53 38
-13.2679 -7.28378 -1.05276 117 115 126
-13.215 -7.20107 -1.04553 118 116 127
-13.2706 -7.15177 -1.04771 117 115 126
-21.0148 -9.74971 -1.57774 118 116 130
-21.0535 -9.68811 -1.57852 118 116 129
-21.1234 -9.60079 -1.58068 118 116 127
-21.1963 -9.55434 -1.5844 118 116 127
-21.2599 -9.50345 -1.58734 118 116 127
-21.3382 -9.41889 -1.59028 119 117 128
-21.4253 -9.37768 -1.59523 120 118 129
-21.4922 -9.32727 -1.59847 121 118 129
-21.5737 -9.28283 -1.60296 139 134 136
-26.175 -6.7703 -1.74413 123 113 108
-26.23 -6.69709 -1.74673 115 103 97
-26.3067 -6.58526 -1.7502 110 96 91
-26.3728 -6.51422 -1.75367 102 93 86
-26.4715 -6.45091 -1.7596 109 100 94
-26.5297 -6.33323 -1.76177 152 143 137
-5.77403 -12.5732 -0.852298 98 81 71
-5.8442 -12.6268 -0.858324 84 71 62
-21.6384 -9.19084 -1.60482 96 86 83
-21.7049 -9.13933 -1.60806 110 100 92
-21.7805 -9.09132 -1.61209 131 129 133
-21.848 -8.99961 -1.61425 119 116 127
-21.9251 -8.95153 -1.61843 121 119 132
-22.0004 -8.9023 -1.62245 121 120 130
-26.6048 -6.26328 -1.76596 133 126 124
-26.6758 -6.19199 -1.76986 130 123 124
-26.7756 -6.08279 -1.77521 132 123 123
-26.8695 -6.01581 -1.78085 140 132 131
-27.0098 -5.95866 -1.78996 147 138 134
-5.20505 -12.4622 -0.827132 118 83 76
-5.3766 -12.6654 -0.84676 122 90 81
-5.44137 -12.656 -0.847993 118 84 76
-5.48632 -12.6544 -0.849226 114 85 73
-14.3078 -6.76979 -1.11205 116 115 128
-14.3747 -6.71989 -1.11541 117 116 130
-22.2656 -8.64781 -1.63452 126 122 120
-22.2959 -8.53959 -1.63375 134 130 127
-22.3236 -8.47045 -1.6339 138 134 130
-22.3568 -8.40332 -1.63452 145 135 131
-22.4252 -8.30929 -1.637 145 136 129
-22.4503 -8.23903 -1.637 144 135 126
-22.5127 -8.18229 -1.64009 139 134 123
-22.5843 -8.12861 -1.64396 137 131 125
-22.6479 -8.03174 -1.64612 129 125 124
-27.0975 -5.88918 -1.79516 139 131 125
-27.5213 -5.84651 -1.82466 164 149 136
-28.0043 -5.85819 -1.85921 164 146 126
-5.11631 -12.6346 -0.837038 119 87 72
-5.15147 -12.61 -0.836261 120 86 76
-5.16686 -12.5353 -0.831311 119 83 77
-5.33692 -12.6795 -0.846609 117 83 76
-10.7556 -12.2343 -1.14815 124 106 83
-10.7515 -12.153 -1.14277 128 105 84
-10.9112 -12.2218 -1.15604 115 96 70
-11.0826 -12.3408 -1.17317 103 86 59
-11.102 -12.2857 -1.17082 129 109 84
-11.2172 -12.2997 -1.17821 116 92 68
-11.2656 -12.2769 -1.17955 106 84 61
-11.2912 -12.2289 -1.17804 107 84 68
-11.3823 -12.253 -1.18476 103 85 73
-11.4848 -12.2501 -1.19047 108 93 86
-11.5413 -12.2352 -1.19282 100 83 74
-11.6099 -12.2331 -1.19668 107 93 81
-11.6884 -12.2025 -1.19936 112 96 83
-11.7518 -12.1939 -1.20256 108 95 78
-11.8275 -12.198 -1.20726 95 87 60
-11.9501 -12.2122 -1.21532 93 83 53
-12.0056 -12.1938 -1.2175 97 100 60
-12.1095 -12.2253 -1.22556 92 98 55
-12.1595 -12.2007 -1.22707 94 92 53
-12.2383 -12.1669 -1.22976 97 91 55
-12.3233 -12.1771 -1.23547 98 89 54
-12.4057 -12.1841 -1.24085 100 93 51
-12.5115 -12.1756 -1.24672 103 94 61
-12.5744 -12.162 -1.24975 114 102 77
-12.6515 -12.1621 -1.25445 106 93 77
-12.722 -12.1172 -1.25613 74 68 38
-12.8007 -12.1179 -1.261 90 89 48
-12.8609 -12.1003 -1.26368 91 88 46
-12.9311 -12.092 -1.26755 91 95 54
-13.0363 -12.0784 -1.27326 94 100 54
-13.1198 -12.0816 -1.27863 89 95 51
-13.1524 -12.0368 -1.27813 95 96 56
-13.6391 -11.9544 -1.30416 98 87 71
-13.6995 -11.9332 -1.30685 106 94 73
-13.7308 -11.8485 -1.30416 71 59 43
-13.7806 -11.8176 -1.30567 93 80 66
-13.8694 -11.8205 -1.31155 83 69 57
-13.983 -11.8065 -1.3181 107 92 71
-14.0767 -11.8122 -1.32448 89 76 57
-22.7003 -7.97067 -1.64844 121 118 120
-22.845 -7.94137 -1.65834 123 120 126
-23.1209 -7.91586 -1.67799 123 121 122
-23.3923 -7.92711 -1.69825 125 123 129
-28.5208 -5.87373 -1.89622 209 178 152
-29.0254 -5.83615 -1.93164 193 156 126
-29.5485 -5.84571 -1.96908 195 156 126
-5.11162 -12.739 -0.844462 106 78 63
-9.37395 -12.3031 -1.07898 126 107 83
-9.69361 -12.5302 -1.11056 104 93 61
-9.82479 -12.5418 -1.11811 102 85 65
-9.957 -12.5927 -1.12836 103 83 70
-10.0627 -12.6487 -1.13759 97 80 66
-10.0844 -12.5958 -1.13524 91 84 53
-10.1748 -12.5899 -1.1396 93 90 51
-10.164 -12.4962 -1.13288 106 101 63
-10.2049 -12.4681 -1.13322 104 99 60
-10.2481 -12.4429 -1.13389 101 90 60
-10.277 -12.36 -1.13002 107 92 68
-10.3023 -12.313 -1.12834 94 84 52
-10.3477 -12.2905 -1.12935 88 83 44
-10.4351 -12.2795 -1.13338 101 93 63
-10.6156 -12.4186 -1.15219 110 96 74
-10.6947 -12.4347 -1.15756 108 87 65
-10.7755 -12.4126 -1.16058 127 103 80
-10.7774 -12.337 -1.15588 136 114 93
-14.163 -11.811 -1.33002 146 133 117
-14.2631 -11.8208 -1.33708 146 131 118
-14.3667 -11.7952 -1.34246 151 139 123
-14.4625 -11.8001 -1.34901 147 138 129
-14.5617 -11.8071 -1.35589 147 138 132
-14.678 -11.7895 -1.36261 138 129 126
-14.7759 -11.7941 -1.36933 126 119 112
-14.8709 -11.7956 -1.37571 128 120 116
-14.9877 -11.7759 -1.38243 122 116 113
-15.094 -11.7849 -1.38999 120 114 111
-15.1926 -11.7873 -1.39671 122 116 112
-15.293 -11.7903 -1.4036 125 119 111
-15.4277 -11.7811 -1.41217 112 105 102
-15.5284 -11.7829 -1.41906 118 114 113
-15.6436 -11.7951 -1.42746 114 113 111
-15.7552 -11.7653 -1.4335 112 110 109
-13.2189 -7.27634 -1.0913 116 115 128
-13.2285 -7.22844 -1.09008 115 115 127
-13.2825 -7.17795 -1.09216 114 114 126
-23.6847 -7.9437 -1.72022 125 124 129
-23.9521 -7.90846 -1.73909 137 134 140
-23.9835 -7.83584 -1.73971 82 75 78
-23.9749 -7.75024 -1.73708 108 100 97
-23.9755 -7.66779 -1.73523 112 110 112
-23.9763 -7.54426 -1.73244 119 120 125
-23.3115 -7.25556 -1.6766 116 116 124
-23.2304 -7.15086 -1.66825 113 111 121
-29.9234 -5.82295 -1.99554 207 170 140
-29.9837 -5.73725 -1.99872 185 155 132
-30.0232 -5.59852 -1.99973 135 117 103
-30.0261 -5.50168 -1.99872 98 85 77
-30.0482 -5.40843 -1.99916 110 99 97
-8.76717 -12.5506 -1.06591 107 81 69
-8.89202 -12.6505 -1.07884 95 71 54
-9.09939 -12.741 -1.09513 91 79 52
-8.91534 -12.393 -1.0622 108 98 62
-9.2119 -12.734 -1.10016 101 90 53
-9.19243 -12.6229 -1.09159 108 95 57
-9.28219 -12.6244 -1.09613 105 87 64
-9.37905 -12.6768 -1.10452 107 81 64
-9.28149 -12.4593 -1.08487 105 77 65
-9.41558 -12.521 -1.09578 99 75 65
-9.50473 -12.5611 -1.103 103 84 67
-9.61629 -12.549 -1.10787 111 96 68
-9.82344 -12.621 -1.12332 104 93 64
-15.8739 -11.7785 -1.44224 128 123 119
-15.9881 -11.7875 -1.45047 125 120 114
-16.0833 -11.7817 -1.45669 125 121 116
-16.1746 -11.7337 -1.46055 122 119 115
-16.2379 -11.7033 -1.46341 115 110 106
-16.3139 -11.682 -1.4676 107 98 96
-16.3873 -11.6197 -1.46962 108 99 99
-16.3985 -11.5513 -1.4671 111 107 103
-16.4663 -11.5233 -1.47046 109 104 101
-16.5309 -11.4543 -1.47164 120 116 113
-16.597 -11.4245 -1.47483 115 111 112
-16.6663 -11.3966 -1.47836 122 117 121
-16.6978 -11.3424 -1.47802 116 111 116
-16.7732 -11.2801 -1.48037 112 108 109
-16.8225 -11.2378 -1.48188 119 113 115
-16.9031 -11.2165 -1.48659 118 112 114
-16.988 -11.1595 -1.48995 116 113 116
-17.0504 -11.1252 -1.4928 120 120 120
-17.101 -11.083 -1.49448 119 118 124
-17.1638 -11.0106 -1.49566 118 116 122
-17.2191 -10.9711 -1.49784 120 117 124
-17.2443 -10.9121 -1.497 118 116 122
-17.2944 -10.869 -1.49868 114 113 118
-17.3596 -10.7976 -1.50019 117 114 121
-17.428 -10.7657 -1.50372 115 113 116
-23.9483 -7.24853 -1.72378 117 114 123
-23.972 -7.17401 -1.72394 113 111 118
-23.9591 -7.08866 -1.72115 96 92 103
-23.9665 -6.96871 -1.71914 69 60 69
-23.9836 -6.89245 -1.71883 52 42 49
-24.0043 -6.81723 -1.71883 44 33 42
-24.0497 -6.74893 -1.72084 63 59 59
-30.1332 -5.27753 -2.00364 105 96 98
-30.1522 -5.08615 -2.00277 148 143 147
-30.1632 -4.94209 -2.00191 79 84 98
-30.2484 -4.85877 -2.00711 73 81 100
-7.63396 -12.3463 -0.999432 109 81 73
-7.66371 -12.3094 -0.998086 113 84 75
-7.73444 -12.3407 -1.00346 111 79 69
-7.87047 -12.4345 -1.01622 115 88 71
-8.29142 -12.7217 -1.05568 109 78 73
-8.35289 -12.7317 -1.05921 108 76 72
-8.45277 -12.7572 -1.06559 110 77 72
-8.51033 -12.7598 -1.06844 115 83 78
-8.57555 -12.7739 -1.07247 112 78 76
-8.61807 -12.7527 -1.07297 114 79 76
-8.69261 -12.7364 -1.07532 110 77 68
-8.7571 -12.748 -1.07918 118 86 76
-8.80956 -12.7411 -1.08119 102 74 64
-9.01194 -12.7415 -1.09093 100 82 60
-17.4693 -10.7166 -1.50456 120 118 121
-17.5611 -10.6609 -1.50876 102 92 87
-17.6174 -10.6206 -1.51111 119 102 94
-17.6703 -10.578 -1.51313 112 98 86
-17.7315 -10.5404 -1.51599 124 116 117
-17.8057 -10.4726 -1.51851 118 115 124
-17.8685 -10.4353 -1.52153 117 116 122
-17.9261 -10.3947 -1.52405 115 114 122
-17.9808 -10.3147 -1.52472 114 114 125
-18.045 -10.2775 -1.52792 117 115 126
-18.0884 -10.2281 -1.52909 116 114 126
-18.1667 -10.161 -1.53212 113 113 124
-18.2219 -10.118 -1.53447 114 114 126
-14.3096 -6.78577 -1.15745 115 114 127
-14.3603 -6.72803 -1.15936 118 116 132
-24.1073 -6.64315 -1.72301 122 119 120
-24.1387 -6.57067 -1.72394 120 118 117
-24.1931 -6.50424 -1.72672 123 119 120
-24.2804 -6.4056 -1.73137 127 122 126
-24.3575 -6.34446 -1.73601 128 125 128
-24.4325 -6.2824 -1.74049 125 125 127
-24.4725 -6.21112 -1.7422 125 125 126
-30.3486 -4.53363 -2.01087 87 99 121
-30.3972 -4.44348 -2.01348 92 104 127
-30.4358 -4.35166 -2.01536 90 102 126
-7.60408 -12.6959 -1.02346 111 77 76
-7.66708 -12.7142 -1.02749 110 77 75
-7.67604 -12.6393 -1.02245 111 81 71
-7.71849 -12.5768 -1.01976 109 79 68
-8.10978 -12.738 -1.04864 114 87 69
-8.16568 -12.7404 -1.05132 116 86 75
-8.25434 -12.7503 -1.05602 115 85 77
-10.6072 -12.1574 -1.17983 113 93 68
-10.6483 -12.1292 -1.18035 114 97 69
-10.7051 -12.1189 -1.18295 122 100 75
-10.8781 -12.2024 -1.1984 126 101 78
-10.9286 -12.1837 -1.20014 124 101 80
-10.9858 -12.1723 -1.20274 113 93 69
-11.1446 -12.2354 -1.21611 109 86 63
-11.1874 -12.2069 -1.2168 132 108 82
-11.2207 -12.168 -1.21628 105 83 59
-11.3188 -12.1614 -1.22166 99 83 67
-11.3925 -12.1659 -1.22635 109 97 84
-11.446 -12.1482 -1.22843 99 86 76
-11.5131 -12.1448 -1.23225 108 91 83
-11.6048 -12.129 -1.23676 109 91 79
-11.6818 -12.135 -1.24179 111 95 80
-11.7657 -12.1477 -1.2477 99 87 62
-11.8579 -12.1304 -1.25221 100 87 58
-11.9089 -12.108 -1.25395 100 86 66
-11.9766 -12.1024 -1.25776 89 79 48
-12.0667 -12.1193 -1.26436 95 87 53
-12.1718 -12.1127 -1.27044 97 89 63
-12.2314 -12.0975 -1.27321 100 93 65
-12.3108 -12.1017 -1.27842 88 82 44
-12.4037 -12.0808 -1.28294 105 96 58
-12.4805 -12.0814 -1.2878 107 100 69
-12.5104 -12.0358 -1.28693 126 114 91
-12.6047 -12.015 -1.29161 94 79 59
-12.6602 -11.9938 -1.29387 77 66 43
-12.7243 -11.9807 -1.29717 96 87 65
-12.7277 -11.9098 -1.29317 92 87 58
-12.7813 -11.8493 -1.293 87 88 49
-12.854 -11.8436 -1.29734 88 92 55
-12.9326 -11.8429 -1.30237 84 79 49
-13.0343 -11.8258 -1.30793 86 72 52
-13.5802 -11.8357 -1.34422 145 132 119
-13.6904 -11.8208 -1.35064 162 148 147
-13.7838 -11.8278 -1.35724 155 145 140
-13.8698 -11.8278 -1.36297 152 144 137
-13.9896 -11.8186 -1.37043 136 128 122
-14.082 -11.8228 -1.37686 128 122 119
-18.4488 -9.90966 -1.54304 113 113 126
-18.5262 -9.87755 -1.54757 113 113 125
-18.6103 -9.81134 -1.55127 114 115 125
-18.6577 -9.76253 -1.55295 116 116 126
-18.6786 -9.69964 -1.55211 115 115 125
-18.778 -9.64052 -1.55732 129 121 114
-18.848 -9.60282 -1.56118 144 134 131
-18.9037 -9.55753 -1.5637 118 116 125
-18.9647 -9.51466 -1.56673 116 116 128
-19.0316 -9.43735 -1.56891 117 115 129
-19.0852 -9.3903 -1.57126 115 113 126
-19.1369 -9.34211 -1.57345 116 116 128
-24.5297 -6.10312 -1.74452 125 124 125
-24.6137 -6.04227 -1.74978 126 126 126
-24.7015 -5.98187 -1.75535 129 129 129
-24.7965 -5.88164 -1.76076 128 128 130
-30.461 -4.209 -2.01579 89 101 125
-30.4949 -4.11623 -2.01738 88 100 125
-30.5186 -4.02196 -2.01825 86 98 124
-30.5403 -3.8786 -2.01854 88 102 126
-30.589 -3.78729 -2.02129 86 98 122
-6.72311 -12.3788 -0.96387 115 86 75
-6.76944 -12.3743 -0.965379 110 80 72
-6.85574 -12.3982 -0.970582 109 77 70
-6.87231 -12.337 -0.966716 110 77 70
-7.09103 -12.653 -0.998962 113 78 72
-7.20487 -12.7223 -1.0087 121 86 82
-7.27743 -12.7616 -1.01458 120 87 82
-7.33299 -12.7691 -1.01743 120 91 83
-7.338 -12.6383 -1.00802 111 78 71
-7.44215 -12.7324 -1.01927 110 78 76
-7.49402 -12.7323 -1.02145 110 79 76
-7.55091 -12.7407 -1.02447 115 84 79
-9.31522 -12.2492 -1.11493 104 95 59
-9.50843 -12.3874 -1.13472 108 98 62
-9.5512 -12.3646 -1.13541 105 98 56
-9.64342 -12.4064 -1.14322 104 94 59
-9.61597 -12.2916 -1.13384 105 91 65
-9.80947 -12.4233 -1.15329 106 93 59
-9.86714 -12.4183 -1.15606 106 97 61
-9.94948 -12.4442 -1.16231 95 91 54
-9.99469 -12.3827 -1.16058 116 104 72
-10.0873 -12.4204 -1.16821 103 87 62
-10.0593 -12.3072 -1.15901 101 87 56
-10.1383 -12.3273 -1.16474 103 93 57
-10.2066 -12.2943 -1.1663 102 88 62
-10.2721 -12.2967 -1.17012 97 86 55
-10.2895 -12.2406 -1.16734 108 102 63
-10.3665 -12.2175 -1.17011 99 94 60
-10.491 -12.2891 -1.18192 101 92 65
-10.5673 -12.3024 -1.18712 104 92 69
-10.6526 -12.2868 -1.19094 128 107 83
-8.22827 -7.28299 -0.8311 155 142 131
-8.25173 -7.25889 -0.831289 154 145 135
-8.27955 -7.23869 -0.832053 150 142 135
-14.1822 -11.8328 -1.38415 125 122 117
-14.2642 -11.8271 -1.38936 127 121 117
-14.3833 -11.8139 -1.39665 120 114 111
-14.4717 -11.8122 -1.40256 122 116 113
-14.5772 -11.8239 -1.41037 120 116 113
-14.6891 -11.8022 -1.41679 120 117 113
-14.7857 -11.8052 -1.42357 119 117 111
-14.8918 -11.8151 -1.43138 120 117 112
-14.9995 -11.7876 -1.43728 121 114 114
-15.1076 -11.7976 -1.44527 119 113 112
-15.2002 -11.7947 -1.45152 115 112 111
-15.2646 -11.7694 -1.45465 118 113 113
-15.3363 -11.7115 -1.45656 117 114 109
-15.3847 -11.6734 -1.45795 118 110 107
-15.4442 -11.6436 -1.46055 111 105 102
-15.5028 -11.5751 -1.46107 108 99 100
-15.5334 -11.5233 -1.46055 116 111 107
-15.5878 -11.4892 -1.46263 123 118 113
-15.6841 -11.4482 -1.46732 124 120 118
-15.7272 -11.4052 -1.46819 112 108 109
-15.8039 -11.3866 -1.4727 116 110 112
-15.8597 -11.3526 -1.47496 126 117 119
-15.9121 -11.2785 -1.47496 125 117 115
-15.9677 -11.2439 -1.47722 119 111 109
-16.0297 -11.2136 -1.48017 122 116 117
-16.106 -11.1558 -1.48277 117 115 118
-16.1417 -11.1067 -1.48295 120 115 119
-16.1854 -11.0632 -1.48399 119 114 118
-16.2505 -11.0341 -1.48729 121 116 120
-19.2084 -9.26634 -1.57614 115 114 128
-19.2634 -9.2193 -1.57866 115 115 127
-19.5145 -9.00654 -1.59042 120 121 131
-19.5978 -8.97143 -1.59563 119 120 132
-19.6752 -8.89603 -1.59899 122 120 131
-19.7366 -8.85011 -1.60218 122 120 131
-19.7779 -8.79492 -1.60353 122 120 133
-18.33 -7.27096 -1.44154 138 134 134
-18.2871 -7.18795 -1.43566 129 124 127
-24.9908 -5.84501 -1.77484 131 128 132
-25.3813 -5.85229 -1.80454 134 127 134
-25.7813 -5.81675 -1.83424 140 131 133
-30.6177 -3.69332 -2.02259 83 98 119
-30.6382 -3.59825 -2.02331 87 99 122
-30.6935 -3.45829 -2.02621 86 100 126
-6.6743 -12.6177 -0.979835 108 80 70
-6.72563 -12.5732 -0.978488 115 86 71
-6.70141 -12.4308 -0.966896 104 76 64
-8.74959 -12.4682 -1.10141 102 83 61
-8.81383 -12.4791 -1.1054 96 80 57
-8.86361 -12.4272 -1.10418 94 84 47
-8.99098 -12.5269 -1.11772 97 91 42
-8.96959 -12.415 -1.10869 98 92 44
-9.09193 -12.5058 -1.12136 95 87 40
-9.16842 -12.4898 -1.12414 102 85 60
-9.18569 -12.4327 -1.12101 107 86 69
-9.23199 -12.4158 -1.12223 101 81 61
-9.34374 -12.447 -1.13021 90 76 51
-9.38071 -12.4167 -1.13003 93 82 53
-8.20042 -7.37179 -0.834743 151 138 127
-8.268 -7.36456 -0.839143 155 144 137
-16.3393 -10.9838 -1.49128 119 117 122
-16.3794 -10.9373 -1.49198 116 114 119
-16.4377 -10.9028 -1.49458 117 115 120
-16.5162 -10.8446 -1.49753 116 114 116
-16.5709 -10.8073 -1.49979 119 117 121
-16.6172 -10.7643 -1.50118 112 109 116
-16.6903 -10.7017 -1.50361 116 114 120
-16.7296 -10.654 -1.5043 116 113 122
-16.7907 -10.6199 -1.50726 118 115 122
-16.8517 -10.5856 -1.51021 117 114 121
-16.914 -10.5152 -1.5116 116 113 122
-16.968 -10.4761 -1.51385 116 115 121
-17.0101 -10.4295 -1.5149 120 119 124
-17.0582 -10.3498 -1.5149 109 96 90
-17.1204 -10.3152 -1.51802 121 103 91
-17.1774 -10.2771 -1.52063 109 93 88
-17.235 -10.2028 -1.52167 116 113 119
-17.2935 -10.1652 -1.52445 114 112 123
-17.3536 -10.1284 -1.5274 115 113 123
-17.3965 -10.0812 -1.52862 116 114 126
-19.8401 -8.71181 -1.60554 118 116 126
-19.8701 -8.65138 -1.60588 118 116 126
-19.931 -8.60434 -1.60907 133 127 125
-19.9899 -8.55623 -1.6121 72 61 63
-20.0547 -8.47335 -1.61445 116 103 98
-20.106 -8.42147 -1.6168 84 72 69
-20.1737 -8.37628 -1.62067 143 138 132
-20.2433 -8.29452 -1.62352 139 134 130
-26.2036 -5.82552 -1.86642 141 131 126
-26.6573 -5.83848 -1.90107 143 133 124
-27.1329 -5.85326 -1.93743 145 133 121
-3.26316 -7.1574 -0.531723 105 78 66
-3.284 -7.14607 -0.531528 107 78 73
-3.30792 -7.14199 -0.532099 110 81 77
-3.34384 -7.1348 -0.53286 109 80 74
-3.37885 -7.15604 -0.53611 105 78 71
-6.17333 -12.478 -0.950467 111 81 71
-6.20744 -12.4505 -0.949624 119 91 76
-6.25772 -12.457 -0.951973 118 86 72
-6.30428 -12.4054 -0.949786 106 84 58
-6.4436 -12.594 -0.969266 113 94 61
-6.54376 -12.6997 -0.98102 112 94 66
-6.64083 -12.7467 -0.988239 106 86 64
-6.68539 -12.7374 -0.989244 108 83 69
-7.8417 -12.4188 -1.05422 110 85 68
-8.27989 -12.6446 -1.09136 109 77 75
-8.36651 -12.6501 -1.09587 109 80 74
-8.48124 -12.7412 -1.10802 105 76 68
-8.52032 -12.7153 -1.10802 112 82 74
-8.58671 -12.7308 -1.11236 110 78 70
-8.63904 -12.6815 -1.11131 108 82 69
-8.63027 -12.584 -1.10385 108 82 65
-8.68556 -12.5824 -1.10645 108 85 66
-8.74043 -12.5376 -1.10592 108 88 68
-17.4878 -10.0256 -1.53313 115 113 124
-17.5338 -9.97987 -1.53469 115 114 124
-17.6006 -9.94575 -1.53834 115 114 124
-17.6446 -9.86234 -1.53817 113 111 123
-17.7059 -9.82468 -1.54129 114 112 123
-17.9552 -9.63743 -1.55275 113 112 126
-18.009 -9.59448 -1.55519 115 114 128
-18.0725 -9.52031 -1.5571 117 117 127
-18.1085 -9.46755 -1.55779 116 116 126
-18.1779 -9.43211 -1.56179 118 118 126
-20.2941 -8.24176 -1.62588 135 131 129
-20.3651 -8.19699 -1.63008 127 123 125
-20.5866 -7.953 -1.64016 122 121 125
-20.675 -7.87634 -1.64486 123 122 128
-20.7471 -7.83004 -1.64923 127 126 132
-27.5165 -5.80047 -1.96574 153 136 121
-27.561 -5.71974 -1.9679 194 167 144
-27.578 -5.63322 -1.9679 187 159 136
-27.6249 -5.50761 -1.96961 133 112 99
-27.5982 -5.41248 -1.9662 127 111 101
-3.24162 -7.19908 -0.534598 109 86 73
-5.81064 -12.5017 -0.939405 109 79 72
-5.87894 -12.5517 -0.945616 108 78 71
-5.90454 -12.505 -0.942926 108 77 69
-5.97657 -12.5092 -0.945777 112 78 71
-6.03818 -12.542 -0.950477 111 77 68
-6.06509 -12.4986 -0.948123 111 77 69
-6.1837 -12.6011 -0.960212 108 74 68
-7.21011 -12.3541 -1.02108 112 81 76
-7.54621 -12.5379 -1.04972 104 76 71
-7.665 -12.5179 -1.05353 113 85 76
-7.63785 -12.3855 -1.04242 112 86 75
-7.72109 -12.4371 -1.05006 109 86 70
-7.78386 -12.4103 -1.05092 109 81 72
-8.05581 -12.679 -1.08338 110 86 68
-8.01466 -12.5262 -1.07019 114 88 71
-8.23394 -12.7452 -1.09657 112 88 74
-8.24317 -12.6731 -1.09171 114 83 78
-18.2424 -9.35783 -1.56387 140 129 121
-18.3063 -9.31892 -1.56734 134 125 122
-18.3257 -9.25724 -1.56647 115 115 120
-18.4072 -9.22678 -1.57169 118 118 125
-18.4763 -9.15374 -1.57429 118 116 128
-18.5416 -9.11446 -1.57794 117 117 129
-18.5782 -9.06089 -1.57881 116 119 128
-18.6431 -8.98501 -1.58106 115 117 129
-18.7026 -8.94221 -1.58419 123 122 136
-20.8061 -7.77845 -1.65243 132 131 140
-20.8621 -7.68837 -1.65428 138 135 144
-20.9039 -7.62994 -1.65596 147 145 151
-20.983 -7.58496 -1.661 147 144 145
-21.0625 -7.50256 -1.66503 147 143 140
-21.1301 -7.45262 -1.66906 147 140 135
-21.1807 -7.39638 -1.67158 108 96 90
-27.6357 -5.32997 -1.96791 124 112 105
-27.679 -5.11367 -1.96822 163 152 146
-27.696 -5.02712 -1.96837 150 140 141
-27.7226 -4.94224 -1.9693 95 89 91
-31.176 -1.93377 -2.05238 94 110 135
-5.70758 -12.53 -0.938068 110 82 72
-5.75722 -12.5385 -0.940417 111 80 75
-6.80931 -12.3474 -1.00357 110 78 72
-6.8547 -12.3408 -1.00495 114 80 76
-7.09964 -12.5626 -1.03221 113 78 72
-7.38963 -12.7623 -1.0598 116 89 72
-7.3732 -12.5516 -1.04313 108 78 76
-7.5138 -12.7068 -1.06101 109 80 73
-7.54667 -12.6278 -1.05649 113 84 76
-7.73418 -12.7685 -1.07541 111 85 80
-18.9682 -8.74517 -1.59808 117 117 124
-19.0056 -8.69083 -1.59913 119 118 124
-19.0563 -8.60657 -1.60017 129 124 130
-19.0987 -8.55431 -1.60173 138 131 137
-19.1519 -8.50671 -1.60434 143 135 130
-19.2036 -8.42243 -1.60555 138 130 127
-19.2564 -8.37427 -1.60816 144 136 133
-19.2927 -8.31877 -1.6092 157 153 143
-18.2642 -7.34152 -1.49404 126 124 130
-18.2829 -7.24991 -1.49265 126 125 131
-18.2954 -7.18906 -1.49178 127 127 132
-21.2536 -7.34776 -1.67612 115 108 104
-21.3153 -7.2576 -1.67864 117 109 106
-21.3711 -7.20239 -1.68167 114 106 104
-21.4154 -7.14307 -1.68368 119 109 108
-21.4913 -7.05683 -1.68755 70 59 63
-21.5522 -7.00254 -1.69108 103 94 100
-21.6016 -6.94424 -1.6936 86 77 80
-27.8056 -4.82216 -1.9741 86 84 97
-27.7923 -4.73019 -1.97193 92 92 106
-27.8376 -4.64813 -1.97441 95 99 116
-27.8603 -4.51731 -1.97456 93 102 119
-27.907 -4.43509 -1.97719 87 100 116
-31.1711 -1.83514 -2.05166 93 106 130
-5.26718 -12.4505 -0.917437 117 90 71
-5.27363 -12.3553 -0.910212 119 92 70
-6.70071 -12.5605 -1.01556 108 79 63
-6.66767 -12.4026 -1.00201 113 84 73
-6.69924 -12.3702 -1.0008 117 89 75
-6.74551 -12.3658 -1.00236 106 78 66
-7.02805 -12.5701 -1.02978 119 84 82
-7.26412 -12.7691 -1.05495 111 80 77
-7.31295 -12.7645 -1.05668 108 81 74
-19.3674 -8.24381 -1.61267 102 88 89
-19.3997 -8.18632 -1.61337 108 97 91
-19.4703 -8.14483 -1.61771 102 94 96
-19.5372 -8.10145 -1.62171 127 122 128
-19.5945 -8.01801 -1.62362 125 122 133
-19.6741 -7.97914 -1.62883 125 123 134
-21.6641 -6.88995 -1.69729 117 110 107
-21.7049 -6.79113 -1.69814 111 104 102
-21.7518 -6.73144 -1.70049 105 100 105
-21.8138 -6.6762 -1.70419 112 109 113
-21.8632 -6.57945 -1.70587 121 117 124
-21.9362 -6.52696 -1.71057 127 124 125
-27.9101 -4.34592 -1.97642 89 102 119
-27.9307 -4.25946 -1.97704 86 97 114
-27.9299 -4.12495 -1.97549 90 98 117
-27.9794 -4.04261 -1.97843 83 91 109
-28.0207 -3.95889 -1.98075 85 93 110
-5.19454 -12.666 -0.93206 119 87 78
-5.22774 -12.6357 -0.930713 115 78 71
-5.29373 -12.6309 -0.932389 123 96 80
-6.17589 -12.4237 -0.984335 107 83 72
-6.34036 -12.5182 -0.998044 107 92 64
-6.3963 -12.5348 -1.00151 103 94 53
-6.5249 -12.6972 -1.01922 104 95 53
-6.62476 -12.7494 -1.0272 110 93 61
-6.66476 -12.7312 -1.02737 113 88 66
-6.68576 -12.6757 -1.0239 112 83 69
-8.20283 -7.28747 -0.875578 123 115 112
-8.22924 -7.26615 -0.876177 122 114 111
-8.25559 -7.24473 -0.876775 121 116 112
-8.30961 -7.22489 -0.879577 121 115 115
-19.9317 -7.75993 -1.6429 127 126 132
-19.9811 -7.70756 -1.64533 127 125 134
-20.0721 -7.63493 -1.65054 127 125 136
-20.11 -7.5777 -1.65193 127 127 137
-20.1515 -7.52169 -1.65367 126 126 136
-20.2045 -7.43388 -1.6554 127 126 134
-20.2324 -7.37266 -1.65592 122 120 130
-21.9767 -6.46445 -1.71242 129 129 130
-22.0691 -6.37952 -1.71797 132 131 136
-22.1302 -6.32247 -1.72166 128 128 131
-22.1912 -6.26511 -1.72536 128 129 133
-22.2769 -6.21442 -1.73124 128 127 129
-22.3415 -6.11974 -1.73443 127 127 127
-28.0402 -3.82711 -1.98091 86 93 111
-28.0828 -3.74321 -1.98339 84 95 113
-28.151 -3.6624 -1.98787 88 99 117
-28.2066 -3.53466 -1.99097 88 99 119
-5.11328 -12.7487 -0.936099 100 85 60
-5.16827 -12.7148 -0.935087 105 82 65
-5.92429 -12.2353 -0.960038 119 90 81
-6.09701 -12.4551 -0.98382 117 92 73
-6.19404 -12.5607 -0.995796 114 91 74
-6.28312 -12.5484 -0.998221 109 91 67
-8.20874 -7.33803 -0.879386 123 116 113
-20.3202 -7.33293 -1.662 128 126 137
-20.3855 -7.24878 -1.66496 128 124 132
-20.4073 -7.18493 -1.66496 131 126 133
-20.4815 -7.13934 -1.66982 131 125 130
-20.535 -7.08621 -1.67277 135 132 131
