-4.43257 -7.85611 -1.69726 175 149 136
-5.00539 -7.26357 -1.72622 167 142 130
-5.02196 -7.24039 -1.7241 168 144 132
-5.04714 -7.23016 -1.72536 166 144 131
-5.64737 -6.59036 -1.75851 166 143 126
-5.67387 -6.56025 -1.75719 166 143 130
-5.69989 -6.55062 -1.75936 167 146 136
-5.72841 -6.54388 -1.76241 168 146 136
-8.36534 -3.43089 -1.84612 88 91 110
-8.37161 -3.38827 -1.84392 88 91 110
-8.3886 -3.36528 -1.84565 83 89 105
-8.37847 -3.3312 -1.84084 87 92 107
-9.03976 -2.61231 -1.8644 86 89 104
-9.03584 -2.58088 -1.86185 87 89 104
-9.03557 -2.55056 -1.86015 87 89 104
-9.52784 -1.7514 -1.84743 79 90 112
-9.52671 -1.72053 -1.8462 79 91 113
-10.0471 -1.07601 -1.85479 70 84 111
-10.0415 -1.02772 -1.85283 79 95 121
-3.83392 -8.36358 -1.66158 219 197 174
-3.85864 -8.35049 -1.66118 224 205 188
-4.35612 -7.88653 -1.69525 171 145 132
-4.37831 -7.87012 -1.69443 173 146 135
-4.4059 -7.86403 -1.69605 174 147 136
-4.92343 -7.3091 -1.72455 173 145 131
-4.9445 -7.29268 -1.72412 172 145 128
-4.96871 -7.2811 -1.72496 172 146 130
-5.56353 -6.63275 -1.75372 169 145 127
-5.60253 -6.61819 -1.75677 170 141 135
-5.61759 -6.59523 -1.75502 167 143 131
-8.41316 -3.30022 -1.84563 88 89 107
-8.41543 -3.27125 -1.84387 88 89 107
-8.43574 -3.24944 -1.84647 90 93 110
-8.44692 -3.22399 -1.8469 99 102 119
-9.05609 -2.51085 -1.86225 84 85 103
-9.06879 -2.48412 -1.8635 88 89 107
-9.08705 -2.45885 -1.86601 85 86 104
-9.54474 -1.69316 -1.84903 78 92 116
-9.52995 -1.65987 -1.84495 73 87 112
-10.04 -0.995821 -1.85203 76 92 118
-10.0384 -0.963937 -1.85124 79 95 120
-3.79674 -8.38397 -1.66236 221 194 177
-4.28582 -7.89936 -1.69079 164 141 126
-4.31431 -7.89535 -1.69282 167 142 132
-4.85703 -7.32925 -1.72034 171 148 135
-4.89704 -7.31724 -1.72287 170 144 131
-5.46398 -6.69665 -1.75069 165 142 128
-5.50192 -6.68115 -1.75331 166 143 129
-5.52211 -6.66458 -1.7533 165 142 129
-5.54709 -6.65404 -1.75504 169 145 130
-6.78854 -5.25339 -1.80892 145 132 127
-6.80724 -5.23498 -1.80982 147 133 132
-6.84957 -5.18509 -1.8107 129 109 118
-6.86344 -5.1629 -1.81024 114 99 106
-6.88501 -5.14656 -1.81203 113 101 111
-6.92856 -5.13009 -1.8179 118 108 119
-6.9485 -5.11233 -1.81925 116 104 118
-6.97308 -5.09797 -1.82195 113 102 116
-6.98353 -5.07309 -1.82058 114 106 121
-7.01752 -5.04895 -1.82373 114 107 125
-7.04198 -5.03427 -1.82644 112 105 123
-7.04745 -5.0058 -1.82371 113 109 124
-7.06378 -4.96877 -1.82189 116 110 124
-7.10235 -4.96398 -1.82866 127 116 124
-7.10594 -4.93429 -1.82549 139 124 121
-7.14583 -4.91377 -1.83045 171 148 130
-7.16529 -4.86315 -1.82771 160 127 118
-8.4612 -3.18468 -1.84688 90 92 108
-8.47217 -3.15913 -1.8473 83 87 105
-8.48671 -3.13491 -1.8486 84 91 107
-9.0826 -2.41228 -1.86262 88 89 107
-9.09312 -2.38491 -1.86345 83 86 101
-9.56191 -1.61947 -1.85021 80 94 120
-9.54687 -1.58627 -1.84614 70 84 110
-10.0401 -0.91648 -1.85083 72 88 113
-3.7417 -8.39704 -1.66042 212 188 173
-3.7696 -8.39146 -1.66158 220 194 177
-4.26438 -7.91725 -1.69201 184 158 141
-4.77242 -7.36971 -1.71783 171 145 132
-4.81251 -7.35817 -1.72036 171 145 133
-4.84209 -7.35531 -1.7233 170 146 134
-5.35781 -6.75118 -1.74548 168 142 129
-5.38764 -6.7475 -1.74897 168 142 129
-5.41506 -6.71852 -1.74765 167 143 131
-5.43894 -6.70686 -1.74895 163 143 132
-6.47026 -5.58061 -1.79913 161 142 138
-6.50011 -5.57239 -1.80319 159 140 136
-6.52252 -5.54002 -1.80228 152 134 132
-6.53168 -5.51372 -1.80001 149 131 128
-6.55405 -5.49882 -1.8018 140 123 121
-6.59093 -5.47881 -1.80541 144 126 127
-6.59983 -5.45238 -1.80314 147 128 130
-6.61611 -5.43218 -1.80313 143 127 128
-6.65429 -5.41299 -1.80719 140 123 122
-6.66592 -5.3889 -1.80582 140 125 122
-6.68349 -5.36973 -1.80626 139 123 123
-6.71544 -5.34515 -1.80851 130 116 115
-6.72985 -5.32336 -1.80805 139 125 125
-6.75027 -5.3064 -1.8094 138 125 123
-6.76304 -5.28329 -1.80848 130 116 113
-6.84589 -5.23205 -1.81659 140 125 132
-7.16201 -4.89291 -1.83089 177 149 128
-7.18613 -4.84551 -1.82951 138 123 128
-7.21289 -4.81561 -1.83085 111 111 123
-7.22392 -4.79124 -1.82994 103 107 118
-7.24135 -4.77118 -1.83083 100 104 111
-7.25643 -4.73343 -1.82901 80 84 93
-7.27857 -4.71644 -1.83126 81 78 89
-7.30394 -4.70148 -1.83441 77 75 84
-7.31046 -4.65822 -1.83033 81 78 87
-7.34389 -4.64832 -1.83574 85 88 97
-7.35763 -4.6257 -1.83573 81 81 96
-7.40363 -4.57617 -1.83887 100 101 103
-8.50605 -3.09744 -1.8499 83 90 106
-8.50579 -3.06768 -1.8477 90 94 111
-8.52007 -3.04329 -1.84899 92 94 109
-9.09596 -2.35553 -1.86259 84 91 106
-9.10614 -2.31291 -1.86258 85 88 105
-9.0955 -2.28021 -1.85877 82 89 107
-9.56066 -1.558 -1.84815 69 83 110
-9.55743 -1.51154 -1.84611 76 88 114
-10.0694 -0.887294 -1.85627 79 94 123
-3.70881 -8.42787 -1.66354 212 189 181
-4.19406 -7.92923 -1.68756 167 142 130
-4.22516 -7.93082 -1.6908 170 147 134
-4.72561 -7.39475 -1.717 175 148 136
-4.7562 -7.39391 -1.72037 176 148 138
-5.27635 -6.79449 -1.742 161 139 126
-5.30153 -6.7849 -1.74374 166 142 130
-5.33268 -6.76099 -1.74374 165 141 131
-6.29815 -5.73876 -1.79333 150 132 127
-6.32246 -5.72617 -1.79558 149 131 128
-6.33815 -5.70556 -1.79512 150 132 128
-6.367 -5.67916 -1.79602 153 134 130
-6.3912 -5.66627 -1.79827 149 130 126
-6.39801 -5.63763 -1.79509 148 130 126
-6.42365 -5.60831 -1.79508 146 131 126
-6.45062 -5.59774 -1.79824 156 137 131
-8.51883 -2.99833 -1.84549 96 99 115
-8.56593 -2.98563 -1.85464 87 91 110
-8.55977 -2.95385 -1.85114 80 82 103
-8.57371 -2.9292 -1.85243 84 87 106
-9.11508 -2.25506 -1.86171 68 75 91
-9.10422 -2.22243 -1.8579 134 134 145
-9.57293 -1.48346 -1.84853 75 87 111
-9.57287 -1.45289 -1.8477 73 85 109
-3.65581 -8.44578 -1.66277 219 193 177
-3.67488 -8.41874 -1.65925 217 194 177
-4.12974 -7.95291 -1.68594 168 141 130
-4.16816 -7.93806 -1.68675 169 143 134
-4.67405 -7.43816 -1.71912 176 148 133
-4.68546 -7.4058 -1.71447 178 149 135
-5.18999 -6.83044 -1.73678 160 140 129
-5.22938 -6.81809 -1.73983 161 139 126
-5.25344 -6.80712 -1.74114 162 140 127
-6.11566 -5.90331 -1.78843 152 135 129
-6.14256 -5.87536 -1.78842 153 134 128
-6.16712 -5.86346 -1.79067 155 136 130
-6.19168 -5.85145 -1.79292 153 134 129
-6.20991 -5.81505 -1.7902 152 133 130
-6.2414 -5.80957 -1.79472 149 131 128
-6.25315 -5.78519 -1.7929 148 129 126
-6.27329 -5.7688 -1.79379 150 132 128
-8.58107 -2.88735 -1.85111 87 89 104
-8.56902 -2.85379 -1.84629 88 91 108
-8.59005 -2.83153 -1.84933 87 90 105
-9.09288 -2.17479 -1.85325 145 139 143
-9.11787 -2.15083 -1.85745 144 138 140
-9.13138 -2.1241 -1.85912 141 135 139
-9.5788 -1.40793 -1.84769 79 92 117
-9.57464 -1.3768 -1.84605 77 89 115
-3.61524 -8.45807 -1.66199 221 198 184
-4.07785 -7.97004 -1.68432 166 143 130
-4.10127 -7.95623 -1.68391 168 143 132
-4.58058 -7.4629 -1.71323 173 145 134
-4.61888 -7.44909 -1.71491 173 145 133
-4.64345 -7.43864 -1.71575 173 146 132
-5.1113 -6.87642 -1.73461 154 134 126
-5.14739 -6.85978 -1.73636 159 139 130
-5.16927 -6.84594 -1.73679 161 139 129
-5.99483 -6.01867 -1.78713 151 131 130
-6.00743 -5.99488 -1.78531 151 133 129
-6.0254 -5.97662 -1.7853 152 133 129
-6.05154 -5.96661 -1.788 152 133 129
-6.07324 -5.93346 -1.78619 151 133 129
-6.10204 -5.92599 -1.7898 152 134 130
-7.781 -3.94806 -1.84626 99 95 112
-7.79428 -3.92487 -1.8467 93 88 108
-7.80664 -3.88608 -1.84533 92 88 103
-7.82844 -3.86713 -1.84803 95 93 107
-8.61358 -2.79518 -1.85194 87 91 103
-8.62707 -2.77025 -1.85323 82 85 102
-8.63121 -2.74224 -1.85235 82 88 104
-9.16142 -2.0561 -1.86246 77 74 92
-9.57424 -1.34626 -1.84522 82 94 120
-3.56137 -8.47353 -1.66083 223 200 185
-3.5836 -8.45401 -1.65887 222 198 187
-4.01416 -7.9945 -1.68311 165 142 134
-4.03932 -7.98443 -1.68351 166 144 133
-4.53914 -7.4968 -1.71493 175 147 135
-4.56284 -7.48495 -1.71534 174 146 135
-5.0355 -6.92627 -1.73376 155 135 128
-5.05954 -6.89243 -1.73069 156 135 129
-5.09044 -6.89167 -1.73462 153 133 126
-5.8646 -6.10538 -1.78039 150 132 128
-5.88292 -6.08758 -1.78038 149 130 124
-5.91606 -6.06643 -1.78218 148 129 124
-5.93157 -6.04564 -1.78127 151 132 128
-5.96994 -6.0487 -1.78804 151 131 129
-7.83972 -3.84291 -1.84802 94 92 106
-7.86392 -3.80992 -1.84981 93 91 105
-7.85223 -3.77455 -1.84392 96 93 110
-7.89131 -3.76374 -1.85114 94 91 110
-7.91165 -3.72875 -1.85203 89 88 108
-8.62837 -2.69725 -1.84884 81 87 103
-8.64529 -2.67338 -1.85101 83 89 105
-8.6454 -2.64418 -1.84925 81 87 103
-9.16131 -2.02621 -1.86118 84 89 111
-9.17377 -1.98406 -1.86201 77 89 104
-9.5816 -1.30155 -1.84561 76 90 116
-9.59066 -1.27233 -1.84682 76 90 116
-3.5305 -8.47109 -1.6581 185 165 157
-3.95965 -8.00551 -1.68028 160 133 114
-3.98895 -8.0045 -1.68271 161 136 125
-4.47307 -7.51503 -1.71114 175 149 136
-4.50069 -7.51019 -1.71325 175 149 136
-4.95925 -6.95166 -1.72853 163 141 129
-4.98357 -6.94168 -1.72984 156 136 127
-5.01118 -6.93644 -1.73245 160 140 131
-5.7693 -6.17174 -1.77635 156 136 129
-5.80096 -6.16863 -1.78086 153 134 128
-5.81157 -6.14244 -1.77814 150 131 127
-5.8502 -6.1274 -1.78175 147 129 126
-7.92074 -3.70342 -1.85157 91 89 108
-7.92798 -3.67724 -1.85065 95 93 114
-7.94044 -3.65351 -1.85109 93 90 111
-7.93902 -3.6085 -1.84655 90 87 106
-7.96547 -3.59115 -1.85061 90 89 107
-8.66959 -2.62249 -1.85316 84 87 104
-8.66987 -2.57865 -1.85053 84 87 104
-9.16194 -1.95174 -1.8582 79 90 108
-9.17486 -1.92468 -1.85987 81 89 110
-9.57636 -1.23997 -1.84315 76 88 114
-9.59297 -1.21174 -1.84597 75 89 115
-3.46531 -8.49652 -1.6581 171 149 136
-3.49054 -8.48458 -1.65771 176 156 144
-3.9218 -8.02109 -1.67988 213 190 150
-4.41744 -7.55144 -1.71199 176 152 138
-4.45601 -7.5385 -1.71368 173 150 136
-4.90604 -6.98842 -1.72855 168 144 132
-4.93043 -6.97864 -1.72985 166 144 131
-5.65106 -6.26951 -1.77458 152 133 127
-5.67582 -6.23945 -1.77322 157 138 132
-5.71137 -6.2412 -1.77909 149 130 124
-5.73012 -6.22391 -1.77908 152 133 126
-5.7423 -6.1993 -1.77681 145 126 119
-7.99366 -3.57446 -1.85512 89 89 108
-8.00068 -3.53334 -1.85284 92 91 109
-8.01982 -3.51247 -1.85509 89 86 103
-8.02644 -3.48605 -1.85417 93 88 108
-8.05446 -3.45412 -1.85732 94 92 113
-8.68271 -2.55338 -1.85182 81 87 103
-8.67494 -2.52195 -1.84832 83 88 102
-8.71958 -2.49131 -1.85616 86 88 105
-9.18685 -1.88242 -1.8607 81 92 114
-9.18808 -1.85292 -1.85984 79 91 113
-9.59972 -1.1669 -1.84637 80 96 121
-9.60447 -1.13706 -1.84676 72 88 113
-3.43935 -8.50655 -1.6581 174 152 139
-3.86965 -8.0368 -1.67826 211 189 181
-3.89573 -8.02899 -1.67907 225 204 181
-4.36496 -7.56552 -1.70905 174 151 137
-4.39451 -7.56451 -1.712 174 151 137
-4.82698 -7.0326 -1.72681 171 148 134
-4.84934 -7.01984 -1.72724 169 145 133
-4.88805 -7.00789 -1.72986 165 143 134
-5.5564 -6.33532 -1.77145 159 139 130
-5.58429 -6.32889 -1.7746 156 136 129
-5.60432 -6.29321 -1.77143 156 136 127
-5.63855 -6.29391 -1.77685 153 134 128
-8.04832 -3.42226 -1.85324 91 92 110
-8.0654 -3.40034 -1.85504 88 91 108
-8.06444 -3.3708 -1.85231 87 90 107
-8.08479 -3.33552 -1.85365 90 92 107
-8.69847 -2.45608 -1.8496 85 91 107
-8.7072 -2.42956 -1.85002 82 87 105
-8.72713 -2.39156 -1.85219 83 90 106
-9.19112 -1.8238 -1.85941 80 92 111
-9.19409 -1.79468 -1.85897 80 91 110
-9.59942 -1.10604 -1.84512 78 94 120
-3.39789 -8.51592 -1.65693 171 148 132
-3.83011 -8.04835 -1.67704 213 187 177
-4.30796 -7.59936 -1.70948 173 149 134
-4.33473 -7.59344 -1.71116 172 149 133
-4.76477 -7.05512 -1.72333 168 144 132
-4.80459 -7.04529 -1.72638 168 144 132
-5.46469 -6.40411 -1.76967 161 141 132
-5.48396 -6.38762 -1.76966 161 141 134
-5.5094 -6.37853 -1.77191 160 140 133
-5.53102 -6.34461 -1.7692 161 141 134
-8.08541 -3.30674 -1.85138 85 88 106
-8.10215 -3.28459 -1.85317 88 91 110
-8.1149 -3.24615 -1.85271 89 92 107
-8.13872 -3.22673 -1.85631 88 91 108
-8.73191 -2.36389 -1.85174 81 88 104
-8.73098 -2.33466 -1.84998 84 90 107
-9.21123 -1.75334 -1.86106 79 90 112
-9.19282 -1.72025 -1.85599 82 93 115
-9.59985 -1.06048 -1.84429 74 88 114
-9.59845 -1.02996 -1.84347 79 93 119
-3.34649 -8.5373 -1.65733 169 146 130
-3.36984 -8.52022 -1.65577 171 148 132
-3.78176 -8.07242 -1.67746 208 184 179
-3.80634 -8.06132 -1.67745 202 179 174
-4.25991 -7.62127 -1.70865 172 149 133
-4.2858 -7.6138 -1.70991 173 150 134
-4.72397 -7.08661 -1.72422 167 145 134
-4.74648 -7.0742 -1.72465 167 143 131
-5.36724 -6.46541 -1.76608 163 141 130
-5.38303 -6.44468 -1.76472 163 141 130
-5.41469 -6.44357 -1.76923 163 142 131
-5.43921 -6.41302 -1.76742 162 140 132
-8.15886 -3.20576 -1.85901 84 87 104
-8.16217 -3.16353 -1.85628 95 98 115
-8.16035 -3.13399 -1.85356 89 92 107
-8.18207 -3.11352 -1.85671 89 92 109
-8.74672 -2.29542 -1.85127 83 88 108
-8.76437 -2.2712 -1.85388 85 88 110
-9.22045 -1.69568 -1.86103 78 89 111
-9.21598 -1.65036 -1.85849 78 90 114
-9.60666 -1.00051 -1.84467 67 81 107
-9.61047 -0.955339 -1.84465 74 88 114
-3.30627 -8.54989 -1.65694 169 146 132
-3.71439 -8.0872 -1.67462 194 171 163
-3.74211 -8.08352 -1.67624 195 172 166
-4.18982 -7.63001 -1.70317 176 151 138
-4.22203 -7.6349 -1.70739 175 152 138
-4.63994 -7.12197 -1.72074 168 146 135
-4.66765 -7.11814 -1.72335 170 146 134
-4.69127 -7.10757 -1.72422 171 147 136
-5.28755 -6.50774 -1.76203 166 144 129
-5.30714 -6.49182 -1.76203 162 140 127
-5.33273 -6.48346 -1.76428 163 141 130
-8.18005 -3.08399 -1.85398 87 93 109
-8.20645 -3.05063 -1.85713 86 92 106
-8.20786 -3.02245 -1.85531 86 92 108
-8.85922 -2.26711 -1.87439 69 76 92
-8.77497 -2.21613 -1.85341 136 135 145
-8.77883 -2.17372 -1.85209 142 140 143
-9.23185 -1.62352 -1.861 75 87 113
-9.24574 -1.59627 -1.86309 78 94 117
-9.50553 -1.25969 -1.86497 79 94 117
-9.51058 -1.23467 -1.86542 80 94 117
-9.50023 -1.20728 -1.86207 73 85 109
-9.61262 -0.925214 -1.84464 80 96 121
-3.28146 -8.5631 -1.65772 171 148 134
-3.68973 -8.098 -1.67462 199 177 167
-4.16752 -7.64409 -1.7036 174 150 138
-4.58236 -7.15113 -1.71943 169 147 134
-4.62134 -7.14069 -1.72205 168 146 136
-5.21346 -6.55678 -1.76024 158 136 122
-5.22964 -6.53647 -1.75888 164 143 127
-5.25291 -6.52535 -1.76023 164 142 128
-8.22015 -2.9983 -1.8562 85 91 107
-8.22237 -2.95602 -1.85348 82 87 104
-8.23997 -2.93375 -1.85572 84 87 103
-8.79236 -2.14828 -1.85382 144 139 142
-8.77179 -2.11437 -1.84769 148 138 142
-9.24078 -1.55094 -1.86055 83 94 115
-9.24673 -1.52232 -1.86096 78 90 113
-9.51273 -1.17045 -1.86395 75 90 113
-9.51366 -1.14482 -1.86345 76 91 114
-9.60494 -0.894146 -1.84259 75 91 117
-9.62188 -0.850219 -1.84542 75 91 117
-3.62527 -8.11923 -1.67341 195 172 156
-3.66653 -8.11234 -1.67544 195 173 159
-4.07864 -7.67272 -1.70024 175 152 138
-4.10811 -7.67287 -1.70319 176 152 138
-4.13316 -7.6642 -1.70403 175 152 138
-4.54284 -7.18484 -1.72119 169 146 132
-4.56164 -7.16634 -1.71988 169 147 134
-5.11433 -6.61405 -1.75665 154 136 126
-5.13541 -6.60025 -1.7571 151 133 121
-5.16114 -6.5926 -1.75935 152 134 125
-5.19131 -6.5693 -1.75935 160 140 131
-8.26485 -2.91399 -1.85977 88 91 106
-8.26663 -2.87162 -1.85705 88 91 110
-8.28031 -2.84783 -1.85839 84 85 105
-8.78839 -2.0465 -1.8481 78 79 93
-8.82053 -2.02537 -1.8542 82 89 108
-9.25839 -1.49461 -1.86263 79 91 113
-9.24871 -1.46351 -1.85966 78 90 114
-9.52221 -1.12029 -1.86486 79 93 116
-9.5153 -1.09357 -1.86246 75 89 113
-9.61007 -0.818849 -1.84256 76 92 117
-9.60984 -0.788549 -1.84214 80 94 120
-3.60124 -8.13155 -1.67382 200 175 159
-4.04326 -7.69066 -1.70024 178 152 140
-4.45709 -7.21626 -1.71727 171 147 135
-4.47997 -7.20474 -1.71771 170 147 133
-4.50674 -7.19988 -1.71988 169 146 132
-5.05471 -6.6396 -1.75305 157 137 130
-5.07702 -6.62756 -1.75395 158 139 132
-8.29208 -2.82335 -1.85928 89 92 107
-8.29525 -2.78158 -1.85701 87 93 107
-8.31421 -2.75948 -1.8597 86 91 108
-8.29613 -2.72511 -1.85336 83 86 103
-8.82916 -1.98415 -1.85418 87 95 112
-8.81934 -1.9532 -1.85067 79 88 103
-9.25276 -1.41977 -1.85923 77 89 113
-9.27377 -1.39337 -1.86301 76 86 110
-9.52343 -1.05604 -1.86339 76 91 115
-9.52978 -1.03115 -1.86432 80 94 120
-9.61537 -0.758733 -1.84294 80 94 117
-3.53731 -8.15386 -1.67301 181 157 151
-3.57424 -8.13655 -1.67261 203 178 167
-3.99476 -7.7108 -1.69941 175 146 133
-4.02076 -7.70428 -1.70067 180 152 140
-4.4095 -7.26252 -1.72078 170 146 136
-4.42766 -7.2427 -1.71902 170 148 137
-4.98054 -6.68742 -1.75171 158 137 132
-4.99841 -6.66933 -1.7508 158 137 132
-5.0381 -6.65943 -1.75441 157 137 130
-8.32051 -2.70474 -1.85742 85 88 103
-8.33789 -2.6677 -1.85876 82 85 102
-8.82273 -1.9253 -1.85022 74 85 103
-8.82412 -1.89697 -1.84934 79 90 108
-9.27343 -1.36377 -1.86215 82 93 118
-9.26539 -1.3183 -1.85918 77 89 115
-9.52642 -1.005 -1.86287 74 88 114
-9.52258 -0.965943 -1.86094 77 93 118
-9.61218 -0.713047 -1.84171 75 91 116
-9.61942 -0.683334 -1.84291 85 101 127
-3.50956 -8.15681 -1.67139 174 151 141
-3.92727 -7.72231 -1.6952 198 175 160
-3.9628 -7.70493 -1.69519 210 185 162
-4.35105 -7.26286 -1.71423 170 146 136
-4.37595 -7.2551 -1.71554 169 145 135
-4.89586 -6.71999 -1.7463 162 142 133
-4.92619 -6.71967 -1.75037 163 143 134
-4.95921 -6.70069 -1.75127 161 140 132
-6.317 -5.13133 -1.80717 101 89 102
-6.33687 -5.11569 -1.80857 96 86 97
-6.35278 -5.08032 -1.8062 101 94 110
-6.36652 -5.05959 -1.80572 99 92 108
-6.38922 -5.04621 -1.80807 95 86 103
-6.44099 -5.04001 -1.81703 96 87 104
-6.46517 -5.02754 -1.81985 106 98 113
-6.4757 -5.00405 -1.81843 103 97 111
-6.5059 -4.99625 -1.82314 101 93 108
-6.51651 -4.95664 -1.81935 104 96 111
-6.53595 -4.94022 -1.82075 106 100 114
-6.5446 -4.91536 -1.81885 98 91 107
-6.58707 -4.90058 -1.82498 93 86 102
-6.59711 -4.87679 -1.82355 97 91 105
-6.58693 -4.83772 -1.81598 98 91 107
-6.63851 -4.82951 -1.82495 108 101 117
-6.65452 -4.81025 -1.82541 111 105 119
-6.66265 -4.78516 -1.8235 112 106 120
-6.69857 -4.76475 -1.82774 115 106 123
-6.70339 -4.73727 -1.8249 120 112 127
-6.73013 -4.72577 -1.82866 123 111 121
-6.74582 -4.70619 -1.82912 126 112 111
-6.76411 -4.67278 -1.82817 139 117 103
-6.77805 -4.65195 -1.82816 168 141 120
-6.80622 -4.64115 -1.83239 176 150 133
-6.82259 -4.60636 -1.83097 123 127 139
-6.8475 -4.59309 -1.83426 113 124 144
-6.84678 -4.56209 -1.83 111 122 144
-6.88201 -4.54028 -1.83424 108 121 140
-6.89392 -4.51798 -1.83375 103 114 134
-6.91221 -4.49999 -1.83516 96 109 128
-6.93531 -4.48515 -1.83798 94 106 128
-6.94111 -4.44344 -1.83372 94 106 128
-6.9657 -4.4295 -1.83701 90 105 126
-6.98376 -4.4112 -1.83841 92 105 122
-8.33056 -2.63706 -1.85513 80 88 102
-8.34728 -2.61406 -1.85738 82 90 104
-8.35682 -2.57453 -1.85691 83 89 103
-8.84358 -1.85818 -1.85194 87 98 116
-8.83524 -1.82779 -1.84887 81 92 112
-9.26288 -1.28848 -1.8579 86 99 125
-9.26995 -1.25998 -1.85873 78 92 118
-9.54214 -0.942621 -1.8652 76 92 117
-9.54235 -0.916939 -1.8647 74 90 115
-9.62268 -0.653296 -1.8433 80 96 122
-3.48538 -8.16878 -1.6718 165 146 132
-3.87945 -7.74345 -1.69478 189 166 152
-3.90127 -7.72851 -1.69393 200 178 163
-4.29632 -7.29641 -1.71468 172 149 135
-4.32413 -7.29396 -1.7173 172 149 135
-4.82309 -6.76915 -1.74587 166 144 131
-4.84968 -6.74108 -1.74405 168 146 133
-4.87556 -6.73458 -1.74631 165 145 134
-6.09809 -5.35087 -1.80068 141 123 126
-6.11708 -5.33481 -1.80161 141 122 126
-6.13745 -5.31998 -1.80302 132 113 115
-6.16183 -5.29177 -1.80301 132 114 110
-6.17191 -5.26775 -1.80111 130 112 109
-6.19503 -5.25526 -1.80346 136 118 118
-6.22643 -5.23315 -1.80581 132 116 116
-6.24215 -5.21407 -1.8058 138 122 122
-6.25486 -5.19241 -1.80484 144 125 123
-6.29409 -5.19344 -1.81239 136 121 123
-6.30154 -5.15066 -1.80718 94 84 100
-7.03306 -4.33772 -1.83932 95 106 124
-7.04782 -4.30206 -1.83789 102 110 125
-7.08365 -4.29472 -1.84449 98 105 121
-8.36963 -2.55023 -1.85825 85 86 104
-8.37493 -2.52363 -1.85779 86 89 106
-8.3803 -2.48287 -1.85642 84 87 104
-8.85538 -1.80344 -1.85235 79 89 111
-8.86105 -1.76164 -1.8519 81 92 114
-9.28465 -1.21767 -1.86082 70 84 110
-9.54387 -0.878531 -1.8642 78 94 120
-9.5381 -0.852228 -1.86228 75 91 117
-9.61314 -0.607242 -1.84085 70 86 111
-9.61809 -0.577329 -1.84165 77 95 119
-3.42259 -8.19378 -1.6718 171 147 134
-3.44827 -8.18567 -1.67221 173 148 134
-3.84291 -7.75865 -1.69436 200 177 158
-4.24041 -7.3278 -1.71469 174 148 135
-4.26856 -7.29874 -1.71206 174 148 135
-4.78322 -6.7994 -1.74633 163 143 132
-4.80264 -6.7835 -1.74587 164 142 131
-5.9566 -5.48887 -1.79744 141 125 125
-5.97314 -5.47066 -1.79743 139 121 119
-5.99102 -5.45374 -1.79789 138 120 118
-6.02453 -5.43421 -1.80072 144 125 127
-6.03379 -5.40916 -1.79835 142 121 126
-6.05434 -5.39466 -1.79975 142 126 127
-6.072 -5.37745 -1.80021 143 127 127
-7.24594 -4.02238 -1.84624 96 104 125
-7.29755 -3.92038 -1.84572 93 96 115
-8.40219 -2.46116 -1.86002 86 86 104
-8.40907 -2.43501 -1.86 86 87 105
-8.40275 -2.40509 -1.85683 87 88 106
-8.86383 -1.73363 -1.85145 80 91 110
-8.85887 -1.70411 -1.84925 86 97 114
-9.28958 -1.18882 -1.86123 73 85 111
-9.26724 -1.15662 -1.85574 77 91 117
-9.54961 -0.827791 -1.86463 80 94 121
-9.54172 -0.80132 -1.86223 77 91 117
-9.62102 -0.547269 -1.84204 75 92 118
-3.37598 -8.22259 -1.67384 169 147 134
-3.39552 -8.19816 -1.67059 169 147 134
-3.79894 -7.78812 -1.69606 199 180 166
-3.82095 -7.77342 -1.69521 197 174 156
-4.19123 -7.34397 -1.71251 173 150 134
-4.21077 -7.32647 -1.7112 171 148 134
-4.69894 -6.83097 -1.74137 168 145 137
-4.72385 -6.82345 -1.74318 164 144 135
-4.74443 -6.80936 -1.74317 164 144 133
-5.82749 -5.6038 -1.79372 139 123 124
-5.84026 -5.5819 -1.7923 141 125 125
-5.86814 -5.575 -1.79607 143 127 128
-5.88817 -5.54265 -1.79417 140 124 125
-5.90209 -5.52195 -1.79321 144 128 128
-5.92711 -5.51203 -1.79604 141 125 127
-7.31357 -3.8856 -1.84523 98 99 120
-7.35404 -3.87872 -1.85325 99 100 122
-8.43754 -2.37268 -1.86269 88 87 105
-8.43101 -2.34277 -1.85951 87 88 106
-8.87172 -1.66378 -1.85054 73 85 101
-8.86654 -1.63431 -1.84835 96 103 121
-9.28554 -1.12943 -1.85909 82 96 122
-9.5485 -0.763492 -1.86315 85 100 126
-9.62269 -0.501988 -1.84203 73 90 118
-3.33386 -8.22611 -1.6714 168 146 133
-3.75899 -7.7958 -1.69395 206 183 171
-4.13312 -7.37106 -1.71164 173 149 132
-4.1537 -7.35545 -1.71077 172 149 133
-4.64684 -6.86572 -1.74138 167 145 134
-4.66755 -6.85187 -1.74138 167 145 132
-5.69744 -5.71695 -1.79048 144 129 126
-5.7174 -5.70238 -1.79141 140 125 122
-5.74629 -5.67899 -1.79235 138 122 125
-5.7675 -5.66564 -1.79375 137 122 125
-5.77915 -5.64249 -1.79185 137 122 125
-5.80028 -5.629 -1.79326 127 113 112
-7.42469 -3.71432 -1.85081 91 90 108
-7.43733 -3.69223 -1.85127 88 87 105
-7.46897 -3.67974 -1.85692 95 94 112
-7.46297 -3.63376 -1.85077 93 90 109
-7.49275 -3.62016 -1.85595 91 88 107
-7.47375 -3.58238 -1.84791 97 94 113
-8.44502 -2.31857 -1.8613 86 88 107
-8.46444 -2.28164 -1.86355 82 89 108
-8.88039 -1.60844 -1.85051 79 87 110
-8.88076 -1.58004 -1.84963 85 98 117
-9.28414 -1.08511 -1.85781 81 95 121
-9.27892 -1.05515 -1.85611 73 85 110
-9.53654 -0.736733 -1.8598 73 87 113
-9.55348 -0.712683 -1.86358 76 90 117
-9.62732 -0.471992 -1.84282 78 92 119
-9.63969 -0.442351 -1.84524 83 97 123
-3.30875 -8.23569 -1.67141 168 146 135
-3.70519 -7.80334 -1.69058 193 175 153
-3.72887 -7.79249 -1.69058 204 184 168
-4.08471 -7.38821 -1.70991 172 148 136
-4.10803 -7.37794 -1.71034 173 147 132
-4.60319 -6.88992 -1.74049 166 144 131
-4.62082 -6.8713 -1.73913 166 143 133
-5.58407 -5.8114 -1.78769 174 157 143
-5.61342 -5.78872 -1.78863 147 129 124
-5.63223 -5.77304 -1.78909 151 133 130
-5.64834 -5.75447 -1.78861 147 129 128
-5.67344 -5.72722 -1.78813 146 130 130
-7.4916 -3.54852 -1.84837 88 85 102
-7.52297 -3.53545 -1.85402 89 87 104
-7.52807 -3.50964 -1.85259 92 91 109
-7.54383 -3.47466 -1.85258 91 90 108
-8.46512 -2.25378 -1.86218 59 72 88
-8.45626 -2.22346 -1.85855 148 151 163
-8.4545 -2.18103 -1.85582 144 138 142
-8.8873 -1.53849 -1.84961 78 89 111
-8.88744 -1.51009 -1.84872 82 90 114
-9.29111 -1.02711 -1.85821 72 84 106
-9.28922 -0.982819 -1.85693 76 90 116
-9.53858 -0.672921 -1.85928 76 90 116
-9.54953 -0.648258 -1.86163 84 99 125
-9.62655 -0.411474 -1.84239 80 94 120
-3.28361 -8.24518 -1.67141 168 146 134
-3.64306 -7.82475 -1.68932 208 182 167
-3.68304 -7.81768 -1.69143 206 185 162
-4.0409 -7.38694 -1.7051 186 163 148
-4.52249 -6.92578 -1.73734 172 145 134
-4.54029 -6.90738 -1.73598 170 145 131
-4.56945 -6.90706 -1.73959 167 144 130
-5.46937 -5.88502 -1.7816 148 128 127
-5.49622 -5.87852 -1.78489 144 125 121
-5.52457 -5.85486 -1.78536 142 124 121
-5.54357 -5.83949 -1.78582 140 122 120
-5.55596 -5.81687 -1.78392 140 123 116
-7.55222 -3.45047 -1.85209 93 92 110
-7.56054 -3.42626 -1.85161 87 85 107
-7.57582 -3.40528 -1.85301 94 92 114
-7.57872 -3.36443 -1.84969 93 91 113
-7.6133 -3.35214 -1.85629 88 87 107
-8.46239 -2.15517 -1.85626 145 140 144
-8.48153 -2.13211 -1.85941 140 138 143
-8.89709 -1.48335 -1.85002 77 85 108
-8.90895 -1.44267 -1.85132 84 92 111
-9.28756 -0.953307 -1.85607 78 92 118
-9.27609 -0.922869 -1.85311 84 96 120
-9.54879 -0.622603 -1.86113 79 93 119
-9.54893 -0.584207 -1.86063 78 92 118
-9.62757 -0.366147 -1.84237 84 98 124
-9.63179 -0.336075 -1.84317 74 90 115
-3.21828 -8.26303 -1.67019 166 146 135
-3.2461 -8.26112 -1.67182 168 148 137
-3.62315 -7.84429 -1.69144 200 178 162
-4.00115 -7.42091 -1.70773 176 150 135
-4.02543 -7.41266 -1.7086 177 154 138
-4.47471 -6.96739 -1.73961 168 143 129
-4.48658 -6.93918 -1.73554 170 144 129
-5.38826 -5.95915 -1.78163 147 129 125
-5.40245 -5.93838 -1.78021 151 131 129
-5.42681 -5.92928 -1.78256 151 132 128
-5.45667 -5.90742 -1.7835 150 130 127
-7.61952 -3.32696 -1.85533 96 98 112
-7.63618 -3.29231 -1.85579 91 92 108
-7.6351 -3.26396 -1.85294 87 90 106
-7.66596 -3.24959 -1.8586 88 92 108
-8.49871 -2.10849 -1.86211 153 143 152
-8.47935 -2.06188 -1.85531 75 74 89
-8.9107 -1.41455 -1.85086 77 88 108
-8.91238 -1.38644 -1.85041 80 91 113
-9.29121 -0.880311 -1.85562 80 92 116
-9.55766 -0.55926 -1.86251 75 91 117
-9.62809 -0.305705 -1.84234 81 97 123
-3.19047 -8.26484 -1.66857 167 147 137
-3.60084 -7.85839 -1.69228 199 178 161
-3.94253 -7.44641 -1.70686 237 209 186
-3.9617 -7.42787 -1.70511 204 170 149
-4.41152 -6.98362 -1.7351 169 146 132
-4.44152 -6.96063 -1.73419 165 142 126
-5.3011 -6.02614 -1.77978 155 135 125
-5.31559 -6.0056 -1.77836 157 137 129
-5.33879 -5.99539 -1.78024 154 135 129
-5.35693 -5.97917 -1.78023 153 136 128
-7.67156 -3.2101 -1.85622 93 94 112
-7.6916 -3.19088 -1.85904 84 90 106
-7.69549 -3.16477 -1.85761 88 92 107
-8.52474 -2.04494 -1.86479 86 93 111
-8.52083 -2.01614 -1.86252 80 89 106
-8.90069 -1.34202 -1.84647 85 98 117
-9.29701 -0.851523 -1.85645 74 90 115
-9.28131 -0.820859 -1.85264 79 95 121
-9.5702 -0.534526 -1.86533 73 90 116
-9.54861 -0.494679 -1.8596 70 87 113
-9.62862 -0.26036 -1.84233 87 103 129
-3.15285 -8.28033 -1.66898 165 145 136
-3.53534 -7.87171 -1.68933 176 152 147
-3.56381 -7.87221 -1.69186 186 160 161
-3.91903 -7.45613 -1.70643 227 201 184
-4.37022 -7.01125 -1.73556 168 144 133
-4.38939 -6.99496 -1.73465 168 144 132
-5.2266 -6.06997 -1.77603 156 137 130
-5.24994 -6.06012 -1.77791 157 138 132
-5.26829 -6.04419 -1.7779 156 137 130
-7.71498 -3.1312 -1.85902 89 94 110
-7.72406 -3.10728 -1.859 91 94 110
-7.72226 -3.07891 -1.85616 82 87 101
-7.73475 -3.05642 -1.85709 85 87 103
-8.53322 -1.97716 -1.86341 70 78 97
-8.52528 -1.94754 -1.86023 81 88 108
-8.52483 -1.91968 -1.85886 79 86 108
-8.91946 -1.31658 -1.84995 82 94 116
-8.91504 -1.28759 -1.84819 79 91 115
-9.30375 -0.77877 -1.85684 74 90 116
-9.55126 -0.469291 -1.86005 74 90 115
-9.5674 -0.444664 -1.86383 69 85 111
-9.6286 -0.230128 -1.84231 82 97 126
-3.5144 -7.88915 -1.69102 182 160 144
-3.85431 -7.46862 -1.7025 204 180 168
-3.877 -7.45736 -1.7025 208 186 172
-4.30986 -7.03154 -1.7324 168 145 129
-4.34999 -7.02581 -1.73602 170 147 133
-5.15784 -6.12043 -1.77464 154 137 130
-5.17517 -6.10329 -1.77416 155 138 131
-5.19119 -6.08459 -1.7732 155 136 130
-7.76099 -3.02546 -1.86038 91 90 108
-7.75347 -2.99495 -1.85612 88 87 105
-7.77294 -2.97514 -1.85893 88 89 107
-7.78799 -2.93966 -1.85939 77 80 97
-8.53107 -1.87938 -1.85839 80 91 109
-8.54944 -1.85565 -1.86154 83 91 112
-8.9202 -1.24584 -1.84817 82 94 116
-8.92326 -1.21799 -1.84816 76 88 112
-9.2995 -0.749133 -1.85556 76 90 116
-9.29126 -0.71923 -1.85344 86 102 128
-9.56409 -0.418885 -1.86285 72 88 114
-3.4488 -7.90172 -1.68808 180 158 144
-3.4728 -7.8917 -1.68807 180 158 142
-3.79127 -7.48407 -1.69945 192 166 153
-3.83076 -7.47804 -1.70207 189 166 152
-4.2634 -7.05008 -1.73061 171 145 130
-4.28469 -7.03748 -1.7306 168 145 129
-5.08256 -6.16242 -1.77088 150 134 131
-5.10606 -6.15314 -1.77276 152 137 132
-5.12713 -6.14072 -1.7737 151 133 129
-7.80551 -2.91896 -1.86174 86 86 102
-7.80845 -2.89267 -1.86031 91 93 108
-7.80493 -2.85018 -1.85605 89 91 106
-8.53728 -1.82534 -1.85746 79 90 108
-8.56405 -1.78934 -1.86196 80 93 110
-8.92238 -1.1896 -1.84727 73 85 109
-8.92334 -1.16148 -1.84682 70 85 109
-9.30827 -0.691198 -1.8568 76 90 116
-9.56907 -0.380732 -1.86378 79 96 122
-9.55973 -0.354703 -1.86137 80 95 122
-3.42696 -7.91711 -1.68934 181 159 146
-3.74487 -7.50419 -1.69902 204 180 166
-3.77012 -7.49859 -1.70033 199 175 160
-4.20386 -7.07111 -1.7279 173 150 134
-4.22905 -7.06547 -1.7297 169 143 128
-4.98812 -6.21854 -1.76714 150 132 128
-5.00933 -6.20654 -1.76807 147 132 127
-5.02696 -6.18985 -1.76759 151 136 133
-5.05168 -6.18232 -1.76995 148 133 130
-7.83132 -2.8327 -1.86076 85 88 105
-7.84308 -2.80973 -1.86169 82 87 103
-7.84566 -2.78339 -1.86026 87 90 107
-8.55927 -1.76068 -1.85969 77 88 108
-8.56776 -1.73474 -1.86058 81 92 112
-8.94143 -1.12142 -1.84986 75 90 113
-9.29697 -0.646476 -1.85383 77 89 113
-9.57165 -0.329655 -1.8642 78 94 120
-3.36199 -7.93073 -1.68682 182 155 138
-3.38825 -7.92644 -1.68808 173 150 132
-3.71961 -7.50969 -1.69771 194 169 149
-4.15458 -7.11035 -1.73017 172 150 136
-4.1891 -7.09535 -1.73107 172 151 136
-4.91324 -6.25992 -1.76386 157 140 133
-4.93805 -6.25286 -1.76621 154 137 132
-4.96639 -6.25036 -1.76998 149 134 129
-7.85432 -2.74553 -1.8593 87 88 106
-7.86033 -2.72048 -1.85881 86 87 105
-7.86993 -2.69672 -1.85927 85 88 105
-8.5781 -1.70914 -1.86192 80 91 111
-8.58141 -1.66824 -1.861 81 92 112
-8.94603 -1.09374 -1.85028 74 88 114
-8.94669 -1.06555 -1.84983 81 96 119
-9.08362 -0.815252 -1.84419 79 95 121
-9.29425 -0.617055 -1.85297 80 92 114
-9.3051 -0.588479 -1.85507 76 91 112
-9.57231 -0.291265 -1.86417 76 92 119
-9.56269 -0.265327 -1.86177 68 83 111
-3.33574 -7.93494 -1.68555 182 156 139
-3.66201 -7.53643 -1.69772 201 175 160
-3.6873 -7.53113 -1.69902 211 184 163
-4.10965 -7.13122 -1.72927 170 147 133
-4.12558 -7.10887 -1.72656 173 149 137
-4.84718 -6.31296 -1.76435 158 139 132
-4.86863 -6.30146 -1.76529 160 141 135
-4.89121 -6.29146 -1.7667 156 137 131
-6.00321 -4.9423 -1.80502 94 91 110
-6.00743 -4.91517 -1.80154 93 90 109
-6.02946 -4.90283 -1.80401 94 91 110
-6.04999 -4.88916 -1.80598 97 94 113
-6.05857 -4.85022 -1.80151 95 92 111
-6.085 -4.84126 -1.80546 98 93 112
-6.08575 -4.81163 -1.80099 99 92 110
-6.12266 -4.7955 -1.80593 98 94 111
-6.1338 -4.77423 -1.80493 94 90 107
-6.14794 -4.75531 -1.80492 101 93 114
-6.17859 -4.73397 -1.80788 102 95 113
-6.19259 -4.71491 -1.80787 104 97 113
-6.19885 -4.68992 -1.80538 106 99 117
-6.22812 -4.6825 -1.81033 108 99 118
-6.25852 -4.66063 -1.81329 104 95 112
-6.2506 -4.62509 -1.80634 114 107 123
-6.29688 -4.63002 -1.81673 107 100 118
-6.29749 -4.58593 -1.81028 107 104 123
-6.29854 -4.55734 -1.80631 109 106 127
-6.32607 -4.54812 -1.81076 107 105 126
-6.35444 -4.52442 -1.81322 110 108 129
-6.34416 -4.48792 -1.80578 112 109 128
-6.3858 -4.48846 -1.81469 114 111 120
-6.44045 -4.39598 -1.81315 162 142 131
-6.41865 -4.33774 -1.80026 134 131 152
-6.4859 -4.35476 -1.81709 112 123 143
-6.4602 -4.2659 -1.79924 104 118 144
-6.52527 -4.20943 -1.80564 100 112 136
-7.88367 -2.66068 -1.85973 83 86 103
-7.90226 -2.63997 -1.86255 84 87 104
-7.90794 -2.61479 -1.86206 82 85 102
-8.59153 -1.64254 -1.86234 81 92 112
-8.58819 -1.6143 -1.86052 75 86 108
-8.93726 -1.02203 -1.84676 78 90 113
-9.10266 -0.792704 -1.84866 78 93 119
-9.29915 -0.544235 -1.85337 75 89 115
-9.56269 -0.239759 -1.86174 80 96 122
-3.30948 -7.93905 -1.68429 181 157 145
-3.63984 -7.54877 -1.69816 208 181 164
-4.04877 -7.14916 -1.72611 169 146 135
-4.06854 -7.13382 -1.72521 170 147 134
-4.79644 -6.34609 -1.76342 159 139 130
-4.81798 -6.33478 -1.76436 160 140 131
-5.7743 -5.14946 -1.79423 126 116 126
-5.77523 -5.11878 -1.78927 113 103 114
-5.82443 -5.11534 -1.79817 87 81 96
-5.83239 -5.09102 -1.79569 97 90 107
-5.85041 -5.07566 -1.79667 101 95 115
-5.87633 -5.05121 -1.79765 95 92 114
-5.90302 -5.04328 -1.8016 97 94 117
-5.92239 -5.02892 -1.80308 96 94 116
-5.94222 -4.99906 -1.80208 97 95 117
-5.95853 -4.98203 -1.80256 97 95 117
-5.97923 -4.96868 -1.80453 96 93 114
-6.66659 -4.01751 -1.81148 98 104 120
-6.79883 -3.92878 -1.82975 100 104 125
-7.91208 -2.57548 -1.86016 84 86 104
-7.9286 -2.55394 -1.86251 79 85 99
-7.92293 -2.52508 -1.85919 86 90 105
-8.59871 -1.57478 -1.86141 74 85 107
-8.94542 -0.99477 -1.84805 83 95 117
-8.93416 -0.965306 -1.84498 71 83 109
-9.10429 -0.768384 -1.84864 80 94 117
-9.107 -0.731885 -1.84861 66 81 104
-9.30588 -0.515359 -1.85462 80 94 120
-9.30275 -0.485957 -1.85376 79 95 120
-9.56099 -0.201352 -1.86124 74 90 116
-9.5569 -0.17569 -1.86026 78 94 120
-3.24796 -7.96081 -1.68387 176 155 138
-3.27632 -7.96239 -1.6864 177 156 139
-3.57885 -7.5677 -1.69641 206 184 177
-3.60341 -7.56091 -1.69728 205 184 172
-4.00091 -7.16415 -1.72386 171 148 132
-4.02348 -7.15411 -1.72431 172 149 135
-4.7227 -6.38826 -1.76108 160 140 131
-4.75442 -6.37007 -1.76202 159 139 131
-4.77263 -6.35415 -1.76154 159 139 130
-5.65606 -5.29615 -1.79678 143 131 132
-5.66198 -5.26949 -1.7933 113 99 100
-5.69295 -5.25005 -1.79577 109 95 100
-5.71283 -5.23654 -1.79724 121 106 112
-5.73124 -5.22164 -1.79822 130 116 123
-5.76062 -5.20047 -1.8002 108 96 109
-5.75179 -5.16062 -1.79176 108 98 110
-7.92268 -2.49807 -1.85729 85 87 103
-7.94104 -2.46348 -1.85916 85 87 102
-7.96282 -2.44346 -1.86293 85 87 100
-8.60472 -1.54827 -1.86185 78 88 113
-8.61641 -1.52275 -1.86364 75 85 110
-8.94942 -0.924668 -1.84759 83 94 116
-9.09111 -0.706023 -1.8441 72 86 112
-9.12138 -0.684174 -1.85156 71 85 111
-9.30804 -0.442324 -1.85459 73 88 113
-9.56825 -0.150385 -1.86309 76 90 116
-9.55624 -0.124578 -1.86021 82 96 122
-3.22305 -7.96827 -1.68345 176 155 138
-3.5581 -7.58338 -1.69773 171 152 146
-3.94532 -7.19149 -1.72342 172 150 136
-3.96527 -7.17646 -1.72251 173 151 137
-4.68048 -6.41172 -1.75968 165 143 132
-4.69994 -6.39763 -1.75967 162 142 133
-5.52004 -5.39286 -1.78841 143 127 128
-5.54866 -5.37157 -1.78989 138 122 123
-5.56605 -5.35593 -1.79038 138 122 124
-5.58202 -5.33888 -1.79037 138 124 121
-5.6007 -5.32447 -1.79135 133 119 116
-5.63324 -5.30674 -1.79431 138 125 128
-7.9623 -2.4164 -1.86102 88 90 105
-7.97844 -2.38097 -1.86243 87 89 104
-8.61307 -1.48075 -1.86137 87 98 120
-8.62071 -1.4545 -1.86226 77 88 108
-8.93792 -0.895293 -1.84452 79 91 115
-8.9554 -0.868918 -1.848 86 98 120
-9.1034 -0.658211 -1.84655 76 88 114
-9.09982 -0.621261 -1.84503 79 93 119
-9.30857 -0.413101 -1.85457 80 96 121
-9.57145 -0.0864538 -1.86398 79 95 120
-3.18358 -7.97473 -1.68177 173 151 138
-3.49617 -7.59981 -1.69555 165 147 133
-3.52003 -7.59151 -1.69598 168 150 138
-3.92265 -7.20126 -1.72297 171 149 135
-4.60509 -6.45086 -1.75687 164 141 131
-4.62576 -6.43862 -1.75733 163 141 130
-4.6497 -6.43113 -1.75922 163 141 130
-5.42623 -5.48069 -1.78697 141 125 128
-5.44393 -5.46548 -1.78746 143 127 127
-5.46838 -5.45711 -1.79042 145 129 130
-5.49453 -5.43337 -1.79091 146 130 133
-5.50391 -5.40971 -1.78842 142 126 127
-7.98328 -2.3556 -1.86194 87 88 104
-7.98245 -2.32856 -1.86004 83 84 104
-7.99446 -2.29187 -1.8605 85 86 107
-8.62251 -1.42726 -1.86179 80 90 115
-8.62422 -1.40002 -1.86133 83 95 117
-8.9534 -0.840547 -1.84711 76 88 112
-9.09705 -0.596646 -1.84401 77 91 117
-9.32075 -0.384327 -1.85709 80 96 122
-9.56119 -0.0607463 -1.86158 79 95 121
-9.56053 -0.0351692 -1.86155 75 92 118
-3.13833 -8.00202 -1.68388 169 147 136
-3.16266 -7.993 -1.68388 172 150 139
-3.47003 -7.60264 -1.6938 170 148 137
-3.86505 -7.22448 -1.72162 172 148 136
-3.89129 -7.22185 -1.72387 171 149 136
-4.55445 -6.48358 -1.75641 164 141 133
-4.5709 -6.46504 -1.75499 163 140 132
-5.31831 -5.57061 -1.78405 148 132 130
-5.34498 -5.54764 -1.78453 147 129 127
-5.3642 -5.53412 -1.78551 144 126 124
-5.38339 -5.52053 -1.7865 145 126 127
-5.40255 -5.50687 -1.78748 143 124 126
-7.99902 -2.26647 -1.86001 82 84 101
-8.11544 -2.27319 -1.88785 79 78 92
-8.62606 -1.35901 -1.86041 79 92 111
-8.63334 -1.33265 -1.8613 78 90 112
-8.95839 -0.798742 -1.84753 78 93 116
-8.96394 -0.77108 -1.84839 77 89 111
-9.10193 -0.572595 -1.84498 72 86 112
-9.11531 -0.536841 -1.84794 75 89 115
-9.31384 -0.34016 -1.85539 85 100 123
-9.30819 -0.310734 -1.85411 80 95 118
-3.09878 -8.00804 -1.68219 163 144 133
-3.4454 -7.60898 -1.69293 167 146 139
-3.83796 -7.22527 -1.71891 169 150 137
-4.47422 -6.51465 -1.75171 166 144 131
-4.5096 -6.50262 -1.75406 166 144 133
-4.53044 -6.49071 -1.75453 166 144 134
-5.21644 -5.64888 -1.78062 141 123 124
-5.23853 -5.63871 -1.78259 146 128 128
-5.25407 -5.6213 -1.78209 149 131 131
-5.2849 -5.60292 -1.78406 146 128 128
-5.30163 -5.5868 -1.78405 143 127 127
-7.16255 -3.30055 -1.84231 85 87 108
-7.99827 -2.19949 -1.85574 149 142 150
-8.00252 -2.17409 -1.85525 140 134 135
-8.0123 -2.15023 -1.85618 145 139 142
-8.63282 -1.3051 -1.86038 76 91 114
-8.95774 -0.742384 -1.84663 80 92 114
-9.09877 -0.51137 -1.84343 77 92 116
-9.322 -0.281876 -1.85704 78 92 118
-3.07053 -8.00579 -1.67966 160 141 136
-3.38628 -7.63169 -1.6925 163 144 137
-3.4117 -7.62736 -1.6938 167 149 139
-3.78535 -7.25827 -1.72027 168 145 136
-3.80988 -7.25245 -1.72162 170 147 136
-4.43764 -6.54623 -1.75314 165 143 130
-4.46175 -6.53946 -1.75502 165 143 130
-5.15656 -5.70412 -1.78065 145 127 124
-5.16846 -5.68262 -1.77866 144 127 125
-5.1932 -5.67552 -1.78162 141 124 125
-7.18882 -3.21911 -1.84029 89 95 111
-7.20159 -3.19827 -1.84126 85 91 108
-8.03137 -2.12887 -1.85947 143 133 136
-8.63034 -1.26352 -1.85856 72 84 106
-8.6354 -1.23682 -1.859 79 91 113
-8.96033 -0.700366 -1.84661 80 95 119
-8.95975 -0.672193 -1.84616 77 89 115
-9.12269 -0.488405 -1.84939 81 97 122
-9.11251 -0.45115 -1.84637 75 90 116
-9.32399 -0.252644 -1.85745 86 101 124
-3.04551 -8.01267 -1.67925 151 134 134
-3.36302 -7.64137 -1.6925 157 138 131
-3.73544 -7.26788 -1.71711 168 146 133
-3.75827 -7.25874 -1.71756 169 145 133
-4.37802 -6.56439 -1.7489 164 141 127
-4.40318 -6.55949 -1.75126 165 143 130
-5.06745 -5.76089 -1.77622 149 130 131
-5.08596 -5.74694 -1.77671 149 131 131
-5.10949 -5.73876 -1.77918 145 126 126
-5.11901 -5.71446 -1.7762 148 130 128
-8.07623 -2.10089 -1.86843 135 125 130
-8.04448 -2.06587 -1.85897 80 79 95
-8.07835 -2.04816 -1.86604 83 88 108
-8.63071 -1.20877 -1.85717 81 92 115
-8.63936 -1.16882 -1.85806 73 85 110
-8.95519 -0.643732 -1.84484 75 89 115
-9.1266 -0.427458 -1.84984 76 92 118
-9.11744 -0.402559 -1.84732 80 96 121
-9.3145 -0.208521 -1.85533 80 94 120
-9.32604 -0.179456 -1.85784 84 98 124
-3.30226 -7.65977 -1.69119 171 152 143
-3.32771 -7.65574 -1.6925 164 145 138
-3.67661 -7.28776 -1.71531 167 145 134
-3.69783 -7.2753 -1.71485 162 140 129
-4.32756 -6.5969 -1.74891 162 140 129
-4.36213 -6.58404 -1.7508 166 142 132
-4.97481 -5.83118 -1.77427 139 124 125
-5.00262 -5.80997 -1.77476 141 125 126
-5.02126 -5.79624 -1.77525 144 126 131
-5.04487 -5.78834 -1.77772 142 124 129
-7.25199 -2.91725 -1.82677 84 86 101
-8.08155 -2.009 -1.86461 83 90 109
-8.08519 -1.98338 -1.86412 79 86 105
-8.63446 -1.14081 -1.85624 81 93 119
-8.97286 -0.602814 -1.84832 83 95 119
-8.9778 -0.575004 -1.84918 75 89 114
-9.11787 -0.378154 -1.8473 78 92 118
-9.31794 -0.15005 -1.85614 80 94 120
-3.27753 -7.66554 -1.69032 167 149 141
-3.65946 -7.30898 -1.71802 167 147 136
-4.29036 -6.6276 -1.75034 162 140 127
-4.30747 -6.60979 -1.74892 160 138 125
-4.90928 -5.87914 -1.77281 141 125 128
-4.93484 -5.85527 -1.77231 140 121 125
-4.95731 -5.84625 -1.77428 142 126 127
-5.90064 -4.65088 -1.80192 97 93 116
-5.93542 -4.64975 -1.80909 100 97 118
-5.92961 -4.61583 -1.80242 104 99 121
-5.96706 -4.60172 -1.80804 98 93 113
-5.96401 -4.57024 -1.8024 103 95 116
-5.98054 -4.5543 -1.80341 108 101 119
-5.9965 -4.52318 -1.80186 103 100 119
-6.01597 -4.50947 -1.8039 114 109 129
-6.02468 -4.48746 -1.80235 118 113 133
-6.06335 -4.47368 -1.80849 118 113 133
-6.06885 -4.44922 -1.80592 114 112 133
-6.09123 -4.4375 -1.80898 105 107 130
-6.10657 -4.40593 -1.80744 102 108 132
-6.11334 -4.38257 -1.80537 104 108 133
-6.13247 -4.36832 -1.80741 114 115 136
-6.15937 -4.35967 -1.81202 111 108 125
-6.16648 -4.32219 -1.8079 120 112 123
-6.19019 -4.31107 -1.81148 147 135 135
-6.20759 -4.29536 -1.81301 133 119 118
-6.22219 -4.26333 -1.81146 155 138 131
-6.22364 -4.23642 -1.80786 146 132 132
-6.2551 -4.23046 -1.814 133 122 136
-6.26618 -4.19606 -1.81143 114 121 139
-6.29443 -4.18764 -1.81654 111 122 142
-6.30671 -4.16823 -1.81653 104 118 144
-6.31735 -4.1477 -1.816 100 115 138
-6.32955 -4.11418 -1.81394 92 106 132
-8.07931 -1.95541 -1.86128 83 88 107
-8.08771 -1.91767 -1.86126 81 88 107
-8.65458 -1.11601 -1.86029 74 86 110
-8.6495 -1.088 -1.85847 86 96 116
-8.97292 -0.546545 -1.84785 90 102 126
-9.11681 -0.341457 -1.84677 79 93 119
-9.1151 -0.316976 -1.84625 83 97 123
-9.32751 -0.10622 -1.85823 85 97 121
-3.24486 -7.68679 -1.69207 161 143 136
-3.59797 -7.32289 -1.71486 166 146 135
-3.62421 -7.32128 -1.71712 170 149 138
-4.23143 -6.64604 -1.74658 167 145 134
-4.25164 -6.63339 -1.74657 167 145 134
-4.85496 -5.92199 -1.77234 151 136 133
-4.8715 -5.90576 -1.77184 147 131 130
-4.88677 -5.88796 -1.77084 141 125 128
-5.6963 -4.89561 -1.80051 95 93 115
-5.71992 -4.87072 -1.80101 91 92 113
-5.73145 -4.85067 -1.79998 93 91 113
-5.75748 -4.84325 -1.80407 96 91 113
-5.75578 -4.81174 -1.79842 93 90 111
-5.77314 -4.78151 -1.79687 92 88 111
-5.80789 -4.78133 -1.80404 91 87 110
-5.81174 -4.75481 -1.80044 95 90 113
-5.84063 -4.73426 -1.80299 93 88 110
-5.86057 -4.72129 -1.80503 93 90 111
-5.86563 -4.69594 -1.80195 95 92 111
-5.90477 -4.68361 -1.80809 95 91 114
-6.34804 -4.09892 -1.81598 97 111 137
-6.352 -4.07403 -1.81341 85 99 125
-6.38483 -4.0541 -1.81801 91 106 135
-6.39508 -4.03334 -1.81749 100 116 142
-6.4069 -4.0136 -1.81747 104 119 142
-6.43141 -3.98806 -1.81951 96 110 137
-6.44797 -3.97129 -1.82104 98 112 138
-6.45305 -3.94727 -1.81898 101 113 135
-6.47441 -3.93346 -1.82204 104 117 136
-6.4953 -3.90546 -1.82305 98 105 124
-6.49684 -3.87935 -1.81997 97 102 121
-6.51311 -3.86227 -1.82149 96 103 121
-7.35418 -2.84015 -1.84455 85 88 104
-8.09104 -1.89204 -1.86078 81 90 107
-8.0924 -1.86596 -1.85982 82 89 110
-8.65373 -1.04743 -1.85846 81 93 115
-8.9699 -0.518234 -1.84696 80 92 117
-9.13458 -0.293226 -1.85121 72 86 112
-9.31919 -0.0768678 -1.85653 80 92 116
-3.19391 -7.69419 -1.68945 165 146 141
-3.22075 -7.69418 -1.69163 159 141 136
-3.57257 -7.32617 -1.71306 160 140 135
-4.18892 -6.66778 -1.74565 167 145 135
-4.21118 -6.65861 -1.74659 167 145 134
-4.78377 -5.96239 -1.7689 153 136 129
-4.80164 -5.94789 -1.76889 154 137 130
-4.82906 -5.94549 -1.77284 153 136 129
-5.54548 -5.03444 -1.79444 96 94 118
-5.57172 -5.02805 -1.79853 96 94 116
-5.59373 -5.01759 -1.80108 94 91 112
-5.61221 -4.98801 -1.79953 96 92 115
-5.62987 -4.97346 -1.80055 95 91 114
-5.6432 -4.95495 -1.80003 96 94 115
-5.65991 -4.92388 -1.79797 93 89 113
-5.68029 -4.91171 -1.80001 93 90 111
-6.53369 -3.83405 -1.82251 92 94 117
-6.57802 -3.83364 -1.83274 95 96 117
-6.58588 -3.81132 -1.83171 98 101 120
-6.60124 -3.77978 -1.83118 100 108 127
-6.62227 -3.76518 -1.83425 99 107 126
-6.62153 -3.73793 -1.83065 97 105 124
-6.64324 -3.71006 -1.83217 96 104 121
-7.3513 -2.68338 -1.83062 83 89 103
-8.10416 -1.82903 -1.86075 83 91 110
-8.12045 -1.80639 -1.86357 80 89 107
-8.65423 -1.02015 -1.85799 77 89 111
-8.65271 -0.992648 -1.85707 81 93 115
-8.96561 -0.475802 -1.84564 77 92 116
-8.96431 -0.447644 -1.84519 80 94 120
-9.12926 -0.256348 -1.84969 83 99 125
-9.12148 -0.231688 -1.84767 73 89 115
-9.3303 -0.0476093 -1.85905 77 92 115
-3.16979 -7.70141 -1.68902 162 146 140
-3.51739 -7.35356 -1.71351 146 132 132
-3.54204 -7.3487 -1.71487 149 133 134
-4.11335 -6.70429 -1.74378 168 146 133
-4.13862 -6.70044 -1.74613 167 145 132
-4.15705 -6.68473 -1.74518 167 145 133
-4.7146 -6.00496 -1.76644 155 134 128
-4.7326 -5.99069 -1.76643 162 143 136
-4.74821 -5.9733 -1.76543 165 146 139
-5.42447 -5.16949 -1.79502 105 93 100
-5.42334 -5.13672 -1.78885 108 95 105
-5.44967 -5.13097 -1.79295 95 85 94
-5.46184 -5.09528 -1.78884 97 91 109
-5.4923 -5.09333 -1.79446 97 94 113
-5.51024 -5.07923 -1.79548 97 94 113
-5.53467 -5.05531 -1.79598 97 94 115
-6.66076 -3.69331 -1.83421 100 108 123
-6.68159 -3.67837 -1.83727 93 97 114
-6.68554 -3.65391 -1.83521 93 96 113
-6.69847 -3.62098 -1.83417 94 95 113
-6.71574 -3.60395 -1.83621 95 96 114
-6.72619 -3.58314 -1.8362 91 93 108
-7.40074 -2.67546 -1.842 82 85 102
-7.42104 -2.65687 -1.84545 87 89 106
-7.4509 -2.62846 -1.85039 82 86 103
-8.12722 -1.78153 -1.86403 89 98 115
-8.11496 -1.75244 -1.85977 83 91 110
-8.67585 -0.954129 -1.86158 80 92 116
-8.65475 -0.924566 -1.85614 77 89 111
-8.96877 -0.419784 -1.84605 80 96 121
-9.13104 -0.207474 -1.85013 82 98 124
-9.31986 -0.00365177 -1.85693 84 99 122
-3.13284 -7.71119 -1.68814 154 139 137
-3.49276 -7.35833 -1.71216 145 135 132
-4.08326 -6.72425 -1.74425 168 146 135
-4.64968 -6.05289 -1.76597 168 148 141
-4.66783 -6.03883 -1.76596 153 133 126
-4.68479 -6.02317 -1.76546 155 134 129
-5.31814 -5.25521 -1.79045 135 125 126
-5.3392 -5.24453 -1.79249 132 117 120
-5.36708 -5.22423 -1.79402 133 121 124
-5.38401 -5.20925 -1.79452 134 122 126
-5.40499 -5.1983 -1.79656 134 121 130
-6.73876 -3.55004 -1.83516 95 94 112
-6.75585 -3.5328 -1.8372 94 91 110
-6.76438 -3.51096 -1.83668 96 93 112
-6.78684 -3.48308 -1.83871 95 92 111
-6.78493 -3.4558 -1.83512 92 89 108
-6.82921 -3.45249 -1.84535 89 86 105
-7.44549 -2.60071 -1.84691 80 82 97
-7.45645 -2.57868 -1.84789 85 87 100
-7.45636 -2.55286 -1.84589 85 87 102
-8.14325 -1.71904 -1.86494 82 91 108
-8.13645 -1.69125 -1.8621 85 93 112
-8.65875 -0.897687 -1.85658 81 93 117
-8.96207 -0.377325 -1.84429 78 93 116
-9.11951 -0.170559 -1.84711 82 98 124
-9.1192 -0.146123 -1.84709 76 92 117
-3.0878 -7.73433 -1.68946 151 136 139
-3.10736 -7.71454 -1.68683 150 137 137
-3.47046 -7.36837 -1.71216 139 128 132
-4.03842 -6.74159 -1.74238 168 146 133
-4.06179 -6.73466 -1.74379 167 145 134
-4.58425 -6.10005 -1.7655 154 135 128
-4.59912 -6.08152 -1.764 155 135 126
-4.62458 -6.05755 -1.763 172 152 141
-5.22543 -5.33771 -1.78844 141 126 125
-5.24533 -5.32602 -1.78997 144 129 136
-5.26521 -5.31426 -1.7915 140 124 125
-5.28266 -5.28326 -1.78893 116 104 104
-5.30377 -5.27273 -1.79097 122 110 110
-6.81344 -3.4181 -1.83765 89 88 106
-6.83895 -3.39162 -1.84072 86 84 104
-6.8539 -3.37301 -1.84224 82 80 101
-6.86019 -3.35002 -1.8412 93 92 110
-6.86987 -3.31551 -1.83965 93 94 112
-7.45829 -2.51479 -1.8434 86 89 104
-7.46715 -2.49206 -1.84389 84 87 103
-7.48516 -2.47231 -1.84684 88 87 104
-8.13337 -1.6643 -1.8602 85 96 116
-8.13467 -1.62512 -1.85877 79 86 105
-8.65821 -0.856677 -1.85566 75 86 108
-8.97408 -0.349763 -1.84689 81 95 121
-8.9646 -0.321293 -1.8447 81 95 120
-9.11302 -0.121616 -1.84557 84 97 122
-3.05008 -7.74186 -1.68814 144 132 137
-3.4134 -7.39135 -1.71171 141 129 138
-3.435 -7.37971 -1.71126 139 127 136
-3.9828 -6.76454 -1.7405 164 144 133
-4.0034 -6.75269 -1.74049 166 145 136
-4.53339 -6.12811 -1.76353 155 135 128
-4.56024 -6.106 -1.76303 156 136 127
-5.13781 -5.40922 -1.78591 136 120 123
-5.15978 -5.38296 -1.78488 138 122 123
-5.18239 -5.37436 -1.78743 142 126 129
-5.19975 -5.36003 -1.78794 141 125 128
-6.87942 -3.29419 -1.83964 92 93 111
-6.89412 -3.27537 -1.84117 99 98 118
-6.91558 -3.24659 -1.8432 90 89 109
-6.93014 -3.22761 -1.84473 95 96 116
-6.93419 -3.20361 -1.84318 102 103 123
-7.50324 -2.43955 -1.84881 90 89 105
-7.50266 -2.4137 -1.84682 85 87 100
-8.14658 -1.60131 -1.86064 83 92 107
-8.15462 -1.57668 -1.86157 78 89 107
-8.65811 -0.829407 -1.85519 78 89 113
-8.6618 -0.802486 -1.85563 81 93 119
-8.97496 -0.279525 -1.84686 80 94 120
-9.11849 -0.0850286 -1.84703 80 94 120
-3.02521 -7.74677 -1.68727 144 133 141
-3.38873 -7.39575 -1.71036 144 132 141
-3.93504 -6.77605 -1.7372 167 147 136
-3.96218 -6.77632 -1.7405 166 146 135
-4.45717 -6.15965 -1.75859 155 135 128
-4.49535 -6.15371 -1.76305 154 134 128
-4.5127 -6.13857 -1.76254 157 137 130
-5.06414 -5.47877 -1.78595 141 126 129
-5.0865 -5.45283 -1.78491 145 130 130
-5.10795 -5.44313 -1.78696 145 130 130
