-6.75819 -0.951146 -1.80741 73 86 103
-7.027 -0.639669 -1.81883 81 93 112
-7.15188 -0.326578 -1.79656 71 83 107
-2.61641 -6.48353 -1.72567 122 121 135
-2.8579 -6.18511 -1.73316 122 121 135
-3.07571 -5.94162 -1.74763 125 124 138
-3.09271 -5.93108 -1.74707 125 124 138
-3.46252 -5.39357 -1.75099 121 120 136
-3.47667 -5.38002 -1.74983 123 122 136
-3.81809 -4.91671 -1.75798 104 104 122
-3.84185 -4.91746 -1.76277 104 110 126
-3.85951 -4.89411 -1.76037 111 114 131
-4.22176 -4.44477 -1.77773 95 100 121
-4.22474 -4.42082 -1.7728 99 102 125
-4.23911 -4.40955 -1.77341 99 104 124
-5.59787 -2.5875 -1.79979 91 88 109
-5.60517 -2.57024 -1.79978 84 81 102
-5.61069 -2.55215 -1.79916 99 96 116
-5.95823 -2.12548 -1.80969 77 84 102
-5.97093 -2.09883 -1.81088 79 85 107
-6.36002 -1.59176 -1.81846 73 80 99
-6.36232 -1.57137 -1.81787 76 85 102
-6.75037 -0.917945 -1.80405 75 87 109
-7.02052 -0.617009 -1.81664 73 86 103
-7.19869 -0.294513 -1.80923 68 83 106
-2.59554 -6.48723 -1.72461 121 123 136
-2.82481 -6.21183 -1.73642 116 117 132
-2.84502 -6.20739 -1.73751 119 118 134
-3.04445 -5.94606 -1.74483 123 122 136
-3.43787 -5.40888 -1.75099 118 117 133
-3.79446 -4.9471 -1.76099 94 100 119
-3.80233 -4.92656 -1.75738 96 95 113
-4.14661 -4.48404 -1.77036 100 105 124
-4.15864 -4.47019 -1.76974 97 102 121
-4.17821 -4.46485 -1.77281 95 102 120
-4.20097 -4.44888 -1.77404 95 102 121
-5.62186 -2.52618 -1.79915 92 89 110
-5.63242 -2.51043 -1.80037 89 86 105
-5.64293 -2.49462 -1.8016 91 86 106
-5.98207 -2.08207 -1.81267 79 84 106
-5.99497 -2.06586 -1.81506 76 83 101
-6.3887 -1.55699 -1.82481 77 85 104
-6.38958 -1.52561 -1.82306 67 74 93
-6.72728 -0.89354 -1.79604 78 90 112
-7.02062 -0.583932 -1.81609 77 89 109
-7.18532 -0.271377 -1.80552 72 87 110
-2.56514 -6.49626 -1.72408 121 125 137
-3.02741 -5.95645 -1.74539 124 123 137
-3.40349 -5.4258 -1.74984 122 121 137
-3.4168 -5.41078 -1.7481 118 117 133
-3.75495 -4.97218 -1.75979 106 109 126
-3.76522 -4.9548 -1.75739 110 113 132
-4.09815 -4.52571 -1.76976 95 103 122
-4.11405 -4.51633 -1.77098 98 103 123
-4.12745 -4.50402 -1.77098 100 107 125
-5.6521 -2.46771 -1.80097 95 91 108
-5.65902 -2.45027 -1.80096 91 88 107
-5.67457 -2.43664 -1.80403 83 81 102
-5.67651 -2.40655 -1.80095 91 88 109
-6.00199 -2.03717 -1.81446 76 84 103
-5.98945 -2.0124 -1.80845 75 83 102
-5.99311 -1.9931 -1.80784 78 86 105
-6.38423 -1.50335 -1.82016 74 81 100
-6.38999 -1.48379 -1.82073 74 81 100
-6.73851 -0.878364 -1.79945 73 85 109
-6.75438 -0.875735 -1.80403 74 86 108
-6.74363 -0.853494 -1.80012 77 88 105
-7.02546 -0.562316 -1.81717 71 81 105
-7.01298 -0.539269 -1.81335 76 84 105
-7.18918 -0.248863 -1.80657 75 87 111
-2.54361 -6.49797 -1.72249 127 127 141
-2.78026 -6.2387 -1.7386 123 125 138
-2.79839 -6.22906 -1.73805 120 122 135
-2.9924 -5.97533 -1.74595 123 125 137
-3.01032 -5.96679 -1.74595 123 122 136
-3.3806 -5.44414 -1.751 117 119 133
-3.71306 -4.99381 -1.7574 105 108 123
-3.7357 -4.97717 -1.7574 105 108 125
-4.05168 -4.56973 -1.77039 95 100 120
-4.06402 -4.55617 -1.76976 96 103 122
-4.07632 -4.54257 -1.76914 97 103 125
-5.68498 -2.38977 -1.80156 89 84 106
-5.70736 -2.37896 -1.80709 91 86 106
-5.70353 -2.35686 -1.80339 89 86 107
-6.01844 -1.98088 -1.81443 77 84 101
-6.01416 -1.94859 -1.81022 75 84 101
-6.38865 -1.45202 -1.8184 77 86 103
-6.74999 -0.843128 -1.80178 77 89 104
-6.74362 -0.836397 -1.79943 77 88 105
-6.75369 -0.822247 -1.80233 71 82 101
-6.73987 -0.818715 -1.79737 69 80 99
-7.02149 -0.517945 -1.81552 76 89 108
-7.18369 -0.214734 -1.80497 78 90 112
-2.52529 -6.50869 -1.72355 122 124 137
-2.75581 -6.23217 -1.73425 123 125 138
-2.9627 -5.98279 -1.74427 123 125 138
-3.3394 -5.44903 -1.74579 119 118 134
-3.35665 -5.44082 -1.74637 120 119 135
-3.6822 -5.01428 -1.75681 112 114 132
-3.69709 -5.0033 -1.7568 108 111 129
-3.9975 -4.60439 -1.76732 97 104 123
-4.01117 -4.59246 -1.76732 96 103 123
-4.03445 -4.57741 -1.76854 90 96 115
-5.71727 -2.33189 -1.80461 88 85 106
-5.72201 -2.31349 -1.80399 85 83 104
-5.72495 -2.29436 -1.80275 79 77 96
-6.04124 -1.93673 -1.81741 68 80 96
-6.04647 -1.91785 -1.8174 69 81 97
-6.3905 -1.43157 -1.81781 74 86 102
-6.39044 -1.4107 -1.81665 76 88 104
-6.74972 -0.800466 -1.80065 70 81 101
-6.741 -0.79324 -1.79668 75 86 106
-7.01923 -0.484736 -1.81442 75 85 105
-7.17198 -0.191831 -1.80179 72 87 106
-2.49355 -6.51374 -1.72196 119 121 134
-2.73628 -6.23809 -1.73371 127 126 140
-2.94629 -5.99467 -1.74539 123 124 137
-3.31731 -5.46874 -1.74753 119 121 136
-3.62505 -5.04606 -1.75442 117 116 133
-3.64113 -5.03683 -1.75501 114 112 129
-3.66481 -5.03848 -1.75981 111 113 128
-3.96513 -4.63698 -1.76856 98 101 121
-3.99218 -4.62661 -1.77163 98 103 123
-4.63691 -3.69123 -1.7747 107 105 126
-4.65055 -3.67943 -1.77596 106 104 125
-4.67133 -3.66161 -1.77786 99 103 122
-4.67449 -3.64144 -1.77468 102 103 123
-4.68202 -3.62479 -1.77341 106 107 125
-4.70857 -3.61142 -1.77784 108 109 127
-4.72499 -3.60164 -1.78037 111 112 130
-4.73087 -3.5837 -1.77846 106 109 126
-4.7397 -3.56805 -1.77782 103 106 123
-4.74948 -3.54168 -1.77528 104 103 121
-4.76422 -3.53053 -1.77718 102 105 122
-4.7835 -3.52271 -1.78097 101 108 124
-4.79607 -3.49844 -1.7797 103 106 125
-4.80461 -3.4826 -1.77906 108 109 127
-4.82228 -3.47344 -1.78222 109 108 124
-4.8392 -3.45233 -1.78285 109 110 128
-4.83219 -3.42531 -1.77587 108 111 128
-4.86209 -3.42477 -1.7841 108 109 127
-4.86111 -3.40217 -1.77966 109 108 126
-4.8777 -3.38083 -1.78029 108 109 127
-4.89829 -3.37342 -1.78472 108 109 127
-4.89706 -3.35081 -1.78027 108 107 125
-4.91655 -3.33142 -1.78217 107 104 123
-4.92923 -3.31843 -1.78343 104 102 123
-4.93246 -3.29902 -1.78089 104 105 123
-4.95174 -3.27939 -1.78278 80 87 105
-5.7472 -2.27282 -1.80705 87 85 106
-5.74823 -2.25292 -1.80519 85 83 103
-6.03821 -1.88443 -1.81199 69 79 100
-6.05422 -1.8689 -1.81559 73 83 104
-6.38843 -1.38942 -1.8149 75 83 104
-6.75935 -0.778947 -1.80282 71 82 101
-6.76213 -0.769851 -1.80343 73 84 104
-6.76097 -0.762088 -1.80281 74 85 105
-7.02757 -0.463326 -1.81659 72 85 104
-7.17944 -0.169384 -1.8039 76 88 112
-2.47389 -6.52065 -1.72196 117 119 132
-2.71102 -6.25851 -1.73642 122 120 134
-2.92516 -5.996 -1.74316 121 120 134
-3.28262 -5.48483 -1.74638 119 120 133
-3.30464 -5.48516 -1.74986 117 118 135
-3.60679 -5.05208 -1.75262 114 113 130
-3.91386 -4.67502 -1.76734 97 102 122
-3.93984 -4.66347 -1.7698 92 94 115
-3.95607 -4.6547 -1.77103 98 100 121
-4.50124 -3.8442 -1.77096 101 102 122
-4.52243 -3.83915 -1.77539 99 100 120
-4.53232 -3.81228 -1.77221 105 108 127
-4.5477 -3.80213 -1.77411 104 106 126
-4.55149 -3.78213 -1.77093 97 99 119
-4.57121 -3.76371 -1.7722 103 106 123
-4.59376 -3.75945 -1.77726 106 109 126
-4.59151 -3.73454 -1.77155 101 104 123
-4.60085 -3.71931 -1.77091 105 108 127
-4.63059 -3.70897 -1.77661 105 106 124
-4.97217 -3.27149 -1.78721 73 74 94
-4.97205 -3.24991 -1.7834 97 98 118
-4.97975 -3.23356 -1.78276 89 90 110
-4.99718 -3.2126 -1.78402 81 86 105
-5.00636 -3.1972 -1.78402 79 84 104
-5.02349 -3.18688 -1.78718 73 78 98
-5.03431 -3.1616 -1.7859 73 81 104
-5.04494 -3.14709 -1.78653 73 83 105
-5.03783 -3.1215 -1.78018 76 86 111
-5.06929 -3.10913 -1.78715 78 90 114
-5.07169 -3.08952 -1.78461 76 87 112
-5.07562 -3.07091 -1.7827 74 89 112
-5.75096 -2.23373 -1.80395 85 83 104
-5.77298 -2.21192 -1.80825 85 83 104
-5.77556 -2.19268 -1.80701 85 83 104
-6.0574 -1.84942 -1.81498 73 84 101
-6.05973 -1.81937 -1.81317 71 81 100
-6.4053 -1.36181 -1.81836 79 87 106
-6.41063 -1.34212 -1.81893 72 82 102
-6.7656 -0.7489 -1.80398 77 88 110
-6.74211 -0.742287 -1.79529 83 94 114
-7.0301 -0.441478 -1.81712 76 88 110
-7.15411 -0.146334 -1.79702 72 84 108
-2.45544 -6.53115 -1.72302 123 125 138
-2.68802 -6.25529 -1.73316 119 121 133
-2.87967 -6.01655 -1.74316 121 120 134
-2.89155 -5.99434 -1.73869 122 121 135
-3.24103 -5.50881 -1.74639 119 118 134
-3.26802 -5.49782 -1.74754 121 120 134
-3.57614 -5.08978 -1.75683 116 113 129
-3.58487 -5.06967 -1.75322 115 114 130
-3.86847 -4.70519 -1.76551 101 108 126
-3.88597 -4.69819 -1.76735 96 103 121
-3.89993 -4.68663 -1.76734 99 102 121
-4.39677 -3.96472 -1.77037 102 103 121
-4.40271 -3.94622 -1.76782 103 106 123
-4.42118 -3.9392 -1.77099 103 106 123
-4.42983 -3.92321 -1.76972 103 105 123
-4.45579 -3.91055 -1.77351 97 102 118
-4.46572 -3.89571 -1.77287 93 96 113
-4.47705 -3.88211 -1.77287 100 101 119
-4.50431 -3.87037 -1.7773 102 103 121
-5.09408 -3.06112 -1.7865 72 87 110
-5.0994 -3.03265 -1.78332 71 82 109
-5.1129 -3.01981 -1.78521 69 82 110
-5.14596 -3.01845 -1.79472 71 87 113
-5.16249 -2.9965 -1.79598 74 87 112
-5.77809 -2.17344 -1.80577 86 85 104
-5.78053 -2.1542 -1.80453 88 85 101
-6.0646 -1.80042 -1.81316 75 83 104
-6.07855 -1.78411 -1.81615 70 79 104
-6.414 -1.32202 -1.81893 68 78 100
-6.77284 -0.728331 -1.80564 75 86 106
-6.76518 -0.719909 -1.80279 74 85 103
-6.76856 -0.70656 -1.80396 74 85 103
-6.75362 -0.701257 -1.798 73 85 103
-7.02939 -0.408379 -1.81657 78 89 109
-7.1674 -0.112672 -1.80071 75 87 109
-2.67317 -6.27358 -1.73642 119 121 133
-2.86236 -6.02642 -1.74372 123 122 136
-3.22177 -5.51326 -1.74465 121 121 137
-3.5325 -5.1082 -1.75384 77 78 96
-3.55885 -5.0972 -1.75563 102 101 117
-3.83868 -4.74133 -1.76859 68 75 94
-3.85278 -4.72992 -1.76859 90 97 115
-4.3032 -4.04672 -1.76533 92 98 122
-4.31224 -4.03104 -1.76405 77 84 107
-4.33084 -4.02447 -1.76722 85 93 113
-4.35018 -4.00602 -1.76785 84 90 109
-4.36599 -3.99668 -1.76974 101 104 124
-4.38038 -3.98599 -1.77101 103 106 125
-5.17755 -2.98434 -1.7985 74 85 112
-5.19423 -2.97306 -1.80167 82 94 120
-5.1776 -2.93209 -1.79025 69 81 105
-5.19747 -2.9226 -1.79468 74 87 111
-5.20739 -2.90745 -1.79531 80 90 115
-5.79514 -2.12937 -1.80637 86 85 103
-5.80636 -2.11343 -1.80821 84 83 101
-5.81573 -2.09678 -1.80943 80 81 99
-6.09337 -1.75767 -1.81854 74 83 104
-6.09438 -1.73757 -1.81733 73 81 102
-6.42311 -1.29261 -1.82007 76 88 110
-6.40759 -1.26867 -1.81427 80 92 114
-6.75684 -0.684653 -1.79868 76 87 107
-6.7729 -0.674968 -1.80451 79 90 109
-6.75734 -0.659117 -1.79798 79 90 108
-7.03942 -0.38696 -1.81927 77 88 106
-7.15344 -0.0899554 -1.797 73 86 105
-2.64297 -6.28111 -1.73533 119 118 134
-2.83328 -6.03496 -1.7426 123 121 134
-3.21429 -5.53955 -1.75045 122 119 136
-3.50201 -5.12903 -1.75384 107 109 124
-3.5225 -5.12661 -1.75684 82 84 100
-3.80058 -4.76659 -1.76737 103 108 127
-3.82453 -4.75269 -1.7686 74 79 101
-4.25465 -4.11034 -1.76788 75 86 106
-4.26259 -4.09345 -1.76598 73 85 104
-4.29048 -4.07152 -1.76787 78 89 111
-5.24167 -2.89521 -1.80354 70 77 105
-5.23823 -2.87259 -1.79909 79 89 116
-5.25466 -2.86092 -1.80226 80 90 117
-5.25942 -2.84285 -1.80098 82 92 117
-5.2735 -2.8193 -1.80161 77 85 108
-5.2781 -2.80119 -1.80033 79 83 108
-5.81404 -2.06584 -1.80573 82 81 99
-5.82149 -2.04848 -1.80634 82 83 101
-6.09898 -1.7185 -1.81732 70 78 99
-6.09618 -1.69739 -1.81491 73 81 102
-6.42574 -1.25155 -1.8189 76 87 108
-6.75892 -0.652348 -1.80003 77 88 106
-6.74928 -0.641089 -1.79456 81 92 110
-7.02637 -0.364187 -1.81546 86 94 112
-7.15865 -0.0674337 -1.79857 73 86 105
-2.60038 -6.28309 -1.73153 118 120 135
-2.61869 -6.27402 -1.73098 119 118 134
-2.81439 -6.04116 -1.74204 122 122 134
-3.16693 -5.55281 -1.74698 117 118 136
-3.18984 -5.55533 -1.75103 115 117 132
-3.46025 -5.14998 -1.75205 117 119 134
-3.47866 -5.14453 -1.75384 100 102 115
-3.77322 -4.79055 -1.76799 107 110 129
-3.78749 -4.77936 -1.76799 106 110 129
-4.17054 -4.176 -1.76284 99 106 124
-4.18935 -4.17015 -1.766 98 103 122
-4.20399 -4.14707 -1.76409 77 85 105
-4.22678 -4.14509 -1.76916 70 80 101
-4.23084 -4.12425 -1.76535 73 83 103
-5.29606 -2.79014 -1.80413 79 85 110
-5.30151 -2.76201 -1.80159 81 86 108
-5.31432 -2.74819 -1.80348 84 89 113
-5.317 -2.72912 -1.80157 86 89 113
-5.83067 -2.03174 -1.80756 79 82 99
-5.83221 -2.0021 -1.80509 78 84 100
-6.1088 -1.67025 -1.81671 73 84 104
-6.11319 -1.65113 -1.8167 70 81 99
-6.42513 -1.22021 -1.81715 74 83 106
-6.4225 -1.19897 -1.8154 79 90 113
-6.77731 -0.632738 -1.80505 81 91 110
-6.75232 -0.624471 -1.79523 79 88 107
-6.75253 -0.598964 -1.79454 77 87 107
-7.02338 -0.331018 -1.81436 77 88 108
-7.16195 -0.0335772 -1.79962 73 85 108
-2.79624 -6.04906 -1.74204 119 119 131
-3.15204 -5.56546 -1.74814 113 115 130
-3.43356 -5.17678 -1.75446 115 116 131
-3.44897 -5.16662 -1.75445 121 122 137
-3.71818 -4.82318 -1.76554 106 109 126
-3.73479 -4.81525 -1.76677 103 109 125
-3.74912 -4.80418 -1.76676 107 110 127
-4.11349 -4.2309 -1.76222 96 103 121
-4.12978 -4.22259 -1.76412 97 103 119
-4.13556 -4.20327 -1.76094 98 105 121
-4.16093 -4.19131 -1.76411 98 104 120
-4.66967 -3.55368 -1.78602 105 106 126
-4.67702 -3.53718 -1.78472 109 107 128
-4.69175 -3.52651 -1.78665 107 105 126
-4.70151 -3.50051 -1.78407 111 110 128
-4.71763 -3.49088 -1.78664 107 108 126
-4.72327 -3.47311 -1.7847 106 107 125
-4.74325 -3.45504 -1.78663 108 107 125
-4.74873 -3.43722 -1.78469 110 109 127
-4.76624 -3.42848 -1.78791 112 111 127
-4.77847 -3.4045 -1.78661 110 109 127
-4.78679 -3.38885 -1.78596 109 108 126
-4.80879 -3.38326 -1.79111 105 106 124
-4.80787 -3.36084 -1.78659 106 107 125
-4.82281 -3.33891 -1.78658 108 109 129
-4.83861 -3.32865 -1.78916 104 107 124
-4.84207 -3.30954 -1.78657 104 107 122
-4.85677 -3.28743 -1.78657 106 105 123
-4.87245 -3.27699 -1.78914 102 99 118
-4.87723 -3.25892 -1.7872 83 82 100
-5.32888 -2.70438 -1.80156 82 84 107
-5.34493 -2.69212 -1.80472 80 84 106
-5.34232 -2.67045 -1.80091 87 88 109
-5.32944 -2.64376 -1.7933 86 84 105
-5.83768 -1.98403 -1.80508 80 87 105
-5.85205 -1.96905 -1.80815 73 81 100
-5.86997 -1.95522 -1.81245 77 84 103
-6.11752 -1.63199 -1.81669 70 80 103
-6.43482 -1.18058 -1.81829 70 81 103
-6.77176 -0.600257 -1.8028 81 89 108
-6.7629 -0.58316 -1.79795 79 89 109
-7.03317 -0.3095 -1.81707 78 89 107
-7.03332 -0.287493 -1.81706 83 94 112
-7.19201 -0.0109269 -1.80807 78 91 110
-2.57277 -6.2975 -1.73261 115 118 130
-2.77076 -6.06612 -1.74372 117 116 130
-3.10197 -5.57305 -1.74293 115 117 130
-3.12306 -5.57245 -1.74582 114 116 129
-3.41099 -5.19355 -1.75506 113 115 130
-3.70599 -4.83724 -1.76678 104 109 125
-4.05316 -4.28213 -1.76034 100 105 125
-4.06824 -4.27268 -1.7616 103 105 126
-4.08462 -4.26456 -1.7635 100 101 121
-4.0998 -4.24191 -1.76159 99 105 124
-4.47435 -3.75521 -1.77578 101 104 123
-4.49242 -3.74794 -1.779 102 105 125
-4.50477 -3.73562 -1.77964 104 105 125
-4.51565 -3.72202 -1.77963 106 107 127
-4.53088 -3.70032 -1.77898 100 102 121
-4.54741 -3.69154 -1.78156 107 113 129
-4.55671 -3.67657 -1.7809 104 110 124
-4.57316 -3.65589 -1.7809 101 102 122
-4.58815 -3.64569 -1.78283 105 106 124
-4.59438 -3.6282 -1.78089 106 109 128
-4.60914 -3.60614 -1.78024 106 111 128
-4.63134 -3.60174 -1.78539 103 106 123
-4.63739 -3.58415 -1.78345 103 108 127
-4.65223 -3.57366 -1.78538 105 106 126
-4.89636 -3.23985 -1.78913 90 89 107
-4.90882 -3.22707 -1.79041 77 75 96
-4.91498 -3.20999 -1.78911 77 79 99
-4.91951 -3.19184 -1.78717 83 88 108
-4.94152 -3.17459 -1.79039 79 86 107
-4.93962 -3.1522 -1.78587 78 86 107
-4.95814 -3.14338 -1.78973 73 85 107
-4.98473 -3.12896 -1.79489 73 88 111
-4.99212 -3.11272 -1.79423 72 84 110
-4.99309 -3.09236 -1.791 69 81 107
-4.99403 -3.06136 -1.78583 74 88 114
-4.99003 -3.03802 -1.78067 69 85 110
-4.99711 -3.02178 -1.78001 79 95 121
-5.01058 -3.00952 -1.78194 75 91 117
-5.36135 -2.62896 -1.8009 84 85 106
-5.37724 -2.61647 -1.80406 89 86 109
-5.38284 -2.59895 -1.80342 89 85 108
-5.38898 -2.57143 -1.80151 90 86 109
-5.86393 -1.92306 -1.80752 74 84 101
-5.87635 -1.90729 -1.80997 72 84 101
-6.12986 -1.60468 -1.81848 72 83 101
-6.13774 -1.58642 -1.81967 71 83 99
-6.42821 -1.14822 -1.81481 72 84 105
-6.43287 -1.12838 -1.81538 73 85 102
-6.77472 -0.57921 -1.80335 83 94 114
-6.75458 -0.565237 -1.79452 80 91 111
-7.03915 -0.26572 -1.81868 75 86 106
-2.53403 -6.30985 -1.73207 120 122 134
-2.55309 -6.3028 -1.73207 120 122 134
-2.73136 -6.07447 -1.74148 119 121 133
-2.7525 -6.07388 -1.74372 119 118 132
-3.08785 -5.5872 -1.74467 115 117 130
-3.37396 -5.20386 -1.75146 114 116 133
-3.39347 -5.20036 -1.75386 113 116 131
-3.65378 -4.87371 -1.76617 111 108 129
-3.66612 -4.85979 -1.76494 94 98 117
-3.68611 -4.85671 -1.76801 98 105 121
-4.0137 -4.33023 -1.76289 96 103 122
-4.02001 -4.31111 -1.75971 97 105 124
-4.04156 -4.30879 -1.76415 96 103 122
-4.39848 -3.85123 -1.7771 101 103 123
-4.40696 -3.83543 -1.7758 100 101 119
-4.42934 -3.83234 -1.78096 101 102 120
-4.4423 -3.8085 -1.77902 104 105 123
-4.45202 -3.79385 -1.77837 99 100 120
-4.4631 -3.78042 -1.77836 98 99 117
-5.02225 -2.98556 -1.78129 70 82 110
-5.04367 -2.97812 -1.78645 76 90 116
-5.04896 -2.96074 -1.78515 70 84 110
-5.05715 -2.93465 -1.78321 71 85 111
-5.07525 -2.92501 -1.78707 68 82 109
-5.08685 -2.91142 -1.78835 75 89 115
-5.38931 -2.55145 -1.79897 86 84 106
-5.4153 -2.54356 -1.80593 87 83 107
-5.41599 -2.51354 -1.80212 81 79 101
-5.87068 -1.88549 -1.80627 72 82 100
-5.88413 -1.85993 -1.80811 72 80 101
-6.14002 -1.56673 -1.81906 67 77 96
-6.13356 -1.53467 -1.81485 72 83 101
-6.42804 -1.10685 -1.81305 83 92 107
-6.77761 -0.558147 -1.8039 79 90 110
-6.76197 -0.540514 -1.79656 77 88 106
-6.76471 -0.523807 -1.79723 75 86 105
-2.70951 -6.07322 -1.73869 122 122 134
-3.0429 -5.60445 -1.74293 116 118 131
-3.06228 -5.60068 -1.74467 117 119 132
-3.33468 -5.22856 -1.75147 115 114 132
-3.35125 -5.22034 -1.75207 111 112 130
-3.61475 -4.89736 -1.76495 107 109 124
-3.62504 -4.88044 -1.76248 109 111 126
-3.95739 -4.35942 -1.7572 96 102 124
-3.97642 -4.3546 -1.76036 87 94 113
-3.98162 -4.33414 -1.75655 101 104 123
-4.31503 -3.94026 -1.77584 88 91 108
-4.33067 -3.93122 -1.77777 103 106 125
-4.34282 -3.90647 -1.77519 102 104 121
-4.35011 -3.88952 -1.77325 100 100 119
-4.3684 -3.88289 -1.77647 97 99 117
-4.37836 -3.86846 -1.77581 95 99 116
-5.12412 -2.90243 -1.79802 75 87 112
-5.13075 -2.8858 -1.79737 72 87 112
-5.13243 -2.8663 -1.79478 73 87 113
-5.12583 -2.8421 -1.78897 70 82 108
-5.14983 -2.82509 -1.79348 81 90 117
-5.43333 -2.50145 -1.80592 85 82 101
-5.45064 -2.48929 -1.80971 99 91 107
-5.4541 -2.47078 -1.80843 96 88 108
-5.45786 -2.44224 -1.80589 97 92 112
-5.89637 -1.84401 -1.81056 70 78 99
-5.89409 -1.82341 -1.80809 71 79 101
-6.14493 -1.51726 -1.81724 67 78 96
-6.13587 -1.49489 -1.81303 69 80 98
-6.43068 -1.08666 -1.81304 78 86 105
-6.77361 -0.525879 -1.80222 74 85 105
-6.76925 -0.507268 -1.79859 80 91 109
-7.03376 -0.232455 -1.81704 81 94 113
-7.04133 -0.210697 -1.8192 74 87 106
-2.50311 -6.31487 -1.73043 118 120 132
-2.68596 -6.09522 -1.74204 123 123 135
-3.03203 -5.6253 -1.74699 119 121 133
-3.32202 -5.24325 -1.75327 118 117 133
-3.60226 -4.91113 -1.76618 103 106 123
-3.91697 -4.4065 -1.75974 100 107 126
-3.92615 -4.39043 -1.75784 98 105 124
-3.95331 -4.38127 -1.76164 98 104 126
-4.22302 -4.02056 -1.77135 83 88 107
-4.24283 -4.01592 -1.77522 83 89 108
-4.25686 -3.99282 -1.77328 102 109 128
-4.26721 -3.97871 -1.77263 103 108 127
-4.28157 -3.96855 -1.77392 99 104 121
-4.30753 -3.95714 -1.77778 97 100 117
-5.17597 -2.81955 -1.80057 73 83 110
-5.18728 -2.80554 -1.80185 70 82 108
-5.1996 -2.78168 -1.80184 76 86 111
-5.21081 -2.76757 -1.80312 70 79 108
-5.20704 -2.74524 -1.7986 74 81 110
-5.4525 -2.4199 -1.80145 87 82 102
-5.46267 -2.40446 -1.80271 95 90 110
-5.47826 -2.38122 -1.8046 86 81 103
-5.90183 -1.79597 -1.80808 69 80 98
-5.9139 -1.77991 -1.81054 69 80 98
-6.149 -1.47785 -1.81602 70 82 101
-6.45002 -1.05891 -1.81766 73 80 106
-6.46005 -1.0399 -1.81997 77 85 104
-6.80312 -0.506698 -1.81058 83 94 112
-6.7756 -0.490876 -1.80063 81 92 110
-6.77708 -0.483569 -1.80276 80 91 109
-6.76025 -0.463921 -1.79447 72 83 105
-7.03924 -0.188593 -1.81865 77 89 110
-2.46427 -6.32677 -1.72989 116 118 131
-2.48649 -6.32903 -1.73261 118 121 134
-2.66553 -6.09735 -1.74036 122 121 135
-3.01429 -5.6324 -1.74642 121 125 136
-3.27952 -5.26261 -1.75148 115 116 129
-3.29327 -5.24967 -1.75027 117 119 133
-3.54507 -4.94005 -1.76311 100 105 124
-3.5598 -4.92961 -1.76311 86 89 104
-3.57771 -4.92384 -1.76495 103 106 123
-3.86134 -4.43577 -1.75468 96 104 121
-3.88046 -4.43141 -1.75785 95 103 122
-3.89787 -4.41103 -1.75658 96 104 123
-4.16647 -4.07434 -1.77008 82 92 112
-4.18237 -4.06593 -1.77201 81 89 110
-4.19669 -4.04307 -1.77007 83 91 114
-4.21385 -4.03588 -1.77265 82 87 109
-5.22074 -2.72218 -1.79924 78 87 112
-5.20013 -2.69099 -1.78827 76 84 109
-5.22108 -2.68214 -1.79342 75 82 105
-5.22196 -2.66259 -1.79083 84 88 110
-5.2353 -2.63942 -1.79147 84 86 111
-5.24106 -2.62248 -1.79082 83 86 108
-5.49356 -2.36792 -1.80776 90 85 105
-5.50534 -2.35305 -1.80966 86 82 106
-5.49974 -2.32073 -1.80394 81 77 104
-5.91502 -1.76044 -1.8093 72 83 102
-5.927 -1.74428 -1.81175 72 80 99
-6.15135 -1.44807 -1.81482 70 82 98
-6.1569 -1.42921 -1.81541 72 83 101
-6.44926 -1.01747 -1.81591 81 89 108
-6.77847 -0.451719 -1.80275 74 85 105
-6.77395 -0.448167 -1.79924 75 86 106
-6.75959 -0.429951 -1.79377 67 78 99
-2.44757 -6.34082 -1.73207 117 119 132
-2.6479 -6.10655 -1.74092 123 122 136
-2.9835 -5.63518 -1.74294 124 123 139
-3.26285 -5.27057 -1.75088 119 120 135
-3.5246 -4.9588 -1.76435 111 114 130
-3.81997 -4.48184 -1.75723 97 105 122
-3.8319 -4.46893 -1.75659 95 103 120
-3.8556 -4.45604 -1.75849 94 101 120
-4.11696 -4.13549 -1.77268 81 88 107
-4.12651 -4.12043 -1.77139 76 87 107
-4.1347 -4.10398 -1.76945 77 88 110
-4.15709 -4.0895 -1.77138 78 86 105
-5.24844 -2.60639 -1.79081 83 83 107
-5.25816 -2.58135 -1.79016 89 87 111
-5.26541 -2.5652 -1.79015 84 82 105
-5.51488 -2.30725 -1.8071 90 87 109
-5.4932 -2.2785 -1.79695 87 84 105
-5.52579 -2.27216 -1.80645 86 83 104
-5.92889 -1.71504 -1.80989 72 80 99
-5.93162 -1.6961 -1.80927 70 78 97
-6.15311 -1.40823 -1.813 73 84 102
-6.45319 -0.987074 -1.8159 73 80 99
-6.78288 -0.430707 -1.80385 68 79 99
-7.04309 -0.15563 -1.81973 79 90 109
-2.62063 -6.11936 -1.74148 123 122 136
-2.95045 -5.65416 -1.74353 119 121 134
-2.9699 -5.65073 -1.74526 120 119 135
-3.22114 -5.29106 -1.74969 113 115 129
-3.2417 -5.28983 -1.75268 115 117 132
-3.47794 -4.98645 -1.76313 106 109 125
-3.49593 -4.98101 -1.76497 108 111 128
-3.50559 -4.96277 -1.76189 113 116 131
-3.79595 -4.50755 -1.75851 95 104 121
-3.81518 -4.50352 -1.76168 94 103 120
-4.06013 -4.18899 -1.77206 87 92 111
-4.06606 -4.1699 -1.76883 83 88 107
-4.08216 -4.16193 -1.77076 88 95 113
-4.09439 -4.14973 -1.77075 92 99 115
-5.31657 -2.57102 -1.80691 91 89 110
-5.30747 -2.53645 -1.79917 87 85 106
-5.29592 -2.51098 -1.79206 93 90 112
-5.30806 -2.49718 -1.79399 90 88 110
-5.55135 -2.25272 -1.81215 85 82 103
-5.55929 -2.23613 -1.81278 85 82 103
-5.94342 -1.6798 -1.81172 68 78 96
-6.17187 -1.38215 -1.81719 70 81 101
-6.17163 -1.36199 -1.81598 71 80 100
-6.45734 -0.96709 -1.81647 75 83 104
-6.44253 -0.944232 -1.81125 74 85 105
-6.79105 -0.409884 -1.80608 80 91 110
-6.77571 -0.405786 -1.79922 77 88 106
-6.76306 -0.38782 -1.79443 76 87 105
-7.04081 -0.13353 -1.81918 84 95 115
-7.03849 -0.111442 -1.81862 86 97 117
-2.41659 -6.34538 -1.73043 120 119 133
-2.60018 -6.12126 -1.7398 121 121 133
-2.92374 -5.66523 -1.74295 120 122 137
-3.19328 -5.31648 -1.75209 119 122 137
-3.20629 -5.30214 -1.75029 117 119 134
-3.45412 -5.0001 -1.76251 104 107 123
-3.74543 -4.54255 -1.75662 94 99 118
-3.75642 -4.52838 -1.75535 95 102 120
-3.7709 -4.51862 -1.75598 96 105 122
-4.01126 -4.22545 -1.76949 96 103 122
-4.02118 -4.21067 -1.76819 97 103 125
-4.03358 -4.19868 -1.76819 95 106 121
-5.31894 -2.4727 -1.79398 89 86 107
-5.31562 -2.45146 -1.7901 107 97 113
-5.33613 -2.44158 -1.79526 96 88 104
-5.34125 -2.42436 -1.7946 90 81 101
-5.54781 -2.21182 -1.80643 87 84 105
-5.56256 -2.18795 -1.80832 87 84 105
-5.57384 -2.17266 -1.81022 88 85 105
-5.94681 -1.65105 -1.81048 72 85 104
-5.95299 -1.63309 -1.81109 69 81 101
-6.17134 -1.34183 -1.81477 78 86 105
-6.45368 -0.914963 -1.81356 73 84 104
-6.78958 -0.388496 -1.80551 77 88 106
-6.77653 -0.371861 -1.7992 83 96 113
-2.39979 -6.3593 -1.73261 119 117 133
-2.57906 -6.12129 -1.73757 122 122 134
-2.90998 -5.68062 -1.74527 118 120 133
-3.16437 -5.32214 -1.74909 121 125 137
-3.4262 -5.02346 -1.76375 110 112 127
-3.44324 -5.01662 -1.76498 105 108 125
-3.71039 -4.56886 -1.75599 97 102 124
-3.72497 -4.55927 -1.75662 94 101 119
-3.95835 -4.25701 -1.76499 97 105 124
-3.97713 -4.25232 -1.76821 96 103 121
-3.98589 -4.23623 -1.76627 94 101 117
-5.35178 -2.3997 -1.7946 85 80 102
-5.35846 -2.38323 -1.79459 90 87 106
-5.37027 -2.36909 -1.79652 85 83 105
-5.58864 -2.15868 -1.81338 88 85 104
-5.58366 -2.12716 -1.8083 86 85 103
-5.95364 -1.61358 -1.80985 66 77 99
-5.95853 -1.58532 -1.80923 72 83 102
-6.1693 -1.31122 -1.81236 79 87 108
-6.1819 -1.29378 -1.81535 76 85 105
-6.45193 -0.894138 -1.81239 77 86 106
-6.78287 -0.356193 -1.80327 82 95 114
-6.7662 -0.345636 -1.79509 82 95 114
-6.76645 -0.328696 -1.79508 77 88 108
-7.04005 -0.0783987 -1.81916 71 83 103
-2.37759 -6.35671 -1.72989 120 119 135
-2.55304 -6.13735 -1.73924 121 121 134
-2.88645 -5.67516 -1.74063 119 121 134
-3.13071 -5.33722 -1.7479 117 119 134
-3.15126 -5.33637 -1.7509 121 123 136
-3.39919 -5.03201 -1.76129 114 116 131
-3.65815 -4.60129 -1.75347 97 104 122
-3.67629 -4.59638 -1.756 97 104 122
-3.69925 -4.5829 -1.75726 96 101 121
-3.91257 -4.29649 -1.76435 100 103 125
-3.93509 -4.29633 -1.76951 101 106 126
-3.94156 -4.27747 -1.76628 100 107 126
-4.42194 -3.59081 -1.77213 105 107 125
-4.44104 -3.5847 -1.77608 106 107 127
-4.44126 -3.56289 -1.77145 104 105 125
-4.45303 -3.55067 -1.77211 104 105 123
-4.48199 -3.54119 -1.77805 103 106 123
-4.48199 -3.51935 -1.77342 102 105 122
-4.49069 -3.50462 -1.77275 102 105 122
-4.5166 -3.49246 -1.77737 109 111 126
-4.52079 -3.47412 -1.77472 108 110 125
-4.53529 -3.46394 -1.7767 108 109 127
-4.55663 -3.44796 -1.77933 109 108 126
-4.55615 -3.4261 -1.7747 109 106 125
-4.578 -3.42149 -1.77998 108 107 125
-4.58637 -3.40647 -1.77931 109 108 126
-4.60301 -3.38675 -1.77997 107 108 128
-4.60221 -3.36488 -1.77534 106 107 128
-4.61946 -3.35656 -1.77864 108 107 125
-4.63133 -3.3333 -1.77731 107 110 127
-4.64092 -3.31925 -1.7773 108 109 127
-4.66266 -3.31404 -1.78258 110 111 131
-4.66818 -3.28619 -1.77861 108 111 128
-4.67916 -3.27311 -1.77927 101 104 121
-4.68549 -3.25671 -1.77794 95 100 114
-4.70101 -3.24683 -1.78058 99 100 118
-4.71385 -3.22431 -1.77991 94 95 113
-4.7262 -3.21214 -1.78122 93 99 113
-4.73232 -3.19563 -1.7799 93 98 117
-4.74956 -3.17615 -1.78121 79 82 99
-4.7571 -3.16065 -1.78054 83 90 108
-4.76929 -3.14828 -1.78186 80 87 106
-4.77849 -3.12335 -1.77987 71 78 104
-4.79842 -3.1161 -1.78449 71 83 109
-4.79632 -3.09423 -1.77986 74 88 111
-4.82103 -3.07951 -1.78447 72 84 110
-4.79975 -3.04535 -1.77192 60 74 101
-4.8148 -3.03481 -1.77456 70 86 112
-4.82981 -3.02419 -1.77719 73 89 115
-5.37192 -2.3404 -1.79328 82 80 101
-5.39567 -2.33156 -1.79973 85 83 104
-5.39006 -2.30959 -1.7952 85 82 103
-5.6072 -2.1164 -1.81463 85 85 103
-5.60942 -2.09759 -1.81335 93 90 111
-5.96451 -1.56729 -1.80983 71 82 102
-5.96678 -1.54826 -1.80921 68 79 99
-6.16833 -1.27098 -1.80994 73 84 103
-6.18642 -1.2546 -1.81473 69 82 101
-6.57992 -0.608255 -1.79831 74 85 103
-6.57541 -0.591297 -1.79619 75 83 104
-6.79081 -0.335279 -1.80549 76 88 108
-6.78349 -0.312808 -1.80121 77 88 108
-7.00681 -0.0559618 -1.80991 74 85 103
-2.53459 -6.1444 -1.73924 122 121 135
-2.84023 -5.68893 -1.73832 120 122 135
-2.85888 -5.68417 -1.73948 119 118 132
-3.10544 -5.34921 -1.7473 119 121 136
-3.37203 -5.05665 -1.76314 111 110 126
-3.38713 -5.04677 -1.76314 111 113 128
-3.62039 -4.62384 -1.75157 97 103 122
-3.64803 -4.61669 -1.75537 97 102 120
-3.84993 -4.3425 -1.76179 99 103 125
-3.87 -4.33978 -1.76566 98 103 125
-3.88767 -4.33408 -1.76823 99 104 123
-3.898 -4.31964 -1.76694 97 102 122
-4.3198 -3.7158 -1.77217 102 104 123
-4.33061 -3.7028 -1.77216 106 105 123
-4.34288 -3.6795 -1.77018 109 108 126
-4.35925 -3.67137 -1.77281 106 107 127
-4.36564 -3.65454 -1.77083 104 105 125
-4.37763 -3.63111 -1.76884 102 103 123
-4.39103 -3.62036 -1.77015 105 106 126
-4.4073 -3.61198 -1.77279 104 106 124
-4.84154 -3.00108 -1.77653 71 85 111
-4.83254 -2.97529 -1.76926 73 87 112
-4.88102 -2.98548 -1.78576 71 85 111
-4.9086 -2.97203 -1.79169 76 92 117
-4.90421 -2.94917 -1.7864 72 88 114
-4.91582 -2.93616 -1.78772 73 89 115
-5.39658 -2.28316 -1.79391 87 84 102
-5.41677 -2.27255 -1.79906 88 83 103
-5.41613 -2.25287 -1.79647 88 85 107
-5.60589 -2.06677 -1.80891 83 81 102
-5.6204 -2.0525 -1.81207 86 85 103
-5.61705 -2.03176 -1.80889 82 84 99
-5.97264 -1.5302 -1.80982 72 82 101
-6.18021 -1.22328 -1.81113 77 85 104
-6.58664 -0.567747 -1.7997 81 89 108
-6.55409 -0.548002 -1.78704 79 86 105
-6.78719 -0.313823 -1.80436 75 86 106
-6.77055 -0.295034 -1.79642 76 87 109
-7.05417 -0.0344202 -1.82348 77 88 108
-2.51479 -6.14779 -1.73812 122 121 135
-2.8247 -5.70061 -1.73948 119 122 136
-3.09309 -5.36495 -1.7497 121 123 136
-3.33273 -5.0795 -1.76253 112 114 129
-3.3489 -5.07138 -1.76314 109 111 126
-3.59987 -4.65441 -1.75538 101 104 123
-3.61583 -4.64672 -1.75665 98 103 123
-3.82693 -4.3826 -1.76696 97 105 125
-3.84227 -4.37417 -1.76824 100 106 127
-4.2229 -3.81075 -1.76824 97 102 121
-4.23676 -3.80064 -1.76956 97 102 121
-4.24542 -3.77388 -1.76559 100 103 122
-4.26196 -3.76622 -1.76823 98 103 122
-4.2785 -3.75848 -1.77086 102 105 124
-4.28688 -3.7316 -1.7669 104 107 124
-4.30475 -3.72499 -1.77019 102 108 124
-4.93681 -2.91849 -1.79101 75 89 115
-4.93864 -2.89954 -1.78836 77 91 117
-4.94525 -2.88349 -1.7877 78 94 120
-4.96155 -2.87316 -1.79099 86 100 128
-4.97091 -2.8485 -1.78966 70 86 112
-4.99041 -2.83991 -1.79428 73 89 115
-4.98374 -2.81619 -1.78833 73 85 112
-5.41715 -2.23395 -1.79453 91 88 107
-5.42852 -2.20963 -1.79516 92 89 108
-5.43113 -2.19144 -1.79387 90 87 108
-5.62611 -2.01549 -1.81015 83 84 102
-5.6275 -1.98663 -1.80761 89 86 107
-5.97898 -1.50234 -1.80981 69 82 99
-6.00865 -1.49032 -1.81842 69 81 103
-6.18509 -1.20424 -1.81172 75 86 106
-6.54194 -0.530453 -1.78211 73 81 102
-6.78781 -0.281896 -1.80436 79 90 112
-6.77294 -0.269695 -1.79709 78 87 108
-6.76359 -0.252244 -1.79366 87 98 118
-7.04192 -0.0122544 -1.82021 73 84 104
-2.49694 -6.15652 -1.73868 122 124 137
-2.81383 -5.72271 -1.74412 116 120 132
-3.08158 -5.38234 -1.75271 122 121 135
-3.30324 -5.10049 -1.76315 109 110 127
-3.31557 -5.08595 -1.7613 116 118 133
-3.56624 -4.68253 -1.75602 99 102 123
-3.58054 -4.65745 -1.75222 101 105 124
-3.78931 -4.40489 -1.76438 97 104 123
-3.80444 -4.38216 -1.7618 100 107 126
-4.16482 -3.88374 -1.77025 100 101 122
-4.17072 -3.86603 -1.7676 104 108 127
-4.18063 -3.85223 -1.76693 103 104 124
-4.19732 -3.84488 -1.76957 102 103 121
-4.2104 -3.8221 -1.76759 100 103 122
-4.99937 -2.79518 -1.78964 75 90 114
-5.00071 -2.77618 -1.787 71 85 110
-5.02994 -2.77284 -1.79557 72 85 110
-5.02725 -2.74152 -1.78962 79 91 117
-5.05152 -2.7352 -1.79622 78 90 116
-5.44939 -2.17974 -1.79837 86 83 102
-5.46052 -2.15523 -1.79901 89 86 105
-5.64003 -1.97154 -1.81013 85 83 102
-5.63995 -1.95208 -1.80823 86 83 104
-5.97935 -1.46328 -1.80733 71 81 106
-5.98722 -1.43583 -1.80793 70 82 104
-6.203 -1.18763 -1.81651 72 85 102
-6.19645 -1.15635 -1.8129 76 87 107
-6.58268 -0.509709 -1.79686 77 88 110
-6.78977 -0.260673 -1.8049 80 90 110
-6.77667 -0.235935 -1.79843 77 88 106
-2.46812 -6.16499 -1.73812 124 126 139
-2.78531 -5.72959 -1.74238 119 121 135
-3.03556 -5.39453 -1.74911 123 123 136
-3.04718 -5.37726 -1.74611 123 123 137
-3.26834 -5.09523 -1.75577 92 93 108
-3.5408 -4.70668 -1.7573 93 98 118
-3.54242 -4.67929 -1.75032 90 95 115
-3.74079 -4.44087 -1.7631 93 101 120
-3.75615 -4.41833 -1.76052 96 103 122
-3.77862 -4.41903 -1.76568 94 102 123
-4.10413 -3.94291 -1.76894 97 104 120
-4.11776 -3.9205 -1.76696 99 106 124
-4.12652 -3.90553 -1.76563 103 106 125
-4.13928 -3.89449 -1.76629 104 105 125
-5.05758 -2.71883 -1.79555 65 77 101
-5.04537 -2.69256 -1.78762 70 80 105
-5.07209 -2.67737 -1.79356 76 88 112
-5.08961 -2.66713 -1.79751 79 91 115
-5.09213 -2.64889 -1.79552 78 90 112
-5.49975 -2.15183 -1.81126 83 82 100
-5.50566 -2.13486 -1.81125 88 86 105
-5.64281 -1.92382 -1.80632 81 83 98
-5.65517 -1.9086 -1.80884 83 85 100
-6.0112 -1.42215 -1.8147 69 81 101
-6.203 -1.13756 -1.81409 75 86 107
-6.58716 -0.493667 -1.79825 79 90 112
-6.56179 -0.475026 -1.78841 79 90 112
-6.80125 -0.239739 -1.80824 79 90 108
-2.45085 -6.17538 -1.73924 123 125 138
-2.74856 -5.74028 -1.74065 116 118 131
-2.76655 -5.73409 -1.74122 115 118 131
-3.0159 -5.39659 -1.74671 123 125 138
-3.24541 -5.12731 -1.7607 106 106 123
-3.26172 -5.11948 -1.76131 91 94 110
-3.49686 -4.72042 -1.75223 101 107 123
-3.51296 -4.71313 -1.7535 94 99 118
-3.70009 -4.47231 -1.76247 93 100 118
-3.71446 -4.46288 -1.76311 96 101 120
-3.72415 -4.44743 -1.76117 96 103 121
-4.03055 -4.00027 -1.76434 79 84 104
-4.05278 -3.99904 -1.76962 77 81 102
-4.04863 -3.97077 -1.76169 105 109 129
-4.07834 -3.96468 -1.76763 105 110 129
-4.08727 -3.94981 -1.76631 102 108 124
-5.10703 -2.6272 -1.79684 74 84 111
-5.11608 -2.61241 -1.79749 76 86 110
-5.11504 -2.59241 -1.79418 81 86 109
-5.12633 -2.56886 -1.79417 74 80 104
-5.50954 -2.10728 -1.80931 86 84 105
-5.5118 -2.0889 -1.80801 86 84 105
-5.52104 -2.07324 -1.80929 84 82 103
-5.67467 -1.89569 -1.8139 85 83 104
-5.66282 -1.86262 -1.80692 80 81 99
-5.99637 -1.399 -1.80853 72 83 102
-6.00209 -1.371 -1.80852 71 79 101
-6.20384 -1.11774 -1.81348 72 83 101
-6.5606 -0.458557 -1.78769 71 79 100
-6.79003 -0.211024 -1.8032 77 89 107
-6.77299 -0.193313 -1.79704 80 91 109
-2.43098 -6.17848 -1.73812 125 128 141
-2.9751 -5.41836 -1.74671 122 124 137
-3.00327 -5.4121 -1.74911 126 128 143
-3.22291 -5.14306 -1.76132 112 116 128
-3.46809 -4.75549 -1.75604 100 106 125
-3.48403 -4.7323 -1.75287 105 110 129
-3.66536 -4.49794 -1.76183 94 102 121
-3.67636 -4.48412 -1.76054 94 103 120
-3.99282 -4.04619 -1.76634 87 94 112
-4.00337 -4.03292 -1.76567 85 90 112
-4.01385 -4.01961 -1.76501 97 101 125
-5.14699 -2.55991 -1.79945 84 86 112
-5.13056 -2.53231 -1.7902 87 85 110
-5.14947 -2.52242 -1.79481 88 84 109
-5.17228 -2.50449 -1.79943 88 85 107
-5.5267 -2.05619 -1.80928 86 84 105
-5.50899 -2.02054 -1.7996 83 82 100
-5.67682 -1.84782 -1.81008 78 79 99
-5.68355 -1.83065 -1.81071 77 75 96
-5.6866 -1.81231 -1.81007 78 79 100
-6.00557 -1.35232 -1.80852 67 78 98
-6.20821 -1.0885 -1.81347 77 88 108
-6.22019 -1.07057 -1.81646 74 85 107
-6.55258 -0.433358 -1.78417 79 87 106
-6.79173 -0.186166 -1.80543 75 86 104
-6.77465 -0.176402 -1.79771 79 90 108
-2.40207 -6.18662 -1.73756 125 127 140
-2.70273 -5.75461 -1.73891 121 121 136
-2.72152 -5.75033 -1.74007 117 117 134
-2.96237 -5.43376 -1.74912 120 119 135
-3.18549 -5.15012 -1.75701 119 121 136
-3.20467 -5.14745 -1.75947 114 117 132
-3.43462 -4.76811 -1.75288 105 110 129
-3.45512 -4.76728 -1.75668 99 104 123
-3.6327 -4.52631 -1.76248 99 104 124
-3.65659 -4.51476 -1.76442 97 104 123
-3.93615 -4.09652 -1.76504 83 87 106
-3.94814 -4.08479 -1.76503 88 96 115
-3.95754 -4.07027 -1.76371 78 88 108
-3.98224 -4.05944 -1.767 84 91 109
-5.17929 -2.48861 -1.79942 85 83 105
-5.16756 -2.46369 -1.79215 84 82 106
-5.19697 -2.44878 -1.7994 82 80 104
-5.18846 -2.42556 -1.79346 78 80 105
-5.50917 -2.00154 -1.79766 85 85 103
-5.5022 -1.97991 -1.79313 86 85 103
-5.5142 -1.9557 -1.79442 82 83 101
-5.69602 -1.78618 -1.81069 78 83 103
-5.68988 -1.76503 -1.80688 79 84 103
-6.01639 -1.33532 -1.81097 69 80 102
-6.01624 -1.30597 -1.80911 67 78 100
-6.20766 -1.04854 -1.81165 73 83 104
-6.58107 -0.419169 -1.7947 79 90 108
-6.55545 -0.400907 -1.78485 76 87 107
-6.79148 -0.164853 -1.80542 80 91 109
-6.77836 -0.15104 -1.79907 80 90 110
-2.38223 -6.18955 -1.73644 125 126 139
-2.68396 -5.75883 -1.73775 120 122 137
-2.94353 -5.43723 -1.74732 120 122 137
-3.16471 -5.1689 -1.75886 119 118 134
-3.39791 -4.79176 -1.75225 96 103 121
-3.41948 -4.77667 -1.75225 101 108 126
-3.60472 -4.54607 -1.76185 93 99 120
-3.61704 -4.53394 -1.7612 95 102 121
-3.89094 -4.13442 -1.76373 95 101 119
-3.90179 -4.12145 -1.76306 94 101 119
-3.90752 -4.10287 -1.75976 76 83 102
-5.20716 -2.41521 -1.79807 82 80 104
-5.22617 -2.39514 -1.80136 95 92 113
-5.21399 -2.37042 -1.79409 89 87 107
-5.51417 -1.93672 -1.79247 78 79 97
-5.53008 -1.92351 -1.79634 79 77 98
-5.71268 -1.75273 -1.81321 80 83 100
-6.01396 -1.28601 -1.80726 74 86 108
-6.20634 -1.02843 -1.81044 77 85 104
-6.55646 -0.37645 -1.78484 74 85 107
-6.79884 -0.143672 -1.80765 79 87 108
-6.77801 -0.134039 -1.79905 73 81 102
-6.742 -0.116101 -1.78607 82 90 108
-2.36359 -6.19604 -1.73644 128 128 140
-2.66052 -5.77738 -1.74007 119 125 137
-2.91617 -5.44486 -1.74552 122 124 137
-3.12816 -5.17717 -1.75517 110 118 131
-3.14552 -5.17141 -1.7564 120 123 140
-3.36434 -4.80384 -1.74909 91 92 113
-3.37849 -4.7939 -1.74909 91 94 113
-3.55257 -4.57674 -1.75928 95 102 120
-3.56612 -4.5663 -1.75927 93 100 119
-3.5774 -4.55275 -1.75798 94 101 120
-3.84661 -4.17317 -1.76308 101 104 121
-3.85509 -4.15752 -1.76109 99 102 121
-3.86729 -4.14607 -1.76109 88 89 110
-5.224 -2.35594 -1.79541 91 88 107
-5.24084 -2.34452 -1.79936 87 84 105
-5.24753 -2.31878 -1.79803 83 80 101
-5.54539 -1.90038 -1.79891 79 79 97
-5.54516 -1.88136 -1.79696 82 83 101
-5.71638 -1.72482 -1.81194 80 83 102
-5.72455 -1.708 -1.8132 72 74 95
-6.02459 -1.26889 -1.80971 73 85 107
-6.03145 -1.25092 -1.81093 70 82 106
-6.22537 -1.00152 -1.81524 72 81 102
-6.22578 -0.981654 -1.81463 71 80 99
-6.58853 -0.362172 -1.79677 77 88 112
-6.76042 -0.0911649 -1.79288 78 89 109
-2.33341 -6.20021 -1.73476 117 119 131
-2.64096 -5.77968 -1.73833 120 123 136
-2.8903 -5.47531 -1.75033 115 117 132
-2.90328 -5.4601 -1.74792 117 119 134
-3.11447 -5.18954 -1.7564 112 115 130
-3.32945 -4.83006 -1.74973 107 109 124
-3.35411 -4.83605 -1.75607 105 108 125
-3.54008 -4.58868 -1.75992 97 104 122
-3.78834 -4.19569 -1.75517 100 106 125
-3.81669 -4.20298 -1.76375 96 101 120
-3.8331 -4.18314 -1.76242 94 99 114
-5.27291 -2.31101 -1.80529 87 84 105
-5.25858 -2.2857 -1.79736 85 82 104
-5.2719 -2.2629 -1.79867 85 83 105
-5.55736 -1.86668 -1.79954 82 83 103
-5.55166 -1.84581 -1.79566 84 87 106
-5.72357 -1.68849 -1.81129 76 78 99
-5.73242 -1.66213 -1.81191 74 79 97
-6.02533 -1.2204 -1.80723 70 82 104
-6.20352 -0.958398 -1.80682 72 83 101
-6.58324 -0.345418 -1.79466 81 90 108
-6.8154 -0.0904827 -1.81265 78 89 109
-6.75987 -0.0742109 -1.79287 81 92 112
-6.74616 -0.0570572 -1.78808 82 93 113
-2.31655 -6.21201 -1.73644 120 122 135
-2.62285 -5.78544 -1.73776 123 122 136
-2.85782 -5.47238 -1.74493 115 119 131
-3.07691 -5.21525 -1.75764 111 114 129
-3.08981 -5.20132 -1.75579 112 114 129
-3.31622 -4.84143 -1.75037 109 112 128
-3.49189 -4.62474 -1.75993 94 103 118
-3.50886 -4.61913 -1.76187 95 102 120
-3.51816 -4.60266 -1.75928 96 101 121
-3.74702 -4.23756 -1.7565 103 106 125
-3.7692 -4.23797 -1.76178 98 103 122
-3.78458 -4.21691 -1.75979 97 102 121
-5.2764 -2.24592 -1.798 87 84 104
-5.28432 -2.2304 -1.79865 85 82 101
-5.29392 -2.20597 -1.79865 86 84 105
-5.56662 -1.82246 -1.79823 77 82 101
-5.57688 -1.80703 -1.80016 77 82 101
-5.73858 -1.6447 -1.81254 72 78 92
-5.73374 -1.62417 -1.80936 78 85 99
-6.04879 -1.20584 -1.81399 62 74 98
-6.03127 -1.18284 -1.80721 66 81 104
-6.22037 -0.931051 -1.81101 72 80 101
-6.5952 -0.321446 -1.79886 77 89 106
-6.80144 -0.0689997 -1.80874 79 90 110
-6.74925 -0.0401878 -1.78943 71 83 103
-2.60618 -5.79469 -1.73834 125 124 138
-2.84393 -5.48575 -1.74673 117 119 134
-3.05948 -5.22076 -1.75641 113 116 131
-3.28103 -4.86726 -1.75101 101 106 125
-3.3005 -4.86556 -1.75417 104 109 128
-3.45392 -4.64547 -1.758 95 102 120
-3.46982 -4.63846 -1.75929 94 101 119
-3.70281 -4.27606 -1.75651 97 104 123
-3.71055 -4.2593 -1.75386 99 105 124
-3.7406 -4.25584 -1.7598 102 107 126
-5.30174 -2.19038 -1.7993 86 83 104
-5.31298 -2.17619 -1.80127 86 83 104
-5.57813 -1.78859 -1.79886 79 82 101
-5.58746 -1.76326 -1.79949 81 85 104
-5.71239 -1.59915 -1.80048 76 84 99
-6.03041 -1.15354 -1.80536 70 82 106
-6.23187 -0.912827 -1.814 76 87 107
-6.22446 -0.891911 -1.81099 71 82 102
-6.58977 -0.304709 -1.79674 74 87 104
-6.5899 -0.288283 -1.79673 75 88 105
-6.75232 -0.014827 -1.79078 75 87 111
-2.5775 -5.80048 -1.7366 124 123 137
-2.80779 -5.49518 -1.74433 122 121 137
-2.82503 -5.48878 -1.74493 118 120 135
-3.03824 -5.239 -1.75826 116 119 134
-3.2512 -4.88484 -1.75038 88 95 112
-3.2646 -4.87368 -1.74974 90 96 112
-3.43798 -4.65243 -1.75672 97 104 122
-3.68232 -4.30367 -1.75916 97 104 123
-3.68901 -4.2855 -1.75585 96 104 123
-5.31883 -2.15019 -1.79994 85 82 101
-5.32996 -2.1359 -1.80192 88 85 102
-5.33055 -2.11737 -1.79993 90 87 104
-5.31005 -2.09052 -1.79002 87 84 103
-5.59034 -1.74538 -1.79884 76 81 100
-5.59859 -1.72922 -1.80012 78 80 101
-5.75558 -1.58222 -1.81314 77 84 103
-5.75784 -1.56369 -1.8125 71 82 100
-5.71972 -1.53451 -1.79792 69 80 98
-6.04811 -1.13764 -1.81027 70 84 110
-6.03592 -1.11593 -1.80534 71 83 108
-6.21456 -0.860761 -1.80678 68 80 102
-6.5661 -0.262542 -1.78758 79 88 107
-6.56422 -0.246108 -1.78687 76 87 105
-6.80088 -0.0369655 -1.80873 75 86 106
-2.5454 -5.8222 -1.73892 125 124 140
-2.56499 -5.82026 -1.74066 123 122 136
-2.78434 -5.51071 -1.74553 116 117 135
-3.00502 -5.25305 -1.75703 114 116 131
-3.02075 -5.24437 -1.75703 115 118 133
-3.21267 -4.90532 -1.74911 106 109 128
-3.22413 -4.89107 -1.74721 105 108 125
-3.40931 -4.68682 -1.76059 98 104 124
-3.42003 -4.67214 -1.75865 98 105 123
-3.63035 -4.33256 -1.75521 98 103 123
-3.64663 -4.32627 -1.75718 98 105 124
-3.65935 -4.31551 -1.75718 96 104 123
-5.30844 -2.06183 -1.78605 87 85 106
-5.35977 -2.06312 -1.80321 87 85 106
-5.60404 -1.70264 -1.79947 78 82 101
-5.60132 -1.68304 -1.79688 75 80 100
-5.76639 -1.51807 -1.81185 71 79 98
-6.04406 -1.0884 -1.80656 73 85 109
-6.23909 -0.844174 -1.81397 73 85 106
-6.5623 -0.229684 -1.78616 76 84 102
-6.79824 -0.0156122 -1.80816 76 88 110
-2.76864 -5.52042 -1.74614 118 119 137
-2.9827 -5.26935 -1.75826 116 120 131
-3.19915 -4.91632 -1.74975 102 105 124
-3.37622 -4.69874 -1.75737 93 99 115
-3.39119 -4.69045 -1.75802 97 101 120
-3.59913 -4.36062 -1.75587 97 104 121
-3.61895 -4.3589 -1.75983 99 104 122
-5.3566 -2.04321 -1.7999 85 83 104
-5.35825 -2.01573 -1.79725 84 82 103
-5.62384 -1.67123 -1.80332 75 83 102
-5.62722 -1.64399 -1.80203 72 78 95
-5.77028 -1.5 -1.81184 72 80 98
-5.73921 -1.47309 -1.79979 73 80 101
-6.04477 -1.06921 -1.80594 69 82 108
-6.21821 -0.821642 -1.80676 70 81 101
-6.55845 -0.213199 -1.78474 79 88 103
-2.51803 -5.83123 -1.73834 121 123 138
-2.74653 -5.51625 -1.74194 120 119 137
-2.96343 -5.27114 -1.7558 113 116 131
-3.16138 -4.93797 -1.74912 98 101 118
-3.17398 -4.92547 -1.74785 105 108 125
-3.34395 -4.72795 -1.75931 81 86 106
-3.35694 -4.71661 -1.75867 98 103 124
-3.56766 -4.38843 -1.75654 97 104 122
-3.57932 -4.36225 -1.75191 97 104 122
-5.38491 -2.00711 -1.80516 83 81 103
-5.36737 -1.98197 -1.79657 84 82 100
-5.62429 -1.62439 -1.79944 78 81 96
-5.63762 -1.60963 -1.80265 79 85 100
-5.74707 -1.44654 -1.80042 72 80 100
-6.06598 -1.05371 -1.81208 67 79 105
-6.0479 -1.03116 -1.8053 68 80 104
-6.23445 -0.793909 -1.81095 78 86 105
-6.56793 -0.188978 -1.78824 78 87 103
-2.48022 -5.83829 -1.73603 123 125 140
-2.49776 -5.83122 -1.73602 122 124 139
-2.72136 -5.52802 -1.74194 122 123 140
-2.93603 -5.29657 -1.75889 115 118 133
-2.9459 -5.27624 -1.75458 115 118 133
-3.14092 -4.93745 -1.74532 99 102 121
-3.30428 -4.74577 -1.75674 96 103 121
-3.32067 -4.72337 -1.75351 84 91 109
-3.52304 -4.41214 -1.75325 92 99 117
-3.53945 -4.4063 -1.75523 95 102 119
-3.55357 -4.39739 -1.75588 96 103 121
-4.2812 -3.41816 -1.77465 107 108 126
-4.29838 -3.4111 -1.77805 110 111 128
-4.30538 -3.39562 -1.77668 109 110 130
-4.32346 -3.37829 -1.77803 108 111 128
-4.32744 -3.36039 -1.77531 101 104 121
-4.34158 -3.35072 -1.77734 103 106 123
-4.35506 -3.32967 -1.77666 107 113 129
-4.37209 -3.32221 -1.78005 104 109 128
-4.37876 -3.30654 -1.77868 103 108 127
-4.38983 -3.29433 -1.77936 103 106 123
-4.40454 -3.27421 -1.77935 105 107 124
-4.41103 -3.25847 -1.77798 105 104 122
-4.42941 -3.25182 -1.78206 112 110 132
-4.44092 -3.22924 -1.78069 89 89 108
-4.44274 -3.21003 -1.77728 88 88 107
-4.47007 -3.20992 -1.78544 90 93 110
-4.46776 -3.17713 -1.77795 102 103 123
-4.47844 -3.16457 -1.77862 89 90 111
-4.47239 -3.1398 -1.77182 90 93 112
-4.49514 -3.13603 -1.77793 93 96 111
-4.50908 -3.11537 -1.77792 80 85 104
-4.50735 -3.09394 -1.77316 77 85 106
-4.54232 -3.09857 -1.78471 67 77 99
-4.52533 -3.05614 -1.7711 72 84 106
-4.548 -3.05193 -1.77722 71 82 101
-4.59076 -3.06148 -1.79217 73 85 107
-4.59505 -3.03399 -1.78808 70 84 110
-4.60687 -3.02201 -1.78944 68 82 108
-4.61867 -3.00997 -1.79079 69 83 109
-4.6265 -2.96514 -1.78465 70 85 111
-5.37225 -1.95579 -1.79525 82 81 100
-5.40058 -1.94753 -1.80382 81 84 104
-5.39519 -1.92703 -1.79985 85 88 107
-5.63094 -1.58898 -1.79878 71 79 92
-5.78757 -1.43751 -1.81308 71 79 100
-5.77463 -1.41536 -1.80737 70 78 100
-6.04253 -1.00125 -1.80222 69 84 105
-6.23231 -0.773829 -1.80975 78 88 108
-6.5677 -0.172606 -1.78823 75 86 104
-2.68667 -5.54006 -1.74074 116 119 134
-2.70087 -5.52713 -1.73894 121 124 139
-2.90332 -5.29212 -1.75273 112 118 132
-3.1107 -4.97165 -1.74976 102 105 121
-3.11958 -4.95278 -1.74596 90 90 109
-3.27402 -4.76169 -1.75545 99 104 123
-3.28814 -4.75216 -1.75545 99 106 124
-3.49227 -4.44086 -1.75457 98 103 122
-3.50423 -4.4291 -1.75391 96 103 121
-4.15724 -3.56067 -1.77199 104 107 124
-4.16762 -3.54804 -1.77199 103 104 122
-4.18079 -3.53787 -1.77334 103 105 124
-4.19946 -3.52127 -1.7747 102 103 123
-4.20548 -3.5048 -1.77265 106 107 127
-4.21285 -3.48955 -1.77128 101 104 123
-4.23703 -3.47765 -1.77536 105 105 123
-4.24428 -3.46232 -1.77399 104 105 123
-4.2601 -3.45426 -1.77671 102 103 123
-4.26583 -3.43766 -1.77466 107 108 128
-4.62887 -2.99685 -1.79146 75 89 115
-4.63658 -2.95198 -1.78533 74 90 116
-4.66545 -2.95111 -1.79416 69 86 112
-4.68324 -2.93267 -1.79619 68 85 113
-4.67902 -2.91015 -1.79075 68 85 111
-4.69209 -2.89881 -1.79278 73 90 118
-4.7049 -2.87717 -1.79277 66 82 111
-4.69883 -2.85372 -1.78664 67 82 111
-4.71175 -2.84225 -1.78868 66 81 110
-5.39329 -1.90783 -1.7972 82 83 103
-5.41738 -1.88841 -1.80314 80 83 102
-5.63571 -1.56226 -1.79812 75 80 100
-5.65616 -1.54941 -1.80392 77 83 103
-5.77636 -1.3968 -1.80673 73 84 102
-6.0542 -0.983974 -1.80529 74 89 112
-6.232 -0.753988 -1.80914 75 86 107
-6.22786 -0.733719 -1.80733 71 83 105
-6.57303 -0.156369 -1.79033 76 87 105
-2.45279 -5.847 -1.73545 120 123 138
-2.89247 -5.31065 -1.75643 113 119 133
-3.0765 -4.98152 -1.7466 104 111 125
-3.09407 -4.97743 -1.7485 100 108 121
-3.25737 -4.78391 -1.75868 103 107 126
-3.46236 -4.47085 -1.75656 98 107 124
-3.48028 -4.45258 -1.75524 99 102 123
-4.06102 -3.65012 -1.7666 109 114 130
-4.07579 -3.64166 -1.76863 100 105 123
-4.0988 -3.64081 -1.77474 101 107 126
-4.10256 -3.622 -1.77134 103 108 124
-4.1285 -3.6122 -1.77609 107 109 128
-4.12654 -3.58829 -1.76997 107 109 127
-4.13841 -3.57703 -1.77064 108 110 128
-4.7371 -2.8284 -1.79411 72 88 114
-4.74837 -2.81579 -1.79546 71 88 111
-4.74838 -2.7963 -1.79206 70 86 109
-4.74992 -2.7778 -1.78933 76 90 116
-4.76862 -2.75972 -1.79204 70 83 111
-4.78938 -2.7527 -1.79747 75 90 118
-4.77942 -2.72747 -1.78999 73 89 115
-5.4082 -1.86673 -1.79785 82 86 105
-5.42926 -1.8555 -1.80378 81 82 102
-5.65289 -1.52983 -1.80133 75 81 100
-5.64462 -1.49953 -1.79616 74 82 100
-5.80417 -1.37476 -1.81433 67 78 100
-5.80393 -1.3557 -1.81305 68 81 100
-6.08082 -0.969102 -1.81328 73 88 111
-6.24747 -0.706151 -1.81272 67 80 99
-6.58224 -0.131966 -1.79383 76 87 107
-2.43455 -5.85213 -1.73487 121 123 136
-2.64705 -5.56435 -1.74254 116 118 133
-2.66447 -5.5585 -1.74314 118 120 135
-2.87653 -5.31891 -1.75643 118 120 133
-3.06153 -5.00804 -1.75167 113 115 130
-3.22789 -4.80111 -1.75804 92 97 116
-3.23716 -4.78369 -1.75481 104 109 126
-3.43151 -4.4849 -1.75393 97 102 121
-3.44693 -4.4779 -1.75524 99 106 124
-4.01033 -3.71504 -1.76866 100 105 124
-4.0311 -3.70073 -1.77069 101 107 123
-4.04463 -3.69112 -1.77205 104 107 126
-4.05542 -3.67886 -1.77204 103 109 127
-4.79143 -2.70538 -1.78998 70 85 111
-4.81536 -2.70002 -1.79677 72 88 113
-4.82139 -2.68425 -1.79608 74 88 114
-4.82994 -2.66009 -1.79472 71 85 111
-4.84074 -2.64705 -1.79607 72 86 112
-5.43172 -1.8285 -1.80179 80 78 99
-5.43125 -1.80991 -1.7998 78 78 96
-5.65945 -1.48498 -1.80002 76 85 100
-5.80177 -1.33622 -1.81114 72 84 102
-6.06577 -0.937626 -1.80712 70 82 105
-6.05099 -0.916042 -1.80157 71 84 103
-6.23369 -0.684874 -1.80791 77 88 109
-6.58183 -0.115539 -1.79381 75 86 106
