-8.25898 1.13095 -1.79297 90 96 112
-8.25083 1.16249 -1.7924 92 99 115
-7.66164 2.0665 -1.80102 88 90 105
-7.65787 2.08733 -1.80217 93 95 108
-7.64163 2.11492 -1.80047 89 91 106
-7.63409 2.13449 -1.80048 92 94 107
-5.99364 4.66847 -1.81684 108 107 121
-5.98079 4.68588 -1.81803 107 106 120
-5.95703 4.69243 -1.81466 102 100 114
-5.93937 4.71976 -1.81701 104 103 119
-5.41249 5.60747 -1.82641 102 101 117
-5.39513 5.62184 -1.82702 104 103 119
-5.37212 5.62836 -1.82489 103 102 118
-5.1291 6.04221 -1.8317 102 104 117
-5.1092 6.05418 -1.83178 100 104 116
-4.869 6.43901 -1.83059 96 102 114
-4.84605 6.4469 -1.82962 99 103 115
-4.63253 6.88191 -1.84603 99 103 115
-4.38766 7.31415 -1.85395 97 99 114
-4.35164 7.29559 -1.84621 97 99 112
-4.08995 7.86289 -1.86845 97 101 113
-3.67981 8.4942 -1.87218 94 101 113
-3.37552 8.89361 -1.87026 94 100 114
-8.77464 0.342725 -1.79395 99 107 125
-8.7592 0.41446 -1.8029 96 103 119
-8.74921 0.441567 -1.80117 93 100 116
-8.58325 0.697956 -1.80556 92 98 112
-8.5897 0.721096 -1.80821 94 101 116
-8.38751 0.992953 -1.8067 90 96 111
-8.3912 1.0203 -1.80854 88 94 110
-8.26223 1.05463 -1.78971 85 91 107
-8.26391 1.08777 -1.79188 91 97 112
-8.25959 1.10904 -1.79188 87 94 109
-7.68983 1.9548 -1.79756 92 96 108
-7.67911 1.97336 -1.79642 93 95 110
-7.69211 1.99937 -1.8027 92 91 108
-7.66531 2.02368 -1.79758 94 95 111
-7.6708 2.04744 -1.80158 92 94 109
-5.92768 4.73841 -1.81878 103 102 118
-5.89714 4.73787 -1.81255 103 105 118
-5.87921 4.76499 -1.81491 103 102 116
-5.35029 5.6552 -1.82774 101 103 117
-5.33165 5.66782 -1.8278 103 105 119
-5.09027 6.06771 -1.83239 101 104 119
-5.05357 6.07403 -1.82873 101 103 118
-4.8277 6.46317 -1.83127 100 102 115
-4.7936 6.47477 -1.82981 101 100 116
-4.6177 6.90809 -1.85067 99 103 115
-4.59593 6.92037 -1.85126 99 104 116
-4.32614 7.33346 -1.8527 96 100 112
-4.05505 7.88555 -1.87091 96 99 114
-4.02326 7.87798 -1.86681 95 98 113
-3.65435 8.50931 -1.87407 94 100 112
-3.62571 8.51309 -1.87329 95 98 113
-3.34614 8.89841 -1.86994 95 99 111
-8.76493 0.296294 -1.79036 95 100 119
-8.77271 0.319631 -1.79294 96 101 121
-8.76132 0.386973 -1.80287 91 98 114
-8.58926 0.65355 -1.80559 89 97 110
-8.58437 0.67558 -1.80504 92 97 112
-8.39297 0.953353 -1.80668 90 93 108
-8.27807 1.01325 -1.79192 85 91 107
-8.27588 1.03485 -1.79246 86 92 108
-7.71541 1.88622 -1.79811 89 91 106
-7.70491 1.9049 -1.79697 93 95 110
-7.69986 1.9252 -1.79755 99 101 114
-6.98174 2.9655 -1.79778 109 107 121
-6.98666 2.99124 -1.80312 110 108 119
-6.96631 3.00341 -1.79961 99 97 109
-6.94625 3.02698 -1.79786 104 102 116
-6.96258 3.05925 -1.80735 94 91 105
-6.91873 3.05824 -1.79555 101 99 113
-6.91842 3.09278 -1.8009 106 102 116
-6.9211 3.11773 -1.80566 99 95 109
-6.88556 3.12096 -1.79682 89 86 99
-6.8898 3.15838 -1.80395 106 104 117
-6.8757 3.1738 -1.8028 105 103 116
-6.85825 3.18723 -1.80046 98 96 107
-6.84244 3.20157 -1.79872 100 98 111
-6.83137 3.23028 -1.80053 95 93 107
-6.82525 3.25039 -1.80233 102 100 114
-6.82397 3.27346 -1.80591 103 101 115
-6.81415 3.30314 -1.80831 87 85 99
-6.79314 3.31425 -1.8048 90 87 104
-6.78024 3.3303 -1.80424 89 86 103
-6.74909 3.34669 -1.79895 86 85 100
-6.75545 3.3748 -1.80549 90 88 102
-6.72628 3.38049 -1.79902 101 99 112
-6.72442 3.40351 -1.8026 89 87 101
-6.71069 3.43084 -1.80382 87 84 100
-6.69905 3.44765 -1.80385 96 94 108
-6.69053 3.46651 -1.80507 98 94 108
-6.67647 3.49372 -1.8063 97 95 106
-6.66622 3.51149 -1.80692 96 96 108
-6.64163 3.51966 -1.80223 93 91 104
-6.6431 3.55739 -1.80936 104 102 115
-6.62633 3.57077 -1.80763 107 105 119
-6.61266 3.58625 -1.80707 104 103 117
-6.60208 3.60386 -1.8077 106 105 119
-6.58891 3.63185 -1.80952 101 101 113
-6.56882 3.64281 -1.8066 105 105 115
-6.55026 3.65478 -1.80427 110 108 119
-5.87265 4.78901 -1.81896 108 107 123
-5.85669 4.80336 -1.81901 113 112 128
-5.83048 4.82202 -1.81794 104 103 119
-5.81706 4.83903 -1.81914 102 104 117
-5.31407 5.68196 -1.82842 101 103 116
-5.28425 5.69755 -1.82742 104 103 119
-5.04065 6.09722 -1.83256 102 101 117
-5.01855 6.10564 -1.83157 101 103 118
-4.77696 6.49429 -1.8325 100 101 116
-4.74933 6.49338 -1.82892 100 102 117
-4.5582 6.92737 -1.84885 100 102 115
-4.294 7.32354 -1.8474 94 100 112
-4.27902 7.35464 -1.85336 97 103 115
-4.00136 7.89781 -1.8697 97 99 114
-3.58624 8.52986 -1.87478 93 99 113
-3.31586 8.89932 -1.86876 96 102 114
-8.79192 0.239969 -1.79666 91 98 114
-8.77676 0.262373 -1.793 97 104 121
-8.76143 0.359411 -1.80241 87 94 110
-8.59785 0.59817 -1.80617 90 97 113
-8.59315 0.620233 -1.80562 87 95 110
-8.41989 0.902653 -1.81115 93 101 114
-8.42195 0.929795 -1.81253 90 98 113
-8.28565 0.959658 -1.79141 95 100 114
-8.28398 0.992213 -1.79248 91 95 110
-7.70255 1.78509 -1.78497 91 93 106
-7.73104 1.81476 -1.79581 86 89 104
-7.7281 1.83564 -1.79696 94 97 112
-7.73063 1.85813 -1.79981 96 101 114
-7.10737 2.76768 -1.80226 91 90 104
-7.10467 2.78903 -1.80464 94 94 106
-7.08989 2.80446 -1.80289 94 94 106
-7.07236 2.82962 -1.80174 93 92 106
-7.0626 2.84749 -1.80176 90 89 103
-7.04257 2.86013 -1.79824 93 91 104
-7.03666 2.89117 -1.80122 93 93 105
-7.04194 2.91686 -1.80656 93 93 105
-7.02513 2.93111 -1.80423 92 91 105
-6.54925 3.69147 -1.81082 106 104 116
-6.53368 3.70557 -1.80967 107 105 118
-6.5227 3.72298 -1.8103 111 109 122
-6.51506 3.75522 -1.81449 109 107 120
-6.47933 3.75448 -1.80566 107 105 118
-6.48046 3.78083 -1.81102 107 105 118
-6.47383 3.80152 -1.81343 108 106 119
-6.46112 3.83026 -1.81584 107 105 118
-6.45125 3.84863 -1.81706 107 105 118
-6.43223 3.86004 -1.81474 105 103 116
-6.41163 3.88283 -1.8142 109 107 120
-5.80225 4.85462 -1.81977 103 105 118
-5.77565 4.85754 -1.81525 101 103 116
-5.75703 4.88425 -1.81761 102 104 119
-5.74724 4.90531 -1.82052 100 104 116
-5.26983 5.7163 -1.82969 103 104 118
-5.2445 5.71917 -1.82645 104 103 119
-5.23214 5.74101 -1.82983 103 102 118
-4.9858 6.11813 -1.83006 99 102 117
-4.96466 6.12801 -1.8296 98 101 116
-4.71875 6.51141 -1.82956 101 103 118
-4.53386 6.93425 -1.84792 100 102 116
-4.5095 6.94105 -1.84699 100 102 117
-4.231 7.33853 -1.84517 98 101 116
-3.97483 7.90473 -1.86933 95 101 115
-3.55552 8.5259 -1.87221 95 101 116
-8.78155 0.193638 -1.79307 88 97 112
-8.77617 0.216423 -1.79201 88 98 114
-8.76768 0.290753 -1.8028 89 96 115
-8.76 0.318055 -1.80151 92 98 120
-8.59867 0.575782 -1.80565 92 97 113
-8.4288 0.863322 -1.81203 94 99 115
-8.29329 0.916976 -1.79143 92 99 115
-8.29141 0.938595 -1.79197 93 98 112
-7.76514 1.72685 -1.7975 85 91 105
-7.76434 1.74827 -1.79922 89 92 107
-7.75055 1.76615 -1.79694 91 94 109
-7.18031 2.58928 -1.79735 91 94 107
-7.16719 2.61655 -1.79738 92 91 105
-7.16502 2.6379 -1.79976 92 91 105
-7.15586 2.65604 -1.79978 94 93 107
-7.1338 2.67913 -1.79685 86 85 99
-7.14345 2.70619 -1.80337 91 90 104
-7.12031 2.71768 -1.79866 92 91 105
-7.11604 2.73818 -1.80046 90 92 105
-7.08629 2.99792 -1.83085 84 82 95
-6.40157 3.9011 -1.81542 109 107 120
-6.38394 3.91346 -1.81369 107 105 118
-6.36011 3.93366 -1.81197 109 107 120
-6.35435 3.95536 -1.81496 108 106 119
-6.32318 3.95682 -1.80791 107 105 119
-6.30661 3.98268 -1.80914 109 107 121
-6.29322 3.99829 -1.80919 108 108 120
-6.27389 4.00903 -1.80686 107 109 121
-6.26484 4.02817 -1.80868 104 106 119
-6.23468 4.04284 -1.8046 106 105 119
-6.22112 4.05823 -1.80464 110 107 124
-5.72191 4.90938 -1.81658 101 103 118
-5.69785 4.93021 -1.81665 103 102 118
-5.68784 4.95116 -1.81956 102 104 117
-5.20207 5.7562 -1.82882 104 103 119
-5.18098 5.76518 -1.82779 103 102 118
-4.94546 6.14113 -1.83021 101 103 116
-4.92325 6.14924 -1.82921 99 101 116
-4.701 6.52905 -1.83172 98 101 116
-4.6805 6.54151 -1.83232 100 104 118
-4.48597 6.94952 -1.84657 100 102 117
-4.21651 7.37129 -1.85162 100 103 118
-4.1831 7.35733 -1.84534 99 102 117
-3.93833 7.92323 -1.87087 96 99 114
-3.53137 8.5463 -1.87544 97 101 116
-3.27513 8.91854 -1.87108 95 101 113
-3.24481 8.91923 -1.86989 97 101 113
-8.77942 0.159165 -1.79208 90 99 114
-8.76359 0.263093 -1.80146 89 96 114
-8.60474 0.520192 -1.80571 89 95 112
-8.61178 0.543144 -1.80836 94 100 115
-8.4164 0.808357 -1.80746 93 100 117
-8.42459 0.836013 -1.8102 79 84 100
-8.31727 0.865584 -1.79585 91 97 112
-8.30222 0.885459 -1.79255 93 100 115
-7.75635 1.5959 -1.78382 87 91 103
-7.74485 1.61437 -1.78211 92 96 108
-7.74929 1.64747 -1.7861 98 100 115
-7.77285 1.67505 -1.79522 91 90 106
-7.76297 1.69401 -1.79409 89 91 104
-7.253 2.44436 -1.79841 84 86 101
-7.23885 2.4712 -1.79783 90 90 108
-7.2337 2.49107 -1.79903 92 91 107
-7.21273 2.50408 -1.79491 88 90 105
-7.21098 2.52543 -1.7973 88 91 106
-7.20514 2.55593 -1.79968 86 88 103
-7.19622 2.57419 -1.7997 89 91 104
-6.22064 4.08463 -1.81001 109 106 123
-6.18595 4.09529 -1.80415 107 105 119
-6.17658 4.11425 -1.80597 108 106 119
-6.16422 4.13072 -1.8066 110 108 122
-6.13233 4.14346 -1.80193 110 108 121
-6.12708 4.16608 -1.80552 106 104 117
-6.09481 4.19238 -1.80384 103 102 116
-5.66628 4.95924 -1.81733 102 105 118
-5.64832 4.987 -1.82027 104 106 121
-5.633 5.00212 -1.8209 102 104 119
-5.16095 5.77569 -1.82731 103 102 117
-5.13286 5.79374 -1.82741 102 101 117
-4.89624 6.1712 -1.83093 100 102 115
-4.64616 6.55239 -1.83087 96 99 114
-4.62647 6.56641 -1.83199 97 100 115
-4.45638 6.97346 -1.84922 99 103 115
-4.43031 6.97651 -1.84728 98 102 114
-3.91109 7.92811 -1.87003 96 99 116
-3.8851 7.9366 -1.87013 97 100 115
-3.48727 8.54569 -1.87292 97 100 116
-3.21365 8.91601 -1.86785 97 99 114
-8.77498 0.136124 -1.79055 95 102 119
-8.75351 0.194117 -1.79836 97 106 121
-8.77145 0.222003 -1.80275 90 102 116
-8.43587 0.743226 -1.81012 92 99 115
-8.45274 0.785046 -1.81512 86 94 111
-7.77732 1.55835 -1.78666 87 87 102
-7.7678 1.57738 -1.78552 94 96 110
-7.29271 2.30787 -1.7924 87 88 105
-7.29333 2.3406 -1.79655 89 91 104
-7.2957 2.36342 -1.80011 90 92 105
-7.28208 2.37978 -1.79836 87 88 101
-7.26468 2.4053 -1.7966 89 89 105
-7.26151 2.42594 -1.79839 90 89 105
-6.12601 4.19248 -1.81089 119 117 131
-6.0742 4.21482 -1.8039 100 99 113
-6.07144 4.23993 -1.80868 106 105 119
-6.04875 4.24716 -1.80517 108 107 123
-6.02645 4.2681 -1.80464 108 106 119
-5.61764 5.0172 -1.82153 105 105 121
-5.59057 5.03466 -1.82046 101 103 118
-5.57508 5.04962 -1.82109 103 105 120
-5.11378 5.80571 -1.82748 99 101 116
-5.09574 5.81923 -1.8281 101 103 118
-4.87592 6.18246 -1.831 101 103 115
-4.85943 6.20032 -1.83322 100 102 117
-4.60235 6.57178 -1.83051 96 99 114
-4.58169 6.58396 -1.83111 99 103 115
-4.40669 6.98473 -1.84685 100 103 115
-4.15823 7.39824 -1.85281 98 100 113
-4.12491 7.38404 -1.84654 100 104 116
-3.84653 7.94917 -1.87026 97 101 113
-3.461 8.55837 -1.87436 98 101 116
-3.18722 8.93363 -1.87055 94 100 114
-8.7647 0.166828 -1.80052 97 106 121
-8.45262 0.717891 -1.81326 93 98 114
-7.82656 1.51673 -1.7975 96 98 111
-7.78174 1.52753 -1.78553 88 90 103
-7.34136 2.20767 -1.7941 90 93 105
-7.33174 2.22565 -1.79353 86 90 102
-7.32034 2.25357 -1.79354 84 86 99
-7.31416 2.27285 -1.79414 88 87 103
-7.3079 2.29212 -1.79475 88 86 102
-6.02341 4.2932 -1.80942 116 114 125
-6.00484 4.30407 -1.80769 111 109 123
-5.98368 4.32611 -1.80776 100 99 113
-5.97478 4.34597 -1.81017 109 108 122
-5.95609 4.35665 -1.80844 107 106 120
-5.93739 4.36727 -1.80672 110 109 123
-5.56079 5.066 -1.82229 104 105 121
-5.54398 5.07941 -1.82235 99 101 116
-5.5068 5.08477 -1.81671 102 104 119
-5.06641 5.83537 -1.82764 101 103 116
-5.04926 5.85037 -1.82882 102 101 117
-5.03105 5.86371 -1.82944 102 104 119
-4.82733 6.21369 -1.83225 101 101 117
-4.80687 6.22474 -1.83233 98 101 114
-4.55322 6.60643 -1.83331 100 104 116
-4.37446 7.00308 -1.84799 99 103 115
-4.35313 7.01641 -1.84908 98 101 114
-4.11067 7.41841 -1.85348 98 100 115
-4.07673 7.4022 -1.84671 101 103 118
-3.81865 7.95192 -1.86896 94 100 112
-3.43468 8.57097 -1.87581 95 101 115
-8.77599 0.125723 -1.80268 91 98 116
-8.44421 0.650193 -1.8096 91 100 115
-8.45572 0.691312 -1.81324 91 97 113
-7.8419 1.46687 -1.79807 87 90 105
-7.82843 1.49576 -1.79635 83 85 98
-7.37716 2.12412 -1.79464 87 90 104
-7.36246 2.14026 -1.79229 83 89 101
-7.37275 2.16557 -1.79821 88 92 104
-7.34911 2.189 -1.79409 87 89 104
-5.92418 4.39693 -1.81033 110 108 122
-5.90538 4.40741 -1.8086 106 105 119
-5.8934 4.42448 -1.80984 106 105 119
-5.87031 4.44468 -1.80931 105 102 119
-5.50095 5.11126 -1.82191 103 106 118
-5.48155 5.12155 -1.82083 103 104 117
-5.46012 5.14574 -1.82262 102 101 117
-5.42248 5.13362 -1.81296 102 101 117
-5.00152 5.87954 -1.82899 100 104 116
-4.98016 5.88785 -1.82796 101 103 116
-4.78448 6.23238 -1.83133 100 103 118
-4.75414 6.24875 -1.83144 101 104 119
-4.52818 6.60983 -1.8313 99 103 117
-4.50654 6.62006 -1.83138 99 102 117
-4.32626 7.01733 -1.84664 103 102 119
-4.04507 7.42648 -1.84978 97 99 114
-3.79258 7.96012 -1.86905 93 99 113
-3.40356 8.56461 -1.87279 96 102 116
-8.4568 0.62439 -1.81184 89 97 112
-7.85467 1.3951 -1.79637 92 96 108
-7.85275 1.42656 -1.79807 88 92 104
-7.84924 1.44714 -1.79864 88 91 106
-7.40778 2.00687 -1.79046 87 88 106
-7.41724 2.04196 -1.79696 87 90 107
-7.39732 2.05644 -1.79284 92 95 112
-7.37918 2.07145 -1.78931 90 92 105
-7.38437 2.09468 -1.79345 89 91 106
-6.91073 2.76238 -1.79387 93 92 106
-6.89996 2.80113 -1.79695 94 92 106
-6.89704 2.8218 -1.7994 88 87 101
-6.88109 2.84672 -1.79882 87 85 99
-6.87797 2.86739 -1.80127 94 92 106
-6.86974 2.88542 -1.8019 100 98 112
-6.84678 2.90664 -1.7989 95 93 107
-6.85351 2.93266 -1.80499 90 89 102
-6.83669 2.94613 -1.80259 92 92 105
-6.82352 2.97257 -1.80323 106 105 117
-6.81325 2.98956 -1.80326 101 99 111
-6.81128 3.01112 -1.80632 103 101 115
-6.80256 3.029 -1.80695 91 89 103
-6.77904 3.04972 -1.80395 96 94 107
-6.76691 3.06564 -1.80337 99 95 109
-6.75636 3.08246 -1.8034 105 103 116
-6.74252 3.10859 -1.80404 106 104 118
-6.72855 3.12343 -1.80286 94 92 104
-6.72603 3.14495 -1.80592 91 88 100
-6.70861 3.16903 -1.80535 103 100 113
-6.69448 3.18373 -1.80417 106 103 115
-6.68355 3.20034 -1.8042 93 91 103
-6.67239 3.22816 -1.80606 108 108 117
-6.66458 3.24669 -1.8073 112 110 122
-6.64698 3.25923 -1.80491 93 91 104
-6.63582 3.2757 -1.80494 91 89 104
-6.62104 3.30136 -1.80558 89 89 102
-6.61458 3.3208 -1.80744 87 88 100
-6.61285 3.3433 -1.81111 91 93 103
-6.58656 3.36168 -1.80751 86 87 99
-6.57827 3.38004 -1.80876 86 86 98
-6.56354 3.39424 -1.80758 91 89 102
-6.54183 3.41543 -1.8058 92 91 105
-6.54286 3.44 -1.81069 88 87 101
-6.53113 3.45617 -1.81072 85 84 97
-6.52095 3.47336 -1.81136 93 92 105
-6.50361 3.4975 -1.81141 91 89 103
-6.49799 3.51785 -1.81387 94 92 106
-6.47975 3.52957 -1.81148 94 91 105
-6.46841 3.55787 -1.81395 94 92 106
-6.44227 3.56401 -1.80853 84 80 97
-6.43483 3.58317 -1.81038 83 81 95
-6.41388 3.60472 -1.80922 103 101 114
-5.85411 4.45764 -1.80877 103 102 116
-5.84196 4.47458 -1.81 107 109 122
-5.82403 4.49994 -1.81184 109 108 122
-5.80365 4.50868 -1.80953 110 107 124
-5.41631 5.16001 -1.81817 104 103 117
-5.39944 5.18992 -1.82225 104 102 119
-4.96281 5.90262 -1.82913 102 101 117
-4.94039 5.90916 -1.82755 103 100 117
-4.7345 6.26126 -1.83205 99 105 117
-4.71296 6.27035 -1.83159 98 104 116
-4.47782 6.64222 -1.83358 100 102 117
-4.28992 7.02649 -1.84524 100 102 117
-4.26616 7.03426 -1.84482 98 101 116
-4.01541 7.42086 -1.84595 99 101 116
-3.7527 7.96857 -1.86825 98 102 114
-3.36464 8.58418 -1.87518 94 100 114
-8.46154 0.597951 -1.81226 85 94 109
-7.87393 1.33529 -1.79751 87 90 105
-7.85757 1.35317 -1.79409 88 91 105
-7.85991 1.37492 -1.79637 90 94 106
-7.44112 1.94374 -1.79339 88 92 104
-7.43104 1.97214 -1.79339 89 88 102
-7.42938 1.99287 -1.79518 89 88 104
-6.99955 2.59808 -1.79429 91 90 105
-6.99391 2.61719 -1.79553 90 89 105
-6.97892 2.64258 -1.79494 91 90 104
-6.97657 2.66329 -1.79739 92 93 107
-6.96041 2.67743 -1.79499 91 92 106
-6.94514 2.70267 -1.7944 92 91 107
-6.94257 2.72335 -1.79685 88 87 105
-6.94333 2.74573 -1.80051 92 91 105
-6.91813 2.78817 -1.79996 92 90 103
-6.40472 3.62273 -1.81047 111 109 122
-6.39553 3.64071 -1.81172 108 106 119
-6.38317 3.65644 -1.81176 106 104 118
-6.36037 3.6766 -1.80998 107 105 119
-6.34331 3.68885 -1.8082 110 108 122
-6.33691 3.70896 -1.81067 113 111 124
-6.31999 3.73342 -1.81132 104 102 115
-6.30583 3.74779 -1.81076 111 109 122
-6.29161 3.7621 -1.81019 105 103 116
-6.2699 3.78291 -1.80903 104 104 116
-6.2571 3.79827 -1.80907 107 105 119
-6.24274 3.81243 -1.8085 108 106 119
-5.78595 4.52006 -1.80839 108 107 121
-5.76109 4.53838 -1.80727 109 109 121
-5.75393 4.56058 -1.81088 105 105 117
-5.37506 5.19387 -1.81888 103 103 118
-5.36379 5.21423 -1.8218 102 102 118
-5.3465 5.22706 -1.82186 103 105 120
-4.91067 5.92457 -1.8271 101 100 116
-4.89318 5.93915 -1.82827 102 101 115
-4.68429 6.28977 -1.83278 101 104 116
-4.45358 6.64709 -1.8321 101 103 116
-4.4343 6.66231 -1.83375 100 104 116
-4.247 7.0526 -1.84743 99 101 116
-3.99797 7.44779 -1.85094 100 102 117
-3.72659 7.97657 -1.86835 97 99 114
-3.69986 7.98263 -1.86798 97 99 114
-3.33405 8.57946 -1.87261 95 101 115
-8.46577 0.531324 -1.81176 100 106 122
-8.46901 0.558327 -1.81314 88 99 113
-7.89087 1.26443 -1.79753 88 91 106
-7.88974 1.28543 -1.79867 92 93 108
-7.88668 1.30607 -1.79923 92 92 107
-7.44821 1.80905 -1.78153 93 92 108
-7.44528 1.82912 -1.78272 92 91 107
-7.46778 1.85715 -1.79218 100 99 115
-7.45561 1.87445 -1.79041 93 92 107
-7.46402 1.90872 -1.79632 88 91 106
-7.44987 1.92538 -1.79397 88 92 104
-7.07611 2.43872 -1.79353 90 89 105
-7.07105 2.45795 -1.79476 88 87 103
-7.07462 2.48097 -1.79902 89 92 107
-7.04108 2.49832 -1.79176 86 88 103
-7.03059 2.51516 -1.79118 88 90 104
-7.02698 2.53508 -1.79302 92 91 105
-7.0158 2.56222 -1.79364 91 93 106
-7.01203 2.58214 -1.79548 94 93 107
-6.23433 3.83122 -1.81036 106 104 117
-6.21234 3.85173 -1.8092 107 105 118
-6.19931 3.86692 -1.80924 107 105 118
-6.18474 3.88089 -1.80868 107 105 118
-6.16256 3.90114 -1.80752 107 105 119
-6.1538 3.91978 -1.80938 102 100 114
-6.13909 3.9336 -1.80882 104 102 116
-6.11813 3.95483 -1.80826 107 105 119
-5.748 4.58415 -1.81507 107 104 121
-5.73405 4.59946 -1.81572 107 106 122
-5.70361 4.61198 -1.81223 105 107 122
-5.68564 4.623 -1.8111 105 107 122
-5.32564 5.25224 -1.82423 101 103 118
-5.29065 5.24223 -1.81571 102 104 117
-4.88054 5.96193 -1.83221 97 99 112
-4.66358 6.30039 -1.83285 101 103 116
-4.63739 6.30078 -1.82971 99 103 115
-4.40039 6.67372 -1.83281 101 103 116
-4.21056 7.06138 -1.84604 101 101 116
-4.18972 7.07602 -1.84764 99 102 115
-3.95663 7.44632 -1.84715 99 102 117
-3.3035 8.57465 -1.87004 97 100 115
-8.47069 0.478114 -1.81172 98 104 120
-8.478 0.505331 -1.814 86 91 110
-7.90425 1.21407 -1.79812 90 98 109
-7.89953 1.23437 -1.79811 85 91 105
-7.50052 1.77246 -1.79334 90 92 105
-7.45384 1.77951 -1.78035 91 93 106
-7.13124 2.2919 -1.78977 90 93 106
-7.11672 2.32834 -1.79041 87 89 102
-7.1083 2.35652 -1.79164 90 92 105
-7.11228 2.37944 -1.7959 90 92 105
-7.09688 2.39432 -1.79349 88 92 104
-7.09369 2.41432 -1.79533 89 91 104
-6.10624 3.97095 -1.80891 110 108 122
-6.09576 3.98827 -1.81017 108 106 120
-6.08086 4.00189 -1.80961 109 107 121
-6.06103 4.02407 -1.80966 110 108 122
-6.04601 4.03758 -1.8091 122 120 133
-6.02953 4.04979 -1.80793 137 135 148
-5.67807 4.6451 -1.81471 106 105 119
-5.6501 4.66008 -1.81241 102 101 115
-5.6346 4.67372 -1.81246 106 105 119
-5.62677 4.69575 -1.81607 106 105 121
-5.28962 5.27609 -1.82378 101 103 118
-5.25221 5.27974 -1.81814 104 106 119
-4.84375 5.96549 -1.8279 101 103 116
-4.82707 5.98155 -1.82962 101 103 116
-4.62028 6.31805 -1.83193 101 101 117
-4.37204 6.66959 -1.82872 100 103 118
-4.35263 6.68459 -1.83037 99 103 115
-4.16734 7.08705 -1.84823 98 102 114
-3.94296 7.48403 -1.85507 102 104 119
-3.90674 7.45981 -1.84635 99 101 116
-3.66049 7.99251 -1.86765 97 101 113
-3.632 7.99278 -1.86588 97 100 114
-3.26445 8.59378 -1.87243 97 100 115
-8.47956 0.438513 -1.81305 92 98 115
-7.92101 1.16427 -1.79984 87 90 107
-7.91267 1.19444 -1.79926 89 95 111
-7.51855 1.70441 -1.79214 89 93 105
-7.47196 1.71195 -1.77915 88 92 103
-7.49777 1.75066 -1.79038 93 95 108
-7.17786 2.18419 -1.7897 92 94 107
-7.16654 2.20084 -1.7885 90 89 103
-7.17828 2.2367 -1.79639 89 91 104
-7.14906 2.24643 -1.78913 89 91 106
-7.15349 2.26922 -1.79339 89 88 105
-7.14076 2.31687 -1.79585 90 92 105
-6.01091 4.07299 -1.8086 135 133 144
-5.99862 4.08883 -1.80925 131 129 140
-5.98343 4.10213 -1.80869 130 128 139
-5.96313 4.12388 -1.80875 125 123 136
-5.94782 4.13706 -1.80818 111 109 122
-5.93534 4.15274 -1.80884 113 111 125
-5.59863 4.71044 -1.81377 106 103 120
-5.57788 4.71826 -1.81145 107 105 121
-5.57109 4.74163 -1.81565 103 102 116
-5.54771 4.74648 -1.81215 104 103 118
-5.24629 5.3075 -1.82392 104 105 118
-5.22755 5.31844 -1.82341 105 104 118
-5.20384 5.34011 -1.82464 105 104 120
-4.80933 5.99591 -1.8308 102 103 116
-4.78116 6.01402 -1.83145 102 101 117
-4.59222 6.33877 -1.83365 101 103 118
-4.57225 6.35082 -1.83427 100 101 116
-4.33398 6.7013 -1.83254 102 104 117
-4.14342 7.09444 -1.84781 98 102 114
-3.88105 7.50165 -1.85431 98 101 116
-3.60808 8.00787 -1.86784 97 100 115
-3.23658 8.60012 -1.87254 95 101 115
-8.48001 0.38504 -1.8121 84 87 104
-8.48373 0.411974 -1.81348 83 86 103
-7.92867 1.10222 -1.79815 96 99 116
-7.92429 1.12258 -1.79814 94 96 111
-7.93494 1.14555 -1.8027 89 90 108
-7.51267 1.58846 -1.77972 99 101 113
-7.50311 1.60659 -1.77854 96 98 113
-7.52846 1.63423 -1.78859 87 93 107
-7.493 1.64528 -1.77914 87 93 107
-7.52842 1.68627 -1.79332 93 98 110
-7.21022 2.08156 -1.7866 89 91 104
-7.21349 2.10353 -1.79025 90 93 105
-7.22741 2.12946 -1.79754 84 85 103
-7.1986 2.15009 -1.79149 89 91 106
-7.19984 2.17148 -1.79453 91 93 107
-5.92043 4.17939 -1.81133 100 99 115
-5.89935 4.18729 -1.80834 98 97 111
-5.88247 4.19898 -1.80717 104 103 117
-5.87673 4.22094 -1.81086 115 114 128
-5.52825 4.77076 -1.814 102 104 119
-5.52245 4.79551 -1.8188 105 105 121
-5.49774 4.7987 -1.81471 106 105 119
-5.18047 5.34476 -1.82184 105 104 120
-5.16503 5.36012 -1.82305 105 104 118
-4.76142 6.02493 -1.83153 102 103 118
-4.73783 6.02909 -1.8294 101 103 118
-4.5496 6.35769 -1.83327 100 99 115
-4.51953 6.3747 -1.83392 103 104 119
-4.29754 6.70696 -1.83004 101 103 118
-4.27876 6.72352 -1.83221 98 101 116
-4.10832 7.10628 -1.84743 99 103 115
-4.08073 7.10455 -1.84448 98 102 114
-3.84826 7.48629 -1.84803 97 100 115
-3.58017 8.00984 -1.86654 97 100 115
-3.20912 8.60827 -1.87309 94 101 116
-8.47675 0.344835 -1.81072 93 100 118
-7.94456 1.05217 -1.79988 90 98 111
-7.92332 1.06982 -1.79475 89 95 111
-7.52311 1.51905 -1.77677 87 89 102
-7.53408 1.54248 -1.78209 86 86 102
-7.52834 1.56167 -1.78209 89 91 104
-7.24934 1.992 -1.78777 87 89 102
-7.25879 2.02613 -1.79445 89 92 105
-7.22995 2.03686 -1.78719 91 95 107
-7.25134 2.06512 -1.7969 90 92 105
-5.85587 4.24221 -1.81092 106 105 119
-5.83608 4.25113 -1.80854 107 106 120
-5.83009 4.27304 -1.81223 103 102 116
-5.80622 4.29148 -1.81108 102 101 115
-5.79594 4.30942 -1.81295 105 104 118
-5.48049 4.82568 -1.81774 104 103 119
-5.46445 4.83881 -1.8178 105 104 120
-5.4459 4.84899 -1.81667 102 101 117
-5.13547 5.37379 -1.82142 103 102 117
-5.11993 5.38903 -1.82263 99 99 115
-5.09204 5.38712 -1.81754 99 101 116
-4.71896 6.04153 -1.83002 99 101 114
-4.49159 6.37111 -1.8297 101 103 118
-4.47325 6.3863 -1.83139 101 103 118
-4.25364 6.72596 -1.8302 98 102 114
-4.06471 7.13137 -1.84963 99 103 115
-3.83212 7.51833 -1.85449 97 100 115
-3.7969 7.49544 -1.84626 98 101 116
-3.54013 8.01729 -1.86574 97 103 117
-3.16597 8.60989 -1.87146 94 102 115
-8.48452 0.318452 -1.81205 95 102 119
-7.9525 1.00082 -1.79934 92 100 113
-7.94683 1.03145 -1.79932 89 97 110
-7.53831 1.451 -1.77559 88 90 102
-7.54956 1.4743 -1.78091 88 92 103
-7.55143 1.49537 -1.78327 89 93 105
-7.27413 1.93844 -1.78896 86 88 101
-7.26533 1.95612 -1.78836 89 90 104
-7.26367 1.9762 -1.79019 92 94 107
-5.77326 4.31544 -1.80936 103 102 116
-5.76149 4.34555 -1.81367 103 102 116
-5.73877 4.3514 -1.81008 105 105 117
-5.72552 4.36652 -1.81073 107 106 120
-5.70952 4.37892 -1.81018 107 106 120
-5.42464 4.87143 -1.81793 100 102 117
-5.40724 4.88293 -1.81739 102 104 119
-5.08755 5.41784 -1.82447 104 106 121
-5.05446 5.42642 -1.82112 104 103 119
-4.69149 6.06093 -1.83123 102 104 119
-4.66786 6.06485 -1.8291 103 105 120
-4.44303 6.40297 -1.83204 102 105 117
-4.22493 6.74885 -1.83293 100 104 116
-4.20284 6.75816 -1.83301 101 103 116
-4.02732 7.13747 -1.84773 99 102 117
-3.5177 8.03773 -1.86911 97 103 117
-3.13597 8.60641 -1.86933 94 102 114
-8.49802 0.292243 -1.81474 95 102 116
-7.95095 0.958563 -1.7965 96 102 118
-7.94323 0.978421 -1.79535 92 98 114
-7.57727 1.40906 -1.78386 86 86 102
-7.56637 1.42704 -1.78209 90 89 105
-7.31468 1.84902 -1.79135 92 94 109
-7.28869 1.87143 -1.7859 88 90 103
-7.28372 1.89033 -1.78652 93 95 108
-7.29676 1.91509 -1.79319 87 89 102
-6.5353 2.94833 -1.78482 93 91 103
-5.69063 4.40214 -1.81146 106 105 121
-5.68122 4.42118 -1.81394 104 103 117
-5.6704 4.43886 -1.81581 104 103 117
-5.3898 4.89437 -1.81685 101 103 118
-5.37478 4.9087 -1.8175 105 104 120
-5.34955 4.92643 -1.81699 102 104 119
-5.0398 5.44301 -1.8229 105 107 120
-5.0196 5.45172 -1.82182 101 103 116
-4.65163 6.08213 -1.83138 102 104 117
-4.61844 6.09113 -1.82928 101 103 116
-4.42282 6.41458 -1.83266 101 105 117
-4.40259 6.42614 -1.83327 101 103 116
-4.17693 6.75856 -1.83049 101 103 118
-4.00541 7.14981 -1.84883 98 101 113
-3.98275 7.1603 -1.84942 98 100 115
-3.76877 7.53142 -1.85275 98 102 116
-3.73806 7.52111 -1.84794 97 101 116
-3.49192 8.04689 -1.86967 98 102 117
-3.10806 8.61236 -1.86944 96 102 115
-8.48235 0.224958 -1.81018 94 101 119
-8.48461 0.251711 -1.8111 87 94 110
-7.96384 0.907996 -1.79767 97 103 119
-7.96386 0.92898 -1.7988 89 95 108
-7.61191 1.37591 -1.79154 94 97 112
-7.60111 1.39403 -1.78977 92 94 109
-7.33191 1.74216 -1.78526 89 91 104
-7.33282 1.76276 -1.78769 95 97 110
-7.33365 1.78339 -1.79012 90 92 105
-7.31701 1.80884 -1.7877 91 92 107
-7.31226 1.8278 -1.78831 85 87 102
-6.66199 2.78965 -1.79395 88 88 100
-6.6511 2.82734 -1.79712 90 90 102
-6.64027 2.854 -1.7984 93 91 105
-6.63059 2.89258 -1.8022 92 90 104
-6.59791 2.90711 -1.79536 93 91 104
-6.60447 2.93287 -1.80163 93 93 105
-6.56474 2.9324 -1.79041 97 97 109
-6.53834 2.97217 -1.78985 102 99 112
-6.52982 2.98936 -1.7905 101 99 113
-6.5196 3.00557 -1.79053 97 95 109
-6.51766 3.03758 -1.79556 97 95 108
-6.50893 3.05473 -1.79621 89 87 101
-6.48875 3.065 -1.79249 91 88 103
-6.47672 3.0911 -1.79378 94 90 104
-6.48076 3.11608 -1.79943 103 101 114
-6.45237 3.12117 -1.79259 106 103 114
-6.44329 3.14915 -1.79512 103 100 110
-6.44865 3.17521 -1.8014 96 94 105
-6.43624 3.19017 -1.80081 98 96 109
-6.42379 3.20508 -1.80021 94 92 105
-6.38554 3.21452 -1.7915 100 98 111
-6.39374 3.2427 -1.79903 95 93 106
-6.38431 3.25955 -1.79969 100 98 111
-6.35706 3.27589 -1.79535 88 88 100
-6.36175 3.30209 -1.80163 89 89 101
-6.34109 3.31147 -1.79792 90 90 102
-6.3294 3.33812 -1.79983 88 89 102
-6.31024 3.3484 -1.79674 91 89 103
-6.31143 3.37254 -1.80177 94 92 106
-6.26351 3.37427 -1.78932 87 85 99
-6.26922 3.40162 -1.79623 87 87 100
-6.27792 3.43122 -1.80439 84 83 97
-6.24462 3.43137 -1.79567 83 82 96
-6.22455 3.45219 -1.79446 101 99 112
-6.21288 3.4675 -1.7945 101 97 112
-6.19964 3.48166 -1.79391 90 86 101
-6.18397 3.5056 -1.79458 90 88 102
-6.17979 3.5264 -1.79774 99 97 111
-6.14128 3.55744 -1.79407 103 101 113
-5.64321 4.45376 -1.81345 101 100 114
-5.62828 4.46726 -1.8135 102 101 115
-5.61199 4.47934 -1.81294 111 110 124
-5.58992 4.49943 -1.81301 107 106 122
-5.33441 4.94065 -1.81764 103 107 119
-5.32164 4.95779 -1.81947 104 106 119
-5.2962 4.97526 -1.81896 103 105 120
-4.98755 5.4615 -1.81905 103 105 118
-4.97814 5.48583 -1.82369 103 104 117
-4.60117 6.1066 -1.83101 100 104 116
-4.5802 6.11527 -1.83053 101 105 117
-4.37977 6.43245 -1.83228 103 105 118
-4.14494 6.77405 -1.83112 101 103 118
-3.94738 7.17139 -1.84904 97 100 117
-3.71905 7.54558 -1.85244 98 101 116
-3.44961 8.04644 -1.86701 98 102 115
-3.0682 8.62874 -1.87139 98 101 116
-8.49361 0.198584 -1.81241 93 100 116
-7.98448 0.86879 -1.80168 90 98 111
-7.97514 0.888544 -1.79996 95 103 116
-7.5957 1.30059 -1.78092 87 93 107
-7.59443 1.32077 -1.7821 89 93 108
-7.5894 1.34012 -1.7821 89 92 106
-7.35451 1.69807 -1.78767 87 91 103
-7.36382 1.73111 -1.79374 89 91 104
-6.73315 2.58017 -1.78122 87 86 102
-6.76169 2.61538 -1.79499 86 88 101
-6.74923 2.63059 -1.79376 93 92 106
-6.7428 2.65926 -1.79628 91 90 104
-6.73023 2.67439 -1.79505 88 90 104
-6.72945 2.6955 -1.7982 91 90 104
-6.70241 2.71374 -1.79323 92 92 104
-6.69979 2.73395 -1.79575 93 93 105
-6.70382 2.7577 -1.80077 93 92 106
-6.68665 2.78101 -1.79955 90 90 102
-6.66577 2.81343 -1.79897 93 93 105
-6.64211 2.87695 -1.8028 92 90 104
-6.17096 3.54383 -1.79903 98 96 107
-6.13536 3.57706 -1.79661 107 106 118
-6.12029 3.58981 -1.7954 105 104 117
-6.09913 3.5979 -1.79169 105 103 116
-6.09491 3.63069 -1.79736 109 107 120
-6.0722 3.63748 -1.79302 106 104 118
-6.06444 3.65582 -1.79494 106 105 119
-6.04641 3.67804 -1.79498 109 107 120
-6.02959 3.68928 -1.79315 107 105 119
-6.0157 3.70282 -1.79256 105 103 117
-5.5814 4.51968 -1.8161 108 107 123
-5.55582 4.52191 -1.81129 108 107 123
-5.5537 4.54904 -1.81742 105 107 120
-5.27375 4.98038 -1.81605 101 103 118
-5.2679 5.00635 -1.82144 102 104 119
-4.95891 5.49591 -1.82318 104 103 119
-4.92995 5.51012 -1.82212 104 103 119
-4.55321 6.13577 -1.83229 101 103 116
-4.3493 6.44871 -1.83293 102 104 119
-4.32894 6.46006 -1.83354 102 104 119
-4.12578 6.79022 -1.8333 100 102 117
-4.1006 6.79212 -1.83129 99 102 117
-3.91982 7.16907 -1.84608 98 101 116
-3.67479 7.53346 -1.8462 96 99 115
-3.42589 8.06289 -1.86944 97 100 115
-8.49118 0.171833 -1.81149 92 100 113
-7.98336 0.81631 -1.79886 90 91 111
-7.97797 0.836578 -1.79828 94 100 116
-7.60184 1.25098 -1.77916 91 94 111
-7.60822 1.27272 -1.7827 88 92 104
-7.36998 1.63167 -1.78584 83 88 103
-7.3595 1.65897 -1.78524 89 95 109
-7.36618 1.68109 -1.78949 88 91 106
-6.84186 2.43176 -1.79106 90 89 103
-6.82437 2.45508 -1.7892 87 89 104
-6.821 2.47453 -1.79109 87 89 104
-6.81238 2.4916 -1.79111 88 90 105
-6.81182 2.5228 -1.79551 88 89 106
-6.79106 2.53416 -1.79115 91 93 108
-6.78225 2.55114 -1.79117 90 92 107
-6.78135 2.58234 -1.79557 84 86 101
-6.00485 3.73077 -1.79574 105 103 117
-5.99085 3.74422 -1.79515 110 108 122
-5.98417 3.76362 -1.79769 108 106 119
-5.96419 3.77219 -1.79461 109 107 120
-5.94125 3.79033 -1.79278 111 109 122
-5.92999 3.806 -1.79345 109 107 120
-5.92158 3.82408 -1.79537 112 110 124
-5.51835 4.55491 -1.81141 105 107 120
-5.50955 4.57503 -1.8145 107 106 120
-5.4904 4.58392 -1.81273 106 108 121
-5.23871 5.01907 -1.81915 101 104 119
-5.21855 5.02696 -1.81743 101 103 116
-5.20424 5.04232 -1.81867 105 107 122
-4.91386 5.52482 -1.82333 102 104 117
-4.89559 5.53629 -1.8234 107 106 120
-4.87941 5.5509 -1.82461 106 105 119
-4.5295 6.13918 -1.83016 103 102 118
-4.50756 6.14592 -1.82913 100 102 117
-4.30935 6.47308 -1.8347 102 105 119
-4.06771 6.8055 -1.83141 100 102 115
-3.90116 7.19014 -1.84972 100 102 117
-3.65738 7.56331 -1.85218 98 102 115
-3.62506 7.54703 -1.8459 100 104 116
-3.39845 8.06615 -1.86861 97 100 115
-8.49278 0.131858 -1.81147 97 107 119
-7.98943 0.764798 -1.79833 88 91 108
-7.99247 0.796476 -1.80058 93 100 118
-7.63942 1.20774 -1.78745 91 97 109
-7.64026 1.23849 -1.7898 87 93 107
-7.39206 1.56711 -1.78644 84 84 96
-7.39842 1.59893 -1.79129 91 93 100
-7.39615 1.61855 -1.79251 97 101 113
-6.88775 2.24467 -1.77842 88 90 103
-6.88861 2.26558 -1.78155 91 90 104
-6.8614 2.27473 -1.7747 89 88 102
-6.87079 2.30942 -1.78221 91 90 106
-6.85047 2.32138 -1.77785 90 89 105
-6.84583 2.34003 -1.77912 90 92 107
-6.87221 2.38253 -1.79288 89 91 106
-6.86387 2.39974 -1.79289 88 89 104
-6.85377 2.41616 -1.79229 88 87 101
-5.90713 3.84934 -1.7973 110 108 122
-5.89566 3.86492 -1.79796 109 107 121
-5.87983 3.87677 -1.79675 106 104 118
-5.85934 3.89693 -1.79618 111 109 122
-5.85058 3.91488 -1.7981 110 108 121
-5.83176 3.92406 -1.79564 105 105 117
-5.82149 3.9407 -1.79694 107 107 119
-5.47549 4.61192 -1.81645 107 106 122
-5.44987 4.61361 -1.81164 105 104 120
-5.43955 4.6322 -1.81413 106 107 123
-5.41422 4.64867 -1.81298 105 107 122
-5.17611 5.05621 -1.81698 101 103 120
-5.16166 5.07146 -1.81822 103 103 119
-5.14487 5.08363 -1.81828 101 104 119
-4.84707 5.55992 -1.82184 104 103 117
-4.82454 5.56476 -1.81961 104 103 117
-4.49092 6.16281 -1.83142 102 101 117
-4.46187 6.17953 -1.83207 102 104 119
-4.27541 6.48206 -1.8332 101 105 117
-4.04545 6.81433 -1.83149 99 101 116
-3.87901 7.20213 -1.85082 99 101 116
-3.84147 7.20731 -1.84892 97 100 115
-3.35824 8.07275 -1.86781 95 101 115
-7.98825 0.722917 -1.79607 90 96 110
-8.0022 0.745327 -1.80119 92 95 110
-7.66625 1.15171 -1.79159 90 94 105
-7.65798 1.17055 -1.79041 95 102 112
-7.64966 1.18935 -1.78922 88 96 107
-7.4153 1.48272 -1.78583 89 92 107
-7.41476 1.51258 -1.78825 85 87 100
-7.41277 1.53219 -1.78947 87 88 102
-7.41072 1.55181 -1.79068 91 90 105
-6.92043 2.16605 -1.77773 91 93 106
-6.90925 2.18199 -1.7765 88 90 105
-6.9121 2.20357 -1.78026 87 90 105
-6.90258 2.22018 -1.77965 87 91 103
-6.59627 2.67183 -1.78369 88 90 103
-6.58866 2.68892 -1.78435 90 90 102
-6.58438 2.70774 -1.78628 92 90 104
-6.5733 2.72306 -1.78567 92 91 105
-6.55286 2.74374 -1.78315 94 94 106
-6.54503 2.76073 -1.78381 93 93 105
-6.53713 2.7777 -1.78447 92 92 104
-6.52479 2.80267 -1.78514 95 95 107
-6.5151 2.81869 -1.78516 93 93 105
-6.50701 2.83559 -1.78583 92 92 104
-6.49108 2.85861 -1.78522 93 92 105
-6.50103 2.88566 -1.79288 92 91 105
-6.47789 2.89415 -1.78782 91 90 104
-6.46626 2.90909 -1.78721 95 93 107
-6.45493 2.93474 -1.78851 97 95 109
-6.44647 2.95151 -1.78918 97 95 109
-6.4363 2.9673 -1.7892 92 90 104
-6.41979 2.98996 -1.7886 89 88 101
-6.40137 3.00083 -1.78545 97 97 108
-6.42353 3.03597 -1.7982 88 88 100
-6.40508 3.05758 -1.79696 92 90 104
-6.40267 3.07819 -1.80017 92 90 103
-6.39372 3.09484 -1.80084 98 98 110
-6.35897 3.09553 -1.79133 98 97 108
-6.36594 3.13288 -1.80027 103 100 111
-6.3552 3.14844 -1.8003 107 104 115
-6.34444 3.16397 -1.80033 93 91 104
-6.3318 3.18924 -1.80164 102 102 114
-6.30021 3.19135 -1.79341 96 96 108
-6.30994 3.22013 -1.8017 98 96 109
-6.28754 3.23905 -1.7992 95 93 107
-6.28279 3.25855 -1.80178 94 92 106
-6.27168 3.27387 -1.80181 86 85 99
-6.25264 3.28388 -1.79866 96 95 109
-6.23782 3.30776 -1.79934 88 86 99
-6.22029 3.31868 -1.79683 89 87 100
-5.80071 3.96057 -1.79637 107 105 118
-5.78745 3.9746 -1.79641 109 107 121
-5.77417 3.9886 -1.79645 107 105 119
-5.7532 4.00824 -1.79589 106 104 118
-5.74819 4.02982 -1.79968 105 103 117
-5.40245 4.66576 -1.81486 104 105 120
-5.38562 4.67711 -1.81431 103 105 120
-5.13146 5.10033 -1.82012 101 105 117
-5.10882 5.1215 -1.82138 101 103 118
-4.8155 5.59045 -1.82483 103 102 116
-4.43725 6.18091 -1.82939 102 104 117
-4.2533 6.4897 -1.83274 101 103 116
-4.23035 6.49553 -1.83175 100 104 118
-4.02751 6.8338 -1.83471 100 104 116
-3.99941 6.82822 -1.83061 98 103 115
-3.81858 7.21731 -1.84951 98 101 116
-3.59791 7.58794 -1.85387 99 103 115
-3.56569 7.57143 -1.84759 99 103 115
-3.3328 8.08332 -1.86884 97 100 115
-8.00885 0.672943 -1.8001 92 102 112
-8.00581 0.693514 -1.80008 88 98 110
-7.68058 1.10344 -1.79279 87 94 108
-7.67058 1.122 -1.79102 86 92 106
-7.42628 1.44533 -1.78583 94 98 110
-7.44854 1.47076 -1.79492 89 93 105
-6.96626 2.04204 -1.77579 91 95 106
-6.959 2.05952 -1.7758 89 93 102
-6.97121 2.08438 -1.78268 93 96 105
-6.94813 2.10585 -1.77832 93 95 108
-6.93888 2.12259 -1.77771 88 89 102
-6.94197 2.14415 -1.78147 81 83 96
-6.69801 2.48338 -1.78346 82 83 101
-6.68418 2.49748 -1.78158 85 87 102
-6.67543 2.51396 -1.7816 87 89 104
-6.66666 2.53041 -1.78162 87 89 104
-6.65892 2.55752 -1.78355 87 86 102
-6.64999 2.57393 -1.78357 88 90 103
-6.65122 2.59533 -1.78741 91 90 104
-6.62112 2.61146 -1.78107 90 89 103
-6.62895 2.63625 -1.78745 88 90 105
-6.60796 2.64659 -1.78303 90 88 104
-6.21834 3.34023 -1.80068 93 91 104
-6.19702 3.35967 -1.79882 91 90 102
-6.1918 3.37906 -1.80139 91 91 103
-6.18184 3.3952 -1.80207 88 87 101
-6.15875 3.41332 -1.79957 90 90 102
-6.14715 3.42827 -1.7996 89 89 101
-6.12012 3.43213 -1.79328 86 86 98
-6.12685 3.46028 -1.80095 97 97 109
-6.10965 3.48255 -1.80099 108 106 119
-6.10088 3.4996 -1.8023 110 108 121
-6.08596 3.51212 -1.80107 104 102 114
-6.04576 3.51719 -1.79157 108 108 118
-6.05803 3.55002 -1.80179 105 105 115
-5.97998 3.5971 -1.79177 107 106 120
-5.72916 4.03856 -1.79723 105 103 117
-5.70795 4.05798 -1.79666 105 103 117
-5.69855 4.07563 -1.79858 108 106 120
-5.68771 4.09196 -1.79988 107 105 119
-5.36883 4.70337 -1.81742 107 106 120
-5.34939 4.71173 -1.81565 105 104 120
-5.3349 4.72579 -1.81631 102 101 117
-5.31912 4.73837 -1.81637 103 102 118
-5.09073 5.13198 -1.82085 101 103 118
-5.06583 5.13317 -1.81676 101 103 118
-4.78616 5.60396 -1.82378 103 102 118
-4.76763 5.61504 -1.82384 100 102 115
-4.42043 6.19763 -1.83168 102 104 119
-4.3895 6.2106 -1.83123 101 103 118
-4.19477 6.50062 -1.82917 100 103 118
-3.96706 6.84292 -1.83125 98 102 113
-3.7917 7.21635 -1.84707 98 101 116
-3.54728 7.59919 -1.85307 100 103 116
-3.30684 8.09193 -1.86941 97 103 115
-3.27885 8.09292 -1.8681 95 101 115
-8.02424 0.632672 -1.80297 87 94 112
-8.00799 0.651998 -1.79897 85 95 107
-7.68703 1.05374 -1.79163 84 92 105
-7.68301 1.08349 -1.7922 91 99 115
-7.45374 1.38188 -1.78886 86 89 104
-7.44106 1.39895 -1.78644 92 95 109
-7.4413 1.41899 -1.78826 81 84 99
-6.99963 1.96377 -1.77637 89 92 107
-6.9944 1.98199 -1.777 84 88 102
-6.99089 2.00085 -1.77826 86 90 104
-6.99087 2.02102 -1.78077 91 95 107
-6.75456 2.33594 -1.77825 86 88 103
-6.76344 2.37011 -1.78589 92 91 107
-6.73607 2.37836 -1.77892 88 87 101
-6.72425 2.39344 -1.77766 86 85 99
-6.72759 2.42536 -1.7834 87 89 104
-6.71735 2.44118 -1.78279 88 90 105
-6.71738 2.46173 -1.78599 87 89 104
-6.04297 3.56238 -1.80055 107 105 118
-6.02528 3.58428 -1.8006 107 105 118
-6.01313 3.59883 -1.80064 103 101 115
-5.97257 3.62688 -1.79627 109 107 121
-5.96773 3.64713 -1.79949 109 107 121
-5.95241 3.65916 -1.79826 108 106 120
-5.943 3.67586 -1.79957 106 104 118
-5.91739 3.69136 -1.79644 109 107 121
-5.67956 4.11088 -1.80242 99 98 112
-5.65392 4.12612 -1.79998 103 102 116
-5.63606 4.13577 -1.79815 102 104 117
-5.61954 4.14667 -1.79695 101 103 115
-5.60464 4.1722 -1.79951 104 103 117
-5.58939 4.18432 -1.79893 106 105 119
-5.29949 4.76151 -1.81827 102 106 118
-5.28361 4.77398 -1.81832 106 109 124
-5.04525 5.15715 -1.81921 100 102 117
-5.0282 5.16898 -1.81927 101 105 117
-5.01108 5.18075 -1.81933 101 103 118
-4.75012 5.62769 -1.82448 104 104 117
-4.71861 5.63763 -1.82228 101 100 116
-4.36572 6.21343 -1.8291 100 102 117
-4.34365 6.21962 -1.82807 100 102 117
-4.17975 6.52379 -1.83355 101 104 118
-4.1583 6.53289 -1.83363 101 103 118
-3.94821 6.86041 -1.83395 99 102 116
-3.76001 7.23747 -1.84972 99 102 117
-3.50386 7.58797 -1.84732 99 101 116
-8.02041 0.601067 -1.80072 89 94 110
-7.70657 1.01636 -1.79519 87 94 108
-7.68742 1.03347 -1.79046 87 93 107
-7.46379 1.31443 -1.78645 91 92 110
-7.46617 1.33487 -1.78887 88 92 104
-7.44807 1.35079 -1.78463 86 90 102
-7.02873 1.90396 -1.77821 92 94 107
-7.02908 1.92411 -1.78072 85 87 102
-7.00963 1.93738 -1.77636 88 91 106
-6.80108 2.22479 -1.77624 89 93 105
-6.81245 2.24958 -1.78324 90 91 105
-6.79575 2.26278 -1.78008 91 90 104
-6.78068 2.28649 -1.77883 90 89 103
-6.77958 2.30623 -1.78139 91 90 106
-6.7697 2.32223 -1.78077 92 94 107
-5.91373 3.71275 -1.8003 109 107 121
-5.89972 3.72577 -1.79971 105 103 116
-5.87689 3.74341 -1.79785 109 107 120
-5.86861 3.76115 -1.7998 109 107 120
-5.85737 3.77645 -1.80048 107 105 118
-5.83867 3.79751 -1.80053 105 103 117
-5.8244 3.81029 -1.79994 108 106 120
-5.57544 4.19772 -1.79898 105 104 118
-5.55487 4.21774 -1.79904 106 106 118
-5.53682 4.227 -1.79721 113 113 125
-5.52408 4.24159 -1.79789 115 114 128
-5.26523 4.78348 -1.81716 104 107 122
-5.24292 4.80348 -1.81785 103 106 121
-5.22449 4.81284 -1.81669 101 104 118
-4.98468 5.19675 -1.81882 104 103 118
-4.9774 5.22242 -1.82422 104 103 119
-4.702 5.65177 -1.82349 99 101 115
-4.68435 5.66424 -1.82413 103 106 117
-4.3168 6.24087 -1.83039 100 103 118
-4.12576 6.54465 -1.83321 101 104 121
-3.92508 6.86709 -1.83351 100 102 117
-3.88701 6.86708 -1.82997 97 100 115
-3.737 7.24723 -1.85032 97 103 117
-3.71013 7.24599 -1.84787 97 100 117
-3.48579 7.61745 -1.85329 98 101 116
-3.23758 8.09519 -1.86637 95 101 115
-8.01056 0.558593 -1.79619 89 95 109
-8.03459 0.58144 -1.80416 99 102 117
-7.71232 0.966533 -1.79403 90 96 110
-7.70461 0.985609 -1.79284 93 96 111
-7.47942 1.26814 -1.78767 94 97 112
-7.48179 1.29839 -1.79069 88 91 107
-7.0605 1.79528 -1.77568 88 90 103
-7.04136 1.8089 -1.77132 87 89 104
-7.04819 1.84081 -1.77694 86 92 106
-7.04336 1.85912 -1.77757 86 91 105
-7.04565 1.87987 -1.7807 89 93 105
-6.86096 2.10921 -1.77869 97 96 110
-6.85168 2.12551 -1.77807 111 109 122
-6.87054 2.15285 -1.78762 114 112 123
-6.83485 2.16857 -1.77873 97 95 108
-6.82715 2.18548 -1.77875 94 97 106
-6.85273 2.21589 -1.79084 90 94 106
-5.81876 3.83039 -1.80316 109 107 120
-5.80153 3.84063 -1.80129 109 107 121
-5.78252 3.86144 -1.80135 108 106 120
-5.77094 3.87652 -1.80203 107 105 119
-5.75645 3.88907 -1.80144 109 107 120
-5.50464 4.26274 -1.79857 105 104 120
-5.49443 4.27997 -1.8005 105 104 120
-5.47622 4.28899 -1.79867 105 104 120
-5.21083 4.82804 -1.81796 101 103 116
-5.18471 4.84337 -1.81682 102 104 117
-5.16858 4.85549 -1.81688 105 104 120
-4.95573 5.22779 -1.82191 105 102 121
-4.93407 5.23308 -1.8196 104 101 118
-4.65573 5.67874 -1.82365 98 100 115
-4.63697 5.68943 -1.82372 99 99 117
-4.29549 6.24864 -1.82992 101 103 118
-4.27171 6.25113 -1.82778 101 100 116
-4.10273 6.55006 -1.83222 101 105 117
-4.08043 6.55716 -1.83176 100 103 118
-3.86662 6.88077 -1.83163 97 99 114
-3.45218 7.59493 -1.84554 100 104 116
-3.21252 8.10729 -1.86787 97 100 115
-3.18454 8.10799 -1.86657 97 100 115
-8.03752 0.508728 -1.8025 91 98 112
-8.02164 0.528336 -1.7985 86 94 107
-7.72379 0.927704 -1.79523 95 97 114
-7.71244 0.946246 -1.79286 97 103 119
-7.48158 1.2289 -1.78525 89 92 107
-7.49172 1.2508 -1.7901 88 91 106
-7.08134 1.71295 -1.77316 92 95 107
-7.0878 1.7347 -1.77754 92 94 107
-7.08239 1.76258 -1.77879 86 90 102
-7.07418 1.77982 -1.77817 90 94 106
-6.89695 2.00426 -1.77609 90 92 107
-6.88836 2.03054 -1.77673 88 90 103
-6.88285 2.04827 -1.77738 92 94 107
-6.87376 2.06465 -1.77676 90 92 105
-6.87197 2.09355 -1.77995 91 93 108
-5.74288 3.91471 -1.80404 102 100 113
-5.72546 3.92464 -1.80217 107 105 118
-5.71647 3.9421 -1.80413 102 100 114
-5.69418 3.95999 -1.80291 105 103 117
-5.67107 3.96463 -1.7985 105 102 119
-5.46983 4.31026 -1.80247 107 105 119
-5.44091 4.32156 -1.79879 108 106 120
-5.43044 4.33865 -1.80071 107 109 124
-5.4199 4.35573 -1.80264 109 108 122
-5.15595 4.87204 -1.81876 106 105 119
-5.13734 4.8811 -1.8176 103 105 120
-4.91071 5.25343 -1.82087 100 102 115
-4.89117 5.2617 -1.81975 102 104 117
-4.86626 5.26202 -1.81566 99 104 118
-4.6123 5.69021 -1.82035 99 100 118
-4.59253 5.69913 -1.81985 100 102 117
-4.243 6.26862 -1.829 102 101 117
-4.05964 6.56772 -1.83238 99 102 117
-3.84208 6.88358 -1.83014 98 101 116
-3.6782 7.26678 -1.85053 98 100 115
-3.65321 7.27081 -1.84961 99 101 114
-3.43505 7.62801 -1.8525 99 103 115
-8.03423 0.487673 -1.80081 90 96 110
-7.72111 0.856475 -1.79054 89 95 109
-7.73641 0.878916 -1.79644 83 89 105
-7.7233 0.897273 -1.79347 99 105 119
-7.51792 1.16673 -1.79193 93 95 110
-7.49843 1.1828 -1.78708 92 94 109
-7.50686 1.20427 -1.79132 92 94 109
-7.09992 1.66945 -1.7744 87 90 105
-7.0948 1.69734 -1.77565 92 96 108
-6.9333 1.90931 -1.7754 91 93 108
-6.92819 1.92712 -1.77605 88 92 104
-6.92483 1.94556 -1.77733 88 92 104
-6.92008 1.97321 -1.77924 89 93 105
-6.93614 1.99871 -1.78752 88 91 103
-6.24331 2.94449 -1.77671 93 91 104
-6.24604 2.96761 -1.78195 92 90 104
-6.20655 2.99641 -1.77615 96 89 105
-6.18668 3.05921 -1.78276 101 99 112
-6.13964 3.12646 -1.78289 115 112 123
-6.12267 3.13711 -1.78032 97 94 105
-5.66611 3.98581 -1.80236 105 101 116
-5.6513 3.99801 -1.80177 111 109 123
-5.63573 4.02203 -1.80374 106 104 118
-5.62358 4.03672 -1.80442 105 103 117
-5.60725 4.04748 -1.8032 111 110 124
-5.39732 4.37366 -1.80208 104 103 119
-5.37634 4.37952 -1.799 105 104 120
-5.37205 4.40345 -1.80406 105 104 120
-5.11806 4.90505 -1.82011 100 102 117
-5.10054 4.91548 -1.81956 100 99 114
-5.08416 4.92735 -1.81962 104 103 117
-4.84698 5.28842 -1.8193 109 108 122
-4.56959 5.72311 -1.8228 102 101 117
-4.54781 5.72858 -1.82115 101 103 118
-4.22405 6.28137 -1.83018 102 101 117
-4.20185 6.2871 -1.82915 102 101 117
-4.02621 6.57725 -1.83142 100 102 116
-3.80942 6.89759 -1.83078 99 102 117
-3.63254 7.28758 -1.85223 99 101 114
-3.39178 7.61618 -1.84675 99 102 117
-3.14561 8.11926 -1.86718 94 100 114
-8.04344 0.436322 -1.802 92 98 114
-8.04308 0.457102 -1.80255 89 96 112
-7.73919 0.82872 -1.79469 97 103 117
-7.52369 1.09862 -1.78892 83 86 101
-7.52307 1.11827 -1.79013 90 92 107
-7.50929 1.13551 -1.7871 95 97 112
-7.12809 1.58939 -1.77501 95 97 110
-7.12955 1.60943 -1.77751 91 95 107
-7.11014 1.63315 -1.77376 92 97 110
-7.11689 1.6548 -1.77814 90 96 110
-6.95524 1.86806 -1.77729 84 88 100
-6.9742 1.90371 -1.78746 89 91 106
-6.48065 2.57827 -1.78071 94 93 107
-6.47104 2.61434 -1.78401 88 89 104
-6.4495 2.63366 -1.78078 91 93 106
-6.45035 2.65476 -1.78471 90 89 103
-6.44447 2.67233 -1.78603 91 90 104
-6.41939 2.68963 -1.7815 89 87 101
-6.40676 2.70349 -1.78023 86 85 100
-6.41062 2.72644 -1.78546 96 95 111
-6.38965 2.73567 -1.78093 99 96 113
-6.38081 2.76182 -1.78291 97 95 108
-6.37455 2.77925 -1.78424 94 92 105
-6.36496 2.7948 -1.78426 96 94 108
-6.35418 2.81996 -1.78559 93 92 106
-6.35099 2.83925 -1.78822 93 93 105
-6.33632 2.85187 -1.7863 92 92 104
-6.33827 2.88464 -1.79284 93 93 103
-6.32023 2.89525 -1.78961 96 96 106
-6.30218 2.90578 -1.78639 94 92 105
-6.3035 2.92796 -1.79097 95 93 105
-6.28882 2.95097 -1.791 95 93 106
-6.23918 2.99537 -1.78524 93 89 104
-6.22178 3.02767 -1.7866 97 96 109
-6.21299 3.05439 -1.78924 101 99 112
-6.18887 3.08245 -1.788 92 90 103
-6.18148 3.09953 -1.78933 93 93 105
-6.16916 3.12408 -1.79067 110 108 121
-6.12267 3.1699 -1.78687 111 108 119
-6.09936 3.17619 -1.78169 112 110 121
-6.08852 3.19093 -1.78172 105 103 116
-6.08969 3.22482 -1.78893 98 97 110
-6.06012 3.22655 -1.78115 98 96 109
-6.06302 3.25095 -1.78704 103 100 111
-6.05504 3.26777 -1.78837 95 93 106
-6.04491 3.29406 -1.79102 97 95 109
-6.0245 3.30203 -1.78715 89 87 101
-6.00257 3.30879 -1.78263 92 90 104
-5.9763 3.34598 -1.78336 91 89 102
-5.93677 3.39615 -1.78347 109 107 120
-5.90617 3.4189 -1.78029 102 100 113
-5.59277 4.07265 -1.8058 106 106 118
-5.57089 4.07806 -1.80203 103 103 115
-5.56127 4.0952 -1.80399 111 110 124
-5.54244 4.11627 -1.80469 103 105 118
-5.34543 4.41695 -1.80162 104 103 119
-5.33203 4.43102 -1.8023 108 107 123
-5.31984 4.44647 -1.8036 108 107 123
-5.30129 4.45482 -1.80177 109 108 122
-5.05881 4.94357 -1.81909 99 101 116
-5.04349 4.95683 -1.81975 98 100 116
-4.83374 5.30598 -1.82174 103 105 120
-4.81408 5.31399 -1.82061 102 103 119
-4.53274 5.74557 -1.82351 101 103 117
-4.18122 6.29625 -1.82923 102 101 115
-4.00385 6.58411 -1.83096 100 102 115
-3.98518 6.59978 -1.8332 99 102 117
-3.78821 6.90925 -1.83191 98 102 115
-3.7676 6.92266 -1.83357 101 103 116
-3.5924 7.28422 -1.8483 99 102 117
-3.37225 7.64168 -1.85174 98 101 116
-3.12087 8.133 -1.86915 95 100 114
-8.03445 0.394238 -1.79804 92 100 113
-8.05141 0.416009 -1.80373 91 98 114
-7.74789 0.789424 -1.7953 93 99 113
-7.73697 0.808192 -1.79293 87 93 107
-7.52454 1.04955 -1.78591 92 96 112
-7.53174 1.0803 -1.79014 87 91 106
-7.14589 1.52598 -1.77438 82 86 98
-7.13599 1.55245 -1.77375 91 89 105
-7.14304 1.57399 -1.77813 95 94 108
-6.99103 1.77283 -1.77725 90 92 107
-6.97736 1.78787 -1.77471 90 93 105
-6.97625 1.80694 -1.77663 88 92 104
-6.96682 1.8329 -1.77663 85 91 103
-6.98891 1.85974 -1.78681 88 92 104
-6.57429 2.30241 -1.7648 87 90 105
-6.56695 2.35868 -1.77137 87 89 102
-6.57545 2.39249 -1.77919 89 88 102
-6.56203 2.42636 -1.78053 89 91 104
-6.53951 2.44555 -1.77665 88 87 101
-6.53267 2.46241 -1.77732 90 90 102
-6.53592 2.48426 -1.7819 92 92 104
-6.53516 2.51418 -1.78648 91 89 103
-6.52133 2.52765 -1.78455 86 88 103
-6.51083 2.54278 -1.78392 86 88 101
-6.51038 2.56302 -1.78719 91 93 106
-6.48175 2.59936 -1.78464 91 90 104
-6.0105 3.3483 -1.79309 88 86 99
-5.98012 3.3716 -1.7899 93 91 104
-5.96791 3.39657 -1.7919 88 86 99
-5.92374 3.40926 -1.78286 107 105 118
