-5.55065 1.45422 -1.79687 68 77 92
-5.22186 1.90826 -1.7949 66 73 91
-5.20322 1.93044 -1.79244 68 74 90
-5.18625 1.96101 -1.79242 67 75 90
-5.19555 1.9814 -1.80059 67 76 90
-5.17394 1.99395 -1.79486 67 77 89
-5.18468 2.01526 -1.80385 74 82 95
-5.14926 2.0683 -1.80218 70 66 79
-5.14835 2.08383 -1.80544 104 95 96
-5.14084 2.10371 -1.80707 106 93 85
-5.13179 2.11492 -1.80625 103 91 82
-5.12749 2.12872 -1.80788 100 90 85
-5.11975 2.14854 -1.8095 102 93 93
-5.036 2.34668 -1.82658 58 56 74
-4.93704 2.43589 -1.81345 111 111 121
-4.93463 2.45142 -1.81672 108 111 120
-4.91915 2.46662 -1.81507 123 125 137
-4.90752 2.47603 -1.81343 75 81 95
-4.87455 2.5138 -1.81178 63 70 88
-4.86299 2.54059 -1.81504 75 78 95
-4.83826 2.56665 -1.81339 72 80 93
-4.81153 2.56512 -1.80358 70 75 94
-4.81333 2.5925 -1.81174 73 79 95
-4.79401 2.59613 -1.80602 69 77 90
-4.78941 2.61044 -1.80847 67 73 87
-4.77474 2.62595 -1.80764 68 72 88
-4.74774 2.64142 -1.80273 68 76 89
-4.39527 3.19424 -1.80882 75 81 93
-4.38441 3.20426 -1.80882 65 71 87
-4.17601 3.63504 -1.8346 75 81 95
-3.93525 3.94589 -1.8231 77 85 98
-3.92203 3.95443 -1.8231 78 86 99
-3.76899 4.25602 -1.83862 78 84 100
-3.56119 4.49263 -1.82364 78 85 101
-3.54888 4.5051 -1.82583 79 86 102
-3.514 4.63979 -1.83922 72 81 96
-3.4926 4.63557 -1.8342 75 81 97
-3.34353 4.93671 -1.85139 78 87 101
-3.15726 5.19086 -1.84745 76 84 97
-2.94906 5.49836 -1.84836 80 88 101
-2.84971 5.72342 -1.86496 82 88 100
-2.72968 5.86873 -1.85926 81 89 100
-2.63143 6.13808 -1.8804 83 91 102
-2.46769 6.35467 -1.87769 81 89 100
-2.29069 6.64739 -1.88542 83 87 99
-5.59189 1.39256 -1.80411 109 106 118
-5.59487 1.41624 -1.80889 114 115 120
-5.57399 1.42438 -1.80169 113 119 125
-5.26288 1.81938 -1.7925 72 81 96
-5.27291 1.83939 -1.80067 64 71 90
-5.24682 1.85038 -1.79248 65 73 91
-5.26825 1.87588 -1.80638 66 74 90
-5.23675 1.87665 -1.7941 65 73 87
-5.24349 1.90301 -1.80227 64 71 89
-5.23143 1.92851 -1.80308 65 72 89
-5.2194 1.96173 -1.80551 66 73 91
-4.77589 2.64461 -1.81336 70 76 90
-4.76336 2.67104 -1.81662 70 76 91
-4.72666 2.66984 -1.80353 65 71 86
-4.74058 2.69849 -1.81661 68 75 89
-4.70957 2.69271 -1.80434 72 79 92
-4.68375 2.7175 -1.80269 63 70 86
-4.38757 3.22868 -1.81761 61 64 81
-4.36258 3.23443 -1.81201 65 68 83
-4.14854 3.63769 -1.82837 76 81 95
-4.14202 3.65411 -1.83226 67 70 86
-3.91292 3.96906 -1.82616 67 72 90
-3.89335 3.98176 -1.82616 71 78 92
-3.75189 4.25934 -1.83638 86 92 106
-3.74149 4.27372 -1.83936 83 89 103
-3.53652 4.51753 -1.82802 78 86 99
-3.47239 4.65156 -1.83635 76 83 100
-3.32948 4.94882 -1.85349 81 89 102
-3.1387 5.19379 -1.84609 77 86 100
-2.93332 5.51117 -1.851 80 87 103
-2.59926 6.13599 -1.87733 82 89 102
-5.60376 1.351 -1.80253 108 109 115
-5.60044 1.36505 -1.80332 108 112 115
-5.60577 1.38196 -1.80811 109 108 118
-5.31629 1.75877 -1.80154 63 72 89
-5.30491 1.76915 -1.79908 62 72 83
-5.30351 1.78389 -1.80152 64 71 87
-5.28205 1.78975 -1.79416 67 74 92
-5.28605 1.81444 -1.80069 71 78 94
-5.12736 1.9829 -1.79177 68 78 90
-5.11867 1.99404 -1.79094 76 84 97
-5.11478 2.00773 -1.79259 60 69 84
-5.10605 2.02653 -1.7934 72 75 92
-5.09564 2.03672 -1.79174 70 72 87
-5.08521 2.04687 -1.79008 69 68 80
-5.07947 2.06733 -1.79255 87 81 86
-5.07689 2.08186 -1.79503 92 85 83
-5.06525 2.10734 -1.79667 88 85 88
-5.06864 2.13323 -1.8041 83 81 91
-5.04849 2.13777 -1.79748 78 77 91
-5.04251 2.15046 -1.7983 80 82 98
-5.03149 2.16808 -1.79829 80 84 95
-5.02696 2.18167 -1.79994 77 82 99
-5.02864 2.19899 -1.8049 69 76 87
-5.00806 2.21091 -1.79993 64 74 87
-5.00027 2.22257 -1.79992 54 61 80
-4.98315 2.2285 -1.79495 55 64 83
-4.90485 2.38586 -1.80646 103 103 113
-4.8852 2.39781 -1.80232 111 109 120
-4.88434 2.41424 -1.80645 110 110 120
-4.71471 2.72353 -1.81496 68 74 88
-4.6987 2.74748 -1.81659 66 73 89
-4.66774 2.75004 -1.80677 68 76 89
-4.67105 2.77103 -1.81413 66 74 87
-4.66858 2.78749 -1.81821 68 75 91
-4.6349 2.77866 -1.80431 66 72 88
-4.6183 2.81097 -1.80839 68 76 88
-4.36048 3.2536 -1.8176 65 68 83
-4.34435 3.25821 -1.8144 72 75 90
-4.31827 3.28415 -1.81519 64 70 84
-4.12848 3.66195 -1.83148 66 73 86
-4.12184 3.67835 -1.83537 68 74 88
-3.87695 3.98555 -1.82387 77 83 97
-3.86259 3.99237 -1.8231 74 80 94
-3.72817 4.28331 -1.84011 80 87 102
-3.70048 4.28407 -1.83489 78 84 100
-3.51019 4.52045 -1.82437 75 85 97
-3.46361 4.67218 -1.84209 76 83 99
-3.30937 4.94718 -1.85 84 92 105
-3.11604 5.21032 -1.84881 80 88 101
-2.91694 5.52214 -1.85298 79 86 102
-2.81701 5.71514 -1.85917 81 87 101
-2.71401 5.8866 -1.86369 82 88 100
-2.58047 6.14621 -1.87918 80 88 101
-2.4393 6.37235 -1.88129 80 88 101
-5.60271 1.26086 -1.789 59 60 78
-5.63131 1.30698 -1.80736 104 107 114
-5.61587 1.31725 -1.80256 106 106 118
-5.62139 1.33408 -1.80734 108 108 118
-5.3394 1.67745 -1.79504 54 55 63
-5.34845 1.69637 -1.80239 67 71 84
-5.33956 1.71535 -1.80238 64 70 84
-5.32998 1.72656 -1.80074 66 73 84
-5.33041 1.74204 -1.804 64 72 85
-5.1949 1.83884 -1.78689 64 73 89
-5.18 1.86239 -1.78605 63 72 84
-5.18175 1.88625 -1.79183 65 73 90
-5.17337 1.89759 -1.79099 67 74 93
-5.16818 1.91053 -1.79181 64 71 88
-5.1502 1.92455 -1.78767 69 74 93
-5.14979 1.93994 -1.79097 69 76 94
-5.14608 1.95367 -1.79262 68 76 93
-5.13748 1.96487 -1.79178 66 75 90
-4.95486 2.3851 -1.82466 110 107 112
-4.88042 2.42863 -1.80892 110 110 122
-4.8696 2.4466 -1.80974 106 109 117
-4.86256 2.45891 -1.81056 121 124 132
-4.85547 2.4712 -1.81139 72 77 90
-4.84296 2.48803 -1.81138 60 65 84
-4.81947 2.48866 -1.8031 75 80 100
-4.80211 2.51088 -1.80309 71 74 93
-4.7938 2.53069 -1.80557 69 72 90
-4.78353 2.54066 -1.80474 68 73 89
-4.76593 2.54518 -1.79977 62 68 85
-4.76326 2.56924 -1.80555 77 83 98
-4.74415 2.57255 -1.79976 76 82 96
-4.73668 2.58454 -1.80058 69 75 90
-4.72796 2.60416 -1.80305 67 71 87
-4.7175 2.61391 -1.80222 68 74 88
-4.63783 2.80847 -1.81411 67 73 87
-4.62686 2.8367 -1.81901 67 73 85
-4.59162 2.83501 -1.80674 76 82 94
-4.5986 2.85963 -1.81655 77 81 93
-4.56187 2.87518 -1.80918 69 74 86
-4.34701 3.29299 -1.82638 68 74 90
-4.29716 3.30504 -1.81599 71 70 86
-4.10467 3.69359 -1.83614 77 84 97
-4.07958 3.68686 -1.82759 59 67 80
-3.84997 4.01569 -1.82845 75 81 96
-3.68899 4.29674 -1.83713 79 85 101
-3.49689 4.53114 -1.82583 78 87 99
-3.48355 4.54179 -1.8273 81 89 102
-3.44556 4.67442 -1.83994 78 87 101
-3.42755 4.67661 -1.83779 78 87 101
-3.28525 4.95747 -1.85 79 87 100
-3.10083 5.22187 -1.85085 82 90 103
-2.88623 5.51783 -1.84837 82 91 103
-2.80147 5.73128 -1.86304 82 90 103
-2.6919 5.88066 -1.8599 82 88 100
-2.41615 6.36542 -1.87771 81 87 101
-5.38043 1.64122 -1.80488 113 100 90
-5.37104 1.65261 -1.80324 114 102 90
-5.3573 1.66962 -1.80077 109 103 97
-5.22215 1.78304 -1.7861 67 74 90
-5.21901 1.79684 -1.78774 64 71 87
-5.21418 1.80987 -1.78856 65 74 89
-5.229 1.83228 -1.79931 62 74 90
-5.20793 1.86058 -1.79681 67 75 91
-4.70988 2.62585 -1.80304 70 76 90
-4.69806 2.64316 -1.80386 69 75 89
-4.68747 2.6528 -1.80303 68 74 90
-4.67973 2.66467 -1.80386 68 71 88
-4.67335 2.67765 -1.80551 67 70 85
-4.59015 2.87133 -1.81736 73 77 89
-4.57545 2.90586 -1.82308 71 74 89
-4.56134 2.91273 -1.82062 67 71 88
-4.33086 3.31941 -1.83037 72 73 91
-4.2832 3.32232 -1.81758 67 66 82
-4.26822 3.32794 -1.81518 74 76 91
-4.25938 3.3403 -1.81678 70 73 90
-4.07735 3.70897 -1.83459 59 65 77
-4.04642 3.7066 -1.82603 64 66 81
-4.03275 3.71412 -1.82525 68 69 87
-3.83351 4.01931 -1.82616 78 84 99
-3.82205 4.03066 -1.82768 84 91 107
-3.67089 4.29818 -1.83415 77 85 98
-3.45803 4.54607 -1.82437 78 86 99
-3.40543 4.68898 -1.83851 77 85 98
-3.2696 4.96598 -1.8507 77 87 99
-3.0795 5.21761 -1.84678 81 89 100
-2.78317 5.73831 -1.86368 80 88 101
-2.66403 5.88991 -1.86054 82 88 100
-2.56295 6.16191 -1.88287 80 90 102
-2.39689 6.37708 -1.88011 79 87 98
-5.65138 1.26047 -1.80899 65 69 88
-5.68733 1.30157 -1.82975 119 117 126
-5.40141 1.5817 -1.80246 117 96 83
-5.40071 1.59647 -1.80491 118 102 88
-5.3923 1.61567 -1.8049 116 101 90
-5.38469 1.62779 -1.80407 114 100 89
-5.27458 1.73112 -1.79688 64 70 86
-5.25892 1.74674 -1.79356 64 73 90
-5.24927 1.7576 -1.7919 64 70 86
-5.23961 1.76841 -1.79024 65 71 87
-5.15348 2.14111 -1.83885 84 88 97
-5.01625 2.44292 -1.8627 108 106 117
-4.6641 2.69711 -1.80798 70 77 91
-4.6562 2.70893 -1.8088 66 73 89
-4.64119 2.71498 -1.80549 66 73 89
-4.62048 2.7251 -1.80135 66 75 87
-4.6223 2.74492 -1.80796 66 76 87
-4.59884 2.74382 -1.79969 65 72 88
-4.58502 2.75953 -1.79968 65 72 88
-4.56734 2.78156 -1.8005 70 76 90
-4.54397 2.92593 -1.81898 70 76 90
-4.5257 2.92905 -1.81407 66 72 87
-4.51974 2.94299 -1.81652 64 69 85
-4.49467 2.93991 -1.80752 65 68 84
-4.25258 3.36562 -1.82317 64 67 82
-4.2314 3.36428 -1.81677 85 89 101
-4.22242 3.37655 -1.81837 74 77 92
-4.02241 3.72598 -1.8268 74 76 94
-3.80022 4.03983 -1.82616 73 83 95
-3.78571 4.04641 -1.82539 75 82 97
-3.65349 4.31626 -1.83713 79 85 101
-3.64277 4.33043 -1.84011 79 85 101
-3.4413 4.54997 -1.82292 76 83 99
-3.42539 4.55548 -1.82219 81 89 105
-3.39064 4.69774 -1.83923 78 86 99
-3.2554 4.9779 -1.8528 77 87 99
-3.05598 5.23214 -1.84882 79 89 101
-2.872 5.53588 -1.85299 80 88 101
-2.75424 5.74239 -1.8624 79 87 100
-2.64625 5.90029 -1.86244 83 89 105
-2.53077 6.1595 -1.87981 82 90 103
-5.40377 1.49341 -1.78779 72 75 89
-5.42154 1.522 -1.80005 93 82 79
-5.42104 1.53676 -1.80249 116 93 76
-5.42051 1.55153 -1.80494 114 95 74
-5.41231 1.57081 -1.80493 105 89 74
-5.30801 1.66255 -1.79693 116 107 98
-5.30696 1.67721 -1.7994 59 56 58
-5.28535 1.70552 -1.79607 66 74 89
-5.2908 1.72311 -1.80185 64 70 84
-4.59079 2.7829 -1.80877 65 71 85
-4.57158 2.80379 -1.80877 64 70 84
-4.55061 2.81343 -1.80463 68 71 86
-4.54641 2.82855 -1.80793 70 73 88
-4.50023 2.97355 -1.81978 65 71 87
-4.48058 2.9752 -1.81405 66 72 88
-4.48384 2.99769 -1.82223 67 73 89
-4.4621 3.00677 -1.81813 74 78 91
-4.4371 3.00324 -1.80914 62 66 79
-4.21895 3.40595 -1.82715 77 83 97
-4.18812 3.39335 -1.81437 72 78 92
-4.02063 3.76132 -1.83847 68 71 86
-4.00568 3.76729 -1.83691 76 79 94
-3.98739 3.7688 -1.83302 66 72 86
-3.77217 4.0545 -1.82539 79 82 98
-3.75665 4.05942 -1.82386 79 86 100
-3.62739 4.33652 -1.83937 77 83 99
-3.3726 4.69973 -1.83708 77 85 98
-3.2333 4.99312 -1.8549 76 83 99
-3.2132 4.99112 -1.85141 80 86 102
-3.04264 5.24881 -1.85289 79 87 100
-2.85493 5.54488 -1.85431 82 88 102
-2.83348 5.5394 -1.85036 81 89 102
-2.73746 5.75473 -1.86498 78 88 100
-2.6275 5.90694 -1.86308 81 87 102
-2.51141 6.16767 -1.88104 80 87 102
-2.36715 6.38885 -1.88191 82 90 101
-5.4502 1.44335 -1.79846 63 71 84
-5.44224 1.47749 -1.80089 65 72 85
-5.43159 1.48856 -1.79843 66 72 86
-5.33947 1.60814 -1.79944 113 100 86
-5.32852 1.61866 -1.79695 113 99 86
-5.33099 1.63471 -1.80108 114 100 89
-5.32167 1.64588 -1.79942 116 100 87
-4.53393 2.83648 -1.80627 69 72 88
-4.51424 2.84709 -1.80296 73 79 94
-4.51531 2.867 -1.80957 68 73 89
-4.50545 2.87724 -1.80957 69 74 93
-4.4468 3.03197 -1.8214 69 73 87
-4.41038 3.02705 -1.80831 73 79 93
-4.40928 3.04581 -1.81403 64 68 80
-4.19705 3.4263 -1.82795 66 69 84
-4.1681 3.42654 -1.81996 71 70 86
-3.97904 3.78351 -1.83613 72 75 90
-3.7386 4.07456 -1.82539 76 85 100
-3.59971 4.33669 -1.83415 79 89 101
-3.58976 4.35235 -1.83788 78 88 100
-3.40804 4.57616 -1.82657 82 91 103
-3.39288 4.58323 -1.82657 77 85 98
-3.35194 4.71524 -1.83924 80 88 101
-3.19601 4.99598 -1.85071 90 96 111
-3.02003 5.24081 -1.84747 77 85 98
-2.71753 5.75612 -1.8637 79 89 101
-2.60779 5.90987 -1.86246 82 88 102
-2.49071 6.17023 -1.88044 82 88 102
-2.34517 6.38729 -1.88012 82 88 102
-5.47121 1.42094 -1.80339 109 117 126
-5.46762 1.43452 -1.80419 64 72 83
-5.45861 1.46109 -1.805 62 73 91
-5.35734 1.54096 -1.79452 126 106 86
-5.35936 1.56394 -1.79947 118 97 83
-5.35022 1.57524 -1.79781 113 91 76
-5.34782 1.58922 -1.79945 113 95 79
-4.50317 2.90354 -1.817 63 70 86
-4.47435 2.89659 -1.80542 68 74 90
-4.47513 2.91654 -1.81204 70 73 90
-4.45308 2.91557 -1.80459 69 72 87
-4.44245 2.93436 -1.80707 83 86 101
-4.40941 3.06586 -1.82057 73 75 90
-4.39759 3.07456 -1.81975 72 73 91
-4.37959 3.08691 -1.81811 73 74 92
-4.16601 3.44704 -1.82635 75 78 93
-4.14011 3.43961 -1.81676 75 78 93
-4.13792 3.46008 -1.82315 67 73 87
-3.95805 3.79372 -1.83458 66 69 84
-3.94412 3.80096 -1.8338 69 72 87
-3.7269 4.08567 -1.82692 72 79 95
-3.57794 4.36476 -1.84012 76 86 98
-3.37608 4.58691 -1.82511 78 86 99
-3.33944 4.72891 -1.84211 80 89 102
-3.32057 4.72904 -1.83924 76 85 98
-3.1795 5.0025 -1.85071 91 99 112
-3.00528 5.25387 -1.85019 79 89 101
-2.80875 5.55453 -1.853 80 88 101
-2.69711 5.75562 -1.86178 81 89 102
-2.3236 6.38752 -1.87893 80 87 102
-5.49284 1.35463 -1.80179 105 105 110
-5.48732 1.37478 -1.8026 111 110 115
-5.49255 1.39124 -1.8075 106 105 113
-5.48215 1.40257 -1.80503 102 103 108
-5.37724 1.46738 -1.7896 69 73 89
-5.38201 1.4839 -1.79456 65 72 88
-5.36629 1.49274 -1.78959 70 73 88
-5.36859 1.51564 -1.79454 83 71 73
-5.36807 1.53028 -1.79701 119 97 83
-4.443 2.95434 -1.81368 64 70 86
-4.42891 2.96062 -1.81119 66 72 88
-4.37556 3.10317 -1.8222 70 73 90
-4.36494 3.11304 -1.82219 71 75 87
-4.34161 3.12008 -1.81728 84 87 102
-4.32835 3.12727 -1.81564 72 75 92
-4.31251 3.13183 -1.81237 81 83 101
-4.12192 3.47537 -1.82394 69 73 89
-4.11484 3.49022 -1.82714 73 76 91
-3.93561 3.8156 -1.83691 66 70 85
-3.9145 3.82559 -1.83535 69 72 89
-3.71419 4.09517 -1.82768 77 84 100
-3.69499 4.10856 -1.82845 75 82 98
-3.5589 4.36415 -1.83639 78 88 100
-3.35608 4.60239 -1.82731 81 89 102
-3.1523 5.00526 -1.84792 84 90 104
-2.97766 5.2575 -1.84816 79 89 99
-2.78999 5.55793 -1.85235 80 88 101
-2.57793 5.9114 -1.86057 82 88 102
-2.46194 6.18229 -1.88229 83 91 104
-2.30308 6.39331 -1.87954 83 87 99
-5.50466 1.32903 -1.80263 108 108 116
-5.50312 1.34322 -1.80426 105 105 113
-5.40568 1.44116 -1.79707 57 66 84
-4.42066 2.98186 -1.81532 65 71 85
-4.40388 2.98554 -1.81119 68 74 88
-4.3989 3.0005 -1.81449 77 83 95
-4.36821 3.00012 -1.80456 72 78 90
-4.29942 3.14894 -1.814 74 77 94
-4.10188 3.498 -1.82634 73 75 88
-4.07988 3.50604 -1.82314 67 69 84
-3.89833 3.8297 -1.83302 67 73 89
-3.88645 3.83974 -1.8338 67 73 87
-3.67654 4.10845 -1.82463 75 85 97
-3.66467 4.1194 -1.82616 77 86 100
-3.54013 4.3802 -1.83863 76 83 99
-3.52551 4.3876 -1.83863 78 84 100
-3.34083 4.60931 -1.82731 78 86 99
-3.30128 4.74773 -1.84283 77 84 100
-3.27773 4.73753 -1.83566 72 78 94
-3.13926 5.02035 -1.85142 79 87 100
-2.96155 5.26692 -1.84952 81 89 100
-2.77072 5.55946 -1.85103 81 89 102
-2.67265 5.77571 -1.86629 81 89 102
-2.55868 5.91602 -1.86057 80 88 101
-2.44041 6.18099 -1.88045 81 89 100
-5.52283 1.26894 -1.80103 64 62 78
-5.51277 1.28049 -1.79857 90 88 100
-5.52011 1.29732 -1.80429 114 115 119
-5.50996 1.30884 -1.80182 107 108 112
-5.42546 1.39694 -1.79792 107 107 115
-5.42485 1.41861 -1.80122 110 116 126
-5.41614 1.43021 -1.79956 90 96 108
-4.38265 3.03411 -1.82027 82 86 98
-4.35671 3.02864 -1.81034 78 80 93
-4.33638 3.03816 -1.80703 75 76 94
-4.304 3.17423 -1.82381 78 81 96
-4.3008 3.19173 -1.82871 76 77 94
-4.27722 3.18827 -1.82054 70 71 89
-4.2403 3.20161 -1.81399 69 72 87
-4.07611 3.52509 -1.82873 68 71 87
-4.06535 3.5356 -1.82953 67 70 85
-4.0341 3.53196 -1.81994 64 70 84
-3.85887 3.84046 -1.82757 68 74 86
-3.64534 4.13258 -1.82692 81 89 102
-3.51177 4.39658 -1.83938 79 85 101
-3.3287 4.62291 -1.83023 76 84 97
-3.26585 4.75272 -1.83925 73 82 97
-3.12129 5.02323 -1.85002 77 85 98
-2.94285 5.26922 -1.84816 77 85 96
-2.74478 5.5707 -1.85236 80 88 101
-2.65221 5.77506 -1.86436 83 90 103
-2.54161 5.92978 -1.86374 80 88 101
-2.42092 6.1889 -1.88168 83 89 101
-2.27146 6.39531 -1.87835 80 86 98
-5.54484 1.23909 -1.80596 63 70 87
-5.52785 1.2487 -1.80023 66 73 90
-5.43785 1.35018 -1.79547 99 98 104
-5.44267 1.3736 -1.80125 109 110 115
-5.43237 1.38469 -1.79876 114 114 120
-4.34271 3.06461 -1.81778 64 70 86
-4.32326 3.06531 -1.81199 65 71 87
-4.31917 3.08146 -1.81612 69 73 84
-4.30121 3.09335 -1.81446 64 68 80
-4.26761 3.20922 -1.82462 76 79 94
-4.23316 3.21505 -1.81644 64 67 82
-4.21835 3.23055 -1.81725 70 71 89
-4.02215 3.54091 -1.81994 66 72 88
-4.01247 3.55271 -1.82153 60 66 82
-3.85861 3.86699 -1.83691 72 78 90
-3.83921 3.86636 -1.83224 84 90 102
-3.63153 4.14025 -1.82692 85 93 106
-3.48755 4.40262 -1.83714 79 89 101
-3.31574 4.6348 -1.83243 75 85 97
-3.24559 4.76951 -1.84212 75 85 98
-3.09611 5.03093 -1.84933 77 86 101
-2.72395 5.56665 -1.84907 80 88 101
-2.63324 5.77982 -1.86437 82 90 103
-4.29572 3.10819 -1.81777 76 78 91
-4.27499 3.10732 -1.81115 75 77 92
-4.26197 3.12424 -1.8128 59 64 83
-4.22102 3.25464 -1.82624 69 72 87
-4.19258 3.24532 -1.8148 72 75 90
-4.02193 3.58902 -1.83671 61 67 81
-3.9817 3.57341 -1.82073 68 73 87
-3.82421 3.88497 -1.83535 71 78 91
-3.81421 3.89786 -1.83768 69 76 92
-3.61769 4.14789 -1.82692 79 87 98
-3.6075 4.1619 -1.82998 74 82 96
-3.47633 4.41643 -1.84012 79 87 100
-3.46161 4.42364 -1.84013 81 88 102
-3.29002 4.63822 -1.82951 77 87 99
-3.27388 4.64324 -1.82878 77 87 99
-3.22595 4.76759 -1.83854 78 88 100
-3.07951 5.03715 -1.84933 79 89 101
-2.91895 5.28319 -1.8502 79 89 101
-2.89963 5.28358 -1.84817 80 90 102
-2.70721 5.57705 -1.85105 78 86 99
-2.51259 5.93467 -1.86311 80 88 101
-2.40098 6.1949 -1.8823 82 88 102
-2.25159 6.40468 -1.88015 81 87 99
-5.49293 1.35401 -1.81947 102 101 109
-4.25633 3.13902 -1.8161 61 66 85
-4.24186 3.14453 -1.81362 80 86 100
-4.22865 3.16134 -1.81527 75 78 93
-4.18748 3.27141 -1.82215 66 69 84
-4.17511 3.27938 -1.82133 62 66 83
-4.16273 3.28731 -1.82051 72 80 93
-3.96964 3.58221 -1.82073 70 76 92
-3.95531 3.58806 -1.81913 78 82 101
-3.9331 3.59528 -1.81593 70 72 91
-3.80001 3.90464 -1.8369 73 78 91
-3.78373 3.90832 -1.83457 78 82 94
-3.58157 4.16358 -1.8254 78 87 100
-3.43903 4.43271 -1.83938 80 84 96
-3.25852 4.64991 -1.82878 75 86 98
-3.2086 4.77071 -1.8371 78 86 99
-3.0669 5.05382 -1.85353 81 90 103
-2.88214 5.28923 -1.84818 81 89 102
-2.6047 5.78504 -1.86373 82 90 101
-2.49198 5.93356 -1.86122 81 89 102
-2.36889 6.19169 -1.87924 82 89 102
-2.23167 6.414 -1.88195 83 91 102
-4.2154 3.16808 -1.81361 68 71 86
-4.21447 3.18813 -1.82023 68 71 88
-4.19005 3.18275 -1.81113 69 72 87
-4.14998 3.30524 -1.82296 62 68 80
-4.14116 3.31718 -1.82459 74 76 91
-3.92539 3.60979 -1.81913 71 74 91
-3.76125 3.91603 -1.83224 74 78 90
-3.56766 4.17107 -1.8254 76 79 96
-3.55642 4.18335 -1.82769 78 85 101
-3.42425 4.43981 -1.83938 77 83 97
-3.23506 4.65813 -1.82805 76 84 95
-3.19648 4.78575 -1.84069 77 85 98
-3.03828 5.05251 -1.84934 77 84 100
-2.68115 5.58801 -1.85237 77 85 98
-2.58476 5.78599 -1.86245 83 89 103
-2.47433 5.94529 -1.86376 80 90 102
-4.1803 3.2034 -1.81526 64 68 80
-4.16083 3.20321 -1.80947 64 67 82
-4.12626 3.32226 -1.82214 67 67 85
-4.11374 3.33004 -1.82132 68 71 88
-4.08635 3.3313 -1.81396 67 70 85
-3.9143 3.61989 -1.81993 66 72 88
-3.89201 3.62688 -1.81673 68 75 91
-3.87761 3.63245 -1.81513 73 81 93
-3.75007 3.92724 -1.83379 73 74 92
-3.74393 3.94611 -1.83924 72 75 90
-3.53765 4.19769 -1.82922 76 85 100
-3.41283 4.45347 -1.84237 77 84 98
-3.22113 4.66809 -1.82952 78 87 97
-3.17671 4.80398 -1.84428 76 84 95
-3.02555 5.06908 -1.85353 78 85 99
-2.85809 5.30294 -1.85022 81 89 100
-2.66428 5.59829 -1.85435 74 82 95
-2.56855 5.80155 -1.86631 83 91 104
-2.3497 6.20126 -1.88109 80 88 99
-2.19869 6.40816 -1.87837 82 90 103
-4.15964 3.22325 -1.81608 61 64 79
-4.14721 3.24111 -1.81856 72 75 92
-4.081 3.34722 -1.81805 68 73 88
-4.08153 3.37005 -1.82622 64 66 82
-3.86535 3.64094 -1.81513 74 82 93
-3.72132 3.95361 -1.8369 72 75 90
-3.52185 4.20181 -1.82769 76 85 100
-3.38595 4.45404 -1.83789 79 89 100
-3.20792 4.6797 -1.83171 78 88 100
-3.15491 4.79665 -1.83855 79 87 100
-3.13969 4.8047 -1.83927 80 88 101
-3.00752 5.07158 -1.85214 79 87 100
-2.83697 5.29778 -1.84615 80 88 101
-2.64109 5.58485 -1.84777 76 84 97
-2.53764 5.79729 -1.86246 86 94 105
-2.44774 5.96096 -1.86692 83 91 102
-2.3278 6.19773 -1.87864 80 87 100
-4.13858 3.25301 -1.82021 69 72 89
-4.1263 3.26078 -1.81938 69 72 89
-4.10049 3.26344 -1.81276 76 82 96
-4.0612 3.37939 -1.82376 65 68 83
-4.03556 3.37163 -1.81395 66 72 86
-3.84947 3.65658 -1.81673 73 80 92
-3.71199 3.96782 -1.84002 63 66 81
-3.69462 3.96963 -1.8369 79 81 96
-3.50781 4.20911 -1.82769 77 84 100
-3.48538 4.21674 -1.82616 78 87 102
-3.37359 4.46596 -1.84013 79 89 101
-3.35624 4.46787 -1.8379 77 86 101
-3.18433 4.68769 -1.83098 80 86 102
-2.98345 5.08227 -1.85284 76 85 99
-2.8218 5.31037 -1.84887 80 88 100
-2.62565 5.60049 -1.85173 79 87 100
-2.42589 5.95409 -1.86314 82 90 101
-4.09534 3.27935 -1.8169 73 76 92
-4.08536 3.28974 -1.81772 68 71 88
-4.06709 3.29042 -1.81276 69 73 88
-4.03821 3.39725 -1.82376 70 73 90
-4.01896 3.40776 -1.82212 75 82 93
-4.00856 3.41799 -1.82294 72 78 92
-3.85214 3.68582 -1.82791 65 68 83
-3.83012 3.68081 -1.82072 66 69 86
-3.81771 3.68916 -1.82072 66 69 86
-3.67592 3.98309 -1.83768 84 87 104
-3.47478 4.23046 -1.82922 76 86 98
-3.3479 4.48803 -1.84386 73 82 97
-3.16881 4.69409 -1.83098 78 85 99
-3.11974 4.82272 -1.84286 83 90 101
-2.96541 5.08464 -1.85145 80 86 102
-2.8054 5.31936 -1.85023 81 87 99
-2.52041 5.80905 -1.86504 82 90 101
-2.4073 5.96194 -1.86441 81 89 101
-2.29841 6.20723 -1.87988 83 89 101
-4.06362 3.31908 -1.82185 71 74 89
-4.03478 3.3071 -1.80945 66 69 86
-3.99927 3.4296 -1.82457 67 73 89
-3.97607 3.42425 -1.8164 75 77 94
-3.79947 3.70161 -1.82072 78 81 97
-3.78595 3.70836 -1.81992 77 80 95
-3.66544 3.99565 -1.84002 79 83 100
-3.65001 4.00039 -1.83846 79 84 102
-3.45807 4.23273 -1.82693 79 87 100
-3.32181 4.48991 -1.84014 78 85 101
-3.15401 4.70215 -1.83172 77 84 98
-3.1363 4.70332 -1.82953 83 90 101
-3.10159 4.82377 -1.84071 82 90 103
-3.08769 4.83512 -1.84286 84 92 105
-2.94736 5.08695 -1.85006 79 85 101
-2.7771 5.32024 -1.84752 82 91 104
-2.59848 5.60745 -1.85174 79 85 98
-2.4991 5.80423 -1.86183 80 88 100
-2.27947 6.21846 -1.88234 84 90 102
-4.03288 3.32711 -1.81606 65 67 84
-4.02095 3.34595 -1.81936 69 72 87
-4.00033 3.3435 -1.81275 65 71 86
-3.96938 3.45004 -1.82375 73 74 92
-3.95767 3.45872 -1.82375 76 78 94
-3.94024 3.46024 -1.81966 68 70 85
-3.77556 3.71959 -1.82151 69 75 89
-3.63556 4.00665 -1.83768 78 84 98
-3.43557 4.24012 -1.8254 79 85 98
-3.42397 4.25209 -1.8277 83 91 105
-3.30847 4.5 -1.84163 79 85 101
-3.11334 4.71269 -1.82953 81 89 101
-2.93118 5.09449 -1.85076 78 88 100
-2.7635 5.33805 -1.85227 88 94 109
-2.57917 5.60837 -1.85042 80 88 99
-2.47311 5.81985 -1.86505 79 87 100
-2.37936 5.97177 -1.86568 82 88 100
-2.25868 6.2203 -1.88173 83 89 101
-4.0028 3.36915 -1.82267 61 67 83
-3.97458 3.36809 -1.8144 59 66 82
-3.92303 3.47312 -1.81966 65 68 85
-3.75406 3.72733 -1.81912 75 81 95
-3.74563 3.74151 -1.82231 81 84 101
-3.61569 4.01829 -1.83768 84 90 103
-3.60408 4.02915 -1.83924 73 79 96
-3.41232 4.26403 -1.82999 82 89 105
-3.2927 4.50503 -1.84089 77 85 100
-3.09917 4.72231 -1.83099 73 81 94
-3.06399 4.84429 -1.84286 81 89 102
-3.04443 4.8417 -1.83928 78 87 99
-2.90699 5.10484 -1.85146 79 89 101
-2.74642 5.34508 -1.85295 93 97 112
-2.56078 5.61288 -1.85043 82 90 103
-2.45227 5.81672 -1.86248 79 89 101
-2.35992 5.97578 -1.86569 83 90 103
-3.97112 3.38668 -1.82018 65 72 88
-3.95055 3.38395 -1.81357 78 84 98
-3.91916 3.49169 -1.82538 62 68 82
-3.90732 3.50022 -1.82538 61 64 79
-3.7279 3.74201 -1.81832 73 75 90
-3.71349 3.76016 -1.82151 75 74 90
-3.58954 4.03526 -1.83846 68 76 89
-3.39726 4.26937 -1.82923 77 83 99
-3.27375 4.52171 -1.84387 80 88 99
-3.25477 4.51992 -1.84015 79 87 98
-3.08284 4.72674 -1.83027 75 83 96
-3.03111 4.85463 -1.84215 78 86 99
-2.89136 5.11403 -1.85286 75 81 95
-2.53355 5.61955 -1.85044 78 86 98
-2.34007 5.97788 -1.86506 79 89 101
-2.22773 6.22202 -1.88051 81 87 99
-3.94613 3.41252 -1.82266 74 77 90
-3.92555 3.40964 -1.81605 68 71 87
-3.89328 3.51729 -1.82783 70 73 88
-3.87579 3.51851 -1.82374 68 74 88
-3.85612 3.51677 -1.81802 73 76 91
-3.6988 3.76511 -1.81991 64 65 83
-3.6841 3.77001 -1.81832 72 75 90
-3.56667 4.04197 -1.83613 71 78 92
-3.55496 4.0527 -1.83768 77 84 97
-3.37711 4.2814 -1.82999 78 84 100
-3.057 4.72897 -1.82735 75 84 99
-2.87327 5.11611 -1.85147 78 84 98
-2.71696 5.34209 -1.84889 81 87 101
-2.69652 5.33821 -1.8455 83 91 104
-2.4353 5.83008 -1.86571 82 89 101
-2.32021 5.97992 -1.86443 82 90 103
-2.20762 6.22744 -1.88113 80 88 99
-3.9196 3.42533 -1.82018 63 68 82
-3.90797 3.43382 -1.82018 75 78 91
-3.84306 3.53509 -1.82129 67 71 84
-3.8223 3.53173 -1.81474 67 71 83
-3.54413 4.06498 -1.84002 76 84 97
-3.36283 4.28828 -1.82999 80 86 101
-3.34441 4.28684 -1.82618 79 85 101
-3.24831 4.54496 -1.84835 79 88 100
-3.2144 4.52945 -1.83717 79 89 101
-3.04274 4.73844 -1.82881 77 87 99
-3.00868 4.86702 -1.84359 78 88 100
-2.9878 4.86074 -1.83857 83 92 103
-2.84775 5.12265 -1.85077 79 87 100
-2.51513 5.62392 -1.85044 83 91 102
-2.41575 5.83235 -1.86507 83 89 101
-2.1858 6.22346 -1.87868 78 87 100
-3.89422 3.45083 -1.82266 73 77 89
-3.81908 3.55167 -1.82128 64 70 82
-3.69055 3.80704 -1.83349 68 74 88
-3.65974 3.80049 -1.82391 65 71 85
-3.52024 4.06987 -1.83691 64 72 85
-3.32662 4.30363 -1.82923 77 85 98
-3.20394 4.546 -1.84164 76 82 96
-3.02774 4.74614 -1.82954 80 88 101
-2.97434 4.87354 -1.84145 82 90 102
-2.82965 5.12458 -1.84938 84 92 105
-2.6816 5.35224 -1.8489 80 88 101
-2.498 5.63374 -1.85242 81 89 102
-2.28921 5.9745 -1.86065 81 89 100
-3.88254 3.45926 -1.82265 76 77 93
-3.86971 3.46619 -1.82183 71 71 87
-3.84812 3.47288 -1.81852 68 70 88
-3.80707 3.5599 -1.82128 67 74 86
-3.64994 3.81295 -1.8263 66 72 86
-3.51212 4.08685 -1.84158 67 70 85
-3.49558 4.08948 -1.83924 72 78 91
-3.31389 4.31367 -1.83076 76 86 96
-3.19338 4.56254 -1.84612 78 88 100
-3.00592 4.75848 -1.83101 82 89 100
-2.96081 4.8863 -1.84432 82 90 103
-2.81568 5.13889 -1.85287 82 90 101
-2.65222 5.34891 -1.84483 81 89 102
-2.47111 5.64195 -1.85309 80 90 102
-2.38661 5.83471 -1.86379 80 88 101
-2.27191 5.98939 -1.86445 83 89 101
-2.16603 6.23063 -1.87992 81 89 103
-3.83963 3.48554 -1.821 61 64 82
-3.80344 3.5913 -1.83191 67 70 87
-3.78052 3.58476 -1.82373 64 70 84
-3.75553 3.57516 -1.81392 69 74 89
-3.64999 3.84083 -1.83669 79 85 97
-3.61629 3.82932 -1.82471 79 81 96
-3.47715 4.1037 -1.8408 78 88 100
-3.29951 4.32036 -1.83076 78 85 101
-3.17364 4.55874 -1.84165 82 92 104
-2.99153 4.76781 -1.83247 76 82 95
-2.63932 5.37003 -1.85094 81 89 100
-2.4505 5.63696 -1.8498 81 91 103
-2.36826 5.84237 -1.86508 80 90 102
-2.25099 5.98564 -1.86192 82 88 101
-3.83324 3.50111 -1.82513 62 67 81
-3.8083 3.50319 -1.81934 61 65 80
-3.75162 3.60648 -1.82455 65 68 83
-3.73093 3.60263 -1.81801 69 71 85
-3.60732 3.84324 -1.8279 74 76 93
-3.4597 4.1046 -1.83769 74 80 94
-3.4486 4.11666 -1.84002 80 82 97
-3.2783 4.33031 -1.83076 78 86 99
-3.14903 4.56309 -1.83941 82 91 105
-2.97576 4.77363 -1.83248 73 81 94
-2.93623 4.89316 -1.8436 77 83 99
-2.79065 5.14695 -1.85288 81 91 103
-2.61944 5.36769 -1.84823 80 87 100
-2.34749 5.83888 -1.86251 80 89 102
-2.13735 6.24502 -1.883 78 86 99
-3.80181 3.51871 -1.82347 66 72 88
-3.79096 3.52834 -1.8243 66 72 88
-3.72615 3.62103 -1.82373 67 70 85
-3.60609 3.86958 -1.83749 82 87 101
-3.58023 3.87019 -1.83189 83 85 100
-3.43203 4.11906 -1.83769 75 78 94
-3.26227 4.33355 -1.82924 78 86 99
-3.24862 4.34176 -1.83 80 87 101
-3.13757 4.57781 -1.84314 79 86 102
-2.95116 4.7788 -1.83102 80 87 101
-2.91933 4.89708 -1.84289 78 84 100
-2.77367 5.15226 -1.85288 78 88 100
-2.43284 5.64476 -1.85112 86 94 105
-2.22353 5.99849 -1.86446 83 89 103
-5.52001 0.8103 -1.78351 71 78 94
-3.77583 3.53202 -1.82182 63 70 86
-3.76253 3.55005 -1.82512 61 69 80
-3.71132 3.63744 -1.82618 70 72 87
-3.69171 3.63488 -1.82046 67 70 85
-3.56628 3.87623 -1.8311 71 73 90
-3.55327 3.8838 -1.8311 69 74 91
-3.41522 4.13625 -1.8408 82 87 101
-3.23415 4.34825 -1.83001 78 86 99
-3.12159 4.58231 -1.8424 81 88 102
-2.93536 4.7845 -1.83102 80 86 100
-2.90566 4.90971 -1.84576 79 87 100
-2.7578 5.16109 -1.85428 77 84 100
-2.59219 5.37127 -1.84688 80 88 100
-2.40711 5.6582 -1.85376 81 87 101
-2.31954 5.84648 -1.86317 81 89 102
-2.20264 5.99458 -1.86194 84 90 102
-5.73578 0.531883 -1.79466 67 76 93
-5.53149 0.767242 -1.78483 66 73 89
-5.52826 0.784696 -1.78483 72 80 95
-3.74946 3.55659 -1.8243 66 69 84
-3.73219 3.55714 -1.82016 67 72 87
-3.70415 3.5541 -1.81189 70 76 90
-3.68567 3.65174 -1.82536 63 69 81
-3.5322 3.89194 -1.8295 82 88 100
-3.39953 4.14014 -1.83925 76 83 97
-3.38294 4.14237 -1.83691 75 83 96
-3.21127 4.35455 -1.82848 77 86 99
-3.10059 4.59492 -1.8439 79 92 101
-2.92147 4.79538 -1.83322 77 83 99
-2.87908 4.91105 -1.8429 80 88 99
-2.73155 5.16531 -1.85289 77 85 98
-2.57596 5.38142 -1.84892 80 89 99
-2.38534 5.64747 -1.8485 80 86 100
-2.30266 5.86134 -1.86703 82 90 101
-5.74089 0.504945 -1.7953 66 75 92
-5.5216 0.747955 -1.78021 64 74 87
-3.7004 3.57394 -1.81851 68 78 90
-3.6723 3.65808 -1.82455 61 67 79
-3.65313 3.66826 -1.82373 66 72 88
-3.52384 3.90727 -1.83349 74 76 93
-3.36595 4.15937 -1.84003 77 85 100
-3.19907 4.36598 -1.83077 77 86 101
-3.08529 4.60101 -1.8439 77 87 98
-3.0671 4.60021 -1.84092 77 85 98
-2.90561 4.80099 -1.83322 79 84 102
-2.86088 4.91129 -1.84075 80 88 101
-2.71175 5.16151 -1.8494 82 90 103
-2.55816 5.3861 -1.84893 79 88 98
-2.28153 5.85579 -1.86382 80 90 100
-2.18378 6.00178 -1.86321 83 89 101
-5.74932 0.46908 -1.79659 65 74 91
-5.74513 0.487021 -1.79595 64 73 90
-5.55011 0.725086 -1.78879 69 77 90
-3.69244 3.58779 -1.82181 64 74 86
-3.64586 3.68357 -1.82782 61 64 81
-3.63138 3.68826 -1.82618 70 76 91
-3.5098 3.91314 -1.83269 66 69 86
-3.49666 3.92054 -1.8327 68 73 89
-3.3537 4.1696 -1.84158 78 88 100
-3.18605 4.37569 -1.8323 78 85 101
-3.04241 4.60403 -1.83868 86 92 106
-2.87905 4.80058 -1.82957 80 85 103
-2.84583 4.92026 -1.84219 82 85 100
-2.69637 5.17194 -1.8515 81 91 103
-2.53986 5.38892 -1.84825 82 90 101
-2.36761 5.65508 -1.84982 79 87 100
-5.53634 0.705353 -1.78285 62 71 86
-3.67157 3.595 -1.81933 78 78 93
-3.66553 3.61181 -1.82429 70 73 88
-3.64421 3.60596 -1.81685 65 71 85
-3.61511 3.70281 -1.82781 69 75 89
-3.48009 3.93631 -1.83509 64 67 82
-3.34314 4.18304 -1.8447 80 88 101
-3.16155 4.37838 -1.82925 79 87 100
-2.86443 4.80956 -1.83103 78 82 100
-2.81989 4.92307 -1.84004 76 81 100
-2.67932 5.17697 -1.85151 83 93 105
-2.34906 5.65895 -1.84983 82 90 102
-2.25309 5.86123 -1.86383 85 91 103
-2.15487 6.00688 -1.86322 82 88 102
-5.75441 0.423827 -1.79659 67 76 91
-5.74659 0.441523 -1.79466 69 77 94
-5.57296 0.692209 -1.79473 64 73 89
-3.60061 3.7074 -1.82618 79 83 98
-3.58709 3.71347 -1.82536 78 81 96
-3.46781 3.94521 -1.83589 68 71 85
-3.44908 3.94296 -1.8311 71 73 88
-3.31643 4.18198 -1.83925 75 82 98
-3.14847 4.38799 -1.83078 76 84 97
-3.03064 4.61851 -1.84241 84 91 104
-2.85101 4.82201 -1.83396 79 85 99
-2.80661 4.9372 -1.84363 75 84 96
-2.51303 5.39394 -1.84758 82 88 102
-2.23531 5.87221 -1.86641 84 91 101
-2.13563 6.01208 -1.86386 81 87 99
-5.74707 0.405097 -1.79337 69 76 94
-5.54984 0.644629 -1.78417 62 71 86
-5.54887 0.662359 -1.78483 65 74 91
-3.63237 3.62656 -1.82181 67 73 87
-3.61311 3.62357 -1.81602 64 71 87
-3.56569 3.72019 -1.82291 76 78 93
-3.42781 3.95059 -1.8295 66 71 91
-3.30321 4.19044 -1.84003 75 85 97
-3.13534 4.39757 -1.83231 76 85 100
-3.02089 4.63812 -1.84838 78 86 99
-2.79083 4.94425 -1.84435 81 89 102
-2.65357 5.18262 -1.85081 82 92 104
-2.49616 5.40206 -1.84894 78 84 98
-2.32202 5.6665 -1.8505 82 90 101
-2.21389 5.86458 -1.86255 83 90 102
-2.1151 6.00975 -1.86196 85 91 103
-5.74971 0.37797 -1.79337 67 75 94
-5.58446 0.630857 -1.79539 58 67 84
-3.61083 3.64639 -1.82429 66 72 86
-3.59753 3.65245 -1.82346 73 79 91
-3.56563 3.64233 -1.81189 68 75 88
-3.56007 3.73841 -1.82863 71 74 91
-3.41728 3.96253 -1.8319 70 76 92
-3.40398 3.96965 -1.8319 67 73 89
-3.29337 4.20541 -1.84392 78 86 99
-3.27088 4.21225 -1.84237 79 87 98
-3.1145 4.40848 -1.83308 76 86 98
-2.99122 4.62967 -1.84093 80 88 100
-2.82383 4.81957 -1.82958 74 82 95
-2.76902 4.9336 -1.8379 78 88 100
-2.63541 5.18392 -1.84942 83 92 104
-2.47831 5.4065 -1.84895 80 88 99
-2.30307 5.66839 -1.84984 82 91 103
-5.7611 0.36043 -1.79659 64 75 90
-5.58907 0.613457 -1.79605 62 71 88
-3.54943 3.74896 -1.83027 69 72 87
-3.52791 3.75548 -1.82781 73 77 89
-3.25421 4.21402 -1.84004 79 87 97
-3.10129 4.41796 -1.83461 78 87 99
-3.08512 4.42062 -1.83308 78 88 100
-2.97926 4.64404 -1.84466 84 94 104
-2.80911 4.82839 -1.83104 78 85 100
-2.61937 5.19236 -1.85082 82 88 104
-2.28671 5.68315 -1.8538 76 86 98
-2.19676 5.87916 -1.86642 89 95 107
-2.08859 6.02948 -1.86703 81 89 100
-5.76678 0.342513 -1.79788 67 76 91
-5.59643 0.587429 -1.79737 60 68 83
-3.56901 3.67432 -1.82512 69 75 87
-3.54491 3.66334 -1.81519 66 71 83
-3.52578 3.67287 -1.81437 65 69 84
-3.51817 3.76749 -1.83027 69 72 87
-3.50063 3.7671 -1.82618 65 66 84
-3.38708 3.98507 -1.8343 70 70 88
-3.37373 3.99211 -1.8343 68 71 90
-3.24254 4.2256 -1.84237 78 86 99
-2.96449 4.65149 -1.84541 80 90 102
-2.94632 4.65026 -1.84243 83 90 106
-2.79494 4.83894 -1.83324 79 87 99
-2.7502 4.95726 -1.84436 82 89 105
-2.59356 5.19773 -1.85013 81 89 100
-2.45094 5.40942 -1.8476 81 88 99
-5.76296 0.324082 -1.79595 67 76 91
-5.58593 0.568387 -1.79275 64 73 89
-3.49081 3.77905 -1.82863 65 68 83
-3.35946 3.9975 -1.8335 64 67 84
-3.22669 4.22891 -1.84082 79 87 100
-3.06415 4.43131 -1.83385 78 86 99
-3.0487 4.43555 -1.83308 79 85 101
-2.77077 4.84501 -1.83251 79 85 99
-2.73316 4.96061 -1.84364 80 86 103
-2.43353 5.41554 -1.84828 82 88 100
-2.25627 5.67378 -1.84854 83 91 102
-2.16615 5.87307 -1.86257 81 89 102
-2.06897 6.03261 -1.86704 82 88 100
-5.76711 0.296984 -1.79659 68 76 95
-5.61284 0.553289 -1.80133 71 78 96
-3.52205 3.6941 -1.82181 65 70 85
-3.50193 3.68904 -1.81519 66 70 85
-3.47401 3.79305 -1.83027 75 81 93
-3.34607 4.00445 -1.8335 60 61 79
-3.20822 4.2437 -1.84315 78 88 100
-3.03322 4.43973 -1.83232 80 88 101
-2.92553 4.66386 -1.84467 82 92 104
-2.7524 4.84312 -1.82959 80 87 100
-2.71613 4.9639 -1.84293 80 87 103
-2.57794 5.20785 -1.85223 82 92 102
-2.41518 5.41797 -1.84761 82 88 100
-2.23802 5.67917 -1.8492 83 89 102
-2.14824 5.8838 -1.86515 81 89 102
-5.76882 0.278848 -1.79659 67 76 93
-5.56552 0.521771 -1.78351 66 75 90
-3.49506 3.71854 -1.82512 66 72 86
-3.47116 3.70713 -1.81519 67 71 85
-3.46407 3.80494 -1.83272 72 77 89
-3.44748 3.80588 -1.82945 77 83 95
-3.32808 4.01804 -1.8351 64 66 84
-3.19396 4.25021 -1.84315 78 88 100
-3.17646 4.25005 -1.84004 77 87 99
-3.01844 4.44558 -1.83233 79 87 98
-2.91135 4.67289 -1.84616 78 88 100
-2.73581 4.84646 -1.82887 80 88 101
-2.68837 4.96076 -1.83863 80 88 101
-2.56078 5.21252 -1.85223 80 87 101
-2.2208 5.69006 -1.85184 85 91 105
-2.12992 5.89263 -1.86708 82 90 103
-5.87477 0.147531 -1.80418 63 74 92
-5.7629 0.260403 -1.79401 63 69 86
-5.60359 0.507619 -1.79605 64 74 87
-3.46431 3.72364 -1.82015 67 70 85
-3.448 3.72455 -1.81685 66 69 84
-3.42677 3.81345 -1.82782 71 74 87
-3.31979 4.0346 -1.83989 76 82 98
-3.29941 4.02848 -1.8335 80 87 103
-2.99734 4.45599 -1.83309 80 89 101
-2.89451 4.67494 -1.84467 77 87 99
-2.7139 4.85932 -1.83106 82 90 103
-2.67476 4.97457 -1.84222 79 89 99
-2.53688 5.22484 -1.85433 78 86 99
-2.3896 5.42789 -1.84897 82 88 102
-5.88756 0.119845 -1.80799 68 75 93
-5.62095 0.49134 -1.80133 68 79 97
-3.41485 3.82209 -1.82863 69 71 86
-3.28126 4.04187 -1.8351 80 88 99
-3.15864 4.26629 -1.84316 75 85 97
-3.14352 4.27099 -1.84238 80 88 101
-2.9832 4.46344 -1.83386 78 88 102
-2.87354 4.68833 -1.84692 76 86 98
-2.69728 4.86254 -1.83034 84 92 105
-2.65601 4.97235 -1.83936 81 89 100
-2.51671 5.21855 -1.85015 81 89 102
-2.37166 5.43201 -1.84897 85 91 105
-2.19221 5.68962 -1.84988 85 93 104
-2.10066 5.89366 -1.86581 79 87 100
-5.88492 0.101084 -1.80672 64 73 90
-5.77016 0.215232 -1.7953 62 69 88
-5.77242 0.233501 -1.79659 65 70 89
-5.60897 0.463464 -1.79605 64 73 89
-3.43793 3.74928 -1.82429 70 73 88
-3.4253 3.75635 -1.82429 69 73 85
-3.40382 3.83228 -1.83027 60 66 80
-3.38578 3.84435 -1.83109 69 72 89
-3.26519 4.04371 -1.83271 81 87 99
-3.25416 4.05527 -1.8351 78 86 99
-3.12839 4.27564 -1.84161 83 88 102
-2.96835 4.46914 -1.83386 79 88 102
-2.85666 4.69026 -1.84543 80 88 101
-2.68233 4.87101 -1.8318 81 89 102
-2.35283 5.43242 -1.84762 82 89 102
-5.88601 0.0824146 -1.80672 68 77 93
-5.76971 0.19704 -1.79466 67 78 94
-5.62463 0.429026 -1.80001 67 76 93
-5.60744 0.445475 -1.79473 67 75 93
-3.41172 3.76182 -1.82346 65 75 87
-3.37741 3.8592 -1.83518 75 79 94
-3.10568 4.28169 -1.84005 78 87 100
-2.84237 4.6991 -1.84692 80 88 101
-2.66568 4.87413 -1.83107 74 85 99
-2.63333 4.98493 -1.84151 81 89 102
-2.50145 5.23026 -1.85294 80 88 99
-2.17388 5.69482 -1.85054 84 90 104
-2.08101 5.8949 -1.86517 82 88 104
-5.61359 0.410287 -1.79539 69 77 96
-3.39035 3.76757 -1.82098 67 73 87
-3.36259 3.86297 -1.83354 74 80 94
-3.34597 3.86352 -1.83027 75 79 92
-3.23585 4.06849 -1.8367 75 82 96
-3.22553 4.08162 -1.8399 78 84 100
-3.09207 4.28957 -1.84083 79 89 101
-2.94848 4.48277 -1.83616 77 85 100
-2.93289 4.48664 -1.83539 80 88 101
-2.81807 4.70356 -1.84543 79 89 101
-2.61954 4.99861 -1.8451 78 84 98
-2.48277 5.22927 -1.85085 80 88 99
-2.32498 5.43293 -1.84559 83 89 101
-2.15653 5.70552 -1.85318 81 89 102
-2.06135 5.89607 -1.86453 79 86 101
-5.77515 0.16994 -1.79595 68 76 95
-3.38674 3.79029 -1.82925 69 72 87
-3.36495 3.7814 -1.82098 67 73 87
-3.32775 3.87536 -1.83109 86 92 105
-3.20694 4.07834 -1.83511 79 87 100
-3.07922 4.29908 -1.84239 83 90 103
-3.06172 4.2985 -1.83928 78 86 101
-2.91796 4.49219 -1.8354 79 88 100
-2.80306 4.71054 -1.84618 78 85 101
-2.64301 4.88493 -1.83254 76 86 98
-2.59918 4.99085 -1.84009 77 85 98
-2.45496 5.22677 -1.84737 81 89 102
-2.31129 5.45515 -1.85238 84 90 102
-5.77269 0.15171 -1.79466 71 79 98
-5.63325 0.367131 -1.80067 63 70 89
-5.61436 0.383629 -1.79473 60 66 85
-3.35159 3.80118 -1.82595 81 84 99
-3.31738 3.88692 -1.83354 82 88 102
-3.18686 4.08807 -1.83511 78 86 99
-2.78742 4.71574 -1.84619 77 85 98
-2.62795 4.89326 -1.834 79 87 100
-2.57421 4.99604 -1.83937 80 87 101
-2.44005 5.24013 -1.85086 83 91 104
-2.29116 5.44988 -1.84899 81 87 99
-2.12631 5.6955 -1.84792 79 89 99
-2.03363 5.90611 -1.86647 81 89 101
-5.76378 0.115262 -1.79079 69 76 95
-5.77204 0.13354 -1.79401 65 73 92
-5.62389 0.348644 -1.79671 65 72 90
-3.33791 3.80641 -1.82512 77 80 95
-3.3052 3.89527 -1.83436 82 87 101
-3.17317 4.09451 -1.83511 80 88 101
-3.04577 4.31936 -1.84473 77 83 97
-2.89595 4.50043 -1.8354 79 87 101
-2.77053 4.71739 -1.8447 79 87 100
-2.60804 4.88554 -1.82889 80 88 101
-2.5571 4.99884 -1.83866 81 89 101
-2.42325 5.2462 -1.85157 83 91 102
-2.27356 5.45554 -1.84968 81 88 99
-2.10922 5.70793 -1.85122 81 89 100
-3.32509 3.81319 -1.82512 67 71 85
-3.30359 3.8185 -1.82264 70 77 91
-3.28329 3.90053 -1.83191 79 87 98
-3.26841 3.90399 -1.83027 77 83 97
-3.16027 4.10256 -1.83591 78 86 99
-3.14735 4.11057 -1.83671 81 89 102
-3.03053 4.3237 -1.84395 79 86 100
-2.88098 4.50587 -1.8354 81 87 101
-2.8647 4.5078 -1.83388 83 89 103
-2.54158 5.00696 -1.8401 80 88 99
-2.09082 5.71288 -1.85188 80 88 99
-2.01486 5.91274 -1.86776 82 90 101
-5.77073 0.0881681 -1.79272 68 75 93
-5.63567 0.322667 -1.80001 65 74 90
-3.29074 3.82518 -1.82264 74 80 95
-3.2579 3.91541 -1.83273 81 87 101
-3.01452 4.32631 -1.8424 81 88 102
-2.84907 4.51141 -1.83312 81 89 102
-2.74862 4.72852 -1.84619 76 85 101
-2.58793 4.90499 -1.83401 81 89 102
-2.39635 5.24704 -1.84948 84 90 102
-2.24771 5.46484 -1.85104 82 88 102
-5.63918 0.287183 -1.80001 69 80 98
-5.64497 0.305369 -1.80265 68 77 95
-3.27959 3.83501 -1.82429 75 78 95
-3.2368 3.92204 -1.83109 68 71 88
-3.13106 4.12831 -1.84071 78 85 99
-3.11097 4.12133 -1.83432 76 86 98
-2.99461 4.33857 -1.84396 77 87 99
-2.73232 4.73179 -1.84545 77 82 101
-2.57015 4.90425 -1.83183 80 87 103
-2.52964 5.02758 -1.84656 78 88 98
-2.37995 5.25479 -1.85088 86 94 105
-2.22565 5.45018 -1.84426 80 88 99
-2.07058 5.70662 -1.8486 81 91 102
-3.26754 3.84322 -1.82512 79 80 98
-3.22791 3.93661 -1.83518 59 65 81
-3.10422 4.14248 -1.84151 80 87 100
-2.97786 4.33938 -1.84162 76 86 98
-2.96037 4.33843 -1.83851 78 85 101
-2.82885 4.52455 -1.83541 78 88 100
-2.71779 4.74029 -1.84695 76 82 100
-2.55396 4.90881 -1.83183 78 85 101
-2.49942 5.01451 -1.83867 79 89 103
-5.62809 0.259895 -1.79539 61 73 87
-3.25025 3.85628 -1.82678 72 79 97
-3.23133 3.85153 -1.82099 84 89 108
-3.21298 3.93987 -1.83355 62 68 84
-3.07919 4.14178 -1.83672 80 88 101
-2.81255 4.52631 -1.83389 80 86 102
-2.69339 4.74416 -1.84546 79 89 101
-2.53003 4.91555 -1.83183 76 85 100
-2.48381 5.02247 -1.84011 79 88 100
-2.3635 5.2625 -1.85228 84 92 103
-2.21 5.46483 -1.84834 83 91 102
-2.0438 5.71665 -1.85058 80 89 103
-5.6259 0.242007 -1.79407 58 70 84
-3.22429 3.86928 -1.82678 76 82 97
-3.19604 3.95438 -1.836 82 90 103
-3.06227 4.14124 -1.83352 80 90 102
-2.9447 4.36064 -1.84474 75 83 96
-2.79689 4.52975 -1.83313 81 85 101
-2.67589 4.74374 -1.84323 78 88 100
-2.51228 4.91462 -1.82965 82 90 103
-2.46815 5.03038 -1.84155 78 86 97
-2.33702 5.26487 -1.85089 83 91 102
-2.02622 5.72699 -1.85322 82 90 102
-5.62326 0.20637 -1.79209 75 82 99
-5.63873 0.224808 -1.79803 65 77 93
-3.20517 3.87892 -1.82678 81 88 98
-3.1819 3.95915 -1.83519 79 86 99
-3.16442 3.95739 -1.8311 81 89 102
-3.05376 4.15898 -1.83912 77 86 101
-2.93151 4.36976 -1.8463 79 89 101
-2.7753 4.53919 -1.83389 76 86 98
-2.66301 4.75737 -1.84696 81 91 103
-2.49606 4.919 -1.82965 79 87 100
-2.18369 5.47201 -1.84902 75 82 98
-3.19045 3.88207 -1.82513 85 88 104
-3.15443 3.9702 -1.83437 77 87 99
-3.0348 4.17137 -1.84072 79 86 99
-2.91402 4.36865 -1.84319 80 90 102
-2.76142 4.54776 -1.83542 80 86 100
-2.445 5.04217 -1.84371 77 87 99
-2.32053 5.27246 -1.85229 84 92 105
-2.16447 5.47 -1.84699 81 89 102
-2.0066 5.72424 -1.85125 81 89 102
-5.64945 0.180738 -1.80067 59 67 86
-3.17987 3.89328 -1.82761 69 75 92
-3.13316 3.97633 -1.83274 76 85 100
-3.01785 4.17067 -1.83752 77 83 97
-2.89173 4.37538 -1.84241 79 87 100
-2.7427 4.54231 -1.83084 82 88 102
-2.63857 4.76099 -1.84547 79 88 99
-2.48177 4.93049 -1.83258 79 86 99
-2.42684 5.04097 -1.84156 76 86 98
-2.30314 5.27636 -1.8523 84 90 104
-2.14676 5.47528 -1.84768 80 87 99
-5.64702 0.162843 -1.79935 64 75 93
-3.159 3.89948 -1.82596 66 74 87
-3.14588 3.90572 -1.82596 74 82 93
-3.11981 3.98254 -1.83274 78 85 101
-3.00392 4.1766 -1.83752 80 86 99
-2.87985 4.38777 -1.84553 79 89 101
-2.71985 4.54801 -1.83008 83 89 103
-2.62164 4.76215 -1.84398 78 85 99
-2.4558 4.92974 -1.82966 78 88 100
-2.4106 5.04692 -1.84228 83 91 104
-1.97942 5.73212 -1.85258 79 85 99
-5.64077 0.144858 -1.79671 68 79 99
-3.13598 3.91845 -1.82927 78 86 99
-3.10805 3.99198 -1.83438 78 85 101
-2.98337 4.18543 -1.83753 76 86 98
-2.86375 4.38989 -1.84397 79 89 101
-2.70651 4.55818 -1.83238 81 89 102
-2.60582 4.7668 -1.84399 77 83 99
-2.44096 4.93933 -1.83186 79 89 99
-2.27786 5.28392 -1.853 83 91 102
-2.12002 5.48034 -1.84768 82 87 99
-1.96171 5.74228 -1.85522 78 84 98
-5.64784 0.1184 -1.79869 69 77 95
-3.1196 3.9181 -1.82596 80 88 101
-3.08591 3.99625 -1.83192 76 84 97
-2.9701 4.19294 -1.83833 79 86 102
-2.84765 4.39196 -1.84242 77 85 98
-2.69311 4.56831 -1.83467 75 83 96
-2.58521 4.78255 -1.84772 78 86 99
-2.42229 4.93452 -1.82821 81 89 100
-2.38355 5.04403 -1.8387 82 90 103
-2.26167 5.29317 -1.8551 80 89 100
-1.94079 5.73 -1.84996 81 89 102
-5.64522 0.100561 -1.79737 74 81 101
-3.09944 3.92565 -1.82513 78 85 100
-3.07409 4.0056 -1.83356 76 86 98
-2.95755 4.20211 -1.83993 73 80 96
-2.82664 4.40181 -1.8432 77 87 99
-2.36962 5.05888 -1.84301 81 91 102
-2.24343 5.29323 -1.85371 81 89 100
-2.10264 5.48734 -1.84905 81 87 99
-5.59729 0.0818697 -1.78021 65 73 92
-3.08545 3.93008 -1.82431 82 88 104
-3.06143 4.01327 -1.83438 78 87 100
-2.94278 4.20618 -1.83913 73 80 96
-2.80986 4.40204 -1.84087 77 85 98
-2.66729 4.565 -1.83009 72 78 94
-2.57043 4.79064 -1.84921 80 86 100
-2.55129 4.78448 -1.84474 80 88 101
-2.40009 4.94786 -1.83113 81 90 102
-2.35193 5.05925 -1.84158 83 91 102
-2.22442 5.28957 -1.85092 80 88 101
-2.08486 5.49244 -1.84973 80 90 100
-3.0754 3.94268 -1.82762 81 89 102
-3.04002 4.01896 -1.83275 78 88 100
-3.02732 4.02654 -1.83357 79 87 100
-2.91996 4.20966 -1.83674 78 84 100
-2.79777 4.41424 -1.84399 74 80 94
-2.65609 4.58206 -1.83544 78 85 98
-2.3833 4.95011 -1.83041 79 87 100
-2.06635 5.4938 -1.84906 79 89 101
-3.05903 3.95824 -1.83093 77 86 100
-3.01612 4.03739 -1.83602 79 85 99
-2.90661 4.217 -1.83754 77 84 98
-2.89181 4.22091 -1.83674 79 87 100
-2.77597 4.42216 -1.84399 78 85 98
-2.63975 4.58326 -1.83392 82 90 103
-2.53647 4.79248 -1.84624 79 87 100
-2.3665 4.9523 -1.82968 80 89 101
-2.32942 5.07416 -1.84517 80 90 102
-2.1983 5.29313 -1.85023 81 91 103
-3.04186 3.95596 -1.82679 75 82 98
-2.99872 4.03498 -1.83193 79 85 99
-2.7618 4.4291 -1.84477 78 86 97
-2.62507 4.5897 -1.83469 85 93 106
-2.51091 4.79194 -1.84326 78 87 100
-2.31085 5.07077 -1.84231 78 86 99
-2.18198 5.30215 -1.85233 85 93 104
-2.04021 5.5022 -1.85042 81 91 103
-3.03012 3.96516 -1.82845 78 86 99
-2.98339 4.05362 -1.83684 78 84 99
-2.87384 4.23602 -1.83994 75 87 99
-2.8542 4.22794 -1.83355 77 87 99
-2.745 4.42911 -1.84244 79 89 101
-2.60204 4.59485 -1.83393 82 89 105
-2.49864 4.80872 -1.84848 82 92 104
-2.34147 4.95459 -1.82823 78 88 100
-3.01281 3.9789 -1.83093 80 90 102
-2.99643 3.97809 -1.82762 80 88 101
-2.96978 4.05939 -1.83684 79 83 98
-2.29448 5.07639 -1.84303 81 89 102
-2.16488 5.30746 -1.85303 85 93 106
-2.02034 5.49603 -1.84704 84 92 105
-2.98533 3.98884 -1.83011 79 85 99
-2.95539 4.06345 -1.83603 80 86 98
-2.84894 4.25551 -1.84394 76 86 98
-2.72634 4.44544 -1.84633 78 87 97
-2.58788 4.60294 -1.83546 87 93 107
-2.56935 4.59685 -1.83088 85 93 105
-2.48267 4.813 -1.84849 80 90 102
-2.32862 4.97289 -1.83408 76 86 98
-2.27722 5.07832 -1.84232 80 88 101
-2.00152 5.49534 -1.84568 82 90 101
-2.93385 4.06862 -1.83439 79 87 100
-2.82127 4.24659 -1.83595 79 87 100
-2.7089 4.44359 -1.84322 75 83 95
-2.45659 4.81041 -1.84477 78 86 99
-2.30919 4.96408 -1.82897 81 89 102
-2.13797 5.30707 -1.85094 83 91 104
-2.96489 3.99576 -1.82928 78 84 100
-2.95 3.9981 -1.82763 83 86 103
-2.92167 4.07758 -1.83603 78 88 100
-2.80911 4.25706 -1.83835 79 86 100
-2.69463 4.45035 -1.844 77 85 98
-2.54843 4.60884 -1.83318 79 86 101
-2.44112 4.81636 -1.84552 79 87 100
-2.28373 4.96429 -1.82678 81 89 102
-2.25111 5.07841 -1.84017 81 89 100
-2.12085 5.31225 -1.85165 77 85 98
-1.97533 5.50345 -1.84705 85 93 104
-2.93805 4.00706 -1.82929 82 85 102
-2.90799 4.08316 -1.83603 80 87 103
-2.79423 4.26067 -1.83755 80 88 101
-2.67453 4.46302 -1.84634 84 90 104
-2.5347 4.61855 -1.83547 81 87 101
-2.42513 4.82047 -1.84552 82 88 102
-2.23637 5.09112 -1.84376 82 87 99
-2.10369 5.31738 -1.85235 80 88 101
-1.95776 5.51003 -1.84841 81 90 102
-2.92459 4.01266 -1.82929 81 84 99
-2.78066 4.26765 -1.83835 80 88 99
-2.66082 4.47141 -1.8479 81 89 102
-2.51884 4.62113 -1.83471 80 88 101
-2.26902 4.97522 -1.82971 72 78 92
-2.21908 5.09288 -1.84305 81 89 100
-2.90334 4.01762 -1.82764 77 85 98
-2.89075 4.09815 -1.83931 73 82 97
-2.87411 4.09693 -1.83604 78 88 100
-2.75839 4.27205 -1.83676 79 87 98
-2.64218 4.46586 -1.84323 80 88 101
-2.40105 4.82475 -1.84478 80 88 101
-2.25217 4.97706 -1.82898 74 81 95
-2.07679 5.3167 -1.85026 83 89 101
-1.93862 5.50729 -1.84638 79 88 102
-2.88987 4.02311 -1.82764 78 86 99
-2.86323 4.10909 -1.83931 81 90 102
-2.74928 4.29094 -1.84315 82 89 101
-2.62904 4.47591 -1.84557 81 87 101
-2.49621 4.62758 -1.83471 78 88 100
-2.38695 4.83591 -1.84777 79 87 100
-2.23939 4.99697 -1.83556 81 87 101
-2.19215 5.08904 -1.83947 80 89 101
-2.87919 4.03527 -1.83095 80 87 103
-2.73304 4.29093 -1.84076 81 87 101
-2.47933 4.62649 -1.83243 82 92 104
-2.17688 5.09977 -1.84234 79 89 101
-2.06028 5.32538 -1.85236 83 89 101
-1.91143 5.50957 -1.84571 80 87 103
-2.85577 4.03498 -1.82681 78 85 101
-2.84226 4.1155 -1.83849 79 86 99
-2.82775 4.11916 -1.83768 76 84 97
-2.60515 4.47785 -1.84324 79 87 100
-2.46546 4.63601 -1.83472 82 90 103
-2.36995 4.83627 -1.84628 80 90 102
-2.21227 4.9896 -1.83045 78 88 98
-2.04174 5.32297 -1.85027 83 89 103
-1.89351 5.51411 -1.84639 82 91 104
-2.84155 4.03865 -1.82599 78 88 100
-2.81044 4.11603 -1.83359 76 86 98
-2.71322 4.30198 -1.84236 80 86 100
-2.69448 4.29495 -1.83677 78 86 99
-2.59074 4.48431 -1.84402 80 89 101
-2.44958 4.63838 -1.83396 80 88 101
-2.34721 4.84569 -1.84778 81 91 103
-2.1958 4.99308 -1.83046 77 86 96
-2.15879 5.0977 -1.8402 83 91 102
-2.83075 4.05069 -1.8293 78 88 99
-2.79803 4.12466 -1.83523 75 85 97
-2.57455 4.48549 -1.84247 76 87 102
-2.01456 5.32016 -1.84749 81 89 102
