-4.5411 -6.33636 -1.62359 120 117 128
-6.44319 -4.85273 -1.78874 86 89 108
-6.46231 -4.83651 -1.79016 63 66 83
-6.47525 -4.81547 -1.78968 92 93 111
-6.49119 -4.79675 -1.79015 102 104 119
-6.51772 -4.77032 -1.79156 101 102 120
-6.52577 -4.74562 -1.78967 99 102 119
-6.54773 -4.73137 -1.79203 98 101 120
-6.56149 -4.69538 -1.78967 95 98 117
-6.58178 -4.6798 -1.79155 93 98 117
-6.59575 -4.65956 -1.79155 92 97 116
-6.61383 -4.62683 -1.7906 94 99 118
-6.64027 -4.61555 -1.79437 94 99 118
-6.64454 -4.58835 -1.79154 96 99 118
-6.66297 -4.57127 -1.79295 95 100 120
-6.67425 -4.5338 -1.79011 98 96 117
-6.69574 -4.5188 -1.79247 96 97 117
-6.7092 -4.49819 -1.79247 94 99 118
-6.73288 -4.46938 -1.79341 94 99 118
-6.74618 -4.44865 -1.79341 93 100 118
-8.15337 -2.60913 -1.81271 79 87 110
-8.17558 -2.58848 -1.81632 77 87 112
-8.15524 -2.54049 -1.80864 84 95 117
-8.67592 -1.85051 -1.81394 78 90 112
-8.67708 -1.82266 -1.81306 78 90 112
-9.10068 -1.32441 -1.8237 72 84 110
-9.10206 -1.29563 -1.82327 73 85 111
-9.47243 -0.809607 -1.82845 75 87 111
-9.47607 -0.784559 -1.82892 76 90 116
-9.45542 -0.701038 -1.8091 73 89 115
-9.47628 -0.672824 -1.81315 71 87 113
-3.24169 -7.75799 -1.57164 127 125 130
-3.26809 -7.75592 -1.57326 128 126 131
-3.62622 -7.32496 -1.58741 125 123 134
-3.65172 -7.32142 -1.58909 127 124 135
-3.99073 -6.89091 -1.59951 128 125 133
-4.00789 -6.87234 -1.59776 130 125 132
-4.44798 -6.38675 -1.6209 128 125 136
-4.46935 -6.37676 -1.6218 129 126 137
-4.50723 -6.36969 -1.62541 131 128 139
-6.17566 -5.18992 -1.78832 110 108 122
-6.18977 -5.16972 -1.78784 110 108 122
-6.20902 -5.13745 -1.78643 108 105 122
-6.23479 -5.12724 -1.78973 107 106 122
-6.24869 -5.10687 -1.78925 107 109 122
-6.26908 -5.07562 -1.7883 110 108 122
-6.29475 -5.0651 -1.7916 107 106 120
-6.31143 -5.04703 -1.79207 106 105 119
-6.32357 -5.02519 -1.79113 107 106 122
-6.3375 -4.9887 -1.78829 106 105 121
-6.35849 -4.97414 -1.79018 98 97 113
-6.3734 -4.95463 -1.79017 98 100 115
-6.39299 -4.92284 -1.78923 99 101 116
-6.41077 -4.90562 -1.79017 92 93 111
-6.42547 -4.88593 -1.79016 90 93 110
-6.76102 -4.42895 -1.79387 89 96 114
-6.77794 -4.39554 -1.79293 95 102 121
-6.791 -4.37466 -1.79292 94 101 120
-6.81049 -4.35801 -1.79481 93 100 119
-6.82833 -4.34021 -1.79622 93 100 118
-6.83663 -4.30123 -1.79291 94 99 118
-6.8445 -4.277 -1.7915 96 101 120
-6.86702 -4.26218 -1.79432 96 98 119
-6.888 -4.23144 -1.79479 96 98 119
-6.90219 -4.21124 -1.79526 96 101 120
-6.91469 -4.18995 -1.79526 98 103 122
-6.9304 -4.1559 -1.79431 97 102 121
-6.94601 -4.13655 -1.79525 98 102 121
-6.95496 -4.1131 -1.7943 98 101 120
-6.97544 -4.09666 -1.79666 101 104 123
-8.19215 -2.52429 -1.81586 82 94 116
-8.19551 -2.49767 -1.81495 77 88 110
-8.1989 -2.45718 -1.81314 85 92 118
-8.70101 -1.79966 -1.81742 74 86 110
-8.6876 -1.75463 -1.81262 71 86 109
-9.1227 -1.2695 -1.82706 71 86 112
-9.12196 -1.24041 -1.82621 69 85 110
-9.4835 -0.759865 -1.83034 71 85 112
-9.46389 -0.642127 -1.81031 73 89 115
-3.22012 -7.77278 -1.57286 131 126 132
-3.59664 -7.31953 -1.58362 128 126 137
-3.92891 -6.90266 -1.59515 127 124 131
-3.9634 -6.89052 -1.59645 127 124 131
-4.39405 -6.4114 -1.61864 129 126 135
-4.42981 -6.40155 -1.62135 125 122 131
-5.99868 -5.37755 -1.78552 112 110 125
-6.02904 -5.35528 -1.7874 114 112 129
-6.04659 -5.33814 -1.78787 113 112 128
-6.05977 -5.31702 -1.78692 112 111 127
-6.08268 -5.28788 -1.78645 110 109 125
-6.11016 -5.27963 -1.79022 109 107 123
-6.11297 -5.24928 -1.78597 110 107 124
-6.1302 -5.23185 -1.78644 108 105 122
-6.16147 -5.21007 -1.78879 109 108 124
-6.98899 -4.06137 -1.79524 101 104 123
-6.99934 -4.0388 -1.79477 100 103 120
-7.01964 -4.02213 -1.79712 100 105 121
-7.03617 -3.98863 -1.79665 99 105 122
-7.05132 -3.96885 -1.79759 97 103 121
-7.06135 -3.94611 -1.79711 103 108 126
-7.08257 -3.9153 -1.79805 108 111 128
-7.09751 -3.89534 -1.799 106 109 127
-8.21696 -2.43498 -1.81585 80 86 112
-8.22002 -2.40832 -1.81494 79 89 116
-8.70754 -1.73066 -1.81611 69 84 107
-8.70257 -1.7016 -1.81392 75 87 111
-9.12884 -1.19778 -1.82663 66 82 107
-9.12593 -1.16845 -1.82536 76 88 114
-9.47849 -0.721223 -1.82845 69 85 111
-9.47799 -0.695778 -1.82798 77 93 119
-9.46601 -0.597591 -1.81031 70 86 111
-9.4729 -0.568259 -1.81152 73 87 113
-3.20526 -7.84347 -1.58543 135 128 134
-3.54228 -7.34906 -1.58447 127 125 136
-3.56373 -7.33694 -1.58404 126 124 135
-3.88698 -6.92549 -1.59516 126 123 132
-3.90977 -6.91756 -1.59602 127 124 137
-4.35747 -6.4406 -1.61955 125 122 131
-4.37472 -6.4244 -1.61865 127 122 132
-5.90286 -5.50636 -1.78931 109 106 119
-5.91525 -5.48428 -1.78789 115 113 127
-5.93458 -5.46889 -1.78883 116 114 128
-5.94401 -5.44404 -1.78647 114 112 126
-5.97038 -5.4181 -1.78694 111 108 125
-5.98812 -5.40117 -1.78741 114 111 128
-7.11069 -3.87436 -1.79946 89 95 115
-7.12719 -3.85522 -1.80088 94 99 121
-7.14972 -3.82498 -1.80229 94 99 119
-7.13883 -3.79079 -1.79615 92 94 115
-7.16364 -3.77613 -1.79992 89 92 111
-7.17898 -3.74198 -1.79945 103 104 122
-7.18826 -3.71888 -1.79897 105 105 123
-7.19575 -3.69484 -1.79803 104 105 123
-8.22858 -2.36939 -1.81449 84 92 111
-8.22205 -2.34006 -1.81132 79 87 108
-8.23793 -2.31709 -1.81358 82 89 108
-8.70587 -1.66015 -1.81305 62 77 100
-8.70642 -1.63228 -1.81217 73 88 111
-9.12293 -1.13914 -1.8241 68 82 108
-9.48127 -0.670677 -1.82845 76 92 118
-9.48063 -0.645233 -1.82798 73 89 115
-9.46993 -0.538301 -1.81071 69 84 110
-3.2097 -7.92981 -1.60247 133 128 134
-3.48893 -7.34988 -1.57984 128 127 133
-3.512 -7.3415 -1.58026 128 126 136
-3.83221 -6.95017 -1.59429 127 126 134
-3.86596 -6.9368 -1.59516 126 125 130
-4.2889 -6.48538 -1.61956 130 127 136
-4.30738 -6.47102 -1.61911 130 124 134
-4.32372 -6.45332 -1.61775 129 124 134
-5.77615 -5.6228 -1.7865 131 128 137
-5.79173 -5.60379 -1.78602 132 129 139
-5.80864 -5.58611 -1.78602 135 133 145
-5.84118 -5.56633 -1.78838 139 136 148
-5.86626 -5.55668 -1.79121 114 112 125
-5.88718 -5.54284 -1.79262 107 105 118
-7.21241 -3.66145 -1.79802 104 107 124
-7.2266 -3.64093 -1.79896 104 107 124
-7.23727 -3.61859 -1.79896 106 112 127
-7.24789 -3.5962 -1.79896 108 110 125
-7.26407 -3.56256 -1.79895 107 108 126
-8.25373 -2.29405 -1.81583 84 92 113
-8.27678 -2.25907 -1.81899 82 90 113
-8.71835 -1.60657 -1.81391 72 84 108
-8.71679 -1.57832 -1.8126 72 84 108
-9.14292 -1.09807 -1.82746 77 92 115
-9.14551 -1.06941 -1.82746 80 91 115
-9.4828 -0.607308 -1.82798 72 86 112
-9.48387 -0.582018 -1.82798 72 87 110
-9.47741 -0.49405 -1.81192 72 88 113
-9.48593 -0.46471 -1.81354 65 81 106
-3.21294 -8.0144 -1.6191 134 129 134
-3.45821 -7.37216 -1.58153 127 126 133
-3.78649 -6.9654 -1.59255 127 124 134
-3.80672 -6.9526 -1.59211 128 125 135
-4.23747 -6.51357 -1.61867 128 123 133
-4.26108 -6.48481 -1.61595 124 120 129
-5.65243 -5.74182 -1.78557 116 114 127
-5.67377 -5.72882 -1.78699 113 111 123
-5.69876 -5.70144 -1.78651 126 123 134
-5.71731 -5.68546 -1.78698 131 127 140
-5.7304 -5.66384 -1.78556 129 126 137
-5.75293 -5.65192 -1.78745 129 126 137
-7.2745 -3.54008 -1.79895 101 104 121
-7.28835 -3.5193 -1.79989 104 108 125
-7.30068 -3.48375 -1.79894 106 109 124
-7.32133 -3.46625 -1.80177 105 108 123
-7.32622 -3.44106 -1.80035 105 108 123
-8.3451 -2.24998 -1.83389 73 84 106
-8.24589 -2.196 -1.8086 128 130 145
-8.27228 -2.16189 -1.81266 129 123 136
-8.73675 -1.53996 -1.81565 73 87 113
-8.73115 -1.51101 -1.81347 74 89 110
-9.13054 -1.0388 -1.82367 67 82 108
-9.49262 -0.557282 -1.82987 78 92 118
-9.48662 -0.51877 -1.82798 73 89 116
-9.47677 -0.434463 -1.81151 72 88 114
-3.20689 -8.11475 -1.63816 136 127 132
-3.41343 -7.39208 -1.58153 128 127 132
-3.43583 -7.38216 -1.58153 125 124 133
-3.75004 -6.97312 -1.59037 128 125 132
-4.19307 -6.53016 -1.61642 129 126 133
-4.21884 -6.52771 -1.61912 130 127 135
-5.57728 -5.82294 -1.787 121 119 130
-5.59884 -5.81024 -1.78842 117 116 129
-5.61639 -5.79319 -1.78841 112 111 126
-5.63504 -5.75899 -1.78558 112 110 124
-7.33993 -3.40619 -1.79988 106 109 124
-7.35513 -3.38596 -1.80129 102 104 121
-7.36325 -3.36236 -1.80081 101 107 123
-7.37305 -3.33956 -1.80081 99 105 121
-7.38977 -3.30611 -1.80128 99 104 123
-8.27257 -2.13467 -1.8113 131 127 138
-8.28219 -2.10985 -1.8122 126 124 135
-8.73696 -1.48411 -1.8139 72 87 110
-8.73729 -1.44224 -1.81259 72 86 112
-9.15979 -0.998553 -1.82914 69 85 110
-9.14847 -0.968433 -1.82619 68 86 110
-9.48935 -0.493586 -1.82845 72 88 113
-9.47924 -0.404805 -1.81191 70 86 112
-9.47634 -0.360009 -1.81109 70 86 111
-3.21092 -8.20508 -1.65601 130 126 130
-3.38319 -7.41582 -1.58364 128 127 134
-3.70851 -6.99655 -1.59081 127 124 135
-3.72886 -6.98399 -1.59037 125 124 134
-4.14535 -6.56422 -1.61733 129 127 130
-4.16812 -6.55698 -1.61868 127 125 131
-5.50222 -5.90447 -1.7889 119 115 129
-5.51489 -5.88194 -1.78701 121 118 131
-5.53396 -5.8666 -1.78748 122 120 131
-5.55561 -5.85407 -1.78889 122 121 130
-7.38526 -3.27679 -1.7975 100 103 122
-7.40187 -3.25711 -1.79939 101 102 122
-7.42353 -3.22587 -1.80127 99 104 123
-7.43646 -3.20444 -1.80221 97 104 120
-8.28743 -2.04298 -1.80994 79 82 97
-8.73905 -1.41466 -1.81215 69 83 109
-8.73687 -1.38645 -1.81083 68 82 108
-9.13511 -0.938191 -1.82281 69 85 111
-9.15277 -0.911056 -1.82618 69 85 110
-9.5017 -0.46898 -1.83129 71 87 112
-9.49915 -0.430719 -1.83034 74 90 116
-9.47273 -0.330114 -1.81028 70 84 110
-3.19106 -8.22903 -1.65925 130 127 132
-3.33888 -7.43706 -1.58407 124 122 132
-3.36067 -7.42558 -1.58365 121 120 130
-3.64486 -7.00214 -1.58558 128 127 132
-3.67032 -7.00033 -1.58776 130 127 134
-4.10173 -6.58182 -1.61553 128 125 132
-4.12851 -6.58143 -1.61868 129 126 133
-5.42283 -6.00054 -1.79316 121 119 132
-5.44532 -5.96993 -1.79127 117 115 128
-5.46595 -5.9563 -1.79221 117 116 130
-5.47238 -5.92656 -1.78796 120 118 132
-7.4422 -3.17984 -1.80126 94 102 117
-7.46709 -3.14986 -1.80409 99 106 122
-7.47444 -3.12596 -1.80362 101 106 122
-7.49957 -3.10963 -1.80786 83 89 107
-8.34599 -2.02998 -1.82258 79 90 109
-8.33636 -2.00035 -1.81896 78 86 107
-8.75405 -1.34738 -1.81345 69 83 109
-9.14837 -0.86728 -1.82449 75 89 115
-9.48609 -0.404642 -1.82704 70 86 112
-9.50399 -0.380201 -1.83129 65 81 106
-9.48073 -0.300645 -1.8119 73 88 111
-3.14848 -8.22974 -1.65642 132 127 134
-3.30833 -7.46048 -1.58618 130 129 137
-3.62944 -7.02501 -1.58864 127 125 130
-4.02776 -6.61692 -1.61373 128 125 134
-4.05062 -6.61011 -1.61508 127 124 134
-4.07447 -6.6049 -1.61688 127 124 133
-5.34259 -6.07697 -1.79412 119 113 123
-5.366 -6.06669 -1.79601 118 114 128
-5.39266 -6.04073 -1.79553 119 116 126
-5.40336 -6.01549 -1.79269 116 115 123
-7.49246 -3.07959 -1.80361 72 83 108
-7.5062 -3.04474 -1.80361 77 93 119
-7.54552 -3.03406 -1.81163 83 99 124
-7.56146 -3.0136 -1.81351 73 87 113
-8.35057 -1.9627 -1.82031 75 86 105
-8.35018 -1.93535 -1.81896 77 88 109
-8.3668 -1.91191 -1.82166 66 78 104
-8.76321 -1.32095 -1.81475 72 86 112
-8.7665 -1.2936 -1.81475 72 86 112
-9.14636 -0.838243 -1.82364 73 87 113
-9.15983 -0.810555 -1.82617 69 85 111
-9.50046 -0.354647 -1.83034 71 85 111
-9.48906 -0.256223 -1.81352 65 80 103
-3.26153 -7.47581 -1.58535 128 126 132
-3.28641 -7.4718 -1.58661 131 128 135
-3.57482 -7.04932 -1.58821 128 125 136
-3.59868 -7.04424 -1.58952 128 125 134
-3.97257 -6.63782 -1.61148 129 127 132
-3.99739 -6.6346 -1.61373 130 127 134
-5.27615 -6.13178 -1.79366 120 115 121
-5.30812 -6.11224 -1.79507 115 109 119
-5.33036 -6.1006 -1.79648 118 113 120
-7.56228 -2.97333 -1.8102 69 83 109
-7.56904 -2.94916 -1.80973 72 86 112
-7.58294 -2.92783 -1.81114 71 85 111
-8.38821 -1.87572 -1.82482 77 90 109
-8.37803 -1.84623 -1.8212 75 88 107
-8.76202 -1.26508 -1.813 71 87 112
-8.76129 -1.22322 -1.81169 74 88 114
-9.15495 -0.766824 -1.82448 73 89 114
-9.4993 -0.316519 -1.82987 77 91 117
-9.50529 -0.291382 -1.83129 75 90 113
-3.22997 -7.49708 -1.58703 132 128 137
-3.53197 -7.06986 -1.58822 125 122 131
-3.55341 -7.05963 -1.58821 123 120 130
-3.95157 -6.64774 -1.61103 128 126 131
-5.11353 -6.14408 -1.77055 116 106 107
-5.14669 -6.14683 -1.77621 128 118 119
-5.17506 -6.14337 -1.77998 126 116 117
-5.21437 -6.13341 -1.78422 121 112 116
-5.25875 -6.14924 -1.79413 121 114 120
-7.605 -2.89607 -1.8135 73 87 113
-7.60065 -2.86757 -1.81019 80 94 120
-7.61613 -2.84676 -1.81208 74 86 112
-7.62612 -2.82382 -1.81254 65 79 106
-8.38678 -1.82093 -1.8221 75 86 106
-8.40017 -1.78288 -1.82346 76 87 105
-8.77201 -1.19695 -1.81343 72 86 112
-8.77686 -1.16982 -1.81386 69 84 108
-9.16819 -0.739016 -1.827 76 91 115
-9.15019 -0.708793 -1.82279 79 91 116
-9.50148 -0.265861 -1.83034 72 87 110
-3.22084 -7.54086 -1.59504 133 127 136
-3.49534 -7.07619 -1.58604 129 128 133
-3.87424 -6.67593 -1.60788 127 124 132
-3.89529 -6.66627 -1.60833 127 126 133
-3.92011 -6.66334 -1.61058 127 126 132
-4.96827 -6.13444 -1.74649 123 113 111
-4.994 -6.12864 -1.74932 128 118 118
-5.03648 -6.1442 -1.75875 120 111 109
-5.07071 -6.14884 -1.76489 116 107 107
-7.64045 -2.78899 -1.81301 79 93 119
-7.65025 -2.76596 -1.81348 69 83 110
-7.65635 -2.74154 -1.81301 76 90 116
-8.41445 -1.75866 -1.82571 71 82 101
-8.40385 -1.72929 -1.82209 72 83 105
-8.78918 -1.12973 -1.81561 76 88 111
-9.04169 -0.78923 -1.81669 67 83 109
-9.03103 -0.751759 -1.81323 73 87 113
-9.16042 -0.666275 -1.82447 76 91 114
-9.49214 -0.227498 -1.82799 73 87 113
-9.50367 -0.202479 -1.83082 72 87 111
-3.22644 -7.62285 -1.61189 130 125 132
-3.44995 -7.09087 -1.58474 125 124 131
-3.47384 -7.08624 -1.58604 128 127 132
-3.84544 -6.69628 -1.60878 127 124 133
-4.81457 -6.12911 -1.72243 128 118 109
-4.85685 -6.12594 -1.72809 126 115 109
-4.89067 -6.13142 -1.73422 124 113 109
-4.92693 -6.13984 -1.7413 124 113 109
-7.66847 -2.70588 -1.813 76 88 114
-7.68715 -2.68601 -1.81583 71 85 112
-7.69665 -2.66279 -1.8163 74 90 116
-8.42562 -1.70652 -1.82616 72 84 108
-8.43466 -1.66745 -1.8266 72 87 110
-8.78801 -1.10178 -1.81473 74 86 109
-8.78484 -1.0736 -1.81342 75 89 115
-9.04987 -0.729247 -1.81768 72 87 110
-9.15776 -0.637269 -1.82362 71 85 111
-9.16477 -0.608902 -1.82488 72 86 112
-9.49571 -0.1769 -1.82893 71 86 109
-3.23084 -7.70313 -1.62832 135 130 136
-3.41956 -7.11106 -1.58605 125 122 132
-3.80221 -6.71348 -1.60744 125 122 136
-3.82521 -6.70749 -1.60879 126 124 136
-4.70643 -6.12132 -1.70498 134 121 113
-4.75193 -6.12352 -1.71205 128 115 109
-4.78091 -6.12326 -1.7163 128 115 109
-6.11169 -4.71269 -1.78965 95 98 115
-6.12716 -4.69502 -1.79014 97 100 117
-6.14872 -4.68203 -1.79261 91 96 115
-6.16985 -4.65355 -1.79261 95 97 118
-6.18051 -4.63217 -1.79162 94 96 119
-6.19884 -4.61659 -1.7931 95 97 118
-6.2119 -4.58208 -1.79062 91 96 115
-6.22542 -4.5629 -1.79062 93 98 117
-6.24824 -4.55055 -1.79358 92 97 116
-6.25229 -4.5244 -1.79061 91 98 116
-6.27738 -4.49881 -1.79209 94 97 116
-6.28908 -4.47829 -1.79159 96 99 118
-6.30384 -4.45997 -1.79209 95 98 117
-6.32393 -4.43073 -1.79208 93 100 116
-6.31006 -4.39227 -1.78366 85 88 107
-6.34679 -4.38936 -1.79109 94 99 119
-6.37611 -4.3665 -1.79405 102 104 125
-6.39056 -4.34787 -1.79455 98 103 122
-6.39055 -4.31938 -1.79058 97 102 121
-6.41286 -4.30612 -1.79355 91 96 115
-6.43384 -4.2774 -1.79404 92 99 117
-6.43995 -4.2532 -1.79206 91 98 117
-7.69557 -2.62245 -1.81299 76 88 114
-7.70119 -2.59791 -1.81252 81 95 121
-7.71593 -2.57651 -1.8144 84 95 120
-8.44097 -1.6415 -1.82705 72 87 110
-8.43189 -1.61262 -1.82389 69 84 109
-8.80639 -1.03455 -1.81734 78 92 118
-9.04745 -0.704747 -1.81669 72 84 106
-9.04602 -0.668191 -1.8157 71 83 107
-9.17168 -0.580492 -1.82614 71 85 111
-9.49371 -0.138818 -1.82846 74 87 111
-9.50496 -0.113663 -1.83129 72 86 110
-3.21695 -7.77354 -1.64138 138 133 139
-3.3771 -7.13239 -1.58649 126 124 135
-3.40106 -7.12802 -1.5878 126 123 135
-3.74745 -6.73412 -1.60564 125 124 132
-3.7883 -6.7366 -1.6106 125 123 136
-4.5715 -6.11293 -1.68375 138 122 112
-4.61436 -6.11286 -1.68989 136 122 111
-4.64878 -6.12108 -1.69649 135 121 111
-4.67416 -6.11654 -1.69932 135 122 113
-5.87627 -5.00529 -1.7887 111 110 124
-5.88085 -4.9784 -1.78523 111 112 125
-5.9074 -4.97036 -1.78919 111 113 126
-5.91771 -4.94842 -1.7877 108 110 123
-5.95048 -4.9298 -1.79117 107 109 124
-5.96064 -4.90777 -1.78968 106 108 123
-5.97071 -4.88571 -1.78819 105 108 125
-6.00628 -4.86917 -1.79264 99 105 119
-6.0207 -4.85067 -1.79264 100 103 118
-6.02454 -4.82359 -1.78917 103 105 123
-6.04786 -4.79694 -1.78966 98 101 120
-6.07113 -4.78554 -1.79263 96 99 118
-6.08226 -4.76442 -1.79164 93 100 118
-6.0918 -4.74207 -1.79015 93 100 118
-6.45567 -4.23539 -1.79304 93 101 120
-6.4828 -4.21069 -1.79552 96 101 120
-6.48541 -4.18429 -1.79254 93 98 117
-6.50093 -4.1663 -1.79353 100 105 124
-6.51312 -4.1319 -1.79155 97 102 121
-6.5334 -4.1169 -1.79402 97 100 119
-6.55201 -4.10078 -1.796 99 100 120
-6.56075 -4.07841 -1.795 99 102 121
-6.57244 -4.04382 -1.79302 102 103 123
-6.58758 -4.02546 -1.79401 101 102 122
-6.5911 -3.99999 -1.79153 102 105 124
-6.61399 -3.97231 -1.79301 101 107 123
-6.62227 -3.94981 -1.79201 99 105 121
-7.72508 -2.55317 -1.81487 75 85 110
-7.73814 -2.51779 -1.81534 71 83 107
-7.74712 -2.49435 -1.81581 72 84 110
-8.44623 -1.57455 -1.82569 75 88 112
-8.43882 -1.54609 -1.82298 72 86 109
-8.80492 -1.00658 -1.81647 77 91 117
-8.80337 -0.978624 -1.81559 68 82 108
-9.04148 -0.643573 -1.81422 68 83 107
-9.04073 -0.619284 -1.81372 72 86 112
-9.17546 -0.537417 -1.82656 71 86 109
-9.16265 -0.507897 -1.82361 70 84 110
-9.49282 -0.088107 -1.82846 69 83 109
-3.22655 -7.87044 -1.66161 133 127 133
-3.3434 -7.14506 -1.58606 126 124 135
-3.71119 -6.76449 -1.6079 126 125 131
-3.7298 -6.7502 -1.60699 126 125 132
-4.47055 -6.10937 -1.66866 140 124 111
-4.51317 -6.10995 -1.67479 137 123 112
-4.54176 -6.11071 -1.67904 136 122 113
-5.71142 -5.1881 -1.78725 100 103 118
-5.72543 -5.16926 -1.78675 103 105 120
-5.73937 -5.15038 -1.78625 107 109 124
-5.73973 -5.10317 -1.77832 109 108 124
-5.78947 -5.11656 -1.79021 109 108 124
-5.79745 -5.09234 -1.78773 108 107 123
-5.82487 -5.06944 -1.78921 111 110 124
-5.84139 -5.05281 -1.7897 112 109 126
-5.85493 -5.03358 -1.7892 106 105 121
-6.64879 -3.93817 -1.79647 99 105 121
-6.65307 -3.89935 -1.7925 103 106 123
-6.67279 -3.88358 -1.79498 102 105 122
-6.68078 -3.86092 -1.79398 91 98 114
-6.69371 -3.84115 -1.79447 102 103 121
-6.71256 -3.81092 -1.79497 96 102 119
-6.72367 -3.79007 -1.79496 92 98 117
-6.71445 -3.75781 -1.78902 97 99 118
-7.7634 -2.4733 -1.81816 76 86 113
-7.77794 -2.4383 -1.81911 85 92 118
-8.4716 -1.52487 -1.82975 72 87 110
-8.79398 -0.949819 -1.81297 72 86 112
-9.04569 -0.595425 -1.81471 70 84 110
-9.03407 -0.55825 -1.81125 73 88 111
-9.1712 -0.479521 -1.82529 69 81 107
-9.5039 -0.0628748 -1.83129 71 85 111
-9.49942 -0.0247581 -1.83035 75 90 114
-3.23076 -7.95467 -1.67888 135 130 136
-3.30669 -7.18031 -1.58999 129 127 138
-3.32772 -7.169 -1.58955 128 126 136
-3.67307 -6.76674 -1.60429 125 124 132
-4.37782 -6.11558 -1.65687 138 124 115
-4.41477 -6.10872 -1.66064 138 122 112
-4.44649 -6.11472 -1.6663 140 123 111
-5.57965 -5.32109 -1.78529 111 111 125
-5.59968 -5.30803 -1.78677 112 111 125
-5.6141 -5.28952 -1.78627 110 109 125
-5.6367 -5.26235 -1.78577 104 107 122
-5.65658 -5.24905 -1.78726 110 114 128
-5.6708 -5.23038 -1.78676 112 118 134
-5.69877 -5.20821 -1.78824 108 111 126
-6.75322 -3.73873 -1.79545 101 106 125
-6.76749 -3.71961 -1.79644 104 109 128
-6.7766 -3.69765 -1.79594 102 106 123
-6.78459 -3.66144 -1.79346 106 109 124
-6.80205 -3.64401 -1.79544 105 108 123
-6.81604 -3.62469 -1.79643 107 109 124
-6.82484 -3.60259 -1.79593 110 111 129
-7.78482 -2.41413 -1.8191 77 88 110
-7.79162 -2.38994 -1.8191 80 91 113
-7.79465 -2.35131 -1.81721 76 86 109
-8.44909 -1.4802 -1.82297 70 84 110
-8.45864 -1.4548 -1.82432 70 84 110
-8.79561 -0.908387 -1.81253 73 87 113
-8.81313 -0.882509 -1.81602 65 79 105
-9.05428 -0.535398 -1.8162 72 87 110
-9.17059 -0.43624 -1.82487 73 88 112
-3.19879 -7.98133 -1.68183 132 130 135
-3.28411 -7.18794 -1.58956 124 121 132
-3.63477 -6.79319 -1.60565 125 122 131
-3.65438 -6.78086 -1.6052 126 123 133
-4.293 -6.1108 -1.64414 135 123 113
-4.31152 -6.09794 -1.64413 139 125 115
-4.34409 -6.10603 -1.65027 141 127 118
-5.48672 -5.42669 -1.78679 110 109 125
-5.5059 -5.39602 -1.78481 109 110 123
-5.52748 -5.38461 -1.78678 111 110 124
-5.54765 -5.37176 -1.78827 111 110 124
-5.56505 -5.35612 -1.78876 110 111 126
-6.83061 -3.56535 -1.79295 102 105 124
-6.85467 -3.55124 -1.79691 98 104 122
-6.86151 -3.52815 -1.79592 98 105 123
-6.87204 -3.49347 -1.79443 103 107 124
-6.88905 -3.47558 -1.79641 101 105 122
-6.90602 -3.45761 -1.79838 104 106 123
-7.81239 -2.33049 -1.82004 77 87 112
-7.81892 -2.3062 -1.82003 72 84 108
-8.46621 -1.42902 -1.82522 70 85 108
-8.46408 -1.40164 -1.82386 70 84 109
-8.80536 -0.853987 -1.81383 63 77 103
-9.04933 -0.51084 -1.81471 72 84 109
-9.05469 -0.474794 -1.8157 74 86 110
-9.16917 -0.407364 -1.82444 75 89 115
-9.17546 -0.378798 -1.8257 69 85 110
-3.1745 -7.99046 -1.68184 127 124 131
-3.22977 -7.21303 -1.59 129 128 135
-3.24946 -7.19835 -1.58869 125 123 131
-3.5804 -6.81413 -1.6043 124 121 132
-3.60097 -6.80371 -1.6043 126 123 134
-4.23019 -6.11821 -1.63706 139 129 124
-4.26046 -6.12346 -1.64225 133 122 115
-5.39773 -5.51949 -1.7873 112 110 124
-5.41688 -5.50578 -1.78829 108 107 121
-5.43196 -5.48782 -1.78779 109 108 122
-5.45962 -5.46565 -1.78878 109 108 122
-5.46913 -5.44206 -1.7863 108 107 121
-6.89711 -3.41332 -1.79145 100 103 120
-6.93127 -3.40381 -1.79838 96 102 118
-6.93413 -3.37883 -1.79639 97 100 119
-6.94563 -3.35808 -1.79688 98 99 120
-6.9675 -3.32896 -1.79886 100 105 124
-7.83096 -2.28356 -1.82144 71 80 108
-7.83346 -2.24485 -1.81955 76 86 113
-8.47169 -1.36228 -1.82431 75 90 113
-8.47705 -1.33611 -1.82476 70 85 108
-8.82011 -0.813812 -1.81645 70 86 112
-8.8257 -0.7866 -1.81732 70 87 113
-9.05146 -0.450381 -1.81471 75 87 111
-9.18806 -0.33597 -1.82823 68 82 108
-3.16485 -8.03993 -1.69111 129 126 135
-3.22376 -7.26204 -1.59961 130 129 134
-3.54257 -6.84177 -1.60612 126 123 132
-3.56237 -6.82973 -1.60566 127 124 133
-4.18011 -6.14468 -1.63565 141 130 128
-4.21055 -6.12918 -1.6366 138 127 123
-5.33178 -5.60298 -1.79078 131 131 141
-5.34985 -5.58811 -1.79127 134 133 144
-5.36255 -5.56754 -1.78978 136 135 147
-5.37784 -5.54975 -1.78929 119 117 130
-6.97535 -3.30643 -1.79836 99 103 121
-6.97962 -3.28222 -1.79687 100 101 120
-7.00995 -3.25693 -1.80133 97 102 121
-7.01755 -3.23427 -1.80083 96 101 120
-7.92363 -2.24486 -1.84079 75 80 101
-7.81979 -2.18861 -1.81294 135 133 147
-7.82743 -2.1516 -1.81246 131 125 137
-8.47269 -1.30846 -1.82295 73 88 111
-8.8312 -0.759351 -1.81819 72 86 113
-9.06363 -0.42679 -1.81768 79 94 117
-9.05507 -0.389984 -1.81521 72 88 113
-9.18047 -0.306875 -1.82654 66 80 106
-3.09995 -8.05314 -1.68901 128 127 134
-3.12378 -8.0424 -1.68858 127 125 134
-3.2117 -7.33017 -1.61271 126 123 132
-3.50863 -6.85181 -1.60477 126 123 134
-4.14375 -6.17114 -1.63613 138 131 134
-4.16559 -6.16369 -1.63755 141 132 130
-5.2569 -5.69505 -1.79475 137 134 144
-5.275 -5.66239 -1.79178 131 127 141
-5.29193 -5.6463 -1.79178 132 129 138
-5.29961 -5.62019 -1.78831 131 130 138
-7.02685 -3.2124 -1.80083 99 102 119
-7.01283 -3.1668 -1.7929 98 103 122
-7.01837 -3.14336 -1.79191 96 103 121
-7.03623 -3.1254 -1.79438 99 104 123
-7.04341 -3.10268 -1.79388 93 101 120
-7.84088 -2.12934 -1.81435 130 126 140
-7.83928 -2.10289 -1.81246 127 124 135
-8.47987 -1.26903 -1.8234 73 88 111
-8.49266 -1.24392 -1.82565 76 90 116
-8.81642 -0.716451 -1.81425 72 88 114
-8.81201 -0.688406 -1.81294 73 87 113
-9.06125 -0.366031 -1.81669 72 86 112
-9.18254 -0.278093 -1.82695 68 84 108
-9.16498 -0.24882 -1.82316 69 83 107
-3.07608 -8.0638 -1.68943 126 124 135
-3.21994 -7.41737 -1.63148 132 127 134
-3.46387 -6.86492 -1.60297 125 123 133
-3.49042 -6.8672 -1.60612 124 122 132
-4.07141 -6.20404 -1.63331 132 127 134
-4.09433 -6.19851 -1.6352 135 130 135
-4.11109 -6.18299 -1.63425 134 129 133
-5.18692 -5.77525 -1.79774 113 111 124
-5.18626 -5.73913 -1.7908 112 108 121
-5.21368 -5.71684 -1.79129 133 130 140
-5.23854 -5.70959 -1.79426 139 136 146
-7.07839 -3.07897 -1.79982 73 80 101
-7.09254 -3.05918 -1.8013 76 86 110
-7.08704 -3.03098 -1.79734 74 89 112
-7.85401 -2.06783 -1.81387 142 138 153
-7.88784 -2.0509 -1.82095 65 67 82
-7.86345 -2.01845 -1.81339 78 88 109
-8.48992 -1.21656 -1.8243 70 84 110
-8.49476 -1.17676 -1.82429 73 85 111
-8.82691 -0.661913 -1.81599 76 89 113
-8.80678 -0.632696 -1.81119 75 87 111
-9.06736 -0.342035 -1.81818 72 86 112
-9.06226 -0.305447 -1.8167 68 83 106
-9.18675 -0.206054 -1.82779 67 81 107
-3.22201 -7.49015 -1.64676 135 128 135
-3.43806 -6.89221 -1.60613 125 124 130
-4.0097 -6.21082 -1.62671 131 128 136
-4.04242 -6.19952 -1.62859 126 122 132
-5.10312 -5.83978 -1.79577 118 114 129
-5.11809 -5.82131 -1.79478 115 113 126
-5.14841 -5.8023 -1.79626 112 110 124
-5.16704 -5.78808 -1.79675 113 111 125
-7.11109 -3.00231 -1.8003 69 84 107
-7.11787 -2.97937 -1.79981 76 90 116
-7.12636 -2.95716 -1.7998 68 80 107
-7.12146 -2.91646 -1.79485 78 92 118
-7.88591 -1.99838 -1.81763 77 84 108
-7.9152 -1.96684 -1.82282 77 85 104
-8.50148 -1.15072 -1.82519 69 84 107
-8.83024 -0.592885 -1.81599 71 86 111
-9.06624 -0.281332 -1.81769 70 85 108
-9.17287 -0.176968 -1.82484 71 83 108
-3.39716 -6.91368 -1.60659 125 123 134
-3.42373 -6.91625 -1.60975 124 122 131
-3.97489 -6.23955 -1.62813 132 126 136
-3.99482 -6.22938 -1.6286 134 128 138
-5.03991 -5.8922 -1.79528 119 116 128
-5.06379 -5.88428 -1.79776 119 115 129
-5.08935 -5.85968 -1.79726 117 114 128
-7.14232 -2.89932 -1.79831 78 92 118
-7.17032 -2.88494 -1.80375 79 94 118
-7.17851 -2.86255 -1.80375 74 90 115
-7.92434 -1.94315 -1.82376 71 83 105
-7.94096 -1.9213 -1.82659 72 84 108
-8.50617 -1.12439 -1.82564 69 84 107
-8.50885 -1.0978 -1.82564 64 78 104
-8.81959 -0.564473 -1.81336 68 84 110
-9.07015 -0.257194 -1.81867 73 88 111
-9.07398 -0.233026 -1.81966 78 92 118
-9.17453 -0.148169 -1.82526 73 85 109
-3.21454 -7.57488 -1.66378 132 127 134
-3.3662 -6.93006 -1.60704 125 123 136
-3.92206 -6.26047 -1.62578 122 118 125
-3.94501 -6.25551 -1.62766 124 119 129
-4.98346 -5.95288 -1.79777 116 114 127
-4.99395 -5.92876 -1.7948 116 114 127
-5.02961 -5.91641 -1.79826 119 113 126
-5.79086 -4.75266 -1.79425 97 100 119
-5.80492 -4.73492 -1.79425 96 99 118
-5.81005 -4.70969 -1.79117 95 98 115
-5.83432 -4.68541 -1.79219 92 97 116
-5.85264 -4.6712 -1.79373 93 98 118
-5.86048 -4.64835 -1.79168 90 96 118
-5.87573 -4.63159 -1.79219 91 98 117
-5.89363 -4.60211 -1.79116 89 96 112
-5.91175 -4.58763 -1.79269 91 98 114
-5.92531 -4.56948 -1.79269 92 99 118
-5.93683 -4.53501 -1.78961 92 99 118
-5.95325 -4.51915 -1.79063 89 98 115
-5.97879 -4.51034 -1.79473 89 96 114
-5.98537 -4.47217 -1.79011 85 91 113
-6.00469 -4.45846 -1.79216 86 94 115
-6.02399 -4.44467 -1.79421 91 98 116
-6.02631 -4.41801 -1.79062 93 100 119
-6.06167 -4.40175 -1.79574 93 98 117
-6.0638 -4.37505 -1.79215 91 98 116
-6.07823 -4.35754 -1.79266 97 102 121
-6.10252 -4.33289 -1.79419 96 98 119
-6.11997 -4.31751 -1.79572 95 97 118
-6.1358 -4.30093 -1.79674 93 98 117
-6.15829 -4.27482 -1.79776 93 100 118
-6.16141 -4.24915 -1.79469 89 101 117
-6.17705 -4.2324 -1.79571 96 103 121
-6.19739 -4.2189 -1.79827 97 102 122
-6.21319 -4.18804 -1.79724 95 100 119
-6.22072 -4.16561 -1.7957 95 102 118
-6.23932 -4.15079 -1.79774 95 102 120
-6.25477 -4.11976 -1.79672 97 102 121
-6.26685 -4.10047 -1.79671 102 105 124
-6.27244 -4.07686 -1.79466 95 98 117
-6.30363 -4.05633 -1.79876 93 96 113
-6.30905 -4.03265 -1.7967 100 103 120
-6.3257 -4.01634 -1.79824 100 103 122
-6.33746 -3.99681 -1.79823 100 106 122
-6.35375 -3.96642 -1.79772 102 105 124
-6.36208 -3.94472 -1.79669 100 102 123
-7.17666 -2.82326 -1.79979 70 85 111
-7.18646 -2.80154 -1.80028 67 81 110
-7.198 -2.78048 -1.80126 75 89 116
-7.19933 -2.74262 -1.79829 69 85 111
-7.95296 -1.88513 -1.82753 68 80 104
-7.95619 -1.85992 -1.82706 72 84 108
-8.53052 -1.06 -1.8297 59 74 97
-8.50205 -1.02966 -1.82247 67 81 107
-8.8244 -0.537132 -1.81423 71 87 112
-9.07612 -0.19664 -1.82016 73 87 113
-9.18996 -0.105061 -1.82862 75 87 111
-9.17381 -0.0760939 -1.82525 70 84 110
-3.22321 -7.66788 -1.68386 130 126 133
-3.31953 -6.93861 -1.60434 126 124 135
-3.34366 -6.93615 -1.60614 126 124 135
-3.87009 -6.28261 -1.6239 127 124 131
-3.90301 -6.27207 -1.62578 118 112 124
-4.92628 -6.01298 -1.80026 119 113 125
-4.94886 -5.98449 -1.79827 116 113 123
-4.96924 -5.97247 -1.79926 117 115 127
-5.61955 -4.94946 -1.79275 90 92 107
-5.63426 -4.93227 -1.79275 95 97 113
-5.63884 -4.906 -1.78916 93 95 113
-5.65817 -4.87754 -1.78813 90 92 107
-5.68132 -4.8679 -1.7912 97 96 110
-5.70154 -4.85562 -1.79325 97 100 117
-5.70867 -4.8318 -1.79068 95 101 117
-5.74075 -4.81442 -1.79426 95 100 116
-5.75064 -4.79305 -1.79272 94 97 116
-5.76777 -4.77795 -1.79374 98 101 120
-6.37689 -3.92714 -1.79771 105 106 124
-6.3912 -3.89554 -1.79668 103 106 122
-6.41404 -3.88292 -1.80027 107 110 129
-6.41882 -3.85905 -1.79822 86 92 112
-6.43444 -3.82828 -1.7977 85 93 112
-6.439 -3.80439 -1.79565 92 99 117
-6.44513 -3.7815 -1.79411 97 99 120
-6.45449 -3.76059 -1.79359 95 97 118
-6.49621 -3.74536 -1.80127 89 92 111
-6.49547 -3.71843 -1.79768 99 102 121
-7.22338 -2.72625 -1.80274 76 90 116
-7.24921 -2.71043 -1.80769 73 87 113
-7.23926 -2.66844 -1.80175 84 99 125
-7.95558 -1.83381 -1.82564 68 80 102
-7.97097 -1.7984 -1.82752 63 77 103
-8.51798 -1.00463 -1.82563 69 81 107
-8.82993 -0.495947 -1.8151 67 82 108
-8.8248 -0.467986 -1.81379 63 78 105
-9.06236 -0.172092 -1.8167 74 90 116
-9.05818 -0.147777 -1.8157 68 82 108
-9.18688 -0.0472926 -1.82819 80 94 120
-3.18392 -7.70622 -1.68867 130 127 134
-3.20532 -7.69164 -1.68736 131 129 134
-3.3048 -6.96237 -1.60796 121 119 130
-3.83663 -6.31389 -1.62626 128 125 132
-3.85291 -6.29743 -1.62485 133 130 138
-4.86241 -6.06485 -1.80026 116 114 119
-4.89249 -6.04575 -1.80125 117 112 119
-4.90821 -6.02787 -1.80026 118 112 122
-5.49371 -5.07981 -1.79072 106 105 121
-5.50741 -5.06171 -1.79021 110 109 125
-5.52668 -5.04888 -1.79174 109 108 122
-5.5473 -5.03729 -1.79379 107 106 122
-5.56589 -5.0079 -1.79225 106 105 119
-5.57511 -4.98565 -1.79019 106 105 119
-5.59986 -4.97776 -1.79378 97 96 112
-6.51129 -3.70125 -1.79922 100 103 121
-6.52279 -3.66813 -1.79768 105 108 125
-6.53848 -3.65082 -1.79921 103 105 121
-6.55244 -3.63249 -1.80023 103 106 123
-6.56022 -3.59733 -1.79767 102 105 122
-6.57235 -3.57796 -1.79818 100 105 124
-6.58948 -3.56134 -1.80022 102 105 123
-7.27042 -2.6544 -1.80818 71 87 113
-7.24147 -2.61857 -1.79827 80 94 120
-7.23061 -2.58943 -1.79332 75 89 115
-7.96446 -1.77099 -1.82469 70 84 110
-7.97681 -1.74789 -1.82657 70 82 104
-8.51988 -0.964454 -1.82517 72 88 113
-8.52593 -0.938222 -1.82607 74 89 115
-8.8332 -0.440784 -1.81553 71 85 112
-9.07346 -0.111582 -1.81967 73 85 109
-3.15499 -7.73803 -1.69304 124 122 131
-3.26972 -6.96937 -1.60615 126 123 134
-3.78152 -6.33018 -1.62297 123 120 127
-3.8155 -6.32182 -1.62532 126 123 130
-4.80032 -6.11906 -1.80126 118 109 111
-4.83062 -6.10029 -1.80225 119 113 118
-4.84655 -6.08259 -1.80126 117 115 119
-5.3998 -5.17802 -1.79023 105 107 122
-5.41934 -5.16563 -1.79176 109 108 124
-5.4414 -5.13947 -1.79124 109 108 124
-5.45945 -5.12556 -1.79227 108 107 124
-5.47332 -5.10756 -1.79175 106 105 121
-6.59134 -3.53629 -1.79766 100 105 124
-6.61387 -3.50934 -1.7997 102 108 124
-6.62065 -3.48702 -1.79868 106 109 128
-6.62733 -3.46469 -1.79765 103 109 125
-6.65128 -3.43838 -1.8002 101 107 123
-6.66463 -3.41956 -1.80123 103 107 123
-7.28388 -2.57024 -1.8047 77 91 117
-7.30572 -2.55254 -1.80866 85 97 123
-7.29824 -2.52465 -1.8047 78 89 115
-7.97391 -1.72137 -1.82468 68 83 106
-7.97929 -1.6837 -1.8242 72 84 108
-8.52609 -0.911348 -1.82562 74 86 112
-8.83438 -0.399313 -1.81553 72 86 112
-9.05169 -0.0871218 -1.81422 73 86 111
-9.07047 -0.0629839 -1.81917 71 84 109
-3.13871 -7.76712 -1.69784 126 124 135
-3.23133 -6.99693 -1.60842 126 124 135
-3.25631 -6.9966 -1.61067 126 124 135
-3.74295 -6.35242 -1.62297 128 125 134
-3.75662 -6.3311 -1.62014 131 128 136
-4.74264 -6.15922 -1.80028 122 113 114
-4.76346 -6.14797 -1.80127 124 117 115
-4.78075 -6.132 -1.80077 121 116 114
-5.29235 -5.2946 -1.79127 109 108 124
-5.32313 -5.27734 -1.79383 111 110 126
-5.33615 -5.25837 -1.7928 109 108 124
-5.35182 -5.24212 -1.7928 107 108 126
-5.36201 -5.22032 -1.79075 105 110 129
-5.39389 -5.20399 -1.79382 96 105 122
-6.6745 -3.3989 -1.80122 98 99 117
-6.69132 -3.36873 -1.80173 97 98 118
-6.6976 -3.34622 -1.8007 96 101 121
-6.71068 -3.32719 -1.80173 102 105 124
-6.71856 -3.30551 -1.80121 96 101 120
-7.33818 -2.47491 -1.81063 80 92 118
-7.98378 -1.65885 -1.8242 71 83 105
-7.98819 -1.63398 -1.8242 65 77 99
-8.5353 -0.871913 -1.82697 72 87 112
-8.52168 -0.843712 -1.82335 70 84 110
-8.82312 -0.371134 -1.81291 69 83 109
-8.83316 -0.343924 -1.81508 71 87 113
-9.06793 -0.0265479 -1.81868 71 83 107
-3.117 -7.78151 -1.69915 127 124 135
-3.21876 -7.0574 -1.62016 125 123 134
-3.68771 -6.36786 -1.61968 126 123 130
-3.71076 -6.36379 -1.62156 126 123 131
-4.62466 -6.13709 -1.77752 115 105 104
-4.66143 -6.14806 -1.78544 110 100 102
-4.69945 -6.16042 -1.79385 122 112 115
-5.22426 -5.37067 -1.79282 110 108 124
-5.24028 -5.35478 -1.79282 109 107 121
-5.26995 -5.33646 -1.79486 110 108 122
-5.28852 -5.32321 -1.79588 111 108 125
-6.72975 -3.27252 -1.80018 96 101 120
-6.74089 -3.25249 -1.80069 98 103 123
-6.75546 -3.23411 -1.80222 93 98 117
-6.75761 -3.19677 -1.79864 96 99 117
-6.77549 -3.17997 -1.80119 92 97 117
-7.31571 -2.4422 -1.80271 63 74 101
-7.33549 -2.41085 -1.80518 75 87 113
-7.35877 -2.39324 -1.80963 80 91 118
-8.01977 -1.60172 -1.83033 69 83 109
-8.0164 -1.5752 -1.82844 66 81 104
-8.51766 -0.816506 -1.82199 70 84 110
-8.82757 -0.316044 -1.81377 71 85 111
-9.07298 -0.0022453 -1.82016 71 85 111
-3.07517 -7.77814 -1.69523 124 122 135
-3.21984 -7.12049 -1.63372 129 127 139
-3.66923 -6.38042 -1.62015 128 125 132
-4.53809 -6.15559 -1.76812 126 113 107
-4.57689 -6.17019 -1.77703 123 112 108
-4.58748 -6.14539 -1.77356 124 113 111
-5.14002 -5.46282 -1.79488 110 109 123
-5.15893 -5.45006 -1.79591 116 115 129
-5.16738 -5.42585 -1.79283 115 114 128
-5.19403 -5.42151 -1.79692 109 111 124
-5.20687 -5.38509 -1.79231 110 111 129
-6.78462 -3.15893 -1.80119 98 101 120
-6.7986 -3.12732 -1.80119 88 93 112
-6.81805 -3.1111 -1.80426 72 74 97
-6.80945 -3.08182 -1.79913 65 76 98
-7.33778 -2.36137 -1.8022 81 91 118
-8.00911 -1.54795 -1.8256 69 83 109
-8.54072 -0.791769 -1.82696 74 89 114
-8.81469 -0.28783 -1.81588 71 85 111
-8.82815 -0.274585 -1.81377 71 86 110
-3.03091 -7.80462 -1.69742 125 123 134
-3.05853 -7.80706 -1.70003 126 124 137
-3.23243 -7.21245 -1.65449 129 126 137
-3.62022 -6.40727 -1.62016 131 128 135
-3.6406 -6.3983 -1.62063 130 127 134
-4.44721 -6.16654 -1.75674 131 118 109
-4.47574 -6.16739 -1.7612 127 116 109
-4.50096 -6.16338 -1.76416 127 115 109
-5.09236 -5.52859 -1.79899 106 104 115
-5.1012 -5.50448 -1.79592 113 111 124
-5.11377 -5.48469 -1.79438 112 112 124
-6.82002 -3.06147 -1.79964 72 84 110
-6.83703 -3.03127 -1.80066 75 89 115
-6.82986 -3.00291 -1.79605 66 81 107
-6.86663 -2.99424 -1.80424 78 92 119
-7.40043 -2.26795 -1.8111 84 95 116
-8.027 -1.51273 -1.82843 72 84 106
-8.03286 -1.48807 -1.8289 72 84 106
-8.53384 -0.750846 -1.8247 73 88 114
-8.53342 -0.723974 -1.82424 73 87 113
-8.81707 -0.252806 -1.81639 72 84 108
-8.82818 -0.246943 -1.81376 71 84 109
-8.82423 -0.219186 -1.81289 66 81 106
-2.99167 -7.80816 -1.69524 123 122 128
-3.57938 -6.42501 -1.61922 126 123 132
-3.59801 -6.41272 -1.61875 127 124 131
-4.34356 -6.15698 -1.73942 134 120 111
-4.38175 -6.17264 -1.74833 135 122 114
-4.41654 -6.16238 -1.7513 129 116 108
-5.00322 -5.59915 -1.79696 138 136 149
-5.0325 -5.58077 -1.79849 139 137 150
-5.04666 -5.5626 -1.79746 120 118 131
-5.06456 -5.54876 -1.79797 110 108 122
-6.85508 -2.95134 -1.79707 72 88 114
-6.88827 -2.94082 -1.80423 81 97 123
-6.85767 -2.90256 -1.79296 72 88 114
-6.89527 -2.88117 -1.80013 71 85 111
-7.39165 -2.22763 -1.80614 78 88 115
-7.38666 -2.20118 -1.80317 76 84 104
-8.03291 -1.46232 -1.82795 75 88 107
-8.03478 -1.43693 -1.82748 68 82 103
-8.52903 -0.696801 -1.82288 70 85 110
-8.81125 -0.229202 -1.81485 68 82 108
-8.81112 -0.205811 -1.81485 68 84 110
-8.83604 -0.178005 -1.8155 68 84 110
-2.96349 -7.80363 -1.69219 110 110 113
-3.23124 -7.36894 -1.68792 127 126 134
-3.22787 -7.29656 -1.67211 124 122 132
-3.54873 -6.43899 -1.61875 127 124 133
-4.25135 -6.16196 -1.72705 144 125 115
-4.27955 -6.16366 -1.73151 140 123 113
-4.32287 -6.16678 -1.73844 134 120 109
-4.94775 -5.63839 -1.79492 131 130 139
-4.95838 -5.61604 -1.79235 130 128 139
-4.98144 -5.60837 -1.79491 136 132 146
-6.89636 -2.85672 -1.79808 68 84 110
-6.92226 -2.84272 -1.8032 73 89 115
-6.91072 -2.81304 -1.79756 77 92 118
-7.41314 -2.18401 -1.80861 132 138 151
-7.42252 -2.14916 -1.80861 129 126 139
-7.41166 -2.12115 -1.80415 130 126 140
-8.03881 -1.39902 -1.827 72 87 110
-8.03858 -1.37329 -1.82605 71 86 109
-8.53918 -0.657324 -1.82469 72 84 108
-8.54816 -0.631138 -1.82649 71 83 107
-8.80926 -0.17067 -1.81434 69 85 111
-8.83964 -0.150409 -1.81637 69 85 110
-3.22191 -7.41068 -1.69605 128 127 135
-3.50338 -6.44755 -1.61546 128 125 134
-3.52473 -6.4407 -1.6164 127 124 133
-4.18439 -6.16284 -1.71765 146 124 111
-4.21893 -6.15368 -1.72062 143 123 112
-4.88671 -5.68888 -1.79441 139 136 145
-4.9025 -5.67261 -1.7939 133 132 140
-4.92442 -5.66372 -1.79594 131 130 138
-5.57532 -4.59469 -1.78281 94 98 118
-5.58739 -4.5764 -1.78227 93 95 116
-5.61396 -4.55565 -1.78438 93 98 117
-5.61995 -4.53235 -1.78174 92 98 114
-5.63629 -4.51758 -1.78279 93 98 117
-5.65964 -4.4941 -1.78385 90 97 113
-5.67438 -4.47797 -1.78437 92 101 118
-5.68756 -4.46059 -1.78437 89 100 118
-5.70916 -4.43562 -1.78489 91 98 116
-5.72069 -4.41693 -1.78436 92 99 115
-5.72761 -4.39466 -1.78224 90 97 113
-5.74968 -4.38417 -1.78541 92 97 116
-5.76786 -4.35654 -1.78488 86 91 110
-5.78221 -4.34001 -1.78541 86 91 111
-5.79344 -4.32111 -1.78487 99 104 124
-5.81594 -4.29673 -1.78593 92 97 117
-5.82546 -4.27658 -1.78487 96 101 120
-5.83648 -4.25754 -1.78434 91 98 116
-5.85714 -4.23178 -1.78486 95 100 119
-5.87111 -4.21492 -1.78539 96 103 121
-5.8788 -4.1935 -1.7838 95 102 118
-5.89734 -4.17993 -1.78591 96 101 120
-5.91452 -4.15161 -1.78538 93 94 115
-5.92984 -4.13565 -1.78643 97 103 119
-5.94037 -4.11631 -1.7859 95 102 118
-5.96356 -4.09218 -1.78748 96 101 121
-5.97238 -4.07165 -1.78642 96 101 121
-5.98111 -4.0511 -1.78536 95 102 121
-6.00086 -4.02455 -1.78589 97 103 119
-6.01263 -4.00608 -1.78588 100 103 122
-6.02753 -3.98971 -1.78694 101 104 123
-6.04399 -3.97435 -1.78852 99 102 119
-6.065 -3.94853 -1.78957 103 106 123
-6.08135 -3.93301 -1.79115 100 106 122
-6.09767 -3.91742 -1.79273 98 104 120
-6.11681 -3.89026 -1.79326 97 102 121
-6.12165 -3.86726 -1.79114 101 103 124
-6.13942 -3.85251 -1.79325 105 107 128
-6.932 -2.78444 -1.80012 77 91 117
-6.94883 -2.7665 -1.80267 83 99 121
-6.9477 -2.74127 -1.80011 78 93 122
-6.95254 -2.70597 -1.79806 72 87 116
-7.43982 -2.10418 -1.81009 131 127 141
-8.05165 -1.34988 -1.82841 73 85 109
-8.54154 -0.603845 -1.82468 74 87 111
-8.83596 -0.147904 -1.82151 70 85 109
-8.82954 -0.122552 -1.81419 70 85 108
-3.2016 -7.42527 -1.69741 126 125 133
-3.45296 -6.47131 -1.61499 127 124 135
-3.47265 -6.46116 -1.61499 126 123 134
-4.10151 -6.15778 -1.70479 143 123 110
-4.12524 -6.15362 -1.70726 144 125 111
-4.15214 -6.15424 -1.71122 145 127 113
-4.83602 -5.7522 -1.79852 108 106 118
-4.85081 -5.73458 -1.79749 125 122 132
-4.86434 -5.71543 -1.79595 138 135 144
-5.42714 -4.76971 -1.78231 97 101 117
-5.44724 -4.74357 -1.78177 97 100 119
-5.4656 -4.73076 -1.78336 94 99 118
-5.48102 -4.71534 -1.78388 93 100 118
-5.49649 -4.68515 -1.78176 91 98 116
-5.51325 -4.67088 -1.78282 90 97 115
-5.52996 -4.65654 -1.78387 91 98 116
-5.55098 -4.63116 -1.78387 90 95 115
-5.56466 -4.61419 -1.78387 95 100 120
-6.15501 -3.82308 -1.79272 98 98 124
-6.16123 -3.80104 -1.79113 88 90 113
-6.17229 -3.78203 -1.79113 94 99 118
-6.18002 -3.76097 -1.79007 96 102 118
-6.19185 -3.72935 -1.78848 94 97 114
-6.20764 -3.71322 -1.79006 91 94 111
-6.21348 -3.69109 -1.78847 102 108 124
-6.23158 -3.66328 -1.789 101 107 123
-6.24387 -3.64501 -1.78953 104 107 124
-6.25112 -3.62378 -1.78847 103 104 122
-6.27725 -3.60059 -1.79163 109 110 128
-6.97274 -2.68927 -1.80164 75 89 115
-6.97673 -2.66616 -1.80061 86 100 126
-6.98117 -2.63079 -1.79856 72 88 114
-7.43204 -2.03975 -1.80414 86 83 104
-7.45067 -2.01996 -1.8076 83 87 108
-8.04377 -1.30997 -1.8251 68 83 106
-8.54931 -0.56409 -1.82603 70 84 110
-8.82788 -0.124273 -1.81946 71 86 109
-8.79656 -0.100297 -1.81127 72 87 110
-8.8409 -0.0812068 -1.8168 68 83 106
-3.16387 -7.42982 -1.69516 126 124 135
-3.43325 -6.4814 -1.61499 125 122 133
-4.03204 -6.1522 -1.6939 127 110 102
-4.06397 -6.16139 -1.70034 114 99 93
-4.76347 -5.82486 -1.8011 114 112 126
-4.77735 -5.80593 -1.79956 115 113 127
-4.79474 -5.79151 -1.79955 115 113 126
-4.8157 -5.78156 -1.80109 114 112 125
-5.30884 -4.89788 -1.78127 99 101 116
-5.33379 -4.87623 -1.78233 107 107 123
-5.34682 -4.85866 -1.78179 101 104 119
-5.36404 -4.84498 -1.78285 95 98 115
-5.3902 -4.82433 -1.78443 96 97 115
-5.39592 -4.80011 -1.78126 96 97 115
-5.41442 -4.78752 -1.78284 97 100 117
-6.28267 -3.57831 -1.79004 102 103 121
-6.29638 -3.56081 -1.7911 102 105 122
-6.30166 -3.5385 -1.78951 103 106 123
-6.31738 -3.50926 -1.78951 102 101 122
-6.32249 -3.48692 -1.78792 98 99 117
-6.33762 -3.47016 -1.7895 99 105 119
-6.3564 -3.44259 -1.79055 103 106 125
-6.98857 -2.60904 -1.79856 72 87 114
-7.00312 -2.59 -1.8006 66 82 108
-7.00499 -2.56615 -1.79906 72 88 114
-7.4655 -1.99907 -1.81007 76 87 108
-7.47214 -1.96346 -1.80958 76 86 106
-8.55023 -0.537313 -1.82603 72 86 112
-8.54719 -0.510311 -1.82512 70 84 110
-8.83859 -0.0657756 -1.82253 74 88 114
-8.84354 -0.0258303 -1.81767 72 87 113
-3.12647 -7.46769 -1.70013 129 128 136
-3.15189 -7.46603 -1.70193 127 126 134
-3.37672 -6.49229 -1.61123 127 124 135
-3.40239 -6.49466 -1.61453 125 122 133
-3.97103 -6.15906 -1.68698 142 126 112
-4.01763 -6.17077 -1.69589 142 124 113
-4.72275 -5.86513 -1.80264 111 107 121
-4.74269 -5.85395 -1.80366 110 106 121
-5.21563 -5.00453 -1.78235 107 109 122
-5.22771 -4.98597 -1.78129 112 111 125
-5.23835 -4.96604 -1.7797 110 109 125
-5.25586 -4.95277 -1.78075 106 105 122
-5.28383 -4.93408 -1.78286 104 106 119
-5.29287 -4.91268 -1.78075 100 102 115
-6.35957 -3.41926 -1.78844 101 107 123
-6.36943 -3.39958 -1.78843 102 105 122
-6.38962 -3.37271 -1.79001 98 103 122
-6.40786 -3.35742 -1.79265 98 103 122
-6.41241 -3.3349 -1.79106 99 104 123
-6.422 -3.31505 -1.79106 96 99 118
-7.02702 -2.53741 -1.80213 76 90 116
-7.03412 -2.51551 -1.80213 70 86 112
-7.04662 -2.49556 -1.80366 70 86 111
-7.49619 -1.94483 -1.81452 74 84 106
-7.49393 -1.91942 -1.81254 69 78 102
-8.54989 -0.483643 -1.82557 72 86 112
-8.81094 -0.042039 -1.81537 68 84 109
-3.09208 -7.48094 -1.70013 126 123 131
-3.33052 -6.49783 -1.60746 126 123 134
-3.35444 -6.49686 -1.60981 128 125 136
-3.92185 -6.16278 -1.68104 138 121 113
-3.94946 -6.16592 -1.6855 142 123 115
-4.6651 -5.92069 -1.8047 114 111 120
-4.68052 -5.90356 -1.80367 115 114 122
-4.70045 -5.87317 -1.80059 111 109 122
-5.12875 -5.1028 -1.78395 107 113 127
-5.1412 -5.08448 -1.78289 108 111 126
-5.16152 -5.0583 -1.78183 106 107 121
-5.18062 -5.04669 -1.78341 107 104 121
-5.19696 -5.0323 -1.78394 105 104 120
-6.4384 -3.28608 -1.79159 96 99 118
-6.44955 -3.26701 -1.79211 96 101 120
-6.45722 -3.24616 -1.79158 97 104 120
-6.46641 -3.21356 -1.78999 95 100 119
-6.47735 -3.19437 -1.79052 91 98 114
-7.03746 -2.45548 -1.79802 67 83 108
-7.06069 -2.43931 -1.80263 72 88 114
-7.49831 -1.88321 -1.81155 71 83 107
-7.52215 -1.86429 -1.81649 68 83 104
-8.54737 -0.443272 -1.82466 73 85 109
-8.81794 -0.0186739 -1.81741 66 81 107
-3.06872 -7.48786 -1.69969 124 123 131
-3.30122 -6.51411 -1.60793 123 121 132
-3.83066 -6.16004 -1.66818 132 118 111
-3.8591 -6.16523 -1.67313 134 120 109
-3.88261 -6.16201 -1.6756 135 121 110
-4.62696 -5.96489 -1.80778 116 113 121
-4.6519 -5.94088 -1.80675 118 114 121
-5.03883 -5.18198 -1.78185 105 106 122
-5.05823 -5.17089 -1.78343 99 101 117
-5.07093 -5.15276 -1.78237 103 102 118
-5.08757 -5.13875 -1.7829 104 103 120
-5.11087 -5.11557 -1.7829 106 109 124
-6.48996 -3.176 -1.79157 90 97 115
-6.50746 -3.14749 -1.79262 95 100 119
-6.51646 -3.12731 -1.79262 86 88 108
-6.50124 -3.07119 -1.78257 89 92 109
-7.0675 -2.4173 -1.80263 72 86 111
-7.06886 -2.38109 -1.80006 77 89 113
-7.10105 -2.36775 -1.80723 74 87 113
-7.51962 -1.83887 -1.81451 69 82 105
-7.49631 -1.80855 -1.80708 69 81 105
-8.55571 -0.416851 -1.82647 72 84 110
-8.55812 -0.390125 -1.82691 69 83 109
-3.04805 -7.50201 -1.70104 126 125 133
-3.2607 -6.53147 -1.60747 125 124 132
-3.28382 -6.52901 -1.60935 122 120 132
-3.76821 -6.16158 -1.66027 135 122 118
-3.80424 -6.15807 -1.66422 132 117 111
-4.57753 -6.01257 -1.80983 117 112 119
-4.58877 -5.98944 -1.80676 117 113 119
-4.61131 -5.98187 -1.8088 118 115 124
-4.99066 -5.24214 -1.7845 111 110 124
-5.00364 -5.22419 -1.78344 111 110 126
-5.02313 -5.21324 -1.78503 111 110 128
-6.51825 -3.04256 -1.78363 74 79 102
-6.5252 -3.02153 -1.7831 63 75 103
-6.5653 -3.01579 -1.7926 65 79 106
-6.58207 -2.98681 -1.79366 69 83 109
-7.09666 -2.3419 -1.80415 78 90 114
-7.09034 -2.31549 -1.80056 75 87 113
-7.53783 -1.78115 -1.81599 67 79 105
-7.52372 -1.75316 -1.81103 65 75 100
-8.55322 -0.349673 -1.82555 68 82 108
-3.00816 -7.50025 -1.69743 125 124 132
-3.23442 -6.55452 -1.60983 127 124 131
-3.71854 -6.16203 -1.65384 134 124 124
-3.74385 -6.16269 -1.6573 135 123 122
-4.53183 -6.04672 -1.80984 121 116 122
-4.54998 -6.0331 -1.80984 121 116 123
-4.9099 -5.31554 -1.78399 109 108 124
-4.93143 -5.29037 -1.78293 110 108 122
-4.95108 -5.27972 -1.78451 107 106 120
-4.96809 -5.26614 -1.78504 107 106 122
-6.59233 -2.96717 -1.79418 70 84 111
-6.59375 -2.94355 -1.79207 69 83 110
-6.60844 -2.91361 -1.79259 78 90 116
-6.61495 -2.89231 -1.79206 67 83 108
-7.10583 -2.2841 -1.8021 78 90 116
-7.11032 -2.26133 -1.80158 73 82 111
-7.54725 -1.73381 -1.81598 68 81 103
-7.5545 -1.69826 -1.81598 68 83 105
-8.55348 -0.322869 -1.82555 68 82 108
-2.96132 -7.51345 -1.69654 124 122 133
-2.98341 -7.50322 -1.69608 125 124 132
-3.20809 -6.54969 -1.60606 128 125 132
-3.65553 -6.16076 -1.64543 133 127 129
-3.67978 -6.16 -1.64839 137 128 128
-4.46865 -6.09549 -1.81036 122 115 122
-4.48917 -6.08524 -1.81138 116 111 117
-4.52031 -6.06973 -1.81292 120 114 121
-4.84024 -5.38465 -1.78506 105 107 120
-4.86469 -5.36269 -1.78506 107 106 122
-4.873 -5.33933 -1.78188 110 107 124
-4.8966 -5.33322 -1.78505 108 107 123
-6.63376 -2.87637 -1.79523 75 92 116
-6.64545 -2.85728 -1.79628 69 83 109
-6.66506 -2.82932 -1.79839 78 90 114
-7.22864 -2.27511 -1.83282 80 89 118
-7.15195 -2.21395 -1.80875 66 76 101
-7.17279 -2.19622 -1.81284 139 142 160
-7.55897 -1.67454 -1.81598 67 79 101
-7.56717 -1.65161 -1.81696 68 80 102
-8.56143 -0.296304 -1.82735 70 82 104
-2.93657 -7.51626 -1.69519 126 124 135
-3.15538 -6.56747 -1.60465 125 123 134
-3.18812 -6.55899 -1.60606 125 124 131
-3.59557 -6.16393 -1.6385 133 128 135
-3.6313 -6.16142 -1.64246 131 126 130
-4.42991 -6.1399 -1.81395 127 118 121
-4.46783 -6.13425 -1.81856 127 116 124
-4.78958 -5.44276 -1.78771 108 110 125
-4.81555 -5.42251 -1.78823 109 114 128
-4.83045 -5.40651 -1.7877 104 110 124
-5.65428 -4.20175 -1.79026 98 103 123
-5.67428 -4.19036 -1.79298 98 103 123
-5.68202 -4.16956 -1.79134 96 103 122
-5.70082 -4.14355 -1.79134 98 103 122
-5.71455 -4.12731 -1.79188 98 98 122
-5.72976 -4.11216 -1.79297 98 103 123
-5.73876 -4.09239 -1.79187 98 103 122
-5.76338 -4.07064 -1.79405 95 102 121
-5.77222 -4.05078 -1.79296 96 101 120
-5.78567 -4.03427 -1.7935 99 104 123
-5.80382 -4.00774 -1.79349 100 103 122
-5.8234 -3.99558 -1.79621 100 105 124
-5.82727 -3.97223 -1.79349 98 103 122
-6.67486 -2.80935 -1.79891 62 76 102
-6.67037 -2.78341 -1.79521 69 84 113
-6.68788 -2.7545 -1.79679 70 86 112
-6.6921 -2.73225 -1.79573 81 95 121
-7.15855 -2.16756 -1.8072 129 128 143
-7.18261 -2.13851 -1.8113 130 126 141
-7.17 -2.11053 -1.80617 132 130 144
-7.5816 -1.61755 -1.81894 69 81 105
-7.56119 -1.58863 -1.8125 72 84 110
-8.55804 -0.255947 -1.82645 70 85 108
-2.90197 -7.52859 -1.69519 126 125 133
-3.13459 -6.57482 -1.60418 124 122 133
-3.54915 -6.16808 -1.63356 130 125 132
-3.57236 -6.16605 -1.63603 133 127 131
-4.36248 -6.16174 -1.80833 115 105 102
-4.38748 -6.15828 -1.8114 126 117 118
-4.41467 -6.15791 -1.81549 125 116 119
-4.73694 -5.49887 -1.78983 95 94 107
