-14.7492 -5.09401 -1.84523 97 89 101
-14.7736 -5.05106 -1.84649 94 89 99
-14.7776 -4.97528 -1.84381 90 87 101
-18.5507 -0.282726 -1.88656 90 105 136
-18.5466 -0.224253 -1.88606 88 104 130
-4.73062 -11.7097 -1.31553 107 105 108
-4.7729 -11.7125 -1.31768 104 99 103
-4.81668 -11.7187 -1.32032 113 109 109
-5.35246 -11.7151 -1.37876 118 118 120
-5.39152 -11.7065 -1.37972 118 117 122
-5.42575 -11.6868 -1.37919 119 118 125
-6.73403 -10.5818 -1.43902 118 118 128
-6.76434 -10.558 -1.43845 119 119 127
-6.81215 -10.5254 -1.43814 120 120 128
-6.85486 -10.5215 -1.44074 117 117 127
-7.51978 -9.81898 -1.46441 120 118 129
-7.55446 -9.80228 -1.46545 121 120 131
-7.59629 -9.79491 -1.46813 119 119 127
-7.63215 -9.77952 -1.46945 118 120 128
-7.68812 -9.75852 -1.47185 119 119 129
-7.72634 -9.7459 -1.47371 120 120 130
-7.74872 -9.71286 -1.47204 120 120 130
-13.1746 -5.74593 -1.73984 188 153 122
-13.3098 -5.75581 -1.75742 194 158 126
-13.4343 -5.76021 -1.77338 201 166 133
-14.811 -4.93532 -1.84639 90 89 103
-14.7993 -4.88018 -1.84265 90 89 103
-14.84 -4.81681 -1.84523 91 90 104
-14.8561 -4.77094 -1.84544 87 89 102
-14.8644 -4.72259 -1.8446 88 90 105
-18.5464 -0.165831 -1.88602 95 111 137
-18.546 -0.107411 -1.88598 82 98 124
-4.62919 -11.7143 -1.31171 107 104 108
-4.66516 -11.7007 -1.31168 109 107 109
-5.20911 -11.7299 -1.3734 125 124 127
-5.25591 -11.7399 -1.37684 127 126 130
-5.30631 -11.7073 -1.37557 120 118 125
-6.57701 -10.6556 -1.43653 120 118 132
-6.61064 -10.6373 -1.43676 118 116 129
-6.64524 -10.6207 -1.43725 118 116 129
-6.69542 -10.592 -1.43747 120 118 129
-7.32285 -9.93416 -1.46108 117 116 126
-7.35198 -9.91017 -1.46077 116 116 126
-7.40121 -9.88121 -1.46154 117 117 127
-7.44071 -9.87132 -1.46368 119 119 127
-7.46843 -9.84537 -1.46309 119 119 129
-8.69143 -7.17533 -1.39624 121 118 127
-8.68789 -7.10464 -1.38931 119 116 123
-8.70929 -7.07784 -1.38926 117 115 118
-8.73823 -7.05727 -1.39065 116 115 120
-13.5663 -5.76698 -1.79042 161 131 106
-13.7056 -5.75078 -1.80719 142 115 97
-13.8159 -5.74667 -1.82097 140 117 101
-13.8824 -5.72381 -1.82824 136 119 105
-14.9177 -4.66286 -1.84902 88 90 105
-14.9314 -4.61614 -1.84897 86 89 104
-14.9525 -4.57169 -1.84997 88 90 105
-14.9621 -4.52369 -1.8494 89 88 106
-14.9823 -4.45335 -1.84935 86 89 106
-18.5355 -0.0197714 -1.88481 90 106 132
-5.06155 -11.7319 -1.36655 118 118 119
-5.10655 -11.7388 -1.3695 121 121 124
-5.17083 -11.7398 -1.37269 119 119 123
-6.45995 -10.7212 -1.43612 120 119 128
-6.48779 -10.693 -1.43476 119 119 129
-6.53931 -10.6669 -1.43525 118 117 130
-7.15808 -9.99474 -1.45472 118 116 127
-7.19766 -9.98583 -1.45685 115 115 125
-7.23496 -9.97354 -1.45844 116 116 125
-7.28559 -9.94679 -1.45949 118 116 127
-13.923 -5.66461 -1.83036 136 122 111
-13.9435 -5.62252 -1.83085 138 125 116
-13.9731 -5.58403 -1.83269 132 119 113
-14.0057 -5.52132 -1.83372 119 107 100
-14.0129 -5.47389 -1.83231 127 114 107
-14.0513 -5.43859 -1.83552 152 141 133
-14.9916 -4.40528 -1.84877 82 83 101
-15.0291 -4.36554 -1.85214 85 86 104
-15.0486 -4.29488 -1.85209 85 86 101
-15.0498 -4.24446 -1.85046 84 86 101
-4.95855 -11.7376 -1.36239 121 117 116
-5.02034 -11.7339 -1.36485 124 124 124
-6.2869 -10.7648 -1.42967 117 116 126
-6.33152 -10.7665 -1.43281 119 119 129
-6.36644 -10.7507 -1.43329 116 116 128
-6.41919 -10.7269 -1.43405 118 118 126
-6.95639 -10.0992 -1.45084 121 119 132
-7.00855 -10.0755 -1.45216 119 119 129
-7.03817 -10.0525 -1.45185 116 116 126
-7.07107 -10.0343 -1.45235 119 119 129
-7.10842 -10.0225 -1.45394 120 118 131
-9.3093 -8.0182 -1.54376 124 123 128
-9.34845 -8.00249 -1.54658 121 119 125
-9.37266 -7.97364 -1.54654 124 121 128
-9.41971 -7.93924 -1.54849 124 122 128
-9.45425 -7.91915 -1.55046 125 123 128
-9.49325 -7.90276 -1.55328 123 122 128
-9.57036 -7.67181 -1.5407 121 118 125
-9.70086 -7.72956 -1.56073 119 117 122
-9.73036 -7.70454 -1.56183 121 119 123
-9.76258 -7.65691 -1.56121 121 118 125
-9.79962 -7.6378 -1.56374 119 117 122
-9.84129 -7.62219 -1.56714 118 117 122
-9.85498 -7.58442 -1.56537 119 118 124
-9.89751 -7.54473 -1.56675 116 114 119
-9.92184 -7.51531 -1.56699 118 116 121
-9.95707 -7.49423 -1.56924 114 113 119
-10.0055 -7.45874 -1.57177 107 106 114
-10.0406 -7.4373 -1.57402 109 108 116
-10.0536 -7.3991 -1.57225 107 105 115
-10.0843 -7.35001 -1.57162 93 91 105
-10.1255 -7.33287 -1.57502 85 83 93
-10.1604 -7.31086 -1.57726 79 75 88
-10.1824 -7.27938 -1.57721 72 67 76
-10.2285 -7.24129 -1.57946 70 67 73
-10.2664 -7.22111 -1.58228 69 59 64
-10.2833 -7.18585 -1.58137 68 58 63
-10.3372 -7.15282 -1.58504 71 57 57
-10.3474 -7.11284 -1.58299 81 67 67
-10.372 -7.08302 -1.58351 87 72 75
-10.4158 -7.0426 -1.58547 72 62 71
-10.45 -7.01922 -1.58771 82 76 78
-10.4679 -6.98459 -1.58709 132 121 117
-10.4987 -6.95875 -1.58876 132 122 112
-10.5469 -6.92085 -1.59158 132 123 117
-10.5743 -6.8925 -1.59268 123 115 113
-14.0508 -5.38824 -1.83302 151 138 130
-14.0677 -5.31945 -1.83188 161 151 144
-14.102 -5.28234 -1.83454 123 111 111
-14.1158 -5.2375 -1.83422 81 70 76
-14.1598 -5.17865 -1.83715 87 79 91
-14.1677 -5.13163 -1.83601 86 80 91
-15.0888 -4.2048 -1.85409 89 87 101
-15.0789 -4.12592 -1.8501 91 89 102
-15.0814 -4.07605 -1.84873 94 92 106
-15.1391 -4.04114 -1.855 88 87 103
-15.1298 -3.98807 -1.85206 87 89 102
-16.8354 -2.06746 -1.88343 100 111 133
-16.8402 -1.98767 -1.88288 95 107 131
-4.83029 -11.7293 -1.35554 120 118 119
-4.87418 -11.7353 -1.35824 115 113 116
-4.91598 -11.7356 -1.36019 119 117 120
-6.16211 -10.8149 -1.42741 120 119 125
-6.19332 -10.7928 -1.42684 119 118 126
-6.23787 -10.7949 -1.42997 118 116 127
-6.76494 -10.1824 -1.44587 118 118 130
-6.80358 -10.1735 -1.44774 120 120 131
-6.83895 -10.1594 -1.44879 120 120 130
-6.88147 -10.1215 -1.44766 120 118 129
-6.92553 -10.1203 -1.45088 119 119 131
-8.79345 -8.43445 -1.52926 117 100 90
-8.83883 -8.42672 -1.53323 114 97 89
-8.87755 -8.38587 -1.53318 129 123 123
-8.893 -8.34894 -1.53113 124 123 129
-8.93975 -8.34204 -1.53539 124 123 131
-8.9795 -8.30206 -1.53563 123 122 129
-9.00897 -8.27846 -1.53644 123 120 127
-9.03984 -8.2561 -1.53754 123 120 127
-9.085 -8.22099 -1.53893 123 122 128
-9.09974 -8.18361 -1.53687 123 121 126
-9.13766 -8.16756 -1.53941 121 120 125
-9.16824 -8.14471 -1.54051 125 124 132
-9.21443 -8.1102 -1.54218 126 125 131
-9.24489 -8.08705 -1.54328 123 122 128
-9.27232 -8.06115 -1.54381 126 125 130
-10.6016 -6.86403 -1.59378 124 118 118
-10.6429 -6.82114 -1.59545 124 116 114
-10.675 -6.79562 -1.5974 125 121 120
-10.6937 -6.76141 -1.59707 127 125 124
-10.7346 -6.71796 -1.59874 126 121 125
-10.7748 -6.6973 -1.60213 127 122 126
-10.815 -6.67646 -1.60552 135 130 131
-10.8454 -6.62604 -1.60547 129 125 126
-10.8855 -6.60481 -1.60886 129 125 126
-10.9036 -6.56996 -1.60852 128 125 126
-10.9385 -6.54533 -1.61106 127 125 127
-10.992 -6.50859 -1.61502 121 121 122
-11.02 -6.4795 -1.6164 124 123 123
-11.0411 -6.44626 -1.61664 127 125 128
-11.0807 -6.40076 -1.61831 122 120 121
-14.1773 -5.08526 -1.83515 88 82 93
-14.1796 -5.01139 -1.83211 90 84 93
-14.2019 -4.9696 -1.83315 86 84 96
-14.2109 -4.92318 -1.83228 87 86 100
-14.2254 -4.87866 -1.83223 86 85 101
-15.1628 -3.9209 -1.85411 86 87 105
-15.1627 -3.87039 -1.85248 84 86 103
-15.1624 -3.81992 -1.85086 83 85 105
-16.8612 -1.93657 -1.8848 91 106 129
-16.8604 -1.88295 -1.88401 96 110 130
-16.8466 -1.80121 -1.88125 135 134 139
-4.68911 -11.7394 -1.35042 119 116 119
-4.72999 -11.7386 -1.35212 115 114 117
-4.77022 -11.7357 -1.35358 122 122 122
-5.99436 -10.8641 -1.42254 120 118 129
-6.03415 -10.8583 -1.42435 118 116 127
-6.07208 -10.8488 -1.42563 118 116 127
-6.10343 -10.827 -1.42506 120 119 127
-6.6155 -10.2605 -1.44386 117 117 127
-6.65103 -10.247 -1.4449 118 118 129
-6.67913 -10.2218 -1.44405 118 118 130
-6.73273 -10.2013 -1.44564 118 116 129
-8.50215 -8.69641 -1.52623 143 132 129
-8.55586 -8.67144 -1.52906 145 136 132
-8.57256 -8.63519 -1.527 140 133 128
-8.61808 -8.62867 -1.53098 136 131 128
-8.65084 -8.58183 -1.52949 128 122 121
-8.66716 -8.54538 -1.52744 126 122 123
-8.6875 -8.51312 -1.52624 127 126 131
-8.74205 -8.48834 -1.52935 102 92 90
-8.76358 -8.45726 -1.52845 114 100 91
-11.1306 -6.38422 -1.62342 126 125 123
-11.1652 -6.35852 -1.62595 127 125 128
-11.1889 -6.30348 -1.62504 131 126 132
-11.2164 -6.27356 -1.62642 134 129 136
-11.2352 -6.23868 -1.62637 134 128 135
-11.278 -6.21725 -1.63034 132 125 130
-11.3079 -6.16555 -1.63057 132 128 129
-11.342 -6.13894 -1.6331 132 128 129
-11.3655 -6.10649 -1.63391 133 129 130
-11.3863 -6.04966 -1.63271 131 127 128
-14.2436 -4.81053 -1.83163 84 86 100
-14.269 -4.76966 -1.83321 86 90 103
-14.2718 -4.72124 -1.83153 79 86 99
-14.34 -4.66943 -1.83826 85 88 102
-14.3594 -4.6263 -1.83902 82 87 102
-15.1928 -3.75193 -1.85265 83 89 105
-15.1978 -3.70287 -1.85181 83 90 107
-15.2123 -3.65613 -1.85229 81 90 106
-15.2477 -3.58913 -1.85487 82 90 108
-16.8473 -1.74788 -1.88071 138 136 138
-4.62846 -11.7432 -1.34821 122 119 122
-5.87066 -10.9143 -1.4208 119 117 128
-5.89776 -10.8843 -1.41891 117 115 128
-5.93568 -10.8753 -1.42019 117 117 129
-6.49258 -10.3098 -1.44071 120 120 129
-6.52924 -10.2985 -1.44203 125 123 134
-6.5659 -10.2871 -1.44335 122 121 130
-8.18008 -8.89398 -1.51516 145 134 129
-8.20844 -8.87036 -1.5154 144 134 124
-8.25131 -8.86276 -1.5188 141 131 121
-8.29743 -8.83058 -1.5199 138 127 117
-8.3323 -8.81384 -1.52158 141 131 121
-8.3725 -8.80277 -1.52441 143 133 124
-8.4157 -8.76706 -1.52494 143 132 125
-8.45993 -8.75994 -1.52862 145 134 126
-8.47974 -8.72676 -1.52714 144 134 129
-11.4288 -6.02728 -1.63668 132 126 129
-11.4502 -5.99356 -1.6372 135 129 131
-11.4774 -5.94007 -1.63715 136 126 125
-11.5197 -5.91713 -1.64111 144 134 133
-11.5795 -5.90306 -1.64794 141 131 132
-11.5971 -5.867 -1.64789 138 127 125
-11.6202 -5.81102 -1.64727 132 121 114
-11.6799 -5.79615 -1.6541 140 127 117
-14.373 -4.58131 -1.83897 87 90 107
-14.4067 -4.51785 -1.84082 86 88 103
-14.4162 -4.47153 -1.84023 83 89 103
-14.4369 -4.42866 -1.84126 83 89 103
-14.446 -4.38226 -1.84067 84 87 104
-15.2484 -3.53904 -1.85351 82 89 107
-15.2702 -3.49388 -1.85504 82 90 109
-15.2976 -3.44993 -1.85736 79 92 108
-15.3668 -3.38998 -1.86468 84 97 114
-5.73508 -10.9399 -1.41562 120 118 129
-5.7695 -10.9245 -1.41584 120 119 128
-5.81013 -10.9212 -1.41792 120 118 129
-6.31636 -10.3779 -1.43623 120 118 129
-6.36936 -10.3576 -1.43756 118 118 128
-6.402 -10.34 -1.43779 116 116 126
-6.4428 -10.3358 -1.4402 112 111 120
-7.87102 -9.07199 -1.50489 128 123 131
-7.9192 -9.04334 -1.50628 126 120 124
-7.95698 -9.0311 -1.50853 126 120 121
-7.9909 -9.01422 -1.50993 134 126 125
-8.03889 -8.98492 -1.51132 133 126 122
-8.06622 -8.96028 -1.51127 133 126 120
-8.09869 -8.94149 -1.51238 141 133 126
-8.13766 -8.92997 -1.51492 143 133 128
-11.7643 -5.79333 -1.66494 141 128 117
-11.8632 -5.7742 -1.67664 145 128 119
-11.9674 -5.77983 -1.69063 141 124 114
-12.0681 -5.78313 -1.70404 143 127 115
-14.4732 -4.31657 -1.8417 87 86 104
-14.4782 -4.26896 -1.84057 86 85 103
-14.5078 -4.22853 -1.84296 87 84 103
-14.521 -4.15865 -1.8421 88 86 100
-15.3746 -3.34134 -1.86437 81 94 111
-15.3764 -3.29142 -1.86327 81 93 115
-15.416 -3.22436 -1.86664 84 97 116
-5.68076 -10.9585 -1.41459 117 116 128
-6.16377 -10.4474 -1.43393 118 118 128
-6.21798 -10.4296 -1.43553 118 116 129
-6.24783 -10.4074 -1.43495 118 116 127
-6.28061 -10.3901 -1.43518 121 119 130
-7.67698 -9.21107 -1.50228 123 120 131
-7.71498 -9.19987 -1.50453 122 121 129
-7.74172 -9.17474 -1.5042 122 121 129
-7.76337 -9.14342 -1.50272 123 122 129
-7.81686 -9.12144 -1.50526 126 124 130
-7.85222 -9.10662 -1.50694 126 124 128
-8.70425 -7.15761 -1.45439 123 122 127
-8.68929 -7.10053 -1.44721 122 119 126
-8.71218 -7.07498 -1.44746 121 120 128
-8.76288 -7.04961 -1.45098 128 126 131
-12.1888 -5.77202 -1.71918 140 126 115
-12.2916 -5.77481 -1.73288 141 127 116
-12.4071 -5.78291 -1.74859 135 121 110
-14.514 -4.10775 -1.83934 97 95 109
-14.5336 -4.06436 -1.84037 91 89 102
-14.5517 -3.99597 -1.84032 88 86 101
-14.5939 -3.95859 -1.84461 89 88 102
-14.5843 -3.9072 -1.84158 87 89 103
-15.4193 -3.17477 -1.86581 83 95 117
-15.4439 -3.12955 -1.86786 83 95 118
-15.4711 -3.05954 -1.86966 85 97 121
-15.4759 -3.01022 -1.86909 85 97 123
-16.8152 -1.46014 -1.8915 106 122 148
-16.813 -1.41134 -1.89046 98 112 139
-5.99223 -10.4816 -1.42646 118 116 129
-6.02905 -10.4721 -1.42778 118 118 128
-6.07259 -10.4361 -1.42638 117 117 127
-6.11617 -10.4384 -1.42961 117 117 127
-7.45005 -9.33684 -1.49593 122 121 132
-7.47605 -9.31097 -1.49531 122 120 130
-7.5105 -9.29593 -1.49671 122 120 129
-7.57051 -9.2832 -1.50069 125 122 130
-7.59139 -9.25079 -1.49892 122 121 129
-7.62448 -9.23376 -1.50002 123 122 130
-9.45121 -7.39708 -1.56467 128 126 131
-9.48436 -7.37641 -1.5667 128 127 132
-9.62177 -7.27269 -1.57364 127 125 131
-9.6503 -7.22444 -1.5727 126 123 130
-9.65309 -7.18034 -1.56909 127 125 130
-9.6747 -7.15047 -1.56904 124 122 125
-9.71691 -7.11259 -1.57077 131 126 132
-9.76696 -7.10357 -1.57608 134 129 133
-9.78673 -7.07217 -1.57573 134 130 129
-9.8128 -7.04535 -1.57658 136 130 130
-9.85139 -7.00436 -1.57772 138 129 130
-9.87083 -6.9727 -1.57737 140 135 132
-9.90147 -6.94898 -1.57911 138 134 131
-12.5192 -5.78866 -1.76372 135 121 112
-12.6458 -5.77655 -1.77971 134 121 112
-12.7403 -5.77256 -1.79198 134 121 113
-14.5937 -3.86095 -1.84126 86 88 103
-14.6147 -3.79325 -1.84175 85 93 106
-14.6678 -3.75816 -1.84767 87 90 105
-15.4961 -2.96389 -1.87062 82 96 122
-15.518 -2.91783 -1.87241 86 100 125
-15.5502 -2.84835 -1.875 85 99 121
-16.8205 -1.33914 -1.89041 94 110 136
-16.8258 -1.29104 -1.89046 87 103 129
-16.8466 -1.2442 -1.89266 93 108 137
-16.9324 -1.14097 -1.88541 90 106 132
-16.9647 -1.0896 -1.88906 93 107 137
-16.9411 -1.00799 -1.88556 89 106 134
-5.36534 -11.0859 -1.4117 117 117 129
-5.39852 -11.068 -1.4114 118 116 127
-3.72459 -7.16655 -0.937491 115 115 125
-3.76267 -7.16086 -0.939194 119 119 129
-3.79733 -7.17648 -0.943483 118 117 127
-5.86992 -10.5268 -1.42384 116 116 126
-5.90585 -10.516 -1.42489 118 116 127
-5.95826 -10.4961 -1.42595 120 118 131
-7.25119 -9.43646 -1.48982 121 120 130
-7.27994 -9.41435 -1.48978 122 121 129
-7.33289 -9.39363 -1.49203 124 122 132
-7.36747 -9.37914 -1.49343 125 123 134
-7.38883 -9.34723 -1.49166 124 122 133
-8.58061 -8.0383 -1.52808 124 123 128
-8.63042 -8.01086 -1.53071 124 123 127
-8.6532 -7.98294 -1.53036 124 125 130
-8.68745 -7.96573 -1.5324 119 118 124
-8.72254 -7.92423 -1.53205 124 123 129
-8.75668 -7.90671 -1.53409 125 124 129
-8.79226 -7.89038 -1.53642 126 125 130
-8.8498 -7.89378 -1.54322 125 124 130
-8.92128 -7.88449 -1.55031 126 125 132
-8.98787 -7.8951 -1.55889 126 125 133
-9.04576 -7.89751 -1.56568 121 120 129
-9.12354 -7.89211 -1.57396 125 124 129
-9.18759 -7.899 -1.58194 125 124 129
-9.23835 -7.89393 -1.58725 126 123 129
-9.31801 -7.88843 -1.59582 126 124 129
-9.42101 -7.82863 -1.60192 126 125 133
-9.42269 -7.53977 -1.57462 127 125 130
-9.4285 -7.49703 -1.5713 128 125 132
-9.4319 -7.42868 -1.56531 126 123 130
-9.52993 -7.36534 -1.57111 126 125 130
-9.57924 -7.33321 -1.57404 126 125 131
-9.60759 -7.3084 -1.57518 129 128 133
-9.96552 -6.92564 -1.585 138 130 128
-9.96201 -6.87782 -1.58049 135 125 123
-10.007 -6.86382 -1.5849 131 123 121
-10.0432 -6.82063 -1.58574 124 120 121
-10.0703 -6.79394 -1.58689 131 122 125
-10.089 -6.76162 -1.58654 126 125 123
-10.1192 -6.73695 -1.58828 124 120 117
-10.1647 -6.6997 -1.5909 127 121 125
-10.1732 -6.66056 -1.58877 124 118 118
-10.2097 -6.63984 -1.5917 125 120 120
-10.2532 -6.60092 -1.59402 125 125 125
-10.278 -6.57232 -1.59487 127 125 128
-10.3227 -6.5564 -1.59927 127 122 126
-10.3592 -6.51256 -1.60041 129 123 127
-10.377 -6.47936 -1.60007 130 126 129
-10.4048 -6.45238 -1.6015 130 126 128
-10.4359 -6.42737 -1.60354 129 123 124
-10.4685 -6.38081 -1.60408 128 123 127
-10.5028 -6.35756 -1.60671 125 121 125
-10.5353 -6.33312 -1.60903 122 120 123
-12.8762 -5.78685 -1.81084 132 122 118
-12.9997 -5.77032 -1.82626 127 118 113
-13.0765 -5.7563 -1.83566 122 113 109
-13.0936 -5.71549 -1.83561 115 109 107
-13.1032 -5.64705 -1.83297 124 116 115
-13.1145 -5.6038 -1.83206 121 113 115
-14.6787 -3.71214 -1.84762 88 91 107
-14.6625 -3.63498 -1.84296 85 91 109
-14.6941 -3.59412 -1.8459 86 89 108
-14.7102 -3.54939 -1.84666 85 90 109
-15.5757 -2.80271 -1.87732 91 101 119
-16.881 -1.17395 -1.89639 86 102 128
-16.8739 -1.12475 -1.89481 91 107 133
-16.9512 -0.955164 -1.8865 91 106 135
-16.9255 -0.900433 -1.88301 92 106 133
-16.9096 -0.846351 -1.88075 84 99 127
-5.27728 -11.1202 -1.41098 118 118 130
-5.32557 -11.0892 -1.40989 116 116 128
-3.68116 -7.18812 -0.937543 117 117 127
-3.69779 -7.16666 -0.935791 116 116 126
-5.75099 -10.5775 -1.42232 118 116 129
-5.81007 -10.5706 -1.42528 117 117 127
-5.83958 -10.5479 -1.42443 117 117 127
-7.073 -9.53066 -1.48543 120 118 129
-7.09628 -9.50111 -1.48395 119 117 130
-7.12639 -9.4811 -1.4842 119 117 128
-7.17947 -9.46126 -1.48645 123 120 131
-7.213 -9.44574 -1.48756 123 120 131
-8.21891 -8.31058 -1.51787 123 122 128
-8.24823 -8.28958 -1.51871 124 123 131
-8.28628 -8.25155 -1.51867 124 122 129
-8.31406 -8.2289 -1.51922 124 125 129
-8.33758 -8.20195 -1.51888 121 116 121
-8.38083 -8.16905 -1.52002 88 82 84
-8.4126 -8.15022 -1.52146 108 98 91
-8.43727 -8.12435 -1.52142 117 101 88
-8.47317 -8.10943 -1.52375 118 100 88
-8.50897 -8.06894 -1.52341 117 107 101
-8.54336 -8.05233 -1.52544 127 123 127
-9.38395 -7.89555 -1.6041 126 123 130
-9.4229 -7.87934 -1.60703 127 124 133
-10.5642 -6.28402 -1.60898 127 125 126
-10.5999 -6.2613 -1.61191 126 124 125
-10.6288 -6.23439 -1.61364 129 125 127
-10.6708 -6.1928 -1.61597 120 116 117
-10.6979 -6.16459 -1.6174 125 121 122
-10.7317 -6.14022 -1.62003 129 124 128
-10.7699 -6.09602 -1.62176 129 127 130
-10.8036 -6.07129 -1.62438 130 125 129
-10.8234 -6.03867 -1.62463 130 124 126
-10.8587 -6.01463 -1.62755 129 124 128
-10.8981 -5.97062 -1.62958 130 126 127
-13.1421 -5.56753 -1.83373 111 105 108
-13.1641 -5.52882 -1.83454 111 102 103
-13.1854 -5.46561 -1.83391 139 131 130
-13.2053 -5.42596 -1.83443 145 135 132
-13.2141 -5.38171 -1.83324 142 132 131
-13.2475 -5.32351 -1.83461 157 147 145
-14.7143 -3.47741 -1.84499 84 91 107
-14.7359 -3.43391 -1.84657 84 91 109
-14.7341 -3.38502 -1.8449 85 92 110
-14.7998 -3.35136 -1.85271 87 95 113
-16.8824 -1.07672 -1.89539 84 100 128
-16.8904 -1.00426 -1.89561 85 101 130
-16.8946 -0.955879 -1.89565 90 105 134
-16.8552 -0.904862 -1.88976 88 104 130
-16.871 -0.764763 -1.87553 85 99 126
-16.8467 -0.710664 -1.87229 86 100 126
-5.17388 -11.1651 -1.41082 120 123 132
-5.20412 -11.1406 -1.40946 115 118 126
-5.24151 -11.1323 -1.41048 116 116 128
-3.66142 -7.23278 -0.942169 117 117 125
-5.64062 -10.6444 -1.42352 118 118 129
-5.68346 -10.6066 -1.42157 119 119 129
-5.71862 -10.5947 -1.42235 119 118 128
-6.87629 -9.62858 -1.48046 120 120 130
-6.932 -9.61342 -1.4833 121 121 129
-6.97038 -9.6053 -1.48555 121 121 129
-6.99057 -9.57116 -1.48321 123 122 130
-7.02317 -9.55472 -1.48403 122 121 129
-7.97324 -8.518 -1.51495 130 125 125
-8.00309 -8.4979 -1.5158 128 125 130
-8.03693 -8.48204 -1.51754 121 120 124
-8.07049 -8.43927 -1.5163 123 122 130
-8.10557 -8.42457 -1.51834 124 123 131
-8.15152 -8.42118 -1.52276 120 119 128
-8.17022 -8.38902 -1.52123 121 121 130
-8.19091 -8.33289 -1.51732 122 123 128
-10.9246 -5.94147 -1.63102 133 126 124
-10.9562 -5.91502 -1.63335 137 128 126
-11.0074 -5.87695 -1.63745 140 130 128
-11.0249 -5.84271 -1.63741 139 129 123
-11.0528 -5.81394 -1.63914 125 114 108
-11.1177 -5.78245 -1.64562 138 127 121
-11.1963 -5.77967 -1.65597 132 122 113
-13.2651 -5.28287 -1.83485 91 85 90
-13.2881 -5.24437 -1.83594 97 90 97
-13.3265 -5.18788 -1.83818 80 72 83
-13.3142 -5.13546 -1.83383 86 79 90
-13.3533 -5.10313 -1.83751 87 82 95
-13.3407 -5.0508 -1.83316 93 87 97
-14.8126 -3.28124 -1.85239 87 95 114
-14.8375 -3.23809 -1.85451 84 95 113
-14.8448 -3.19109 -1.85419 86 99 118
-16.867 -0.857023 -1.89088 87 103 129
-16.8108 -0.781268 -1.88247 84 100 126
-16.8123 -0.732995 -1.88224 85 99 126
-16.8559 -0.657978 -1.87323 84 100 126
-16.848 -0.578129 -1.87195 83 99 125
-5.03773 -11.182 -1.40563 118 118 128
-5.08138 -11.1888 -1.40877 118 118 128
-5.12277 -11.1899 -1.41111 117 117 127
-5.57362 -10.6745 -1.42304 117 118 128
-5.60268 -10.6507 -1.42192 116 117 129
-6.7188 -9.68529 -1.4743 120 120 128
-6.75607 -9.67638 -1.47627 120 120 130
-6.8085 -9.65701 -1.47824 118 118 130
-6.84017 -9.63959 -1.47878 118 118 129
-7.75912 -8.70604 -1.51437 145 134 123
-7.79597 -8.69416 -1.5167 141 131 120
-7.82627 -8.67473 -1.51755 141 130 121
-7.85129 -8.64929 -1.51721 142 133 127
-7.88841 -8.61024 -1.51657 143 135 132
-7.91188 -8.58314 -1.51593 142 136 130
-7.93659 -8.55743 -1.51559 132 128 127
-11.2943 -5.78639 -1.66958 139 126 118
-11.3871 -5.78985 -1.6823 138 126 114
-11.491 -5.77579 -1.69531 138 125 117
-11.5859 -5.77892 -1.70832 132 120 112
-13.382 -4.99523 -1.83597 86 84 97
-13.3819 -4.94788 -1.83363 89 87 99
-13.3965 -4.90605 -1.83358 88 86 99
-13.4093 -4.83984 -1.83209 90 88 101
-13.4161 -4.79523 -1.8309 88 87 101
-13.4432 -4.75796 -1.83285 87 87 101
-14.8665 -3.12278 -1.85523 86 97 115
-14.885 -3.07809 -1.85654 87 100 120
-14.9054 -3.0337 -1.85812 86 98 120
-15.7483 -2.20146 -1.88814 97 109 124
-16.8058 -0.684358 -1.88094 84 100 126
-16.8218 -0.612532 -1.8825 81 97 124
-16.8251 -0.524431 -1.86895 86 102 128
-16.8278 -0.471562 -1.86916 86 102 128
-4.9521 -11.2209 -1.40595 118 116 127
-4.99188 -11.2189 -1.40777 118 118 128
-6.57501 -9.76097 -1.47187 121 120 130
-6.6091 -9.74766 -1.47298 121 120 130
-6.63451 -9.72099 -1.47179 120 119 129
-6.6903 -9.70724 -1.47463 119 119 129
-7.54465 -8.83805 -1.50838 144 135 126
-7.57911 -8.82406 -1.51012 141 131 119
-7.61101 -8.80692 -1.51127 142 133 119
-7.66435 -8.78699 -1.5142 143 130 124
-7.68974 -8.76205 -1.51386 146 133 124
-7.72666 -8.75048 -1.5162 146 136 126
-11.6933 -5.78765 -1.72342 125 112 106
-11.7975 -5.77128 -1.73643 118 105 96
-11.8911 -5.77171 -1.74914 124 109 102
-13.4702 -4.69687 -1.83366 87 86 100
-13.4933 -4.65801 -1.83504 84 86 100
-13.4921 -4.61066 -1.8327 83 86 100
-13.5561 -4.58575 -1.84038 84 87 102
-14.9206 -2.96385 -1.85834 85 97 120
-14.9348 -2.91812 -1.85911 85 97 120
-14.9761 -2.87751 -1.86367 88 100 122
-15.7516 -2.07614 -1.88648 93 107 133
-15.7454 -2.02511 -1.88486 98 112 138
-16.8011 -0.563398 -1.8793 84 100 126
-16.8019 -0.515147 -1.87908 86 102 128
-16.8053 -0.442817 -1.87902 87 103 129
-16.831 -0.392196 -1.86936 88 104 130
-16.8233 -0.339098 -1.86833 87 101 128
-16.8254 -0.2862 -1.86853 89 103 130
-4.82786 -11.2643 -1.40499 116 119 126
-4.86391 -11.2536 -1.40549 116 119 126
-4.92065 -11.2429 -1.40705 113 114 122
-5.28963 -10.7619 -1.41674 118 116 127
-6.43456 -9.84112 -1.47059 119 117 127
-6.46564 -9.82331 -1.47084 118 118 130
-6.49137 -9.79705 -1.46965 119 121 133
-6.52554 -9.78404 -1.47076 116 118 130
-7.31572 -8.94917 -1.4994 128 124 126
-7.35651 -8.94378 -1.50263 130 125 126
-7.38864 -8.92747 -1.50378 129 124 122
-7.43598 -8.90124 -1.50523 138 132 127
-7.46552 -8.88159 -1.50578 145 135 128
-7.49375 -8.8603 -1.50604 144 135 126
-11.9972 -5.77762 -1.76394 135 121 113
-12.1089 -5.76235 -1.77813 129 116 107
-12.2332 -5.77533 -1.7959 131 118 111
-12.3362 -5.77749 -1.8101 122 111 105
-13.5785 -4.52277 -1.84062 82 88 100
-13.5974 -4.48217 -1.84143 80 86 100
-13.618 -4.44212 -1.84252 83 86 101
-13.6323 -4.37638 -1.84161 77 79 94
-13.6545 -4.33675 -1.843 85 83 97
-15.0211 -2.8374 -1.86878 90 101 121
-15.7676 -1.9526 -1.88666 93 106 132
-15.7708 -1.9028 -1.88636 84 97 117
-16.786 -0.394019 -1.8761 87 101 128
-16.7923 -0.345951 -1.87667 88 102 129
-16.7904 -0.297671 -1.87617 88 102 129
-16.8353 -0.233382 -1.86972 88 102 131
-4.75277 -11.278 -1.40294 118 118 128
-4.79472 -11.2823 -1.40555 119 119 129
-5.20424 -10.7957 -1.41599 116 116 126
-5.23893 -10.7837 -1.4165 120 120 130
-6.26622 -9.91004 -1.46614 118 117 131
-6.31202 -9.88158 -1.46611 115 114 128
-6.34632 -9.86922 -1.46722 120 118 131
-6.38271 -9.86009 -1.4689 121 119 131
-7.14063 -9.06874 -1.49723 124 122 130
-7.17753 -9.02981 -1.496 123 118 128
-7.20985 -9.01416 -1.49715 121 117 127
-7.24822 -9.00616 -1.49978 123 118 124
-7.28476 -8.96677 -1.49855 127 122 123
-12.4161 -5.76822 -1.82044 117 108 105
-12.4566 -5.71672 -1.82276 113 107 107
-12.4843 -5.68278 -1.82449 115 108 114
-12.4994 -5.64303 -1.82414 116 111 117
-12.525 -5.58452 -1.82408 114 109 113
-12.547 -5.54784 -1.82492 113 108 114
-13.6634 -4.29284 -1.84238 88 86 99
-13.6901 -4.23105 -1.84347 90 88 102
-13.7138 -4.19172 -1.84514 88 86 100
-13.7184 -4.1465 -1.84395 88 87 100
-13.704 -4.09556 -1.83989 93 91 102
-15.7739 -1.853 -1.88605 138 141 147
-15.7934 -1.77998 -1.88759 134 133 133
-15.7862 -1.72902 -1.88597 144 142 144
-16.34 -0.887244 -1.88136 85 100 129
-16.7829 -0.225198 -1.87477 89 103 132
-16.8084 -0.177316 -1.87804 83 100 127
-16.8389 -0.100964 -1.87013 88 104 130
-16.8383 -0.047977 -1.87009 86 102 128
-4.62235 -11.3044 -1.39986 117 118 123
-4.66205 -11.3036 -1.40168 119 119 127
-4.69604 -11.2879 -1.40138 119 119 128
-5.06927 -10.8079 -1.40982 113 113 125
-5.10967 -10.809 -1.41224 115 115 127
-5.1613 -10.7896 -1.41276 115 115 127
-6.10695 -9.95657 -1.45997 114 112 125
-6.14438 -9.95005 -1.46194 117 115 128
-6.19542 -9.93067 -1.46334 118 118 126
-6.22879 -9.91703 -1.46417 116 116 126
-6.93241 -9.17142 -1.49063 123 121 134
-6.96265 -9.1535 -1.49118 122 122 133
-6.99168 -9.13389 -1.49144 117 117 125
-7.04086 -9.1114 -1.49319 122 121 130
-7.07693 -9.10098 -1.49523 124 123 132
-7.1082 -9.08413 -1.49608 124 122 132
-12.5508 -5.50313 -1.82279 101 96 103
-12.5884 -5.44987 -1.82482 138 133 140
-12.5991 -5.40824 -1.82388 137 133 134
-12.6006 -5.36273 -1.82145 135 131 130
-12.6201 -5.32493 -1.822 147 143 143
-12.6624 -5.27342 -1.82491 115 111 117
-12.6834 -5.23616 -1.82575 90 86 96
-13.7336 -4.03459 -1.84156 89 88 101
-13.7492 -3.99272 -1.84208 90 89 105
-13.7494 -3.94637 -1.84032 83 85 100
-13.7764 -3.88451 -1.8417 83 86 103
-15.7809 -1.67833 -1.88462 113 116 123
-15.8324 -1.63368 -1.89088 113 123 134
-16.3043 -0.838396 -1.87586 85 101 127
-16.2934 -0.767646 -1.8736 82 98 124
-16.281 -0.720334 -1.87144 86 101 130
-16.7962 -0.128904 -1.87619 88 105 131
-16.8135 -0.0566064 -1.87828 86 102 128
-4.52739 -11.3177 -1.39701 115 116 121
-4.56422 -11.3099 -1.39777 116 117 122
-4.99984 -10.8307 -1.4088 116 116 126
-5.03779 -10.8266 -1.4104 116 116 126
-3.72583 -7.16267 -0.978084 117 117 129
-3.75267 -7.16242 -0.979846 116 116 128
-3.77165 -7.14613 -0.978926 115 115 125
-5.99378 -10.01 -1.45835 118 116 129
-6.04102 -9.9846 -1.45861 120 120 130
-6.07947 -9.98004 -1.46087 119 117 128
-6.76247 -9.2353 -1.48335 123 122 130
-6.81193 -9.21406 -1.48509 122 120 132
-6.85269 -9.21096 -1.48833 121 120 132
-6.8784 -9.18692 -1.48769 123 122 133
-12.7132 -5.13337 -1.82416 90 89 102
-12.7155 -5.08852 -1.82204 88 86 100
-12.7471 -5.05537 -1.82466 86 84 97
-12.7699 -4.99564 -1.8246 85 84 98
-12.792 -4.95861 -1.82574 87 85 98
-13.8333 -3.85424 -1.84852 85 89 105
-13.8026 -3.79927 -1.84217 84 89 101
-13.8252 -3.73599 -1.84298 84 90 102
-13.8322 -3.69167 -1.84236 81 87 102
-15.8037 -1.55545 -1.88611 100 114 137
-15.8332 -1.50825 -1.88949 92 108 134
-16.2764 -0.673435 -1.87039 84 101 129
-16.2707 -0.603191 -1.86896 84 99 128
-16.2499 -0.555811 -1.86569 83 99 125
-16.8168 -0.00829242 -1.87859 83 98 124
-4.49259 -11.331 -1.39704 118 120 125
-4.87921 -10.873 -1.40753 116 116 126
-4.91011 -10.853 -1.40668 118 118 128
-4.94964 -10.8529 -1.40883 118 118 128
-3.67379 -7.19493 -0.979027 118 119 128
-3.69807 -7.18954 -0.979896 117 117 127
-5.87052 -10.0449 -1.45386 118 118 128
-5.92761 -10.0373 -1.45699 117 119 128
-5.9612 -10.0246 -1.45782 115 115 126
-6.59295 -9.32714 -1.47997 123 121 132
-6.63144 -9.32176 -1.48261 124 122 133
-6.65643 -9.29677 -1.48168 123 121 132
-6.70381 -9.27289 -1.48283 122 121 129
-6.73202 -9.25253 -1.48279 124 123 131
-12.7789 -4.90802 -1.82124 86 84 98
-12.8082 -4.87373 -1.82357 82 84 98
-12.8134 -4.80744 -1.82084 80 82 98
-12.8331 -4.76947 -1.82168 82 84 100
-12.862 -4.73483 -1.82401 77 80 95
-13.8638 -3.65396 -1.84547 81 84 101
-13.9011 -3.61759 -1.84943 80 87 103
-13.896 -3.54683 -1.84623 81 85 103
-16.2725 -0.509957 -1.86852 90 104 131
-16.2679 -0.439857 -1.86737 85 101 127
-4.79162 -10.8998 -1.40623 115 115 125
-4.83497 -10.9092 -1.40974 114 117 126
-3.66811 -7.23947 -0.984716 117 117 127
-5.7182 -10.0989 -1.44998 116 116 128
-5.75377 -10.0903 -1.45138 119 119 131
-5.80613 -10.0747 -1.45307 115 115 127
-5.84074 -10.0642 -1.45419 117 117 127
-6.45852 -9.40779 -1.47864 122 120 131
-6.49266 -9.39642 -1.48009 123 121 132
-6.52238 -9.37838 -1.48035 124 123 130
-6.5734 -9.3601 -1.48239 124 123 131
-12.9148 -4.68597 -1.829 78 84 100
-12.9267 -4.64494 -1.82865 76 83 99
-12.9385 -4.60387 -1.82831 77 86 101
-12.9535 -4.54123 -1.82737 78 86 99
-12.9837 -4.50656 -1.82999 81 89 102
-13.9101 -3.50428 -1.84676 80 86 105
-13.9182 -3.46022 -1.84642 80 88 107
-13.9431 -3.39717 -1.84781 82 90 109
-13.9585 -3.35489 -1.84862 82 90 109
-15.2021 -2.01591 -1.87652 93 107 133
-15.2272 -1.97061 -1.87919 87 101 127
-16.2704 -0.393294 -1.86742 89 103 131
-16.2647 -0.346541 -1.86636 89 105 131
-16.2471 -0.299616 -1.86365 86 102 128
-4.67415 -10.9489 -1.40633 117 117 127
-4.70914 -10.9387 -1.40684 117 117 127
-4.75976 -10.9176 -1.40681 117 117 125
-5.59834 -10.1372 -1.44663 117 117 129
-5.65262 -10.126 -1.4489 118 120 132
-5.68542 -10.1125 -1.44944 117 117 129
-6.28896 -9.46603 -1.47194 116 117 129
-6.33369 -9.43912 -1.4722 120 118 131
-6.37216 -9.43482 -1.47484 120 120 128
-6.41284 -9.43367 -1.47808 120 118 130
-8.67669 -7.10917 -1.55559 127 125 135
-8.67997 -7.06721 -1.55191 126 124 135
-8.71502 -7.05181 -1.55459 125 123 134
-9.39492 -6.76284 -1.61044 125 125 127
-9.40035 -6.7006 -1.60555 125 124 129
-9.41255 -6.66573 -1.60399 126 125 130
-9.43263 -6.63661 -1.60395 125 124 130
-9.45101 -6.60629 -1.6036 123 122 127
-9.48609 -6.56583 -1.60446 124 123 128
-9.51556 -6.54331 -1.60623 127 125 130
-9.53365 -6.51273 -1.60588 127 125 130
-9.56507 -6.46957 -1.60614 126 126 128
-9.58454 -6.43997 -1.60609 127 127 127
-9.61043 -6.41476 -1.60725 125 125 127
-12.995 -4.46533 -1.82964 76 84 97
-12.9987 -4.42152 -1.82811 74 86 98
-13.0185 -4.36054 -1.82806 74 78 92
-13.0519 -4.32666 -1.83128 79 81 96
-13.0626 -4.28522 -1.83093 87 88 105
-13.9854 -3.3153 -1.85115 82 92 107
-14.0308 -3.25679 -1.85568 80 93 110
-14.0516 -3.2155 -1.85735 80 93 110
-15.2256 -1.89757 -1.87779 103 119 136
-15.2404 -1.85087 -1.8791 138 147 158
-15.2237 -1.80042 -1.87608 139 145 151
-16.2811 -0.230224 -1.86804 88 104 132
-16.2691 -0.183434 -1.86615 87 102 131
-4.60189 -10.9635 -1.40448 115 115 124
-4.63102 -10.9388 -1.40281 113 115 125
-5.48369 -10.1847 -1.44501 117 117 125
-5.53441 -10.167 -1.44613 114 117 126
-5.57004 -10.1592 -1.44753 117 117 129
-6.19791 -9.51587 -1.47086 122 121 129
-6.22479 -9.4938 -1.47023 129 127 138
-6.25795 -9.48164 -1.47138 125 123 136
-8.74713 -7.21376 -1.57409 127 124 135
-9.0465 -7.25759 -1.61385 126 124 129
-9.39894 -7.49987 -1.67915 127 125 128
-9.39405 -7.4484 -1.67366 126 125 131
-9.39746 -7.38006 -1.66756 130 127 135
-9.39199 -7.32882 -1.66207 128 125 132
-9.39096 -7.28136 -1.65748 130 129 134
-9.39486 -7.21459 -1.65169 129 129 134
-9.39488 -7.16852 -1.64741 126 125 131
-9.39002 -7.11888 -1.64222 125 124 130
-9.38649 -7.07054 -1.63733 125 124 130
-9.39221 -7.0066 -1.63214 126 125 133
-9.39449 -6.96323 -1.62847 128 127 133
-9.39026 -6.91515 -1.62358 127 126 131
-9.39661 -6.85266 -1.61869 126 127 130
-9.40142 -6.81184 -1.61562 124 124 126
-9.65778 -6.38228 -1.61053 125 124 129
-9.67205 -6.34907 -1.60958 126 125 130
-9.70099 -6.3257 -1.61135 126 124 129
-9.75465 -6.29693 -1.61584 124 122 127
-9.76861 -6.26347 -1.61489 127 126 129
-9.79405 -6.23752 -1.61605 127 127 127
-9.8244 -6.21469 -1.61812 123 123 123
-9.84779 -6.16581 -1.61717 126 124 127
-9.87463 -6.14059 -1.61863 127 125 128
-9.90811 -6.11948 -1.62131 128 126 129
-9.93101 -6.07025 -1.62035 130 128 131
-9.96602 -6.04988 -1.62333 125 123 126
-9.99763 -6.02726 -1.62571 125 123 127
-10.0251 -5.98075 -1.62566 128 123 127
-10.0413 -5.94864 -1.62531 130 125 129
-10.0761 -5.92767 -1.62829 134 128 130
-10.121 -5.91261 -1.63308 133 127 129
-10.165 -5.87553 -1.63605 136 130 128
-13.0724 -4.22089 -1.8294 78 77 93
-13.079 -4.1782 -1.82846 88 87 103
-13.1213 -4.1468 -1.83316 85 84 98
-13.1115 -4.07643 -1.82866 84 82 95
-14.0627 -3.1719 -1.85759 86 98 116
-14.0717 -3.12783 -1.85755 79 91 112
-14.0854 -3.06166 -1.8575 85 97 119
-15.2429 -1.72991 -1.87767 135 141 152
-15.2454 -1.68175 -1.87735 108 114 127
-15.2537 -1.63421 -1.87786 112 120 137
-16.2806 -0.136886 -1.86759 87 102 131
-16.2842 -0.0668851 -1.86782 84 101 127
-16.2617 -0.0202235 -1.86455 84 101 127
-4.516 -10.9935 -1.40399 117 117 125
-4.54891 -10.9782 -1.40369 119 119 127
-5.42038 -10.2155 -1.4448 117 117 127
-5.45607 -10.2081 -1.4462 118 118 128
-6.03278 -9.57775 -1.46565 122 122 133
-6.07489 -9.54705 -1.46502 119 119 129
-6.1123 -9.54214 -1.46736 118 121 130
-6.14868 -9.53541 -1.46941 122 119 130
-7.91982 -7.80609 -1.54129 145 131 117
-7.95325 -7.79162 -1.54337 109 99 89
-7.99469 -7.76055 -1.54453 106 93 87
-8.02804 -7.74575 -1.54661 109 95 86
-8.03889 -7.70858 -1.54384 112 95 87
-8.07859 -7.67566 -1.54471 100 87 79
-8.13304 -7.68116 -1.55132 109 99 94
-8.34676 -7.84029 -1.59184 117 109 107
-8.44466 -7.88583 -1.60754 122 117 114
-8.50958 -7.87408 -1.61355 140 132 134
-8.57082 -7.88321 -1.62137 148 142 141
-8.6221 -7.88254 -1.62708 146 141 139
-8.69308 -7.87502 -1.6343 136 133 135
-8.75471 -7.88314 -1.64212 131 129 135
-8.80918 -7.88427 -1.64843 128 125 131
-8.87906 -7.87413 -1.65534 118 116 126
-8.94692 -7.88655 -1.66438 115 113 119
-9.00024 -7.8854 -1.67038 116 114 119
-9.05805 -7.88794 -1.6773 120 118 123
-9.13875 -7.88531 -1.68633 131 130 135
-9.19383 -7.88453 -1.69264 130 129 134
-9.25347 -7.88738 -1.69985 131 130 136
-9.31965 -7.87039 -1.70586 129 128 136
-9.31954 -7.821 -1.70097 126 125 133
-9.34176 -7.79094 -1.70062 126 124 135
-10.1792 -5.842 -1.63541 130 121 118
-10.2035 -5.81439 -1.63657 130 121 114
-10.2659 -5.78756 -1.64287 133 123 114
-10.3502 -5.79391 -1.65461 139 128 122
-10.4208 -5.79198 -1.66394 139 128 122
-10.5075 -5.77724 -1.67446 130 116 110
-10.5887 -5.78016 -1.6856 134 121 113
-13.1498 -4.04352 -1.83276 84 83 97
-13.1729 -4.00582 -1.83449 86 86 100
-13.1581 -3.95665 -1.83029 89 88 100
-13.2041 -3.90325 -1.83469 87 84 100
-14.123 -3.02379 -1.86174 79 92 111
-14.1297 -2.9791 -1.86141 87 98 118
-14.162 -2.91668 -1.86423 87 100 117
-14.1702 -2.87228 -1.86418 86 98 119
-15.254 -1.58582 -1.87727 105 117 139
-15.2604 -1.51384 -1.87723 94 107 132
-4.42073 -10.9987 -1.39996 115 115 125
-4.47732 -10.9938 -1.40212 117 115 126
-5.34253 -10.2574 -1.44515 117 117 129
-5.37039 -10.2344 -1.44397 116 116 128
-5.8873 -9.63637 -1.46192 118 118 130
-5.9227 -9.62883 -1.46367 120 120 132
-5.97323 -9.61218 -1.46542 118 116 129
-5.99334 -9.57895 -1.46271 119 119 131
-7.67142 -7.98812 -1.53467 143 138 135
-7.69162 -7.96028 -1.53372 148 140 137
-7.71715 -7.93814 -1.53398 147 137 135
-7.76052 -7.90978 -1.53545 145 135 129
-7.79 -7.89169 -1.53662 146 135 123
-7.81806 -7.87207 -1.53748 148 132 117
-7.84197 -7.84808 -1.53744 150 132 118
-7.88086 -7.81478 -1.538 149 135 124
-10.6803 -5.78835 -1.69855 127 117 109
-10.76 -5.78937 -1.70939 127 118 110
-10.8663 -5.78252 -1.72324 123 112 107
-10.9497 -5.78432 -1.73468 130 119 114
-11.0349 -5.78659 -1.74641 128 118 108
-13.1983 -3.85695 -1.83198 82 82 100
-13.2019 -3.81345 -1.83074 84 86 102
-13.215 -3.75038 -1.8301 88 87 101
-13.2392 -3.71273 -1.83213 91 90 103
-14.1803 -2.82824 -1.86443 94 102 121
-15.2879 -1.46806 -1.88044 93 107 133
-15.2876 -1.4196 -1.87986 87 103 128
-15.2952 -1.34761 -1.88009 95 110 133
-4.35744 -11.0357 -1.40166 117 118 128
-4.38564 -11.008 -1.39945 112 112 122
-5.78266 -9.69599 -1.46173 115 115 127
-5.83136 -9.67668 -1.46289 119 119 131
-5.86583 -9.66765 -1.46434 120 118 131
-7.43976 -8.13487 -1.52709 134 133 138
-7.46712 -8.11506 -1.52765 136 134 138
-7.49969 -8.10103 -1.52943 142 141 145
-7.53092 -8.08542 -1.5309 141 138 142
-7.55888 -8.04055 -1.52874 143 139 137
-7.60198 -8.03782 -1.53294 143 138 137
-7.62641 -8.01452 -1.5329 145 140 136
-11.1364 -5.77478 -1.75936 122 111 105
-11.2219 -5.77592 -1.7711 121 112 105
-11.3111 -5.77839 -1.78344 124 115 110
-11.427 -5.77167 -1.7988 132 122 113
-11.5199 -5.77472 -1.81174 134 124 118
-13.2556 -3.67286 -1.83297 91 90 105
-13.2928 -3.61628 -1.83619 87 86 100
-13.3032 -3.57466 -1.83614 85 86 100
-13.3021 -3.52997 -1.83432 85 86 101
-15.2887 -1.29865 -1.8787 113 127 153
-15.3214 -1.25291 -1.88272 90 104 130
-5.06662 -10.3332 -1.43761 116 116 128
-5.66485 -9.73201 -1.45767 118 118 130
-5.7117 -9.70988 -1.45823 119 121 133
-5.74619 -9.70128 -1.45968 120 118 131
-7.25361 -8.27993 -1.52492 122 120 131
-7.28393 -8.26378 -1.52609 125 123 134
-7.30906 -8.24151 -1.52605 121 119 130
-7.34317 -8.20346 -1.5251 120 117 127
-7.37331 -8.18697 -1.52627 127 124 133
-7.3969 -8.16292 -1.52592 138 135 143
-11.6024 -5.77189 -1.82288 114 106 108
-11.655 -5.75352 -1.82887 112 104 109
-11.6776 -5.69734 -1.82822 115 110 116
-11.6946 -5.661 -1.82817 111 109 114
-11.7186 -5.62807 -1.82933 113 110 119
-11.7442 -5.57334 -1.82928 112 109 118
-11.7608 -5.53678 -1.82923 104 100 108
-13.3332 -3.4938 -1.83753 84 90 104
-13.3544 -3.43262 -1.83837 84 93 108
-13.3566 -3.38886 -1.83714 85 94 111
-13.395 -3.35418 -1.84154 83 91 110
-15.3184 -1.17999 -1.8816 88 103 129
-15.3133 -1.13121 -1.88048 87 103 128
-15.308 -1.08246 -1.87936 86 102 128
-4.97964 -10.3543 -1.43509 114 116 128
-5.02756 -10.3321 -1.43506 114 115 128
-5.55258 -9.77696 -1.45539 117 117 129
-5.59771 -9.75193 -1.45535 120 120 132
-5.63032 -9.7403 -1.45621 119 118 131
-7.05462 -8.40823 -1.52032 124 121 130
-7.0877 -8.3959 -1.52209 123 120 129
-7.12517 -8.36188 -1.52175 124 123 133
-7.15945 -8.35079 -1.52383 124 122 132
-7.18866 -8.33348 -1.5247 123 121 129
-7.21655 -8.31455 -1.52526 124 123 127
-11.7827 -5.50271 -1.83009 121 117 123
-11.7934 -5.44096 -1.82762 135 130 133
-11.8167 -5.40757 -1.82878 135 130 134
-11.8239 -5.36664 -1.82722 147 142 147
-11.8434 -5.33147 -1.82778 141 136 142
-11.864 -5.2745 -1.82712 69 67 78
-11.8833 -5.23916 -1.82768 63 62 75
-13.4251 -3.29498 -1.84387 80 89 108
-13.4403 -3.25431 -1.84471 82 93 111
-13.4592 -3.21448 -1.84615 87 98 116
-15.3164 -1.03467 -1.88013 86 102 128
-15.3163 -0.9621 -1.87955 90 104 130
-4.89312 -10.4181 -1.43835 116 119 128
-4.91456 -10.3801 -1.43458 115 117 129
-4.94793 -10.3691 -1.43512 115 117 129
-5.45725 -9.81591 -1.4537 118 118 130
-5.48532 -9.79607 -1.45307 118 118 130
-5.51237 -9.77442 -1.45214 118 118 130
-6.88182 -8.51383 -1.51628 125 121 125
-6.92476 -8.48699 -1.51715 123 118 125
-6.9555 -8.47208 -1.51832 124 122 127
-6.98131 -8.45087 -1.51828 126 125 133
-7.02896 -8.42968 -1.52036 124 125 135
-11.908 -5.14019 -1.82517 87 85 98
-11.9341 -5.10783 -1.82693 94 90 107
-11.9275 -5.06126 -1.82326 95 93 109
-11.9722 -5.01479 -1.82684 95 93 104
-11.9689 -4.96981 -1.82377 86 84 95
-12.0037 -4.9409 -1.82704 84 83 96
-13.4983 -3.15703 -1.84996 85 98 117
-13.4899 -3.11075 -1.84724 85 98 117
-13.5296 -3.07545 -1.85194 83 95 116
-15.2887 -0.91217 -1.87545 87 100 124
-4.80029 -10.425 -1.43381 115 117 129
-4.83534 -10.418 -1.43493 114 118 129
-5.33524 -9.84084 -1.44844 116 118 131
-5.37716 -9.84762 -1.45228 115 117 129
-5.40813 -9.83327 -1.45254 115 115 127
-6.72101 -8.60556 -1.51223 145 140 137
-6.74126 -8.57721 -1.51068 142 137 134
-6.79285 -8.56211 -1.51367 132 127 127
-6.82615 -8.55083 -1.51545 129 124 125
-6.8534 -8.53159 -1.51571 123 121 122
-11.9964 -4.89441 -1.82337 84 83 97
-12.035 -4.84505 -1.82604 81 82 96
-12.031 -4.80012 -1.82298 80 84 96
-12.0562 -4.76704 -1.82474 80 83 97
-12.1089 -4.72303 -1.82983 82 84 99
-12.0861 -4.67084 -1.82374 78 81 96
-13.5364 -3.03262 -1.8516 79 92 111
-13.5496 -2.96896 -1.85155 79 91 115
-13.5696 -2.92898 -1.85329 84 96 120
-14.3743 -2.12602 -1.87583 96 108 130
-14.3794 -2.05777 -1.87522 91 106 129
-14.3791 -2.0118 -1.87432 95 107 131
-4.71915 -10.4583 -1.43358 114 116 128
-4.77378 -10.4518 -1.43586 118 118 130
-5.22669 -9.89065 -1.44765 118 116 130
-5.26044 -9.88208 -1.4488 116 115 129
-5.28788 -9.86108 -1.44788 115 117 129
-6.59132 -8.6822 -1.50966 135 128 121
-6.62246 -8.66853 -1.51084 136 128 123
-6.65006 -8.64998 -1.5111 140 133 126
-6.69237 -8.62276 -1.51167 141 136 133
-12.1091 -4.63675 -1.82521 77 83 97
-12.1152 -4.57444 -1.82274 77 83 97
-12.1398 -4.54088 -1.82451 76 83 96
-12.1569 -4.50442 -1.82506 76 84 97
-12.1831 -4.47134 -1.82713 77 83 97
-13.5836 -2.88766 -1.85413 84 98 118
-13.6387 -2.83255 -1.86061 95 102 121
-14.4157 -1.97101 -1.87885 93 105 127
-14.4005 -1.89997 -1.87538 88 103 126
-15.5158 -0.276257 -1.86718 86 100 126
-15.5315 -0.232352 -1.86931 87 101 127
-4.65879 -10.4951 -1.43508 115 119 130
-4.69169 -10.4831 -1.43534 116 119 130
-5.18354 -9.91919 -1.44857 116 116 128
-6.44128 -8.7585 -1.50558 146 135 129
-6.48748 -8.73718 -1.50705 146 137 130
-6.51526 -8.71907 -1.50732 144 137 129
-6.54299 -8.70088 -1.50758 147 140 133
-12.1939 -4.41093 -1.82558 77 80 95
-12.2143 -4.3756 -1.82674 66 71 85
-12.2328 -4.33952 -1.8276 83 86 100
-12.2709 -4.28887 -1.83057 108 109 118
-14.4192 -1.85656 -1.87734 86 100 125
-14.4241 -1.81129 -1.8773 92 104 126
-14.4552 -1.74623 -1.88069 98 112 134
-15.5415 -0.166121 -1.87046 86 100 126
-15.5273 -0.121714 -1.8682 85 101 127
-15.5465 -0.0776135 -1.87091 85 102 128
-4.52642 -10.4949 -1.42769 115 118 127
-4.57044 -10.5108 -1.43226 116 119 128
-4.60411 -10.501 -1.43281 113 117 128
-6.30321 -8.82098 -1.50118 145 136 132
-6.35182 -8.80366 -1.50327 142 133 127
-6.38093 -8.78763 -1.50384 139 128 126
-6.41225 -8.77474 -1.50501 135 124 120
-8.59954 -6.63905 -1.59387 126 125 132
-8.59926 -6.59678 -1.58967 126 125 131
-8.63094 -6.55817 -1.58994 127 126 132
-8.6663 -6.54352 -1.5931 129 128 134
-8.6781 -6.51081 -1.59146 127 124 131
-8.70308 -6.46704 -1.59045 124 123 129
-8.73039 -6.44608 -1.59201 125 124 130
-8.76239 -6.42854 -1.59452 126 125 131
-8.78484 -6.40382 -1.59512 126 125 127
-8.83157 -6.37591 -1.59859 128 126 129
-8.85867 -6.35442 -1.60015 125 125 127
-8.88251 -6.33051 -1.60106 127 125 128
-8.92422 -6.29849 -1.60358 126 124 127
-8.95113 -6.27662 -1.60513 129 127 132
-8.9651 -6.24554 -1.60413 125 124 130
-9.00488 -6.21185 -1.60632 129 127 130
-9.0316 -6.18962 -1.60788 128 126 131
-9.055 -6.16505 -1.6088 128 126 132
-9.07835 -6.14039 -1.60971 127 124 131
-9.11284 -6.10267 -1.61094 129 126 133
-9.13927 -6.07998 -1.6125 128 126 131
-9.16239 -6.05499 -1.61342 127 125 128
-9.20639 -6.02331 -1.61657 129 127 128
-9.23264 -6.00023 -1.61812 126 124 127
-12.2984 -4.25584 -1.83294 86 84 98
-12.3071 -4.21617 -1.83229 85 82 97
-12.3279 -4.1592 -1.83255 88 90 105
-12.3494 -4.12391 -1.83401 83 85 100
-12.3671 -4.08727 -1.83487 80 82 95
-14.4323 -1.69755 -1.87664 99 111 135
-14.4425 -1.65291 -1.87746 91 104 125
-14.437 -1.60644 -1.87599 84 99 124
-15.5301 -0.0111445 -1.86826 86 101 127
-4.44841 -10.5352 -1.4289 111 113 125
-4.49572 -10.5119 -1.4283 116 118 130
-6.16898 -8.88782 -1.498 127 120 122
-6.20048 -8.8757 -1.49918 133 125 128
-6.2448 -8.8524 -1.50005 144 136 136
-6.27625 -8.84002 -1.50122 145 137 133
-7.84134 -7.22345 -1.56103 126 115 108
-7.8617 -7.19803 -1.56066 125 115 105
-7.88485 -7.17522 -1.56094 124 115 101
-7.91374 -7.15768 -1.5625 123 113 104
-7.94944 -7.12384 -1.5631 125 112 103
-7.97237 -7.10074 -1.56338 127 114 105
-7.99377 -7.07623 -1.56333 125 114 105
-8.03353 -7.04591 -1.56489 121 111 104
-8.05623 -7.02252 -1.56517 112 103 97
-8.07295 -6.99383 -1.56416 105 95 92
-8.11387 -6.96434 -1.56604 110 105 101
-8.68773 -7.16816 -1.65859 133 128 132
-8.69321 -7.10529 -1.65278 123 121 127
-8.71005 -7.07473 -1.65178 124 122 128
-8.74969 -7.06287 -1.65557 128 126 131
-9.03803 -7.02689 -1.68862 127 124 135
-9.25884 -5.97704 -1.61968 132 126 130
-9.28934 -5.93616 -1.62027 132 127 132
-9.34027 -5.92868 -1.62662 134 128 131
-9.36964 -5.90717 -1.62882 137 129 132
-9.39228 -5.88131 -1.62973 138 128 130
-9.42402 -5.84079 -1.63065 128 118 117
-9.45487 -5.81991 -1.63316 122 113 109
-9.50749 -5.81237 -1.63983 134 123 118
-9.57934 -5.79589 -1.64842 135 125 116
-9.64893 -5.79789 -1.65828 133 123 114
-9.73043 -5.80663 -1.67039 134 121 113
-12.3791 -4.04867 -1.83483 88 92 103
-12.3953 -3.9901 -1.83448 94 98 109
-12.4201 -3.95567 -1.83655 86 90 101
-12.4335 -3.91751 -1.8368 85 89 101
-14.4592 -1.54013 -1.87824 92 106 132
-14.4749 -1.49595 -1.87991 88 102 128
-4.38164 -10.5556 -1.4281 114 118 129
-4.41252 -10.5391 -1.42749 112 114 126
-4.85921 -10.0291 -1.4423 115 117 130
-4.88651 -10.0075 -1.44108 114 116 129
-4.91705 -9.99298 -1.44105 114 118 130
-6.02869 -8.94422 -1.4933 129 125 129
-6.06244 -8.93594 -1.49508 132 125 127
-6.10914 -8.91666 -1.49656 142 134 134
-6.1418 -8.90642 -1.49804 145 138 132
-7.56909 -7.43422 -1.55276 126 111 97
-7.59296 -7.41241 -1.55304 91 78 72
-7.62375 -7.39746 -1.55492 107 97 88
-7.66188 -7.36651 -1.55584 110 96 87
-7.68272 -7.34164 -1.55548 103 89 80
-7.72048 -7.33316 -1.55896 97 84 75
-7.74981 -7.29351 -1.55795 127 116 107
-7.77469 -7.27245 -1.55855 123 116 111
-7.7995 -7.2513 -1.55915 125 113 107
-8.68762 -7.41888 -1.68474 103 95 93
-8.88183 -7.5402 -1.72149 118 110 108
-8.9181 -7.52437 -1.72433 133 129 127
-8.95258 -7.48309 -1.72428 142 140 143
-8.88318 -7.37794 -1.70471 142 140 145
-9.09906 -7.27959 -1.72176 130 128 133
-9.18397 -7.30225 -1.73484 126 125 131
-9.20447 -7.27266 -1.73447 126 125 131
-9.22948 -7.2467 -1.73506 125 124 130
-9.82119 -5.7997 -1.68249 128 118 109
-9.89282 -5.80135 -1.69268 130 121 112
-9.97305 -5.80761 -1.70446 130 120 111
-10.0642 -5.7988 -1.71656 132 121 115
-10.1362 -5.79909 -1.72675 133 122 116
-12.4567 -3.86106 -1.83766 80 83 98
-12.434 -3.81161 -1.83219 79 82 99
-12.4771 -3.78268 -1.83727 80 83 100
-12.4978 -3.72538 -1.83783 81 84 101
-14.4649 -1.44908 -1.87787 92 108 134
-14.4845 -1.38225 -1.87983 90 106 133
-4.29119 -10.5634 -1.42441 117 119 132
-4.32846 -10.5637 -1.42639 114 116 128
-4.78041 -10.0612 -1.44177 113 116 125
-4.80703 -10.038 -1.44025 111 113 124
-5.93334 -9.00904 -1.49371 130 125 131
-5.95663 -8.98442 -1.49246 129 125 126
-6.0056 -8.96904 -1.49455 126 119 122
-7.32386 -7.62218 -1.54669 147 131 118
-7.36019 -7.58997 -1.54697 145 129 118
-7.37905 -7.56316 -1.54597 143 129 117
-7.41422 -7.55338 -1.54881 142 127 116
-7.45298 -7.52355 -1.54973 141 126 112
-7.4702 -7.49508 -1.5484 137 121 107
-7.49978 -7.47923 -1.54996 140 125 111
-7.54379 -7.45455 -1.55216 145 128 114
-10.2185 -5.80486 -1.73885 126 115 112
-10.3062 -5.81308 -1.75191 118 108 107
-10.3945 -5.79984 -1.76337 122 112 111
-10.4669 -5.7983 -1.77355 122 112 110
-10.5497 -5.80209 -1.78565 123 112 108
-12.5143 -3.68806 -1.83869 80 83 100
-12.4965 -3.64058 -1.83412 80 83 100
-12.5393 -3.61099 -1.83921 79 85 99
-12.563 -3.55442 -1.84037 77 85 100
-14.5017 -1.33805 -1.8818 90 106 132
-14.4676 -1.28908 -1.87632 91 106 132
-4.20838 -10.5908 -1.42389 113 116 125
-4.26227 -10.5852 -1.42588 115 117 129
-4.70922 -10.0676 -1.43825 116 118 130
-4.7456 -10.0662 -1.44031 115 117 129
-5.79001 -9.05821 -1.4884 121 120 130
-5.82385 -9.05086 -1.49018 121 121 131
-5.85357 -9.03664 -1.49075 123 123 131
-5.89743 -9.01345 -1.49133 122 119 128
-7.10715 -7.76635 -1.53993 147 133 124
-7.14942 -7.74109 -1.54149 146 132 121
-7.17815 -7.72508 -1.54273 144 130 119
-7.20152 -7.70315 -1.54269 141 127 118
-7.23956 -7.673 -1.54329 143 129 120
-7.26815 -7.65665 -1.54453 145 131 122
-7.294 -7.6373 -1.54513 144 129 118
-10.6453 -5.7908 -1.79839 126 117 112
-10.7162 -5.78691 -1.80825 127 121 115
-10.7387 -5.75641 -1.80916 123 118 116
-10.7857 -5.71746 -1.81295 117 111 114
-10.8115 -5.68854 -1.8145 115 109 114
-10.8232 -5.65218 -1.81349 111 106 110
-10.8453 -5.62126 -1.8144 111 110 114
-10.8725 -5.57155 -1.81467 108 107 115
-10.8943 -5.54043 -1.81559 108 106 116
-12.5789 -3.5168 -1.84123 77 87 99
-12.5815 -3.47538 -1.83998 77 86 101
-12.6178 -3.4222 -1.84326 77 86 101
-12.6048 -3.37657 -1.83959 80 89 106
-13.8455 -1.96042 -1.8702 94 106 132
-14.4982 -1.2231 -1.88 89 105 131
-14.507 -1.17803 -1.88082 90 106 132
-14.5098 -1.13244 -1.88078 83 99 124
-4.15011 -10.6338 -1.42682 115 117 129
-4.17996 -10.6142 -1.42564 114 116 128
-4.60477 -10.1247 -1.43983 116 118 130
