14.6394 4.44242 -1.76488 68 70 93
14.6591 4.36881 -1.76462 66 71 92
14.6372 4.31001 -1.75999 66 71 91
14.6834 -1.86294 -1.697 83 81 96
14.6606 -1.90927 -1.69483 87 84 102
13.3756 -5.93357 -1.4991 97 89 102
13.3232 -5.96281 -1.49489 92 84 99
13.2668 -6.01601 -1.49136 97 93 107
14.8012 6.33391 -1.81379 64 69 90
14.8034 6.2773 -1.8114 62 64 86
14.7968 6.18884 -1.80662 77 84 101
14.6146 4.80725 -1.77539 66 73 92
14.5961 4.72159 -1.77002 66 73 91
14.625 4.67701 -1.77172 66 72 92
14.6062 4.61819 -1.76733 69 69 93
13.2124 -6.04383 -1.48692 94 88 102
13.1943 -6.08738 -1.48695 94 90 105
14.7793 6.52702 -1.8205 63 70 86
14.7786 6.46876 -1.81764 63 71 88
14.8079 6.39432 -1.81737 64 72 91
14.5645 5.03288 -1.77834 67 73 95
14.5754 4.98257 -1.7776 67 72 94
14.5844 4.90498 -1.77564 69 70 91
14.5873 4.8523 -1.77393 69 71 92
13.1556 -6.14773 -1.48565 90 86 100
13.1082 -6.17805 -1.48211 92 88 102
14.7563 6.63364 -1.82314 66 70 89
14.7633 6.5784 -1.82123 64 69 88
14.5356 5.26643 -1.78446 64 71 89
14.5453 5.21548 -1.78348 67 72 91
14.5592 5.13906 -1.782 68 73 93
14.5591 5.08502 -1.77981 68 73 93
13.0662 -6.21058 -1.47923 94 90 105
14.5274 5.50887 -1.79376 63 70 88
14.5323 5.45587 -1.79204 64 71 89
14.5371 5.4029 -1.79033 63 72 89
14.5481 5.32509 -1.78837 65 71 87
14.497 5.69015 -1.79818 63 70 89
14.5361 5.64932 -1.80085 61 69 90
14.5266 5.59079 -1.79719 62 68 92
14.4004 -3.24585 -1.68861 73 71 84
14.5237 -4.34679 -1.68872 61 61 74
14.5097 -4.42007 -1.68947 64 61 77
14.4284 5.91321 -1.80041 63 70 90
14.4644 5.87146 -1.8026 64 71 90
14.4688 5.81765 -1.80064 62 69 87
14.5138 5.77915 -1.80404 64 71 89
14.3853 -3.29215 -1.68791 70 68 82
14.3738 -3.33924 -1.68769 73 71 85
14.3511 -3.40868 -1.68674 73 71 84
14.3373 -3.45519 -1.68628 72 70 83
14.4985 -4.46835 -1.68974 63 61 73
14.491 -4.51771 -1.69048 62 59 75
14.4571 -4.58517 -1.68885 71 68 86
14.3804 6.08913 -1.80313 82 87 106
14.4058 6.04336 -1.80385 61 66 86
14.4218 5.99389 -1.80336 60 67 86
14.3234 -3.50164 -1.68582 75 73 84
14.325 -3.57675 -1.68805 72 70 84
14.3262 -3.62686 -1.68954 73 69 84
14.4473 -4.63386 -1.68936 71 67 86
14.3101 6.25648 -1.80317 63 68 87
14.3305 6.20873 -1.80316 68 73 93
14.3507 6.16094 -1.80315 76 85 101
14.3156 -3.67417 -1.68957 71 68 83
14.2817 -3.74072 -1.6874 73 69 85
14.2439 -3.78105 -1.68402 68 65 82
14.2329 -3.82809 -1.68404 64 62 76
14.2882 6.38781 -1.80711 64 69 89
14.3218 6.34547 -1.8088 66 68 89
14.2351 -3.87859 -1.68578 65 62 79
14.2138 -3.94807 -1.68533 64 64 79
14.1811 -3.98933 -1.68267 66 67 80
14.3225 -4.95737 -1.68645 62 60 73
14.3171 -5.00759 -1.68768 61 59 75
14.1828 -4.03981 -1.68441 69 66 83
14.1588 -4.10845 -1.68371 62 64 77
14.1372 -4.15251 -1.68252 63 66 78
14.3135 -5.05846 -1.68914 67 65 78
14.2791 -5.12519 -1.68775 74 72 85
13.8042 1.93601 -1.71593 111 89 77
13.818 1.86786 -1.71645 90 78 87
13.8998 1.78473 -1.72559 117 114 131
13.8166 1.70464 -1.71334 105 104 120
13.8306 1.65974 -1.7144 103 104 123
13.8582 1.61634 -1.71727 64 66 85
13.8367 1.4978 -1.71259 78 76 100
13.8717 1.45494 -1.71651 77 76 98
13.8692 1.4082 -1.71548 80 76 101
13.8824 1.33982 -1.71627 75 76 97
13.8854 1.29366 -1.71602 80 78 100
13.9001 1.24852 -1.71733 77 75 96
13.9027 1.17913 -1.71682 73 74 94
13.9111 1.13339 -1.71735 81 82 100
13.9076 1.08672 -1.71632 82 85 102
13.9154 1.01777 -1.71659 79 78 96
13.9193 0.971697 -1.7166 77 73 97
13.939 0.926636 -1.71869 77 75 99
13.9322 0.856694 -1.71714 75 73 95
13.9258 0.810006 -1.71585 79 77 98
13.9409 0.764546 -1.71742 76 77 97
13.9481 0.7186 -1.71796 75 76 96
13.9265 0.648161 -1.71458 77 78 96
13.9431 0.602659 -1.71641 79 80 101
13.9339 0.556041 -1.71486 81 78 100
13.9392 0.486934 -1.71514 70 68 89
13.9356 0.440616 -1.71437 81 81 102
13.9358 0.394444 -1.71412 82 84 105
13.9542 0.325651 -1.71622 75 76 97
13.9422 0.279193 -1.71441 80 77 98
13.9221 0.232679 -1.71155 75 77 98
14.1135 -4.19594 -1.68108 64 63 80
14.1097 -4.27023 -1.68307 62 59 76
14.0876 -4.31403 -1.68188 64 61 78
14.2526 -5.16826 -1.68635 47 44 58
14.2596 -5.22295 -1.68924 103 101 111
13.7682 2.51693 -1.72395 84 79 90
13.8627 2.48601 -1.73542 100 87 74
13.7911 2.403 -1.72421 104 89 83
13.8231 2.24338 -1.72475 74 71 93
13.8094 2.19425 -1.72189 69 66 94
13.7916 2.14466 -1.71851 74 79 96
13.8089 2.10035 -1.71982 74 75 91
13.7588 2.02305 -1.71174 76 69 74
13.8698 1.99178 -1.72556 112 91 80
13.9397 0.163788 -1.71365 78 76 98
13.9311 0.117574 -1.71236 75 73 95
13.9382 0.0715285 -1.71316 81 80 102
13.9313 0.0253943 -1.71213 80 81 101
13.9321 -0.0437311 -1.71214 78 76 97
13.9268 -0.0897865 -1.71138 76 74 95
13.9115 -0.13573 -1.7093 79 80 100
13.9254 -0.204914 -1.71114 87 86 102
13.9256 -0.250963 -1.71116 76 73 92
13.9354 -0.297193 -1.71248 86 83 100
13.913 -0.365801 -1.70963 78 76 96
13.9403 -0.41253 -1.71329 81 82 103
13.922 -0.458087 -1.71096 81 79 101
14.0901 -4.36505 -1.68386 61 58 75
14.0475 -4.42794 -1.68097 61 58 76
14.2844 -5.31044 -1.69549 96 95 103
14.1732 -5.32339 -1.68335 108 108 120
14.1536 -5.36865 -1.6829 49 46 66
13.7912 2.9487 -1.73826 73 70 91
13.8284 2.90839 -1.74191 72 73 93
13.7956 2.85404 -1.73618 80 81 101
13.7936 2.80599 -1.73462 74 75 95
13.8153 2.7388 -1.73566 96 96 114
13.7897 2.68643 -1.73097 93 92 113
13.8008 2.64102 -1.73124 99 100 118
13.9273 -0.504302 -1.71176 85 83 106
13.9197 -0.573133 -1.711 91 90 108
13.9306 -0.619621 -1.71258 86 87 105
13.9215 -0.665314 -1.71155 83 82 99
13.925 -0.734609 -1.71235 79 78 97
13.9156 -0.780215 -1.71132 83 81 102
13.9337 -0.827276 -1.71395 80 79 95
13.9266 -0.896092 -1.71344 84 81 100
14.0648 -4.48357 -1.6849 66 66 82
14.0212 -4.52065 -1.68102 61 60 74
14.0003 -4.56457 -1.68008 66 64 77
13.8182 3.29112 -1.7518 70 68 90
13.8177 3.24264 -1.75024 69 70 91
13.8112 3.19293 -1.7479 74 77 94
13.8153 3.12164 -1.74633 72 76 95
13.8104 3.07249 -1.74425 74 75 95
13.8015 3.02259 -1.74164 79 84 100
13.9423 -0.943211 -1.71581 81 78 98
13.954 -0.990174 -1.71765 80 79 97
13.9579 -1.05986 -1.71871 79 76 93
13.9436 -1.10508 -1.71717 86 84 104
13.9488 -1.15174 -1.71823 90 88 105
13.9618 -1.19906 -1.72033 91 88 106
13.9777 -4.63329 -1.67987 70 69 83
13.9545 -4.6764 -1.67868 63 62 79
13.9652 -4.73041 -1.68188 70 69 85
14.1595 -5.55487 -1.69112 77 75 92
14.1261 -5.59513 -1.68901 78 76 90
14.0597 -5.6492 -1.6838 82 77 91
13.8352 3.63585 -1.76509 68 66 87
13.8339 3.58658 -1.76327 69 68 86
13.8152 3.53313 -1.7591 68 69 89
13.819 3.46108 -1.75727 69 70 87
13.8191 3.41247 -1.75571 64 65 85
13.8248 3.36525 -1.75493 69 72 91
13.941 -1.26687 -1.71827 100 96 114
13.9063 -1.31012 -1.71411 98 96 110
13.907 -1.3564 -1.71465 101 98 116
13.9249 -1.42753 -1.7178 94 91 106
13.9134 -1.47272 -1.71678 93 92 106
13.9135 -1.51905 -1.71732 92 89 107
13.9663 -4.80698 -1.68485 72 70 81
13.9426 -4.84994 -1.68366 70 69 84
14.0409 -5.69472 -1.68359 76 74 87
14.0442 -5.7488 -1.68625 75 72 83
13.7752 3.91487 -1.76719 73 72 93
13.7924 3.84569 -1.76692 67 68 86
13.7804 3.79334 -1.76353 72 71 89
13.8122 3.75253 -1.76614 68 66 87
13.8133 3.67932 -1.76379 69 67 88
13.8992 -1.58709 -1.7163 98 95 112
13.8891 -1.63232 -1.71554 94 92 106
13.8887 -1.6786 -1.71608 87 83 100
13.8756 -1.74666 -1.71532 98 91 109
13.8494 -1.78983 -1.71247 94 90 107
13.8387 -1.8348 -1.71171 85 82 101
13.9338 -4.89786 -1.68442 67 64 81
13.9022 -4.96362 -1.68324 67 69 82
13.8799 -5.00691 -1.68229 57 61 73
13.9772 -5.80202 -1.68104 92 86 91
13.886 -5.81862 -1.67153 93 88 94
13.7139 -5.80216 -1.65152 94 87 95
13.7469 4.17908 -1.77345 54 55 74
13.7456 4.12904 -1.77137 63 61 82
13.7688 4.08605 -1.77267 64 63 81
13.7868 4.01688 -1.7724 67 65 86
13.7525 3.95798 -1.76589 69 70 88
13.8514 -1.88272 -1.71408 95 93 108
13.8138 -1.94738 -1.71019 89 88 103
13.8301 -1.99589 -1.71308 87 84 101
13.8266 -2.04179 -1.71336 83 80 97
13.8079 -2.1088 -1.71208 85 83 97
13.8706 -5.05468 -1.68306 63 62 76
13.8476 -5.12333 -1.6831 49 48 62
13.5514 -5.81445 -1.6339 91 85 89
13.4201 -5.81231 -1.61913 93 84 90
13.2836 -5.80711 -1.60365 94 85 90
13.1362 -5.79651 -1.58674 94 85 90
13.7361 4.40033 -1.78077 68 71 90
13.7298 4.34839 -1.7779 69 70 90
13.7405 4.30162 -1.77737 68 69 90
13.7433 4.25258 -1.77581 67 72 92
13.7884 -2.15234 -1.71027 84 82 96
13.7883 -2.19871 -1.71108 85 82 91
13.823 -5.16569 -1.68191 55 53 67
13.7684 -5.19718 -1.67681 111 108 120
13.7902 -5.2562 -1.68172 96 92 106
12.9945 -5.81266 -1.57174 92 82 90
12.8585 -5.80481 -1.55626 89 83 87
12.7172 -5.7938 -1.54006 87 80 87
13.6864 4.63589 -1.78418 66 71 93
13.7051 4.5664 -1.78365 67 69 92
13.7127 4.51846 -1.7826 68 70 93
13.7125 4.46816 -1.78052 65 72 90
13.8164 -5.343 -1.68836 103 99 113
13.7448 -5.36779 -1.68106 49 46 62
12.5779 -5.8075 -1.5253 102 98 102
12.4606 -5.80503 -1.5122 95 94 102
12.4142 -5.8333 -1.50841 95 92 99
13.6659 4.80613 -1.78889 65 70 90
13.6854 4.73669 -1.78836 65 71 93
13.6841 4.68565 -1.78601 68 68 92
13.2691 2.04047 -1.70907 64 59 75
13.3323 1.98153 -1.71633 109 89 81
13.3001 1.93184 -1.71096 109 91 81
13.3049 1.88731 -1.7107 116 100 93
13.2699 1.7702 -1.70373 97 95 116
13.3844 1.73911 -1.71851 99 102 117
13.3264 1.66453 -1.70938 81 82 101
13.3383 1.62085 -1.71019 73 74 93
13.3282 1.52977 -1.70726 71 69 92
13.3716 1.46684 -1.7121 75 74 96
13.3711 1.42178 -1.7113 77 75 96
13.3546 1.37524 -1.70835 78 82 98
13.3677 1.30914 -1.70917 78 80 103
13.3765 1.26502 -1.70971 70 69 89
13.403 1.22237 -1.71267 75 73 92
13.4055 1.1552 -1.71215 81 79 98
13.4277 1.11198 -1.71457 76 75 93
13.4043 1.06532 -1.71082 75 75 91
13.41 0.998472 -1.71083 76 75 93
13.4258 0.954672 -1.71245 77 74 93
13.4118 0.908929 -1.71004 75 74 94
13.4451 0.866104 -1.71408 70 73 93
13.436 0.798322 -1.71221 79 78 96
13.4215 0.752758 -1.70981 73 74 94
13.4405 0.708917 -1.71197 76 78 99
13.4346 0.641491 -1.71063 75 77 97
13.4315 0.596613 -1.70984 75 78 101
13.4381 0.552132 -1.71039 79 78 97
13.4335 0.484902 -1.70933 74 78 95
13.4358 0.440273 -1.70934 81 83 102
13.44 0.395691 -1.70962 80 82 101
13.4247 0.328339 -1.70721 81 80 97
13.4186 0.283601 -1.70615 83 82 100
13.4322 0.239207 -1.70778 76 75 97
13.4416 0.194689 -1.70886 79 77 99
13.4413 0.127711 -1.70861 71 69 90
13.4444 0.0830822 -1.70889 77 79 100
13.4217 0.0384153 -1.70568 87 83 105
13.4226 -0.0284431 -1.70569 70 71 92
13.4293 -0.0730537 -1.70651 80 78 101
13.7139 -5.40756 -1.67914 57 54 71
12.3874 -5.8948 -1.50845 77 74 85
12.3318 -5.91851 -1.50347 93 90 103
13.6063 5.01469 -1.79074 69 74 93
13.6453 4.97719 -1.79386 66 73 89
13.6488 4.90204 -1.79098 65 70 92
13.6518 4.85218 -1.78916 68 70 93
13.247 2.49103 -1.71682 106 97 100
13.2771 2.4506 -1.71978 106 89 82
13.2641 2.40274 -1.71683 110 93 85
13.2961 2.2486 -1.71738 72 73 93
13.298 2.20342 -1.71658 73 75 94
13.2699 2.13113 -1.71121 74 75 91
13.299 2.0901 -1.71417 59 58 80
13.4397 -0.117741 -1.70787 79 82 101
13.4339 -0.18458 -1.70708 80 78 99
13.4203 -0.228926 -1.70521 79 77 99
13.4243 -0.273558 -1.70576 70 69 87
13.4238 -0.340396 -1.70578 79 77 98
13.4235 -0.384948 -1.7058 77 74 96
13.433 -0.429813 -1.70715 83 82 98
13.4146 -0.47376 -1.70475 80 79 97
13.419 -0.540767 -1.70557 83 81 96
13.424 -0.585546 -1.70639 80 79 95
13.4329 -0.630538 -1.70775 86 86 104
13.6508 -5.56356 -1.67851 77 75 89
13.6186 5.19844 -1.80067 68 70 93
13.612 5.1191 -1.79623 67 72 91
13.6326 5.07511 -1.79674 67 72 91
13.2994 2.93784 -1.73614 76 74 95
13.3017 2.89194 -1.73507 77 78 99
13.2868 2.81967 -1.73104 77 78 99
13.2673 2.76971 -1.72702 71 71 88
13.3157 2.73296 -1.73239 90 92 111
13.2766 2.65659 -1.72514 87 88 108
13.276 2.61056 -1.7238 103 105 125
13.4168 -0.696673 -1.70589 79 79 96
13.4273 -0.74182 -1.70752 82 79 98
13.4238 -0.786242 -1.70727 76 74 96
13.4089 -0.852287 -1.70567 76 76 92
13.4228 -0.897787 -1.70784 84 82 103
13.4366 -0.943377 -1.71 82 80 99
13.4404 -0.988351 -1.71083 84 81 100
13.5991 -3.07205 -1.70574 73 71 85
13.5835 -3.13886 -1.70551 71 69 83
13.6327 -5.63403 -1.67953 77 74 88
13.6103 -5.67681 -1.67883 76 72 86
13.5934 -5.72173 -1.67886 75 69 81
13.5766 5.36363 -1.8033 63 68 90
13.6174 5.3013 -1.80537 66 71 91
13.5921 5.24031 -1.79937 66 71 91
13.3004 3.19406 -1.74419 74 72 94
13.3092 3.14931 -1.74392 72 71 89
13.2947 3.09947 -1.74044 79 75 98
13.3042 3.03175 -1.73963 79 80 99
13.3009 2.98457 -1.73775 78 79 96
13.4463 -1.05594 -1.71219 83 80 97
13.4497 -1.10098 -1.71301 78 74 97
13.4846 -1.14866 -1.71813 88 85 104
13.5725 -3.18321 -1.70527 73 71 84
13.5556 -3.22621 -1.70425 74 70 84
13.5392 -3.29278 -1.70402 70 68 82
13.5725 -5.76509 -1.6784 76 71 78
13.526 -5.82396 -1.67576 90 84 88
13.5789 5.54648 -1.81246 65 70 90
13.5614 5.46166 -1.80618 65 71 89
13.5941 5.4221 -1.80826 66 73 91
13.2717 3.51586 -1.75118 68 69 87
13.2855 3.47207 -1.75145 65 66 84
13.2875 3.42546 -1.7501 70 71 89
13.2542 3.34716 -1.74312 69 71 89
13.2925 3.30925 -1.74688 66 70 88
13.3056 3.26539 -1.74715 62 66 85
13.4195 -1.41199 -1.71205 91 88 105
13.392 -1.566 -1.71023 94 93 109
13.4016 -1.61196 -1.71213 98 95 114
13.5297 -3.33741 -1.70405 72 68 85
13.4989 -3.37699 -1.7012 70 66 81
13.5106 -3.45023 -1.70488 69 67 82
13.4795 -3.48958 -1.70204 71 68 85
13.4169 -5.8306 -1.66358 95 86 91
13.2823 -5.82589 -1.64798 93 83 91
13.137 -5.84135 -1.63215 94 84 92
13.5349 5.7124 -1.81536 64 69 89
13.533 5.6331 -1.81117 66 73 91
13.5514 5.58803 -1.81116 63 72 89
13.2639 3.79807 -1.76032 69 66 86
13.2633 3.72666 -1.75763 64 65 85
13.2853 3.68491 -1.75897 71 70 86
13.2746 3.63471 -1.75575 66 64 81
13.2811 3.58898 -1.75494 69 70 88
13.3836 -1.65472 -1.71026 96 93 110
13.3883 -1.72268 -1.7119 93 86 103
13.3751 -1.81084 -1.7114 95 91 105
13.3653 -1.87701 -1.71115 91 87 102
13.4616 -3.53209 -1.70102 70 68 82
13.4438 -3.59815 -1.70079 68 65 81
13.4391 -3.64393 -1.7016 66 66 78
13.0009 -5.83406 -1.6163 93 83 90
12.8687 -5.82754 -1.60094 96 87 90
12.7275 -5.84132 -1.5856 94 83 90
13.5036 5.85786 -1.81903 64 69 89
13.4952 5.80166 -1.81511 65 69 91
13.5215 5.75966 -1.81615 66 68 89
13.2493 4.0091 -1.76651 62 60 81
13.2607 3.96436 -1.76624 65 62 81
13.2419 3.8875 -1.76086 69 72 89
13.2625 3.84539 -1.76193 70 70 88
13.3622 -1.92155 -1.71144 88 84 99
13.353 -1.96524 -1.71093 85 81 96
13.3347 -2.03013 -1.70961 83 81 94
13.3017 -2.07018 -1.70586 85 81 96
13.2921 -2.11363 -1.70535 86 80 94
13.4266 -3.68772 -1.70136 69 66 82
13.4082 -3.72995 -1.70034 70 68 82
13.3894 -3.7957 -1.70011 70 67 84
12.5956 -5.83303 -1.57024 92 82 86
12.4676 -5.82558 -1.55537 90 79 85
12.3324 -5.83865 -1.54075 98 92 99
13.4395 6.01643 -1.81959 63 70 88
13.4665 5.9747 -1.82062 64 71 89
13.4842 5.92906 -1.82035 65 70 87
13.2278 4.21942 -1.77216 67 72 91
13.2323 4.17247 -1.77082 73 76 91
13.2005 4.115 -1.76437 67 68 88
13.2015 4.04345 -1.76168 60 60 81
13.3162 -2.18489 -1.70994 85 77 88
13.2781 -2.31381 -1.70731 77 73 80
13.4051 -3.84709 -1.70379 71 70 88
13.3728 -3.88548 -1.70095 70 69 85
12.2029 -5.82868 -1.52564 104 98 107
13.1937 4.42706 -1.77648 64 71 90
13.1989 4.38006 -1.77513 63 68 87
13.1983 4.33135 -1.77298 63 70 87
13.2126 4.28729 -1.77298 65 70 89
13.3457 -3.94889 -1.69967 61 60 78
13.3437 -3.99557 -1.701 66 65 81
13.3072 -4.03243 -1.69764 62 61 75
13.1699 4.59009 -1.78053 65 72 90
13.1663 4.54002 -1.77784 66 71 90
13.1851 4.49726 -1.77837 66 73 92
13.1962 -2.6825 -1.70452 71 68 75
13.2757 -4.0943 -1.69584 61 58 77
13.2864 -4.14478 -1.699 69 67 81
13.2686 -4.18685 -1.69824 61 59 72
13.1378 4.82475 -1.78701 68 70 91
13.1368 4.75064 -1.7835 65 70 89
13.1318 4.69984 -1.78054 64 71 90
13.1473 4.65597 -1.78054 64 72 90
13.2496 -4.25241 -1.69828 68 65 79
13.2182 -4.29024 -1.69569 67 65 78
13.2074 -4.33437 -1.69598 65 66 81
13.0833 4.97865 -1.7873 65 75 88
13.1168 4.91631 -1.78863 64 70 92
13.1049 4.86275 -1.78459 67 73 92
13.172 -4.37076 -1.69288 65 64 78
13.2068 -4.45332 -1.70048 66 63 81
13.0873 5.12929 -1.79511 68 70 91
13.0706 5.07339 -1.79027 69 73 95
13.1003 5.03438 -1.79214 67 73 92
29.3158 -6.23246 -3.8198 68 65 82
13.0436 -3.10214 -1.69506 72 70 83
13.0721 -3.17674 -1.701 69 67 81
13.0514 -3.21726 -1.69941 71 69 83
13.1503 -4.48282 -1.6945 70 69 83
13.1296 -4.52368 -1.69349 70 69 83
13.0387 5.2862 -1.79675 66 69 88
13.069 5.24748 -1.79862 68 71 90
13.0473 5.1893 -1.79297 69 76 94
13.0518 -3.26274 -1.70078 64 62 75
13.0102 -3.32092 -1.69704 72 70 84
13.0025 -3.36444 -1.69733 70 68 82
13.1147 -4.59042 -1.6943 67 69 82
13.1292 -4.64306 -1.69825 65 64 80
13.1117 -4.68503 -1.69775 70 69 85
13.0289 5.45861 -1.8043 62 70 89
13.0136 5.40214 -1.79946 64 71 89
13.0442 5.36359 -1.80133 64 69 90
12.9947 -3.40794 -1.69763 70 67 84
12.9733 -3.448 -1.69604 69 67 82
12.9713 -3.51584 -1.69795 72 68 82
13.0885 -4.74915 -1.69753 68 65 82
13.0763 -4.79291 -1.69781 69 66 85
13.0005 5.57394 -1.80674 66 68 89
12.9746 5.51291 -1.80029 65 70 90
12.961 -3.55875 -1.69797 75 73 86
12.943 -3.59958 -1.69692 70 66 80
12.9287 -3.6643 -1.69722 71 69 83
13.0602 -4.83532 -1.69758 65 64 80
13.0216 -4.86974 -1.69421 68 69 87
12.9524 5.73254 -1.8092 62 71 86
12.9437 5.67793 -1.80516 61 70 88
12.9858 5.61887 -1.80729 63 70 89
12.6072 1.93379 -1.72212 106 84 67
12.6003 1.88974 -1.72014 117 102 92
12.5871 1.78057 -1.71589 101 100 116
12.6111 1.74087 -1.71845 105 106 119
12.6219 1.67797 -1.71874 101 103 118
12.6417 1.63756 -1.72073 105 107 125
12.6732 1.49118 -1.72245 75 78 97
12.659 1.44675 -1.71962 71 75 94
12.6644 1.40451 -1.71963 76 75 94
12.6953 1.34354 -1.72304 75 76 98
12.6747 1.29869 -1.71936 77 79 100
12.6796 1.25642 -1.71937 72 73 94
12.7118 1.1953 -1.72306 83 82 101
12.7124 1.15257 -1.7225 72 70 94
12.705 1.1092 -1.72081 76 74 98
12.6951 1.0444 -1.71854 69 68 86
12.7228 1.00389 -1.72196 74 71 89
12.7169 0.96076 -1.72055 74 72 96
12.7148 0.917962 -1.71971 78 75 103
12.7277 0.854897 -1.72085 79 80 101
12.7351 0.812729 -1.72143 74 70 93
12.7484 0.770879 -1.72285 73 74 93
12.7251 0.705656 -1.71889 70 67 88
12.7498 0.66437 -1.72202 81 81 99
12.7467 0.621613 -1.72118 80 77 96
12.7306 0.557056 -1.71836 73 73 96
12.7371 0.5148 -1.71893 74 72 95
12.7553 0.47296 -1.72121 80 79 98
12.7602 0.409299 -1.72151 85 82 103
12.7465 0.366345 -1.71925 78 79 99
12.7386 0.32363 -1.71784 81 80 101
12.7582 0.281614 -1.72041 78 78 96
12.772 0.218102 -1.72212 81 78 97
12.7498 0.175223 -1.71873 80 81 103
12.761 0.13289 -1.72016 79 79 96
12.7525 0.0690904 -1.71876 72 70 91
12.7417 0.0265888 -1.71707 79 79 100
12.7722 -0.0158044 -1.72133 77 75 96
12.7451 -0.0794658 -1.71738 73 72 88
12.7635 -0.122013 -1.71994 83 81 102
12.7659 -0.16451 -1.72024 79 82 99
12.754 -0.228056 -1.71855 82 83 103
12.9295 -3.71021 -1.69886 75 73 87
12.8862 -3.74396 -1.69431 72 70 84
12.8637 -3.80627 -1.69354 79 75 89
13.0125 -4.93875 -1.69608 63 60 79
13.0052 -4.98431 -1.69715 71 69 87
12.9718 -5.02032 -1.69457 70 71 85
12.9482 5.78193 -1.81135 64 69 89
12.5869 2.38501 -1.73059 118 102 98
12.5602 2.27179 -1.72379 72 70 93
12.5856 2.23279 -1.72635 65 70 90
12.6032 2.19238 -1.72777 70 76 90
12.5947 2.12609 -1.72494 65 70 86
12.6099 2.08526 -1.72607 65 62 80
12.5489 2.03259 -1.71615 69 61 76
12.5904 1.9744 -1.72069 116 95 83
12.76 -0.270603 -1.71941 85 81 104
12.7461 -0.312765 -1.71744 77 74 92
12.7558 -0.355414 -1.71888 81 79 100
12.7469 -0.418838 -1.71776 80 77 98
12.7484 -0.461305 -1.71805 83 83 101
12.7596 -0.504129 -1.71977 86 85 99
12.7638 -0.568023 -1.72064 76 75 94
12.7609 -0.610384 -1.72037 83 79 101
12.7598 -0.652818 -1.72038 81 80 98
12.8602 -3.85099 -1.69464 75 71 86
12.8565 -3.89573 -1.69574 70 66 81
12.8256 -3.95557 -1.69389 67 66 80
12.9749 -5.09405 -1.69826 70 71 86
12.9153 -5.12006 -1.69202 66 61 84
12.5727 2.6881 -1.73739 95 94 112
12.5705 2.62198 -1.73512 112 112 134
12.5768 2.53571 -1.73342 71 68 79
12.6535 2.48465 -1.74278 114 95 90
12.5649 2.42453 -1.7286 104 86 78
12.7653 -0.716862 -1.72153 74 71 91
12.7599 -0.759089 -1.72098 76 75 92
12.7583 -0.801509 -1.721 78 76 95
12.7592 -0.865372 -1.72158 82 78 100
12.7613 -0.908041 -1.72217 78 77 96
12.7632 -0.950725 -1.72275 80 79 98
12.7748 -0.994131 -1.72475 84 81 102
12.8273 -4.00195 -1.6958 73 71 86
12.8118 -4.04323 -1.69528 74 72 88
12.7942 -4.08386 -1.6945 71 69 83
12.926 -5.17243 -1.6957 63 60 77
12.8913 -5.232 -1.69417 106 106 119
12.5756 2.97527 -1.74702 78 77 95
12.5896 2.93408 -1.74759 75 73 95
12.586 2.88905 -1.74561 82 80 101
12.5882 2.84532 -1.74448 72 70 92
12.5887 2.77936 -1.74249 63 64 82
12.635 2.74488 -1.74788 94 94 112
12.7669 -1.0575 -1.7242 92 91 107
12.7683 -1.10024 -1.72479 66 65 83
12.7932 -1.14494 -1.72877 88 87 101
12.7886 -1.20869 -1.72879 93 90 109
12.772 -4.14613 -1.694 78 76 87
12.7239 -4.17711 -1.68891 76 75 89
12.9513 -5.30385 -1.70491 104 104 116
12.8655 -5.31902 -1.69501 99 98 108
12.5533 3.23674 -1.75299 63 65 82
12.5431 3.18965 -1.74987 72 71 91
12.5877 3.13354 -1.75412 79 81 99
12.5906 3.08966 -1.75298 73 74 92
12.5837 3.04358 -1.75043 76 77 95
12.7476 -1.3544 -1.72459 99 96 113
12.7638 -1.39874 -1.72745 104 100 115
12.7307 -1.43804 -1.72321 100 98 112
12.7329 -1.48095 -1.72408 97 93 109
12.7325 -1.58778 -1.72553 93 90 107
12.7153 -4.22039 -1.68948 70 68 85
12.7132 -4.28891 -1.69193 79 77 91
12.8357 -5.38036 -1.69427 107 104 115
12.7884 -5.4101 -1.68986 47 43 62
12.5526 3.43817 -1.76037 65 66 84
12.5623 3.39568 -1.76008 61 62 80
12.568 3.35221 -1.75923 64 67 84
12.5825 3.28867 -1.75894 63 66 83
12.7263 -1.62982 -1.72527 80 78 92
29.1868 -6.1378 -3.92489 70 68 82
29.0423 -6.2053 -3.90747 70 68 82
29.0197 -6.2979 -3.90699 69 68 86
29.0704 -6.40629 -3.91672 61 63 90
12.7081 -4.33341 -1.69303 79 77 91
12.6953 -4.37542 -1.69306 72 71 85
12.6661 -4.43523 -1.69175 71 69 82
12.7926 -5.50925 -1.69514 58 57 76
12.5585 3.64293 -1.76917 66 65 83
12.5611 3.59831 -1.76775 70 69 88
12.5599 3.55271 -1.76576 66 64 85
12.5679 3.50968 -1.76519 63 65 80
12.6392 -1.98182 -1.71888 84 83 99
12.6514 -2.0264 -1.72145 82 79 96
12.6642 -4.48092 -1.69339 69 68 81
12.6585 -4.52535 -1.69449 70 68 82
12.8588 -5.61029 -1.70823 66 62 76
12.727 -5.60454 -1.69181 66 61 79
12.5324 3.86298 -1.77457 72 70 89
12.5474 3.79896 -1.774 68 71 86
12.5487 3.75374 -1.77229 66 72 84
12.548 3.70802 -1.77031 65 70 86
12.6595 -2.07048 -1.72346 82 79 96
12.6363 -2.10975 -1.72093 82 78 95
12.6427 -2.17516 -1.72322 79 75 91
12.623 -2.21487 -1.72125 81 77 91
12.6267 -4.58421 -1.69291 70 69 83
12.6113 -4.6253 -1.69267 72 70 84
12.7139 -5.64799 -1.69236 64 62 75
12.6826 -5.70844 -1.69162 81 75 85
12.5147 4.06403 -1.78083 62 60 81
12.5225 4.02041 -1.77998 62 62 83
12.5175 3.95015 -1.77628 67 68 89
12.5307 3.90824 -1.77628 68 69 86
12.605 -2.31921 -1.72101 80 76 90
12.5957 -4.66634 -1.69242 73 70 87
12.5819 -4.70798 -1.69245 71 69 83
12.6582 -5.74707 -1.6906 65 59 69
12.6319 -5.78481 -1.68933 79 73 77
12.4912 4.21817 -1.78454 70 77 90
12.5218 4.11233 -1.78395 59 60 80
12.5512 -4.76698 -1.69114 72 71 85
12.5538 -4.8146 -1.69359 76 73 89
12.5246 -4.85061 -1.69146 67 66 84
12.5511 -5.82326 -1.68153 91 81 89
12.4179 -5.8132 -1.66485 91 81 87
12.3029 -5.81044 -1.65077 87 81 85
12.4644 4.41845 -1.79023 66 72 91
12.4566 4.36923 -1.78682 67 69 90
12.476 4.306 -1.78653 65 72 91
12.4846 4.26239 -1.78567 66 73 90
12.51 -4.91548 -1.69257 69 67 87
12.4824 -4.95193 -1.69072 65 64 80
12.1664 -5.82139 -1.63488 87 76 82
12.4294 4.57009 -1.79281 64 72 92
12.4389 4.52651 -1.79195 65 68 88
12.4534 4.46142 -1.7908 64 71 89
12.0914 1.70078 -1.71405 106 105 119
12.1073 1.66151 -1.71553 100 99 115
12.1352 1.52035 -1.71672 76 74 95
12.1548 1.46068 -1.71849 62 63 84
12.1445 1.41827 -1.71614 81 82 103
12.1674 1.37944 -1.7188 75 76 96
12.1687 1.31773 -1.71792 73 74 94
12.1717 1.2768 -1.71763 75 73 95
12.1725 1.23567 -1.71705 74 75 95
12.179 1.17453 -1.71706 76 74 96
12.1914 1.13444 -1.71824 68 69 90
12.1859 1.09282 -1.71678 74 75 96
12.1941 1.05234 -1.71738 77 78 98
12.1938 0.99068 -1.7165 73 74 95
12.2036 0.950294 -1.71739 67 68 87
12.2251 0.910655 -1.72004 74 75 96
12.2006 0.847424 -1.71564 82 82 100
12.208 0.806841 -1.71624 66 62 87
12.2113 0.765999 -1.71625 79 77 97
12.2215 0.705022 -1.71714 89 86 105
12.2403 0.664912 -1.7195 79 78 96
12.2195 0.622886 -1.71598 80 81 99
12.2409 0.562305 -1.71864 80 78 100
12.2356 0.52107 -1.71747 78 76 100
12.24 0.480225 -1.71778 74 76 97
12.2304 0.438922 -1.71602 80 78 99
12.2233 0.377297 -1.71456 79 81 96
12.2312 0.336569 -1.71546 79 77 98
12.2351 0.295719 -1.71576 81 83 103
12.2391 0.234389 -1.71607 78 79 97
12.2328 0.193374 -1.7149 83 81 102
12.246 0.152601 -1.71668 74 73 94
12.2356 0.0911383 -1.71492 74 75 92
12.2426 0.0502498 -1.71582 82 80 101
12.2436 0.00933639 -1.71583 82 81 97
12.2463 -0.0520482 -1.71614 85 83 104
12.243 -0.0929308 -1.71556 77 75 97
12.2395 -0.133797 -1.71499 82 79 98
12.2459 -0.174781 -1.71588 80 79 95
12.4677 -4.99319 -1.69075 75 73 90
12.4541 -5.05857 -1.69213 67 66 84
12.4075 4.72689 -1.79765 65 71 89
12.4082 4.67999 -1.79538 65 70 89
12.4198 4.61366 -1.79366 64 72 93
12.0833 2.17716 -1.7246 69 67 91
12.091 2.13665 -1.7246 67 65 87
12.09 2.07396 -1.72284 75 74 95
12.0504 2.02614 -1.71579 81 75 85
12.1298 1.99675 -1.72667 112 92 80
12.0794 1.9268 -1.71756 114 93 81
12.0725 1.88433 -1.71551 117 101 85
12.069 1.78045 -1.71257 85 80 103
12.1576 1.75094 -1.72492 100 97 117
12.2477 -0.236186 -1.71619 81 81 98
12.2379 -0.276868 -1.71473 75 72 88
12.2477 -0.318005 -1.71621 77 73 96
12.2252 -0.378688 -1.71299 86 88 103
12.2643 -0.42087 -1.71889 78 79 99
12.2421 -0.461008 -1.71567 83 79 102
12.2485 -0.522655 -1.71686 74 71 88
12.2635 -0.564262 -1.71922 85 83 106
12.2527 -0.604721 -1.71777 80 79 94
12.3832 -3.07035 -1.70974 72 70 84
12.428 -5.09541 -1.69054 69 67 83
12.4221 -5.14013 -1.69191 59 61 74
12.3665 4.82999 -1.79739 66 71 91
12.3955 4.76979 -1.79823 67 74 93
12.0245 2.50163 -1.72547 107 97 103
12.0468 2.46384 -1.72752 102 86 74
12.0552 2.40249 -1.72694 101 84 76
12.0615 2.3617 -1.72664 92 82 80
12.0817 2.28143 -1.72724 68 71 90
12.0717 2.217 -1.72401 65 73 91
12.2703 -0.667117 -1.72072 85 84 101
12.267 -0.707956 -1.72044 76 78 93
12.2577 -0.748424 -1.71928 79 76 98
12.2483 -0.788834 -1.71812 82 81 99
12.2354 -0.849476 -1.71667 89 85 104
12.2592 -0.892109 -1.7205 84 83 97
12.2572 -0.933007 -1.72052 89 87 104
12.3859 -3.11415 -1.71146 71 69 83
12.3674 -3.15292 -1.71007 69 67 81
12.3628 -3.21678 -1.71151 72 68 83
12.4086 -5.18192 -1.69221 57 56 72
12.3978 -5.24862 -1.69413 59 56 77
12.3401 4.96252 -1.80081 64 72 87
12.3602 4.92252 -1.80137 65 72 90
12.3745 4.88037 -1.80108 65 70 90
12.0426 2.69493 -1.73428 90 91 109
12.0499 2.65413 -1.73398 89 90 106
12.0513 2.61213 -1.73281 101 100 118
12.2417 -0.993412 -1.71877 72 71 89
12.2552 -1.03553 -1.72114 75 74 92
12.2271 -1.07424 -1.71733 84 82 104
12.2504 -1.13788 -1.72147 86 81 103
12.2437 -1.17836 -1.7209 94 92 109
12.3382 -3.25397 -1.70926 74 69 85
12.3346 -3.29633 -1.71014 79 75 89
12.3193 -3.33576 -1.70931 71 66 80
12.3657 -5.28287 -1.69174 78 80 95
12.3224 -5.31245 -1.68773 65 67 79
12.3007 5.11422 -1.80368 66 71 93
12.3268 5.07653 -1.80509 66 71 91
12.3508 5.038 -1.80622 65 72 90
12.0292 2.98951 -1.74251 73 79 94
12.0451 2.95043 -1.74339 75 76 96
12.0513 2.90914 -1.7428 76 77 96
12.0464 2.84422 -1.73986 77 75 96
12.0638 2.80545 -1.74104 76 71 93
12.1062 2.77194 -1.74603 79 82 101
12.2986 -3.39554 -1.70849 68 62 77
12.2945 -3.43782 -1.70936 73 71 80
12.2979 -3.48215 -1.71137 70 67 77
12.3073 -5.37734 -1.68911 75 71 86
12.2712 -5.40958 -1.68618 75 71 89
12.2769 5.22455 -1.80654 63 69 91
12.3106 5.18991 -1.80909 67 69 92
12.0264 3.18172 -1.74927 76 77 92
12.0353 3.14087 -1.74898 77 78 96
12.0402 3.09908 -1.7481 73 76 91
12.0304 3.03257 -1.74427 72 73 93
12.2613 -3.5376 -1.70828 72 68 82
12.2434 -3.57615 -1.70717 74 71 82
12.2546 5.38423 -1.81254 64 73 90
12.243 5.33109 -1.80799 65 72 90
12.2871 5.27682 -1.81081 64 71 90
12.0156 3.39472 -1.75604 62 63 85
12.0303 3.33366 -1.75574 69 67 84
12.0454 3.29422 -1.75633 66 64 85
12.0297 3.24705 -1.75222 64 63 81
12.1703 -1.74599 -1.71817 114 112 126
12.1648 -1.82764 -1.71879 101 94 102
12.1501 -1.86674 -1.71734 106 100 111
12.1596 -1.93012 -1.72001 83 81 94
12.212 -3.61092 -1.70407 73 67 81
12.2129 -3.67649 -1.70665 74 70 84
12.2041 -3.71752 -1.70696 68 66 78
12.2283 -5.51011 -1.68597 75 68 84
12.2028 -5.5466 -1.68466 75 68 86
12.2422 5.42761 -1.8134 66 73 91
12.0068 3.58808 -1.76282 65 66 81
12.0074 3.5446 -1.76105 58 60 75
12.0076 3.47944 -1.7584 64 65 83
12.0116 3.43707 -1.75722 64 66 85
12.1719 -1.97335 -1.72268 80 75 97
12.1509 -2.01142 -1.72034 88 85 102
12.1837 -3.75523 -1.70556 70 68 79
12.1898 -3.80063 -1.70814 76 74 88
12.2098 -5.59725 -1.68818 78 72 85
12.1734 -5.65296 -1.68661 70 62 77
11.9875 3.77973 -1.76841 63 61 82
11.9964 3.73834 -1.76782 64 63 84
11.9861 3.66974 -1.76341 65 63 84
12.006 3.63159 -1.76458 63 61 82
12.1689 -3.8601 -1.7076 70 68 82
12.1519 -3.89872 -1.70678 77 74 84
12.133 -3.93669 -1.70566 75 73 86
12.151 -5.69078 -1.68583 82 74 85
12.1376 -5.73257 -1.6864 78 68 79
11.9767 3.93083 -1.77372 63 62 80
11.9823 3.88829 -1.77254 61 61 80
11.9786 3.82111 -1.76901 54 54 70
12.1114 -3.99583 -1.70513 72 68 84
12.1035 -4.03716 -1.70572 74 72 89
12.1006 -5.76368 -1.68346 87 77 86
11.9209 4.06847 -1.77227 57 57 78
11.9212 4.02423 -1.77021 61 62 80
29.178 -6.04835 -4.15899 71 68 77
29.1946 -6.14938 -4.16415 68 64 78
12.0765 -4.07249 -1.70347 71 69 83
12.0751 -4.13799 -1.70606 70 68 82
11.9236 4.22516 -1.78022 66 67 88
11.9226 4.18016 -1.77787 68 67 88
11.958 4.1248 -1.78021 51 56 75
29.2243 -6.30244 -4.17273 71 69 83
29.0989 -6.37382 -4.15718 73 71 85
29.0391 -6.45868 -4.15127 69 68 82
28.9881 -6.59412 -4.14821 60 59 78
12.061 -4.17739 -1.7058 71 71 84
12.0393 -4.21427 -1.70441 70 69 84
12.0259 -4.276 -1.70529 76 74 87
11.9001 4.37416 -1.78436 60 63 81
11.912 4.31093 -1.78288 63 68 87
11.9188 4.26835 -1.7817 65 70 89
12.0095 -4.31459 -1.70475 71 68 85
11.9931 -4.35311 -1.7042 69 67 84
11.8488 4.51398 -1.78439 63 71 90
11.8894 4.46062 -1.78731 65 70 90
11.8818 4.41288 -1.78378 66 70 86
11.8445 -3.04767 -1.70319 70 66 81
11.9746 -4.39092 -1.70338 69 66 82
11.9622 -4.45305 -1.70455 73 72 88
11.8331 4.66683 -1.79029 64 70 91
11.8465 4.60368 -1.78881 65 70 92
11.8412 4.55648 -1.78557 67 72 94
11.8693 -3.11638 -1.7091 75 70 85
11.8392 -3.15055 -1.70588 72 68 83
11.9285 -4.48543 -1.70145 75 74 89
11.9395 -4.53362 -1.70517 73 72 86
11.8167 4.75191 -1.79266 64 72 90
11.8102 4.70389 -1.78912 64 71 90
11.8474 -3.19437 -1.70855 73 69 84
11.7968 -3.244 -1.70299 74 72 85
11.8104 -3.28933 -1.70654 74 70 83
11.9022 -4.58688 -1.70264 71 70 84
11.8886 -4.62633 -1.70267 66 68 81
11.8037 4.90719 -1.79945 65 70 90
11.7866 4.85474 -1.79415 64 71 90
11.7934 4.81153 -1.79267 64 71 89
11.7913 -3.32607 -1.70509 75 71 85
11.7707 -3.38336 -1.70424 72 70 81
11.7552 -3.42095 -1.70338 74 71 80
11.8823 -4.66847 -1.70383 72 71 86
11.8574 -4.72612 -1.7033 73 70 86
11.7741 5.01076 -1.80124 67 72 91
11.7557 4.95741 -1.79564 65 72 90
11.7358 -3.4574 -1.70193 73 70 82
11.7469 -3.52356 -1.70608 73 71 84
11.8341 -4.76191 -1.7019 71 70 86
11.8403 -4.8089 -1.70505 69 68 83
11.75 5.09365 -1.80272 69 72 91
11.7465 5.046 -1.79948 64 73 90
11.4371 1.50495 -1.72008 71 69 90
11.4544 1.46816 -1.72188 75 75 95
11.4444 1.40863 -1.71919 80 81 99
11.4594 1.37149 -1.72069 76 77 97
11.4704 1.33385 -1.7216 68 71 90
11.4637 1.27488 -1.71951 75 72 91
11.4724 1.23698 -1.72011 72 73 91
11.4889 1.19983 -1.72191 73 71 93
11.4876 1.16088 -1.72102 78 75 96
11.4997 1.10385 -1.72193 66 68 86
11.5453 1.06914 -1.72822 75 73 94
11.5436 1.03009 -1.72733 76 73 94
11.5472 0.972107 -1.72703 75 72 91
11.5471 0.933252 -1.72644 73 72 90
11.5627 0.895599 -1.72825 72 71 91
11.5578 0.837011 -1.72676 68 70 90
11.5651 0.7987 -1.72736 77 75 99
11.5606 0.759605 -1.72617 71 71 95
11.5767 0.702444 -1.72798 72 71 89
11.5639 0.662937 -1.72559 80 77 98
11.5688 0.624456 -1.7259 82 80 102
11.5578 0.585175 -1.72381 73 71 90
11.5652 0.527519 -1.72442 77 78 95
11.5538 0.488365 -1.72234 76 74 96
11.5838 0.450906 -1.72654 87 85 105
11.5768 0.392626 -1.72505 75 73 96
11.5749 0.353903 -1.72446 84 87 103
11.5768 0.315312 -1.72447 84 82 103
11.5691 0.257188 -1.72298 86 83 104
11.5609 0.218424 -1.7215 80 80 101
11.5703 0.180019 -1.7227 77 76 91
11.5876 0.122362 -1.72511 79 80 101
11.5849 0.083711 -1.72452 78 77 97
11.5662 0.0449911 -1.72154 90 87 108
11.577 0.00647612 -1.72305 70 72 97
11.5758 -0.0513818 -1.72276 75 76 97
11.5883 -0.0900088 -1.72457 71 70 88
11.5868 -0.128595 -1.72428 74 72 93
11.581 -0.186414 -1.72339 81 78 95
11.599 -0.225275 -1.7261 85 86 104
11.7158 -3.55662 -1.70286 72 70 83
11.713 -3.59782 -1.70406 82 78 92
11.6798 -3.63007 -1.70056 74 73 87
11.8056 -4.86272 -1.7031 68 68 82
11.7929 -4.90256 -1.70341 67 66 80
11.6962 5.23416 -1.80364 67 72 91
11.7262 5.19997 -1.80569 64 72 91
11.7122 5.14776 -1.80068 67 71 91
11.4128 1.95119 -1.72722 109 89 76
11.4198 1.91299 -1.72723 110 90 79
11.4205 1.81505 -1.72484 85 84 99
11.4505 1.78032 -1.72843 115 116 131
11.4393 1.73947 -1.72575 94 95 109
11.4424 1.68124 -1.72485 93 92 110
11.4485 1.64297 -1.72485 101 104 123
11.4647 1.54748 -1.72516 72 76 95
11.5912 -0.263752 -1.72491 79 76 97
11.5927 -0.321702 -1.72522 82 81 99
11.5865 -0.360144 -1.72434 69 67 85
11.5921 -0.398905 -1.72525 82 78 101
11.589 -0.456731 -1.72496 95 93 110
11.6002 -0.495766 -1.72677 87 84 103
11.6034 -0.534546 -1.72738 81 77 99
11.5966 -0.572906 -1.7265 83 80 98
11.5986 -0.630999 -1.72711 78 75 92
11.7108 -3.70257 -1.70794 69 65 79
11.6679 -3.73176 -1.70296 70 68 81
11.7931 -4.94745 -1.70571 63 60 79
11.7857 -4.98946 -1.70687 75 74 88
11.3734 2.22017 -1.72901 66 68 85
11.3598 2.17818 -1.72572 71 72 91
11.3961 2.1256 -1.72961 60 57 80
11.4055 2.08777 -1.72991 64 62 83
11.3642 2.04127 -1.72243 60 55 67
11.3941 1.98742 -1.72542 106 86 74
11.6112 -0.670325 -1.72922 81 77 99
11.6138 -0.709183 -1.72983 69 66 86
11.6171 -0.767507 -1.73075 77 75 91
11.6175 -0.806285 -1.73106 76 75 90
11.6157 -0.844937 -1.73107 75 72 89
11.6184 -0.903323 -1.73199 79 78 95
11.6262 -0.942705 -1.7335 76 73 92
11.6513 -3.76884 -1.7021 73 71 84
11.623 -3.82344 -1.70037 75 73 87
11.7392 -5.03837 -1.70321 63 62 79
11.7425 -5.08474 -1.70608 69 70 83
11.3686 2.49707 -1.73708 101 87 84
11.3695 2.43755 -1.73528 103 88 77
11.3838 2.40062 -1.73618 101 88 79
11.3849 2.32132 -1.73379 74 74 90
11.3733 2.2597 -1.7302 77 78 96
11.6201 -0.98107 -1.73292 83 84 99
11.6021 -1.01845 -1.73053 85 82 103
11.6157 -1.07784 -1.73325 81 77 96
11.6269 -1.1177 -1.73536 83 78 99
11.6222 -1.15618 -1.73507 87 84 103
11.6175 -1.21414 -1.73509 94 91 110
29.1839 -6.06229 -4.32248 73 71 84
11.6119 -3.86211 -1.70039 69 67 80
11.5949 -3.89893 -1.69953 76 74 87
11.5736 -3.95557 -1.69897 68 67 81
11.7255 -5.12289 -1.70582 61 62 75
11.3578 2.71487 -1.74306 91 92 112
11.3787 2.67938 -1.74486 92 93 111
11.3706 2.63743 -1.74217 101 104 119
11.3598 2.53513 -1.73708 75 67 81
11.5848 -1.38591 -1.73246 92 88 103
11.5813 -1.42442 -1.73248 99 97 110
29.1734 -6.15783 -4.32371 75 71 85
29.1121 -6.29172 -4.31877 73 70 79
29.0835 -6.38335 -4.31736 73 70 82
29.0102 -6.46517 -4.30918 73 70 81
11.5658 -3.9953 -1.69959 68 65 82
11.5597 -4.03564 -1.70049 69 67 81
11.6985 -5.17962 -1.70529 60 59 76
11.6795 -5.21685 -1.70475 58 59 79
11.3716 2.91979 -1.75265 81 84 99
11.3784 2.86075 -1.75145 77 78 96
11.3709 2.81853 -1.74875 78 81 99
11.369 2.77774 -1.74696 68 70 89
11.5674 -1.48124 -1.7313 98 95 107
11.542 -1.51706 -1.72802 95 92 106
11.5616 -1.55838 -1.73163 97 92 106
11.5535 -1.5963 -1.73105 86 83 97
11.5232 -1.65077 -1.72747 89 85 104
28.9842 -6.60608 -4.30983 74 68 80
28.9334 -6.69239 -4.30518 74 68 78
28.8746 -6.77666 -4.29936 76 71 76
11.5497 -4.07473 -1.70081 67 66 80
11.5388 -4.13489 -1.70202 68 66 77
11.6585 -5.25322 -1.70392 55 60 79
11.6545 -5.31974 -1.70708 74 74 98
11.3352 3.0935 -1.75415 71 70 88
11.3735 3.04226 -1.75774 78 82 96
11.3704 3.00076 -1.75564 71 73 88
11.3634 2.95837 -1.75295 78 76 96
11.5326 -1.69095 -1.72958 87 83 99
11.5124 -1.72709 -1.72721 80 76 91
11.5929 -1.7972 -1.7407 107 102 108
11.4845 -1.82041 -1.72485 104 99 104
28.7952 -6.90476 -4.29207 71 66 69
11.5248 -4.17263 -1.70175 70 67 84
11.4864 -4.20188 -1.69765 68 65 82
11.644 -5.36071 -1.70796 90 92 104
11.3305 3.27625 -1.76104 69 67 88
11.3378 3.23719 -1.76044 64 62 79
11.329 3.17353 -1.75655 67 66 84
11.3302 3.13301 -1.75505 67 65 86
11.4581 -1.85534 -1.72157 102 96 104
11.4716 -1.91581 -1.72488 77 74 90
11.4351 -1.94898 -1.72011 80 78 92
11.4785 -1.99489 -1.72761 76 73 91
11.473 -4.26116 -1.69857 70 69 85
11.4493 -4.29534 -1.69682 71 68 87
11.7349 -5.44605 -1.72476 71 73 85
11.6065 -5.43541 -1.70717 76 72 87
11.308 3.4552 -1.76555 68 67 85
11.3329 3.42102 -1.76764 65 64 80
11.335 3.38029 -1.76614 68 67 81
11.3517 3.32321 -1.76613 56 56 78
11.464 -2.05112 -1.72674 83 81 94
11.4564 -2.08889 -1.72645 84 80 95
11.4565 -2.12797 -1.72737 79 76 93
11.4272 -2.16191 -1.7238 81 77 92
11.4477 -4.33744 -1.69861 72 71 87
11.4281 -4.39455 -1.69865 79 75 89
11.5817 -5.49306 -1.7072 76 73 83
11.5779 -5.53712 -1.70922 83 84 90
11.2799 3.59181 -1.76766 66 65 85
11.2958 3.55505 -1.76825 68 68 86
11.2983 3.51432 -1.76675 66 66 86
11.443 -2.22344 -1.72771 80 78 92
11.4388 -2.26182 -1.72803 79 75 88
11.4169 -2.2969 -1.72565 75 71 85
11.4226 -4.43529 -1.69985 79 77 91
11.3854 -4.46432 -1.69605 71 70 88
11.2672 3.73359 -1.77246 69 70 88
11.2816 3.69632 -1.77276 66 65 83
11.3073 3.64175 -1.77394 65 65 84
11.401 -2.35267 -1.72477 74 71 80
11.3731 -2.38636 -1.7215 75 72 83
11.3838 -2.42762 -1.72421 76 71 84
11.3947 -4.53228 -1.70079 64 63 79
11.3666 -4.56455 -1.69846 64 63 79
11.2603 3.87803 -1.77846 67 70 85
11.2564 3.83474 -1.77577 68 71 87
11.2507 3.77023 -1.77186 71 70 88
11.3549 -4.60306 -1.69878 69 66 84
11.3487 -4.64369 -1.69998 68 65 82
11.2237 4.01336 -1.77998 63 64 82
11.2315 3.97374 -1.77908 68 70 85
11.2603 3.92016 -1.78056 69 69 87
11.3129 -4.69449 -1.69766 65 64 84
11.3302 -4.74453 -1.70269 68 67 83
11.2348 4.12305 -1.78718 57 58 76
11.2363 4.05998 -1.78417 64 63 83
11.2923 -4.77264 -1.69889 64 65 83
11.2743 -4.83044 -1.69951 70 69 85
11.2021 4.23948 -1.78869 63 72 87
11.2088 4.19916 -1.78749 63 71 89
11.2191 4.16015 -1.78688 67 70 89
29.1343 -6.1155 -4.47293 73 69 84
11.1739 -2.92977 -1.70859 67 65 79
11.2746 -4.87394 -1.70189 74 72 86
11.2528 -4.90841 -1.70074 67 65 80
11.1744 4.37928 -1.79231 63 70 89
11.1815 4.33896 -1.7911 65 70 89
11.1904 4.29931 -1.7902 65 71 90
29.199 -6.2264 -4.48587 76 69 87
29.0835 -6.29983 -4.47095 74 70 85
29.01 -6.43041 -4.46412 73 71 82
11.2058 -2.97692 -1.7149 69 67 81
11.1925 -3.03275 -1.71492 75 69 84
11.1723 -3.06697 -1.71315 72 69 81
11.236 -4.96681 -1.70166 57 60 77
11.1563 4.48012 -1.79532 66 73 91
11.1638 4.43979 -1.79412 63 71 89
28.9364 -6.51179 -4.45579 73 69 83
28.9109 -6.60349 -4.45495 71 70 76
28.8659 -6.69074 -4.45111 70 67 76
11.1596 -3.10309 -1.71257 76 73 85
11.1525 -3.14066 -1.71289 65 61 76
11.2212 -5.00417 -1.70168 59 61 78
11.2027 -5.03994 -1.70112 64 61 81
11.1337 4.57954 -1.79774 63 71 92
11.145 4.51905 -1.79593 64 69 89
28.8156 -6.82543 -4.44818 72 69 77
28.7911 -6.91713 -4.44764 75 70 76
11.127 -3.19314 -1.71112 75 73 84
11.1197 -3.23062 -1.71144 64 62 75
11.116 -3.26914 -1.71236 74 70 83
11.1779 -5.09501 -1.70086 64 61 77
11.1057 4.72071 -1.80196 63 70 87
11.1158 4.65948 -1.79985 63 71 89
11.1184 4.617 -1.79774 63 72 89
11.0975 -3.32344 -1.71178 70 66 80
11.0784 -3.3576 -1.71031 74 71 88
11.17 -5.13534 -1.70206 61 57 74
11.1584 -5.17407 -1.70268 56 55 75
11.0997 4.80584 -1.80616 64 71 89
11.1046 4.76399 -1.80436 64 72 91
10.8561 0.95172 -1.72765 73 70 90
10.8442 0.91397 -1.72512 75 73 96
10.8512 0.859363 -1.72544 72 71 90
10.8567 0.822984 -1.72577 64 62 85
10.8561 0.786197 -1.72514 75 77 93
10.8409 0.730202 -1.72198 70 66 89
10.844 0.693723 -1.72199 79 79 103
10.8489 0.657349 -1.72231 71 70 89
10.8488 0.602401 -1.72169 78 78 97
10.8436 0.565543 -1.72043 72 70 91
10.8442 0.528985 -1.72012 77 74 90
10.8427 0.492355 -1.7195 75 76 96
10.8359 0.437293 -1.71792 84 82 103
10.8283 0.400533 -1.71635 76 75 89
10.8362 0.364293 -1.7173 77 74 95
10.8466 0.309823 -1.71858 80 80 98
10.8444 0.273273 -1.71796 90 87 108
10.8421 0.236744 -1.71733 88 86 108
10.8479 0.182119 -1.71797 89 86 107
10.8414 0.145569 -1.71672 63 61 84
11.0667 -3.39386 -1.71003 69 65 80
11.0628 -3.45232 -1.71185 68 65 79
11.1375 -5.20877 -1.70182 57 58 76
11.1156 -5.26511 -1.70215 60 60 77
11.0689 4.90294 -1.80769 65 72 88
11.0873 4.8447 -1.80677 64 71 89
10.7541 1.49418 -1.7222 71 70 84
10.7517 1.45696 -1.72094 70 69 94
10.7632 1.40307 -1.72157 70 72 91
10.7645 1.36633 -1.72095 82 85 104
10.8088 1.33449 -1.72728 78 80 100
10.8119 1.27944 -1.72665 72 70 92
10.8186 1.24323 -1.72697 76 75 90
10.8273 1.20719 -1.72761 71 72 92
10.8298 1.15211 -1.72698 82 83 103
10.8303 1.11527 -1.72636 77 80 96
10.8444 1.0797 -1.72795 71 68 88
10.8329 1.04181 -1.72542 70 70 94
10.8424 0.987431 -1.72606 86 88 103
10.8269 0.109016 -1.71419 67 70 88
10.84 0.0544566 -1.7161 71 69 85
10.8508 0.0180213 -1.7177 79 76 95
10.8339 -0.018382 -1.71486 73 72 89
10.8603 -0.0549653 -1.71898 72 67 87
10.8588 -0.109674 -1.71868 81 80 98
10.879 -0.146444 -1.72186 101 104 117
10.8616 -0.182665 -1.71902 118 119 136
10.8595 -0.237343 -1.71871 87 81 94
10.8536 -0.273662 -1.71777 65 56 75
10.8516 -0.310054 -1.71747 82 78 100
10.843 -0.36445 -1.71621 72 68 90
10.8506 -0.401149 -1.71749 73 70 91
11.0357 -3.48401 -1.70918 70 67 78
11.0388 -3.52464 -1.7113 68 64 79
11.0097 -3.57559 -1.70923 68 66 78
11.1125 -5.30778 -1.70424 51 55 68
10.7062 1.82063 -1.72312 78 80 99
10.7362 1.7881 -1.72693 72 69 92
10.7309 1.75013 -1.72503 100 101 121
10.734 1.69499 -1.72408 99 99 115
10.7479 1.65989 -1.72535 95 94 113
10.7485 1.53042 -1.7222 71 73 93
10.8422 -0.437265 -1.71624 72 70 95
10.8488 -0.492218 -1.71751 77 71 88
10.8402 -0.52826 -1.71626 79 78 95
10.859 -0.565651 -1.71944 83 81 95
10.8679 -0.602628 -1.72103 83 86 102
10.85 -0.656404 -1.71851 73 74 94
10.8488 -0.692813 -1.71853 75 72 92
10.8376 -0.728574 -1.71696 65 64 81
10.9879 -3.60867 -1.70745 68 66 79
10.9906 -3.64928 -1.70957 68 66 80
10.6836 2.07747 -1.72723 66 63 83
10.72 2.04652 -1.73198 66 61 78
10.6884 2.00365 -1.72565 109 95 91
10.7102 1.95148 -1.72755 110 92 82
10.7055 1.91342 -1.72565 127 109 100
10.6986 1.8751 -1.72344 110 96 101
10.8427 -0.783669 -1.71824 81 83 98
10.845 -0.820333 -1.71888 81 80 97
10.857 -0.857763 -1.72111 72 71 89
10.8832 -0.914772 -1.72588 64 63 82
10.8949 -0.952424 -1.72811 97 96 110
10.8967 -0.989294 -1.72876 80 79 97
10.9837 -3.68698 -1.71019 71 69 82
10.9689 -3.74229 -1.71052 69 68 82
10.673 2.30032 -1.73293 72 71 87
10.6787 2.24512 -1.73197 65 63 85
10.6769 2.20722 -1.73039 67 65 89
10.671 2.16863 -1.72818 80 83 100
10.6806 2.13296 -1.7285 71 71 91
10.8967 -1.04445 -1.72941 89 86 107
10.8981 -1.08135 -1.73005 80 77 99
10.8838 -1.11672 -1.72817 74 74 98
10.8948 -1.1546 -1.7304 83 84 104
10.8901 -1.20936 -1.73041 89 87 101
10.8675 -1.24371 -1.72726 98 97 112
10.9523 -3.7769 -1.70964 69 65 80
10.9299 -3.80958 -1.70786 70 68 79
10.662 2.50566 -1.73862 105 98 105
10.6533 2.46594 -1.73578 100 85 81
10.6522 2.42792 -1.73419 99 87 87
10.672 2.37552 -1.73546 101 90 88
10.884 -1.28233 -1.73044 90 88 102
10.8748 -1.33657 -1.72983 88 85 103
10.8753 -1.37348 -1.73047 92 89 108
10.8718 -1.40992 -1.73049 81 78 99
10.9014 -3.86029 -1.70609 70 68 80
10.8957 -3.89839 -1.70702 72 69 86
10.6447 2.69167 -1.74306 90 88 109
10.6504 2.63594 -1.74179 93 95 108
10.6434 2.55837 -1.73768 70 67 86
10.8542 -1.46303 -1.72861 84 81 98
10.8231 -1.49578 -1.72419 90 85 107
10.8289 -1.53336 -1.72579 84 81 100
10.8249 -1.56964 -1.7258 83 82 98
10.8203 -1.62431 -1.72614 85 83 96
10.8936 -3.93775 -1.70854 68 66 83
10.8776 -3.99266 -1.70886 71 69 83
10.6558 2.86653 -1.75193 74 73 89
10.6585 2.80969 -1.75003 75 73 94
10.647 2.7686 -1.74655 59 63 79
10.643 2.72943 -1.74433 90 91 109
10.8296 -1.66254 -1.72837 84 82 97
10.8038 -1.69561 -1.7249 88 85 102
10.8024 -1.75078 -1.72587 103 100 111
10.8172 -1.79002 -1.72905 98 93 100
10.8547 -4.02489 -1.70709 67 63 78
10.8391 -4.05963 -1.70651 69 68 84
10.6573 3.00181 -1.75796 77 76 94
10.6569 2.94385 -1.75542 71 70 86
10.6631 2.90685 -1.75478 71 72 90
10.7598 -1.81779 -1.72052 102 97 103
10.7559 -1.87248 -1.72117 102 97 105
10.7314 -1.90522 -1.71802 80 78 96
10.8244 -4.11495 -1.70714 68 65 86
10.816 -4.15224 -1.70776 60 58 76
10.6141 3.16465 -1.7586 76 77 95
10.623 3.12822 -1.75828 72 73 91
10.6575 3.07938 -1.76144 67 69 85
10.6527 3.03932 -1.75891 78 79 98
10.7165 -1.93949 -1.71645 81 78 97
10.7431 -1.9995 -1.72217 85 82 93
10.7298 -2.03407 -1.72092 80 73 91
10.7398 -2.07285 -1.72347 79 75 89
10.7981 -4.18614 -1.70689 67 64 83
10.7802 -4.21996 -1.70601 68 65 82
10.614 3.30096 -1.76495 67 68 89
10.6138 3.26182 -1.76305 64 65 86
10.6071 3.20158 -1.75924 64 63 84
10.7515 -2.11206 -1.72634 78 72 88
10.723 -2.16232 -1.7232 72 70 84
10.7247 -2.19972 -1.72448 76 74 88
10.761 -4.27365 -1.70604 68 65 82
10.7521 -4.31079 -1.70666 61 58 77
10.5878 3.43037 -1.76718 64 66 81
10.5933 3.37325 -1.76527 65 66 84
10.5971 3.3352 -1.764 64 66 81
10.709 -2.2337 -1.72291 74 72 85
10.6857 -2.28472 -1.72072 76 72 86
10.6967 -2.32407 -1.72359 75 72 83
10.7264 -4.34159 -1.70459 60 59 77
10.5544 3.5579 -1.76846 64 67 82
10.5756 3.50541 -1.76908 63 66 83
10.578 3.46675 -1.7675 66 64 85
10.6979 -2.36149 -1.72487 74 71 83
10.714 -4.39786 -1.70582 59 57 74
10.69 -4.42915 -1.70404 57 54 76
10.547 3.63466 -1.77132 63 61 82
10.5517 3.59656 -1.77005 65 66 84
10.65 -2.5746 -1.72402 76 69 75
10.6879 -4.469 -1.70586 58 57 75
10.6675 -4.52223 -1.70589 55 54 72
10.5151 3.76313 -1.77324 68 68 84
10.5558 3.73667 -1.77798 66 64 82
10.5308 3.68879 -1.77165 65 64 82
10.6431 -4.55324 -1.70412 60 59 77
10.6369 -4.59157 -1.70534 58 57 75
10.5414 3.91181 -1.78529 61 64 79
10.5302 3.86786 -1.78117 68 67 84
10.5525 3.83531 -1.78275 67 72 91
29.0117 -6.34514 -4.73581 73 71 84
10.6233 -4.6269 -1.70537 58 57 75
10.4752 3.98921 -1.77961 61 59 79
10.5357 3.95008 -1.78656 61 64 81
28.9752 -6.43471 -4.73301 75 73 82
28.8902 -6.51347 -4.72229 73 71 79
28.8467 -6.64984 -4.72014 70 67 74
10.5511 -2.88691 -1.71942 73 70 81
10.5967 -4.67755 -1.7045 70 69 85
10.5974 -4.71885 -1.70692 64 63 81
10.4724 4.06878 -1.78374 59 60 81
10.4692 4.02734 -1.78088 59 56 78
28.7735 -6.82781 -4.71487 70 64 69
28.7643 -6.92311 -4.71683 71 65 72
10.5269 -2.93682 -1.71755 63 61 75
10.5013 -2.96744 -1.71471 68 64 78
10.5888 -4.75636 -1.70784 60 59 77
10.5671 -4.8091 -1.70788 54 57 74
10.4392 4.19826 -1.7863 65 70 90
10.4458 4.16012 -1.78503 63 72 89
10.4578 4.12401 -1.7847 66 71 90
10.4852 -3.00051 -1.71347 67 64 81
10.468 -3.05207 -1.71286 64 62 76
10.446 -3.08338 -1.71066 70 69 81
10.5201 -4.8301 -1.7025 61 60 78
10.4098 4.28874 -1.78727 62 70 91
10.4203 4.25202 -1.78663 63 68 91
10.4428 -3.11994 -1.71163 70 68 79
10.4262 -3.1527 -1.71038 70 68 80
10.5075 -4.86584 -1.70283 57 62 77
10.4763 -4.9142 -1.70136 57 55 74
10.3851 4.38118 -1.78919 61 69 89
10.3991 4.32544 -1.78791 61 70 87
10.2717 1.78559 -1.74254 113 112 127
10.2478 1.72817 -1.7369 99 98 114
10.2637 1.695 -1.73856 97 96 112
10.2932 1.66383 -1.74254 97 99 114
10.4159 -3.20612 -1.71104 66 64 77
10.4105 -3.24208 -1.71169 70 66 81
10.4688 -4.95222 -1.70258 58 59 76
10.374 4.45883 -1.79237 67 70 91
10.3833 4.42144 -1.79142 64 69 89
10.2413 2.01365 -1.74485 107 92 85
10.233 1.97614 -1.7422 108 90 83
10.238 1.94113 -1.74187 111 93 82
10.2585 1.90884 -1.74419 111 91 79
10.3917 -3.27409 -1.71013 71 67 81
10.377 -3.32622 -1.71015 69 67 80
10.4649 -4.99185 -1.70441 53 59 74
10.3534 4.55339 -1.79525 67 71 88
10.3502 4.51088 -1.79207 64 70 89
10.2358 2.19301 -1.75015 64 68 84
10.2314 2.13794 -1.7475 59 58 77
10.239 2.10328 -1.7475 62 59 78
10.2406 2.06749 -1.74651 62 59 72
10.3617 -3.3592 -1.70922 74 72 85
10.3445 -3.39152 -1.70798 71 69 82
10.3346 4.58703 -1.79462 65 70 89
10.1978 2.38464 -1.75115 89 79 83
10.3217 -3.44105 -1.70673 66 65 78
10.323 -3.47917 -1.70866 67 67 79
10.3185 -3.51552 -1.70963 68 65 82
10.1979 2.54893 -1.75778 72 69 79
10.1914 2.5108 -1.75513 100 85 77
10.1732 2.47011 -1.75049 100 85 78
10.199 2.43949 -1.75347 99 85 81
10.3065 -3.54942 -1.70933 69 67 81
10.2793 -3.5974 -1.70746 66 64 78
10.1666 2.66979 -1.75779 92 93 112
10.172 2.63437 -1.75713 99 101 119
10.3087 -1.76693 -1.73641 104 96 104
10.2632 -3.62991 -1.70653 65 63 76
10.2526 -3.66424 -1.70655 60 58 72
10.2027 2.80802 -1.76973 56 55 77
10.1895 2.76758 -1.76575 94 97 116
10.1741 2.72677 -1.76144 89 92 109
10.3031 -1.81918 -1.73676 97 91 93
10.2962 -1.85347 -1.73644 95 88 91
