-6.01488 -10.3909 -1.35926 119 122 125
-6.07069 -10.3774 -1.36134 120 120 128
-6.11118 -10.3746 -1.36369 121 119 130
-6.1439 -10.3578 -1.36393 120 118 129
-6.70277 -9.78573 -1.38669 120 118 129
-6.73037 -9.76204 -1.38613 121 119 130
-6.78318 -9.74272 -1.388 120 118 129
-6.81509 -9.72532 -1.38853 119 119 129
-6.85929 -9.72575 -1.39203 119 117 128
-9.35305 -7.49367 -1.49291 98 91 99
-9.40126 -7.4383 -1.49346 106 97 100
-9.45073 -7.40704 -1.49631 117 110 105
-9.48854 -7.39014 -1.49915 107 100 94
-9.49687 -7.34978 -1.49657 126 117 110
-9.54295 -7.31545 -1.49884 132 123 121
-9.57748 -7.29565 -1.50112 127 122 119
-9.6026 -7.26845 -1.50168 103 101 104
-9.63861 -7.24958 -1.50424 66 68 80
-9.67492 -7.20722 -1.5048 55 53 60
-9.68402 -7.16776 -1.5025 121 115 112
-9.71192 -7.14253 -1.50363 119 110 106
-9.75567 -7.10568 -1.50562 110 106 107
-9.78025 -7.07782 -1.50618 125 121 120
-9.80314 -7.04872 -1.50646 129 127 128
-9.84334 -7.00897 -1.50787 128 127 132
-9.86924 -6.98196 -1.50872 127 125 128
-9.95368 -6.83707 -1.50696 130 125 131
-13.4472 -5.42259 -1.7535 137 123 114
-13.4725 -5.38419 -1.75485 135 122 113
-13.4821 -5.31513 -1.75268 130 116 109
-13.5089 -5.27726 -1.7543 145 130 122
-13.53 -5.23713 -1.75511 159 142 132
-13.5647 -5.17782 -1.75673 159 141 131
-14.4903 -4.25649 -1.77683 78 90 106
-14.5141 -4.21443 -1.77841 77 88 106
-14.5044 -4.13798 -1.77446 78 88 106
-14.5297 -4.09632 -1.7763 75 85 103
-4.60518 -11.4087 -1.29664 120 117 117
-4.64506 -11.4081 -1.29834 122 121 122
-4.70072 -11.3949 -1.2993 125 124 126
-5.85948 -10.4504 -1.35618 118 119 128
-5.91069 -10.4291 -1.35695 118 118 128
-5.94733 -10.42 -1.35824 118 118 126
-5.97921 -10.402 -1.35823 120 121 126
-6.50619 -9.84796 -1.37892 119 119 127
-6.54266 -9.83815 -1.38053 119 119 127
-6.57156 -9.8166 -1.38024 119 119 127
-6.60364 -9.79992 -1.38077 120 121 126
-6.66305 -9.7912 -1.38427 123 122 130
-8.54195 -8.11069 -1.46264 121 120 126
-8.57502 -8.09266 -1.46435 118 117 125
-8.59527 -8.06216 -1.46348 119 116 127
-8.63395 -8.04937 -1.46632 119 118 126
-8.67952 -8.01763 -1.46802 121 118 125
-8.70955 -7.99632 -1.46915 117 114 123
-8.74096 -7.97625 -1.47057 117 114 123
-8.78626 -7.9439 -1.47227 119 116 125
-8.80884 -7.91549 -1.47197 113 112 118
-8.83716 -7.89236 -1.47281 112 111 116
-8.87921 -7.85679 -1.47394 112 111 119
-8.91179 -7.83736 -1.47564 112 110 121
-8.93843 -7.81252 -1.4762 108 108 118
-8.97829 -7.79941 -1.47934 109 109 121
-9.01703 -7.76047 -1.47989 107 109 121
-9.05089 -7.74177 -1.48188 105 107 119
-9.08322 -7.72164 -1.48358 103 106 116
-9.11713 -7.67828 -1.48328 106 105 119
-9.14782 -7.65657 -1.4847 102 103 115
-9.18451 -7.63986 -1.48726 105 107 118
-9.22406 -7.60113 -1.4881 99 102 114
-9.25306 -7.57773 -1.48923 97 99 111
-9.27138 -7.54536 -1.48836 97 97 108
-9.30787 -7.52806 -1.49093 85 83 92
-9.38792 -7.47476 -1.49519 92 83 89
-9.91273 -6.96751 -1.51271 129 125 126
-9.9369 -6.9391 -1.51328 131 129 132
-9.95567 -6.88379 -1.51097 131 126 133
-10.0197 -6.83783 -1.51496 130 128 133
-10.0769 -6.80916 -1.51952 131 129 132
-10.1104 -6.78686 -1.5218 127 122 128
-10.1357 -6.75884 -1.52264 131 124 131
-10.1813 -6.72161 -1.52521 132 127 133
-10.2048 -6.69223 -1.52577 134 129 135
-10.2381 -6.66932 -1.52805 137 132 136
-10.2515 -6.63322 -1.52689 132 127 132
-10.2933 -6.59305 -1.52888 132 127 132
-10.3247 -6.56864 -1.53087 132 127 131
-10.351 -6.54088 -1.53201 132 126 130
-10.4008 -6.50541 -1.53543 130 125 127
-10.4153 -6.46996 -1.53456 136 131 133
-10.4548 -6.45024 -1.53798 132 126 128
-10.4775 -6.39736 -1.53683 123 121 124
-13.5837 -5.13676 -1.75726 158 143 138
-13.5915 -5.09147 -1.75618 132 117 117
-13.6214 -5.05442 -1.75834 109 99 100
-13.6274 -4.98433 -1.7559 95 84 91
-13.6309 -4.93762 -1.75427 87 78 88
-13.666 -4.90228 -1.75725 95 88 98
-14.5607 -4.05615 -1.77893 75 86 102
-14.6035 -3.99453 -1.78235 78 87 104
-14.5846 -3.94042 -1.77814 77 86 103
-14.6189 -3.90089 -1.7813 77 89 105
-16.2964 -1.97605 -1.81304 90 103 127
-16.9499 -1.37084 -1.83034 95 111 137
-16.9769 -1.32424 -1.83339 94 110 136
-16.9762 -1.25062 -1.83248 85 100 129
-4.51038 -11.4235 -1.29423 124 122 125
-4.56322 -11.4036 -1.2942 122 117 122
-5.74943 -10.5167 -1.35703 122 121 129
-5.79813 -10.4907 -1.35701 120 121 126
-5.82559 -10.4645 -1.35567 120 120 128
-6.38656 -9.89462 -1.37546 121 121 129
-6.42835 -9.89364 -1.37842 120 120 128
-6.46806 -9.88914 -1.38084 119 117 128
-8.16599 -8.39469 -1.4528 141 132 120
-8.20185 -8.35419 -1.45221 143 133 124
-8.22717 -8.32901 -1.4522 145 137 127
-8.26753 -8.31937 -1.45533 141 133 125
-8.30241 -8.3039 -1.45732 136 129 123
-8.47835 -8.17465 -1.46239 122 121 127
-8.49608 -8.14164 -1.46095 122 121 126
-10.5252 -6.38247 -1.54168 126 121 124
-10.5511 -6.35392 -1.54281 130 126 127
-10.5718 -6.32218 -1.54309 129 124 130
-10.6039 -6.27494 -1.54365 127 125 128
-10.6244 -6.24301 -1.54393 129 124 128
-10.6499 -6.21404 -1.54507 132 127 133
-10.6986 -6.17639 -1.54848 132 127 131
-10.7222 -6.14613 -1.54933 133 128 132
-10.7594 -6.12369 -1.55247 135 130 136
-10.7958 -6.07841 -1.55389 130 125 129
-10.8294 -6.05364 -1.55646 129 124 130
-10.8595 -6.02677 -1.55845 131 126 132
-13.7011 -4.84268 -1.75914 91 88 99
-13.7023 -4.79521 -1.75724 97 93 108
-13.7126 -4.75101 -1.7567 91 89 103
-13.7471 -4.69103 -1.75859 91 91 103
-14.6267 -3.8296 -1.77998 77 85 104
-14.6626 -3.79025 -1.7834 79 86 105
-14.6544 -3.73934 -1.78077 79 87 106
-14.6748 -3.69583 -1.78209 79 87 106
-16.3293 -1.92808 -1.81648 88 103 126
-16.3048 -1.87344 -1.81279 90 105 128
-16.3137 -1.82266 -1.81329 91 105 121
-16.9693 -1.20109 -1.8311 86 102 128
-16.9958 -1.15416 -1.83415 88 103 129
-17.032 -1.10778 -1.83851 83 99 125
-5.62517 -10.5554 -1.35394 118 118 126
-5.66773 -10.5176 -1.35207 119 119 127
-5.7081 -10.5164 -1.35442 119 119 127
-6.18919 -9.98518 -1.37176 121 119 130
-6.22988 -9.98335 -1.37445 122 121 129
-6.2811 -9.96342 -1.37579 121 120 128
-6.31357 -9.94774 -1.37631 121 119 130
-6.34702 -9.93362 -1.37711 123 121 132
-7.9101 -8.5915 -1.44807 154 139 130
-7.92957 -8.55991 -1.44662 147 131 124
-7.97544 -8.55758 -1.4509 143 128 119
-8.00147 -8.50628 -1.44802 146 132 121
-8.04065 -8.49629 -1.45086 145 131 120
-8.05703 -8.46146 -1.44885 146 134 123
-8.09324 -8.42146 -1.44826 148 134 130
-8.13502 -8.41392 -1.45167 145 136 127
-10.8913 -6.00073 -1.56073 131 125 131
-10.9341 -5.95851 -1.56329 129 123 129
-10.9692 -5.93403 -1.56614 130 125 130
-10.9956 -5.90464 -1.56757 130 125 131
-11.052 -5.86926 -1.57242 131 124 131
-11.0573 -5.82835 -1.57041 135 129 133
-11.0886 -5.80136 -1.57269 135 129 133
-11.1762 -5.78175 -1.58268 136 127 128
-13.7871 -4.65681 -1.76238 89 90 106
-13.8046 -4.61488 -1.76292 87 87 105
-13.8369 -4.57783 -1.76562 87 88 106
-13.8574 -4.51279 -1.76562 84 87 104
-13.8688 -4.46876 -1.76535 87 90 109
-14.7007 -3.62919 -1.7834 77 88 106
-14.7093 -3.58262 -1.78314 79 90 108
-14.7177 -3.53602 -1.78288 79 90 108
-14.7833 -3.47868 -1.78971 80 92 108
-16.3291 -1.74662 -1.81428 133 126 118
-16.3337 -1.69532 -1.81428 133 129 128
-17.0145 -1.0329 -1.83551 86 101 131
-17.0385 -0.985425 -1.83831 87 102 131
-17.0347 -0.936096 -1.83744 87 103 129
-5.51823 -10.586 -1.3511 120 119 127
-5.5533 -10.5747 -1.35187 122 120 131
-5.58213 -10.5509 -1.3508 121 119 130
-6.08173 -10.0501 -1.37182 119 119 129
-6.12407 -10.0156 -1.37071 117 117 129
-6.16273 -10.0106 -1.37286 117 116 127
-7.62165 -8.77521 -1.44019 126 123 130
-7.67484 -8.75527 -1.44303 127 125 128
-7.70916 -8.74079 -1.44473 131 126 124
-7.72539 -8.70521 -1.44243 105 99 96
-7.7823 -8.6891 -1.44613 114 100 91
-7.8191 -8.67717 -1.4484 114 98 89
-7.83631 -8.64284 -1.44639 116 98 88
-7.88525 -8.61714 -1.44837 114 98 87
-7.25577 -7.05328 -1.27427 122 120 126
-7.28825 -7.04215 -1.27663 122 120 128
-11.2565 -5.77986 -1.59297 144 133 129
-11.3492 -5.78387 -1.60525 136 123 116
-11.442 -5.78735 -1.61754 131 118 111
-13.8932 -4.4289 -1.76697 86 87 107
-13.9111 -4.36299 -1.76669 83 89 105
-13.9219 -4.31881 -1.76642 78 85 101
-13.9535 -4.28096 -1.76913 79 86 102
-13.9878 -4.2199 -1.77129 79 85 102
-14.8029 -3.43457 -1.79103 82 93 111
-14.8108 -3.38769 -1.79077 82 94 112
-14.8315 -3.3193 -1.79156 82 95 112
-17.0243 -0.861883 -1.8355 83 99 125
-17.0201 -0.812643 -1.83463 85 100 126
-16.9941 -0.762334 -1.8309 87 102 129
-5.39364 -10.6218 -1.34801 120 120 128
-5.42618 -10.6056 -1.34799 121 120 128
-5.46561 -10.6035 -1.35007 122 120 133
-5.91921 -10.0904 -1.36539 121 121 131
-5.9608 -10.0914 -1.36836 120 120 130
-6.00738 -10.0643 -1.36833 119 117 128
-6.04106 -10.0513 -1.36913 120 118 129
-7.42504 -8.89849 -1.43543 121 118 127
-7.44835 -8.87121 -1.43455 119 118 126
-7.48033 -8.85457 -1.43568 120 117 127
-7.52738 -8.82787 -1.43709 124 121 129
-7.55926 -8.81094 -1.43822 127 123 129
-7.60126 -8.80602 -1.44164 127 122 128
-7.20614 -7.11275 -1.27519 120 118 121
-7.22336 -7.08649 -1.27428 122 121 126
-11.5528 -5.77681 -1.63125 152 133 123
-11.6495 -5.78082 -1.64411 154 134 120
-11.7551 -5.7887 -1.6584 156 134 121
-11.8611 -5.77311 -1.67125 161 138 122
-13.9925 -4.1738 -1.77021 79 86 104
-14.0084 -4.13105 -1.77075 80 88 104
-13.9976 -4.08051 -1.7675 79 86 104
-14.0253 -4.01737 -1.76885 82 86 98
-14.8622 -3.27751 -1.79445 83 96 115
-14.8696 -3.23046 -1.79419 81 93 115
-14.8885 -3.18589 -1.7955 81 93 115
-14.9256 -3.12072 -1.79866 85 97 119
-16.9591 -0.687363 -1.82583 87 101 128
-16.9484 -0.638131 -1.82418 87 103 129
-16.9377 -0.588968 -1.82254 79 95 123
-5.26469 -10.6471 -1.3436 120 120 130
-5.30407 -10.6457 -1.34568 121 121 132
-5.34093 -10.6387 -1.34698 121 119 131
-5.76909 -10.1506 -1.36249 122 120 133
-5.80295 -10.1384 -1.36329 118 117 129
-5.8387 -10.1295 -1.36462 118 118 127
-5.88352 -10.0996 -1.36406 121 121 131
-7.20869 -9.02351 -1.42981 123 120 128
-7.24341 -9.01089 -1.43151 121 118 127
-7.2757 -8.99502 -1.43264 119 118 128
-7.31223 -8.95547 -1.43148 121 120 129
-7.34068 -8.9347 -1.43175 122 121 129
-7.38144 -8.92927 -1.43488 121 119 130
-11.9652 -5.77875 -1.68526 162 135 117
-12.0607 -5.77946 -1.69783 175 147 121
-12.1742 -5.76497 -1.71183 195 156 125
-14.056 -3.97877 -1.77156 85 87 103
-14.06 -3.93257 -1.77047 81 84 102
-14.0717 -3.86485 -1.76966 80 87 104
-14.0982 -3.82485 -1.77183 82 90 106
-14.9306 -3.07308 -1.79814 84 96 118
-14.9742 -3.03337 -1.80287 87 99 121
-14.9777 -2.96093 -1.80156 85 99 125
-16.3848 -1.28587 -1.81676 84 100 126
-16.3899 -1.23452 -1.81701 88 105 133
-16.9386 -0.540304 -1.82246 83 99 125
-16.9263 -0.466864 -1.82052 88 104 129
-5.15466 -10.7123 -1.34524 119 118 128
-5.19161 -10.7059 -1.34654 119 119 129
-5.22025 -10.6813 -1.3452 120 120 130
-5.64957 -10.1916 -1.35957 119 118 130
-5.68442 -10.1815 -1.36064 120 119 132
-5.73428 -10.161 -1.36143 119 119 131
-6.93907 -9.13239 -1.41849 123 121 130
-6.97858 -9.12718 -1.42134 120 117 129
-7.01696 -9.12022 -1.4239 122 120 132
-7.05663 -9.08496 -1.4233 121 120 128
-7.09855 -9.0824 -1.42672 121 119 130
-7.12978 -9.06549 -1.42756 121 119 130
-7.16097 -9.04847 -1.4284 123 120 131
-8.42288 -7.71907 -1.4703 119 118 123
-8.47566 -7.69624 -1.47383 122 120 126
-8.49307 -7.66481 -1.47263 121 119 124
-8.52352 -7.64532 -1.4741 119 117 122
-8.56879 -7.61518 -1.47616 118 117 122
-8.59618 -7.59275 -1.47704 116 114 120
-8.61763 -7.56496 -1.47673 116 113 120
-8.64785 -7.54496 -1.4782 113 110 118
-8.68982 -7.51148 -1.47966 115 113 123
-8.73036 -7.50027 -1.4832 110 108 119
-8.76044 -7.47983 -1.48467 107 104 116
-8.78566 -7.43157 -1.48288 107 105 116
-8.81108 -7.40704 -1.48346 105 104 116
-8.85301 -7.39646 -1.4873 105 104 116
-8.89137 -7.35929 -1.48817 100 99 112
-8.91204 -7.33059 -1.48786 99 98 110
-8.94477 -7.31191 -1.48992 97 98 110
-8.96985 -7.28682 -1.4905 89 90 100
-9.01542 -7.25525 -1.49286 92 91 99
-9.0388 -7.22866 -1.49314 100 99 105
-9.06517 -7.20447 -1.49402 114 112 116
-9.1012 -7.16491 -1.4946 137 135 138
-9.1336 -7.14538 -1.49666 142 139 138
-9.16288 -7.12328 -1.49813 155 152 148
-9.18764 -7.07471 -1.49663 148 147 143
-9.22297 -7.05721 -1.49929 153 152 153
-9.25828 -7.03954 -1.50194 95 93 98
-9.27318 -7.00613 -1.50075 44 42 50
-9.31462 -6.97025 -1.50251 70 66 80
-9.3403 -6.94501 -1.50339 71 69 79
-9.3691 -6.92204 -1.50486 82 76 86
-9.40704 -6.88324 -1.50603 91 89 92
-9.43407 -6.85882 -1.5072 112 108 109
-9.46426 -6.83662 -1.50897 118 112 112
-9.50344 -6.79845 -1.51044 124 118 120
-9.53508 -6.77711 -1.5125 126 122 123
-9.55704 -6.74874 -1.51278 128 124 123
-9.58374 -6.72372 -1.51396 131 127 128
-9.63543 -6.69393 -1.5178 127 125 128
-9.66686 -6.672 -1.51986 130 125 131
-9.69499 -6.64769 -1.52133 130 125 131
-9.74647 -6.61713 -1.52517 122 120 125
-9.77285 -6.59138 -1.52634 127 122 128
-9.79424 -6.5622 -1.52663 130 125 131
-9.84711 -6.53203 -1.53076 128 125 129
-9.86998 -6.5037 -1.53135 127 125 128
-9.8944 -6.47637 -1.53222 131 126 132
-9.92371 -6.45219 -1.53399 131 126 133
-9.96634 -6.41462 -1.53635 127 125 130
-9.9706 -6.37408 -1.53367 127 125 130
-9.99798 -6.34848 -1.53515 127 125 128
-10.0335 -6.30616 -1.53632 126 124 127
-12.2841 -5.7712 -1.72669 194 156 122
-12.3942 -5.77679 -1.74155 194 157 121
-12.4902 -5.75139 -1.75269 193 153 122
-12.5253 -5.72073 -1.75554 195 161 132
-12.5495 -5.68497 -1.75668 164 134 108
-12.5682 -5.64664 -1.75696 141 115 95
-14.1016 -3.77858 -1.77074 77 86 101
-14.1164 -3.71172 -1.77047 79 88 105
-14.1406 -3.6709 -1.77237 82 89 107
-14.1569 -3.62801 -1.77318 80 89 106
-15.0094 -2.9185 -1.80471 83 97 123
-15.0331 -2.87439 -1.80682 86 100 126
-15.0845 -2.81093 -1.81208 91 103 127
-16.9406 -0.418621 -1.82227 87 103 129
-16.9371 -0.369842 -1.82167 91 107 133
-5.03499 -10.7564 -1.34399 117 117 127
-5.06635 -10.7377 -1.34344 117 116 124
-5.11854 -10.7204 -1.34421 121 120 126
-5.53804 -10.2469 -1.35909 120 120 130
-5.56839 -10.2284 -1.3588 119 119 131
-5.61285 -10.198 -1.35796 120 120 132
-6.79253 -9.22858 -1.41714 121 120 125
-6.84084 -9.20561 -1.41855 122 120 131
-6.8677 -9.1832 -1.41824 122 119 130
-6.89565 -9.1623 -1.41823 121 118 130
-7.99144 -8.02651 -1.45538 121 119 125
-8.02688 -7.98829 -1.45506 126 123 131
-8.21145 -7.90292 -1.46595 126 123 129
-8.24769 -7.86504 -1.46594 125 122 129
-8.27857 -7.84654 -1.4674 124 122 128
-8.30656 -7.82519 -1.46828 125 123 128
-8.34023 -7.80919 -1.47034 121 119 124
-8.37601 -7.77068 -1.47032 123 122 127
-8.39804 -7.74356 -1.47001 126 126 128
-10.0574 -6.27819 -1.5372 126 126 128
-10.0812 -6.25013 -1.53808 126 126 128
-10.108 -6.20214 -1.53777 127 122 126
-10.1467 -6.18317 -1.54131 132 127 134
-10.1787 -6.1599 -1.54368 130 125 128
-10.2055 -6.13342 -1.54515 130 125 130
-10.2402 -6.08993 -1.54632 132 127 132
-10.26 -6.05914 -1.54661 131 129 132
-10.2969 -6.03832 -1.54986 134 129 133
-10.343 -6.00129 -1.5531 130 125 129
-10.3626 -5.97015 -1.55339 131 126 130
-10.389 -5.94288 -1.55487 130 124 128
-12.592 -5.587 -1.75666 136 119 107
-12.614 -5.55012 -1.75752 138 120 110
-12.6359 -5.51316 -1.75837 135 120 111
-12.6608 -5.454 -1.75836 131 118 112
-12.6824 -5.41684 -1.75921 133 119 116
-12.7021 -5.37881 -1.75978 127 113 112
-14.1693 -3.58408 -1.77345 80 92 108
-14.1966 -3.52022 -1.77507 80 89 106
-14.2125 -3.47708 -1.77589 77 85 104
-14.2514 -3.43941 -1.77995 77 88 108
-15.1196 -2.76863 -1.81576 91 103 125
-16.4515 -0.927732 -1.8227 86 101 130
-16.4237 -0.87447 -1.81901 88 104 130
-16.9516 -0.297112 -1.82338 83 100 126
-16.9318 -0.248048 -1.8207 85 102 128
-16.9416 -0.199526 -1.82193 89 105 132
-4.94489 -10.7771 -1.34167 118 118 126
-4.99881 -10.764 -1.34296 119 119 129
-5.41521 -10.2797 -1.35536 119 119 129
-5.45109 -10.2722 -1.35669 120 118 129
-5.5049 -10.2599 -1.35857 119 119 129
-6.62304 -9.32094 -1.41379 121 120 128
-6.65479 -9.30572 -1.41464 120 119 127
-6.70221 -9.28187 -1.41576 119 119 127
-6.73162 -9.26313 -1.41603 121 119 130
-6.76437 -9.24914 -1.41716 122 121 127
-7.70886 -8.22955 -1.44781 127 122 119
-7.74049 -8.21319 -1.44928 125 121 121
-7.75997 -8.18368 -1.44808 123 119 123
-7.79888 -8.14942 -1.44836 119 118 122
-7.82899 -8.13126 -1.44953 121 119 125
-7.86176 -8.11585 -1.45129 123 121 124
-7.90583 -8.08679 -1.45275 125 122 129
-7.92482 -8.05685 -1.45155 124 122 127
-7.95883 -8.04246 -1.45361 122 121 126
-10.4263 -5.9003 -1.55663 133 127 130
-10.4834 -5.89026 -1.56344 136 130 133
-10.5061 -5.86058 -1.56432 132 126 129
-10.5167 -5.82408 -1.56312 129 123 126
-10.5587 -5.78359 -1.56578 137 128 131
-10.6279 -5.77919 -1.57466 135 125 126
-10.7093 -5.781 -1.58561 139 128 127
-12.73 -5.32086 -1.76034 143 128 123
-12.7422 -5.2796 -1.75977 152 138 132
-12.7706 -5.24513 -1.76176 147 133 128
-12.8007 -5.21129 -1.76405 154 144 135
-12.8187 -5.14908 -1.76318 150 139 138
-12.8339 -5.10905 -1.76318 109 100 106
-12.8417 -5.06604 -1.76203 87 80 90
-14.2935 -3.37864 -1.78374 80 92 114
-14.28 -3.32842 -1.78049 77 89 113
-14.3088 -3.28801 -1.7832 82 92 117
-16.4713 -0.79619 -1.8241 89 103 130
-16.4294 -0.746891 -1.81811 91 105 132
-16.9375 -0.126439 -1.82129 86 102 128
-16.9449 -0.0778063 -1.82226 90 104 130
-16.9521 -0.0291188 -1.82323 89 103 129
-4.82391 -10.8169 -1.34015 119 117 128
-4.87482 -10.7972 -1.34039 118 117 127
-4.91258 -10.7936 -1.34195 117 119 128
-5.29231 -10.311 -1.35162 119 119 127
-5.35053 -10.3084 -1.35485 119 119 128
-5.3829 -10.2941 -1.35511 119 119 130
-6.49405 -9.41028 -1.41387 122 121 129
-6.51506 -9.37908 -1.41185 122 122 130
-6.54032 -9.35439 -1.41097 118 121 128
-6.5968 -9.34423 -1.41438 121 120 128
-7.44003 -8.41841 -1.44172 147 138 127
-7.50078 -8.40956 -1.44674 102 91 87
-7.52236 -8.38217 -1.44583 116 101 91
-7.55169 -8.36359 -1.44671 112 96 86
-7.58484 -8.32301 -1.4455 108 91 81
-7.61401 -8.3042 -1.44638 134 120 107
-7.6458 -8.28823 -1.44784 135 127 122
-7.67622 -8.27066 -1.44902 131 125 125
-10.8104 -5.77118 -1.59833 142 129 121
-10.8956 -5.77376 -1.60988 141 128 119
-10.9896 -5.78047 -1.6229 138 124 115
-12.8553 -5.00224 -1.76059 86 78 89
-12.8591 -4.95778 -1.75888 85 77 91
-12.881 -4.92046 -1.76001 89 81 97
-12.9032 -4.86008 -1.76001 93 86 99
-12.9286 -4.82396 -1.76172 90 85 99
-14.3406 -3.22451 -1.78564 78 90 113
-14.3576 -3.1812 -1.78672 82 94 116
-14.3589 -3.13444 -1.78564 79 91 113
-14.3987 -3.09597 -1.78997 84 96 118
-16.3644 -0.691027 -1.8109 87 103 128
-16.4101 -0.675314 -1.81504 84 100 125
-16.3517 -0.63904 -1.80919 82 98 123
-16.4054 -0.628048 -1.81416 83 98 124
-16.4024 -0.580883 -1.81354 87 99 127
-16.3477 -0.561697 -1.80845 85 98 125
-4.7167 -10.841 -1.33758 122 122 133
-4.75219 -10.8325 -1.33835 120 120 130
-4.79146 -10.833 -1.34043 119 117 128
-5.18044 -10.364 -1.35142 118 118 130
-5.23524 -10.3549 -1.35356 118 121 132
-5.26078 -10.3268 -1.35164 119 120 129
-6.3382 -9.45782 -1.40708 120 120 130
-6.37346 -9.44859 -1.40877 120 118 131
-6.39256 -9.41437 -1.40618 119 117 128
-6.43317 -9.41319 -1.40931 120 119 128
-7.24976 -8.56465 -1.43975 151 140 131
-7.27646 -8.51625 -1.43676 150 137 128
-7.30737 -8.50008 -1.43793 143 132 122
-7.33698 -8.48229 -1.43881 142 132 123
-7.38237 -8.45615 -1.44027 143 133 123
-7.41186 -8.43808 -1.44114 145 132 122
-11.0911 -5.76849 -1.63563 143 127 114
-11.1767 -5.76943 -1.64717 144 128 113
-11.2869 -5.78254 -1.66286 141 125 112
-11.371 -5.78153 -1.67411 145 128 119
-12.9372 -4.78149 -1.76086 88 86 99
-12.9606 -4.7445 -1.76228 87 86 100
-12.9745 -4.68102 -1.76114 87 86 102
-13.0161 -4.65055 -1.76542 86 87 104
-13.0446 -4.6152 -1.7677 86 89 106
-14.3968 -3.02492 -1.78781 84 96 119
-14.4422 -2.98727 -1.79295 85 97 121
-14.4448 -2.94075 -1.79214 84 96 120
-16.3974 -0.533673 -1.81266 87 101 128
-16.3327 -0.509807 -1.80649 89 103 130
-16.3949 -0.463052 -1.81201 87 103 129
-16.3994 -0.416162 -1.81247 87 103 129
-4.62345 -10.8517 -1.3342 118 121 127
-4.66707 -10.8637 -1.33787 112 115 122
-5.06385 -10.4068 -1.34985 118 118 128
-5.11277 -10.3858 -1.3501 118 118 129
-5.14959 -10.3812 -1.35171 119 119 131
-6.13202 -9.52051 -1.39859 117 117 127
-6.17357 -9.52213 -1.40201 118 118 129
-6.22591 -9.5075 -1.40427 115 115 127
-6.257 -9.49202 -1.40483 119 119 129
-6.28594 -9.47308 -1.40481 121 120 131
-7.0665 -8.69097 -1.43688 126 122 121
-7.1015 -8.68023 -1.43894 127 122 118
-7.1266 -8.65704 -1.43863 136 132 124
-7.17139 -8.63054 -1.4398 140 131 127
-7.19508 -8.6056 -1.43919 143 133 124
-7.20364 -8.56228 -1.43502 144 134 122
-11.4677 -5.76399 -1.68594 150 132 122
-11.5767 -5.77427 -1.70134 149 131 120
-11.67 -5.776 -1.71407 148 130 120
-11.7919 -5.76845 -1.73005 141 123 110
-13.0728 -4.55665 -1.76884 85 91 103
-13.0787 -4.51318 -1.7677 85 89 102
-13.1012 -4.47552 -1.76912 86 89 104
-13.1325 -4.41789 -1.77083 86 89 102
-13.1398 -4.37493 -1.76997 86 89 104
-14.4634 -2.87384 -1.79296 84 99 122
-14.5007 -2.83406 -1.79702 89 104 127
-14.5281 -2.79222 -1.79973 89 101 123
-15.2786 -2.06173 -1.82343 97 109 133
-15.2783 -2.01294 -1.82265 96 108 132
-16.3444 -0.38157 -1.80773 85 100 129
-16.3958 -0.369056 -1.81186 86 101 130
-16.3387 -0.330038 -1.807 89 104 133
-16.4064 -0.298728 -1.81309 88 103 132
-4.5411 -10.8892 -1.33478 119 119 127
-4.59379 -10.8745 -1.33554 118 118 124
-4.95757 -10.4282 -1.34639 118 118 126
-4.99519 -10.426 -1.34827 119 120 125
-5.0287 -10.4147 -1.34879 120 119 127
-6.0265 -9.57954 -1.39779 117 117 126
-6.05469 -9.55966 -1.39749 117 117 127
-6.10604 -9.544 -1.39947 117 117 127
-6.88559 -8.79171 -1.43194 125 123 132
-6.90747 -8.76448 -1.43073 128 123 131
-6.9708 -8.76256 -1.43634 127 122 128
-6.99739 -8.74133 -1.43633 127 122 126
-7.02393 -8.72001 -1.43631 123 118 121
-11.8801 -5.7663 -1.74189 143 124 113
-11.9364 -5.74819 -1.7484 149 128 116
-11.9607 -5.69151 -1.74809 152 130 111
-11.9544 -5.64324 -1.74424 140 119 101
-11.9944 -5.61689 -1.74808 136 115 99
-12.0147 -5.58116 -1.74867 143 122 108
-13.1695 -4.33947 -1.77254 85 88 103
-13.1634 -4.2921 -1.76968 86 89 104
-13.2051 -4.23765 -1.77311 82 85 100
-13.1987 -4.1903 -1.77025 85 87 102
-13.2052 -4.14722 -1.76939 85 87 100
-15.2798 -1.96442 -1.82213 92 104 130
-15.2821 -1.89164 -1.82134 92 107 130
-16.4045 -0.251658 -1.81275 85 100 129
-16.3984 -0.204551 -1.81187 86 102 127
-4.4151 -10.9132 -1.33168 117 117 125
-4.4643 -10.8899 -1.33113 116 114 127
-4.50268 -10.8896 -1.33295 116 114 125
-4.8773 -10.4648 -1.34643 120 120 128
-4.90847 -10.4484 -1.34614 121 119 130
-5.89191 -9.65682 -1.39729 119 118 128
-5.91536 -9.62882 -1.39556 118 118 130
-5.96588 -9.61224 -1.39725 120 120 128
-5.99924 -9.60103 -1.39838 120 120 128
-6.70906 -8.86724 -1.42491 124 123 131
-6.73836 -8.85003 -1.42548 123 123 129
-6.77232 -8.83904 -1.42725 123 122 128
-6.8213 -8.81916 -1.4293 124 121 130
-6.85168 -8.80313 -1.43017 124 121 129
-12.0345 -5.52248 -1.74777 132 114 106
-12.0581 -5.48823 -1.74895 141 123 116
-12.0816 -5.45388 -1.75012 136 120 115
-12.1008 -5.39493 -1.74923 131 118 110
-12.1042 -5.35158 -1.74715 128 115 107
-12.1291 -5.3178 -1.74862 126 113 105
-12.1639 -5.26574 -1.75039 146 132 128
-13.2464 -4.09232 -1.77281 88 84 100
-13.2451 -4.04679 -1.77081 88 84 98
-13.2738 -4.01056 -1.77338 91 87 100
-13.2671 -3.94084 -1.76966 92 89 100
-15.289 -1.84385 -1.82161 94 104 120
-15.2958 -1.79604 -1.82188 136 140 145
-15.3013 -1.72369 -1.82162 134 132 134
-16.3289 -0.150033 -1.80579 78 92 118
-16.4003 -0.134031 -1.81203 82 96 122
-16.3384 -0.0986885 -1.80702 86 100 126
-16.4117 -0.0870448 -1.81357 85 99 125
-16.3318 -0.0472674 -1.80629 85 99 125
-16.4229 -0.0399824 -1.81511 85 99 126
-4.34254 -10.9242 -1.32962 119 118 126
-4.37744 -10.9151 -1.33012 118 118 125
-4.75914 -10.5022 -1.3446 117 117 127
-4.79123 -10.488 -1.34458 123 123 134
-4.8421 -10.472 -1.34537 116 116 126
-5.73689 -9.69766 -1.39108 119 119 129
-5.77233 -9.69071 -1.39277 120 118 129
-5.8068 -9.68192 -1.39419 120 118 129
-5.85152 -9.65565 -1.39416 120 119 130
-6.53271 -8.97001 -1.42174 121 120 128
-6.56684 -8.95984 -1.4235 122 121 126
-6.60231 -8.92189 -1.422 122 121 126
-6.63638 -8.91144 -1.42376 120 120 127
-6.67275 -8.90405 -1.42612 122 121 129
-12.1777 -5.227 -1.75009 153 139 130
-12.2329 -5.13881 -1.75274 155 141 133
-12.25 -5.10139 -1.75303 130 117 112
-12.2358 -5.05109 -1.74829 110 98 99
-12.2489 -5.01214 -1.74799 92 82 87
-13.2899 -3.90271 -1.77138 89 86 98
-13.3088 -3.86334 -1.77252 89 87 102
-13.3218 -3.82224 -1.7728 89 87 103
-13.3388 -3.75969 -1.7728 87 89 104
-4.30422 -10.9239 -1.3278 117 117 125
-4.66752 -10.5116 -1.34085 118 117 128
-4.71766 -10.4944 -1.34136 118 117 128
-5.61441 -9.72439 -1.3857 120 118 129
-5.65365 -9.72482 -1.38854 116 116 128
-5.68813 -9.71646 -1.38995 119 119 131
-6.3612 -9.04808 -1.41649 121 119 130
-6.39094 -9.03206 -1.41707 119 117 128
-6.42178 -9.01757 -1.41794 121 119 130
-6.47121 -8.99967 -1.42 120 120 130
-6.49742 -8.97843 -1.41968 122 122 132
-12.2916 -4.96292 -1.75124 95 85 94
-12.2916 -4.91867 -1.74887 92 85 93
-12.3336 -4.89122 -1.7533 93 87 97
-12.3409 -4.82767 -1.75093 91 88 97
-12.3496 -4.78699 -1.75003 90 85 96
-12.3729 -4.75197 -1.75151 88 85 98
-13.3516 -3.71847 -1.77308 87 91 103
-13.3756 -3.68039 -1.77508 88 90 103
-13.3977 -3.61912 -1.77594 86 89 104
-13.4138 -3.57872 -1.7768 86 89 104
-15.3325 -1.50831 -1.82322 100 112 136
-4.56035 -10.527 -1.33711 118 120 130
-4.59858 -10.5281 -1.33926 120 120 130
-4.63229 -10.5181 -1.33978 118 118 128
-5.51064 -9.78442 -1.38605 119 119 131
-5.53769 -9.76266 -1.38517 119 119 129
-5.58751 -9.74637 -1.38658 121 120 130
-6.21213 -9.12825 -1.41391 123 121 134
-6.25417 -9.10003 -1.41388 126 124 135
-6.28954 -9.09258 -1.41594 124 123 131
-6.31941 -9.07682 -1.41652 124 123 132
-12.3942 -4.69398 -1.7515 87 87 99
-12.4487 -4.67054 -1.75802 85 87 100
-12.4698 -4.6344 -1.7592 85 87 102
-12.4816 -4.59476 -1.7589 85 87 102
-12.4966 -4.53422 -1.758 83 86 101
-13.4298 -3.53825 -1.77765 87 90 105
-13.455 -3.47765 -1.77908 83 90 106
-13.4669 -3.43601 -1.77937 84 91 107
-14.7066 -2.16268 -1.81086 95 107 123
-14.7183 -2.11728 -1.81168 98 109 128
-14.7221 -2.07074 -1.81141 98 109 131
-4.47858 -10.5586 -1.33688 117 116 129
-4.50935 -10.5416 -1.33632 114 116 128
-5.39978 -9.83102 -1.38439 120 119 129
-5.43897 -9.83234 -1.38723 118 116 129
-5.48441 -9.80784 -1.38721 121 121 133
-6.07751 -9.19838 -1.41161 120 119 127
-6.1199 -9.17081 -1.41159 122 120 131
-6.14887 -9.15397 -1.41186 122 121 132
-6.18754 -9.15191 -1.41481 123 121 134
-12.5099 -4.49518 -1.758 81 87 101
-12.51 -4.45145 -1.75592 81 89 102
-12.571 -4.40716 -1.76243 78 86 99
-12.5782 -4.36592 -1.76154 78 88 100
-12.5985 -4.32917 -1.76272 79 87 100
-13.4825 -3.3953 -1.78022 85 90 109
-13.496 -3.35404 -1.7808 83 92 107
-13.5453 -3.29913 -1.78594 82 94 109
-13.5605 -3.2581 -1.7868 79 91 108
-14.7484 -2.00367 -1.81385 93 106 129
-14.744 -1.95601 -1.8125 93 108 131
-14.7413 -1.90865 -1.81142 87 101 127
-4.39295 -10.5803 -1.3353 120 120 129
-4.44848 -10.5773 -1.33772 116 116 128
-5.28586 -9.87101 -1.38187 119 122 131
-5.3142 -9.85168 -1.38128 121 122 133
-5.36608 -9.84007 -1.38326 120 120 131
-5.92446 -9.2379 -1.40427 117 115 126
-5.95674 -9.22673 -1.40544 118 116 127
-6.00875 -9.21478 -1.40809 118 117 125
-6.04313 -9.20665 -1.40985 116 115 121
-7.21755 -7.04808 -1.37661 121 120 128
-7.25971 -7.02469 -1.37871 123 122 130
-8.27436 -7.11993 -1.50307 128 126 131
-8.29736 -7.09577 -1.50336 127 126 131
-8.33073 -7.08063 -1.50576 127 126 132
-8.36919 -7.0473 -1.50695 128 126 131
-8.39498 -7.0254 -1.50784 126 125 130
-8.42522 -7.00724 -1.50964 127 126 131
-8.4634 -6.97339 -1.51083 124 122 128
-8.49202 -6.95368 -1.51233 123 121 124
-8.52061 -6.93385 -1.51383 129 127 129
-8.55392 -6.89569 -1.51412 133 132 133
-8.5732 -6.86806 -1.5138 132 130 131
-8.58782 -6.83663 -1.51259 132 129 128
-8.62225 -6.82136 -1.51529 135 129 130
-8.66892 -6.79384 -1.51829 138 131 130
-8.69714 -6.77327 -1.51979 139 131 131
-8.71757 -6.74644 -1.51978 134 128 124
-8.75313 -6.70973 -1.52067 127 122 116
-8.78583 -6.69245 -1.52307 132 126 120
-8.79975 -6.66049 -1.52186 127 123 118
-8.84748 -6.63297 -1.52516 126 122 119
-8.86748 -6.60566 -1.52515 127 123 120
-8.90154 -6.58903 -1.52786 122 118 115
-8.92769 -6.5663 -1.52905 125 121 118
-8.96093 -6.52728 -1.52964 123 119 118
-8.97581 -6.49607 -1.52873 124 118 118
-9.00968 -6.47889 -1.53143 127 121 121
-9.05529 -6.44876 -1.53444 127 123 122
-9.07949 -6.42425 -1.53533 126 122 123
-9.10364 -6.39965 -1.53623 125 121 122
-9.15061 -6.37004 -1.53953 129 124 128
-9.1746 -6.34518 -1.54043 127 122 126
-9.20499 -6.32477 -1.54253 125 120 124
-9.23859 -6.30649 -1.54523 127 122 126
-9.27065 -6.26585 -1.54583 125 120 124
-9.29925 -6.24389 -1.54763 127 122 126
-9.3327 -6.22515 -1.55033 122 120 121
-9.36114 -6.18181 -1.55032 125 121 122
-9.37805 -6.15174 -1.55001 127 122 126
-9.40639 -6.12929 -1.55181 122 118 119
-9.44592 -6.09321 -1.55391 128 126 127
-9.47411 -6.07047 -1.55571 132 127 131
-12.6197 -4.27071 -1.76301 83 87 104
-12.6003 -4.2206 -1.75797 80 82 99
-12.6323 -4.14423 -1.75915 77 79 93
-13.5756 -3.217 -1.78765 84 95 113
-13.5974 -3.155 -1.7888 85 96 116
-13.6082 -3.11284 -1.78908 82 95 114
-14.7493 -1.83911 -1.81143 76 90 107
-14.7168 -1.78826 -1.80629 134 136 142
-14.7273 -1.74266 -1.8071 134 131 136
-4.27411 -10.612 -1.33347 115 117 126
-4.32674 -10.6023 -1.3348 118 118 129
-4.36417 -10.6024 -1.33668 118 118 127
-5.17868 -9.92383 -1.38165 119 122 131
-5.22543 -9.90235 -1.38191 122 122 132
-5.25211 -9.87966 -1.38075 120 120 131
-5.81499 -9.28281 -1.40137 113 113 117
-5.85042 -9.2771 -1.40342 120 119 124
-5.89836 -9.25904 -1.40488 118 117 127
-7.19959 -7.11753 -1.38207 124 123 129
-7.19202 -7.06588 -1.37572 123 121 131
-7.68042 -7.39976 -1.46466 125 123 129
-7.93601 -7.44292 -1.49749 127 126 131
-7.95023 -7.38718 -1.49325 127 126 131
-7.97833 -7.36821 -1.49445 127 126 134
-8.00207 -7.34505 -1.49474 128 127 135
-8.05455 -7.34889 -1.50106 127 126 134
-8.0999 -7.32249 -1.50346 128 126 131
-8.12206 -7.29759 -1.50344 126 125 130
-8.14268 -7.27127 -1.50313 126 126 130
-8.16147 -7.22037 -1.5001 123 123 129
-8.18477 -7.19659 -1.50039 124 123 131
-8.1992 -7.1648 -1.49887 125 124 130
-8.24538 -7.13876 -1.50157 125 124 129
-9.50558 -6.04976 -1.55812 132 126 130
-9.52869 -6.02355 -1.55901 128 126 127
-9.55785 -5.98032 -1.5593 127 127 127
-9.58746 -5.95814 -1.5614 126 124 126
-9.61701 -5.93582 -1.56351 128 123 127
-9.65748 -5.89948 -1.56591 134 129 133
-9.70203 -5.88622 -1.57073 136 132 133
-9.72807 -5.86133 -1.57223 131 125 129
-9.75478 -5.81608 -1.57222 128 122 125
-9.77896 -5.78994 -1.57341 134 125 128
-9.83185 -5.78098 -1.57974 138 128 129
-9.90345 -5.78288 -1.58938 138 128 127
-12.6677 -4.09042 -1.76181 81 83 98
-12.6645 -4.046 -1.75944 88 87 101
-12.714 -4.01827 -1.76536 89 89 101
-12.7054 -3.95041 -1.76121 92 90 103
-12.7263 -3.91356 -1.76269 90 87 102
-13.6209 -3.07107 -1.78965 84 96 117
-13.6556 -3.01178 -1.7928 86 98 120
-13.6815 -2.9728 -1.79537 83 95 119
-4.21051 -10.6406 -1.33405 118 118 128
-4.23954 -10.6189 -1.33268 122 124 133
-5.11187 -9.94202 -1.37968 119 119 129
-5.14657 -9.93565 -1.3811 120 120 130
-5.68177 -9.35197 -1.39996 120 118 131
-5.70723 -9.32978 -1.39905 121 119 130
-5.75629 -9.31417 -1.40081 121 121 127
-5.79075 -9.30701 -1.40257 119 119 123
-7.91935 -7.5902 -1.51111 129 127 132
-7.92741 -7.52742 -1.50536 127 124 131
-7.92473 -7.47825 -1.49992 126 125 131
-9.99448 -5.77494 -1.60083 128 117 113
-10.0612 -5.7729 -1.60957 136 124 118
-10.1502 -5.7834 -1.62222 138 125 117
-10.2314 -5.76766 -1.63186 134 121 112
-10.3224 -5.77803 -1.64482 138 125 116
-10.3981 -5.77912 -1.65507 138 125 117
-12.7642 -3.88178 -1.76683 92 90 104
-12.7492 -3.81226 -1.76179 86 85 101
-12.7716 -3.77572 -1.76357 85 87 102
-12.7844 -3.73631 -1.76386 85 88 103
-13.6957 -2.93118 -1.79623 80 94 119
-13.7175 -2.89114 -1.79823 84 99 125
-13.761 -2.83308 -1.80281 84 97 122
-14.7844 -1.58482 -1.8128 110 121 136
-14.7864 -1.53811 -1.81254 105 117 139
-14.8025 -1.46929 -1.8139 97 111 137
-4.1745 -10.6436 -1.33272 114 115 126
-5.00393 -9.99286 -1.37946 117 119 130
-5.02937 -9.96724 -1.37772 118 118 128
-5.06068 -9.95403 -1.37799 119 119 127
-5.57147 -9.39389 -1.39705 121 119 130
-5.6099 -9.39429 -1.4 123 121 132
-5.64629 -9.35701 -1.3979 122 120 131
-7.35549 -7.86531 -1.48056 127 126 131
-7.40197 -7.86767 -1.48567 124 121 130
-7.45121 -7.87272 -1.49139 125 122 129
-7.5019 -7.87899 -1.49741 126 124 129
-7.55432 -7.86187 -1.50102 121 120 128
-7.6079 -7.87049 -1.50764 123 122 130
-7.6616 -7.87885 -1.51426 124 123 131
-7.72239 -7.86938 -1.51968 125 124 132
-7.77496 -7.87571 -1.526 124 123 129
-7.81943 -7.87323 -1.53051 125 124 130
-7.82261 -7.80318 -1.52325 126 125 132
-10.4865 -5.76545 -1.66591 138 125 116
-10.5762 -5.77324 -1.67857 133 120 112
-10.6523 -5.77287 -1.68881 128 115 107
-10.7458 -5.78158 -1.70207 136 123 114
-10.8416 -5.76914 -1.71413 121 108 103
-12.8009 -3.69794 -1.76475 82 88 104
-12.8325 -3.64213 -1.76712 88 91 108
-12.8544 -3.60516 -1.76889 87 88 106
-12.8667 -3.56545 -1.76919 88 90 105
-14.8081 -1.4229 -1.81417 95 111 137
-14.8294 -1.37792 -1.81661 96 112 138
-15.6351 -0.18613 -1.81472 90 106 130
-4.88968 -10.0299 -1.37723 118 119 130
-4.91371 -10.001 -1.37492 119 119 129
-4.94928 -9.99712 -1.37662 117 120 129
-5.46859 -9.44828 -1.39652 120 120 130
-5.49736 -9.43187 -1.3965 121 121 131
-5.54474 -9.41397 -1.39766 118 118 130
-7.02264 -7.95629 -1.45685 124 123 129
-7.0661 -7.95737 -1.46136 94 89 96
-7.10406 -7.92646 -1.46164 114 99 90
-7.13072 -7.90774 -1.46223 115 101 88
-7.16124 -7.89338 -1.46373 115 97 85
-7.21593 -7.88126 -1.46793 117 107 101
-7.24643 -7.86658 -1.46943 131 125 127
-7.29405 -7.87094 -1.47485 129 126 135
-10.9302 -5.77383 -1.72648 122 107 101
-11.0085 -5.77244 -1.73703 134 120 110
-11.1081 -5.75984 -1.74968 133 119 107
-11.1446 -5.73539 -1.75299 132 120 109
-11.1652 -5.70256 -1.75359 125 112 103
-11.1876 -5.64866 -1.75298 118 108 106
-12.8824 -3.50501 -1.76918 88 93 110
-12.8944 -3.46519 -1.76948 86 89 105
-12.91 -3.42634 -1.77036 87 89 104
-14.8388 -1.30826 -1.81716 95 109 136
-14.8519 -1.26238 -1.81852 93 107 134
-14.845 -1.21486 -1.81717 92 106 133
-15.6525 -0.141785 -1.8172 84 100 124
-15.6482 -0.0748429 -1.81653 86 102 127
-4.76556 -10.0439 -1.37157 118 118 130
-4.8011 -10.0406 -1.37327 118 121 130
-4.84509 -10.0137 -1.37239 117 120 129
-5.35481 -9.48237 -1.39273 119 119 129
-5.40233 -9.46521 -1.39389 119 119 129
-5.43498 -9.45594 -1.39506 121 121 129
-6.82952 -8.07813 -1.45181 124 121 130
-6.87177 -8.05297 -1.453 123 120 127
-6.90004 -8.03658 -1.45389 122 120 127
-6.92825 -8.02009 -1.45478 121 119 127
-6.97283 -7.99743 -1.45657 123 121 128
-7.00735 -7.98823 -1.45897 121 120 125
-11.2027 -5.61297 -1.75267 111 104 105
-11.2283 -5.58259 -1.75417 115 109 113
-11.2501 -5.52842 -1.75356 117 108 113
-11.2631 -5.49167 -1.75295 118 111 118
-11.2848 -5.45926 -1.75385 115 109 116
-11.3064 -5.42675 -1.75475 114 107 114
-11.3257 -5.37139 -1.75384 109 104 111
-11.3363 -5.33359 -1.75293 105 100 107
-11.3522 -5.29832 -1.75292 123 116 124
-12.9423 -3.37015 -1.77303 85 92 110
-12.9577 -3.33109 -1.77391 83 92 109
-12.9921 -3.29679 -1.77776 84 93 110
-13.0169 -3.25992 -1.78013 85 94 109
-14.8596 -1.14551 -1.81853 86 101 128
-14.8623 -1.09874 -1.81854 90 107 133
-15.6574 -0.0302849 -1.81788 86 102 128
-4.68977 -10.0825 -1.37219 117 117 129
-4.73562 -10.0598 -1.37188 117 117 129
-5.24275 -9.51855 -1.38952 120 120 130
-5.29223 -9.50545 -1.39128 120 120 130
-5.32493 -9.49658 -1.39245 121 121 132
-6.68554 -8.1819 -1.45008 124 122 127
-6.71779 -8.17085 -1.45187 126 124 130
-6.74632 -8.15503 -1.45276 123 121 132
-6.77774 -8.11646 -1.45124 119 118 130
-6.80118 -8.09426 -1.45092 122 120 131
-11.3905 -5.25202 -1.75533 135 129 131
-11.4061 -5.21657 -1.75532 136 133 134
-11.4199 -5.18024 -1.75501 145 142 146
-11.4487 -5.12936 -1.75591 113 110 117
-11.4657 -5.09454 -1.75621 85 82 91
-11.452 -5.04591 -1.75138 72 70 81
-11.4832 -5.01748 -1.75409 77 75 88
-13.0331 -3.19922 -1.78043 81 92 110
-13.0365 -3.157 -1.77954 82 93 111
-13.0493 -3.11708 -1.78013 82 93 111
-14.8727 -1.05251 -1.81962 83 99 125
-14.8746 -0.982153 -1.81936 85 102 128
-4.61868 -10.0882 -1.36879 117 120 129
-4.65343 -10.0836 -1.3702 117 120 129
-5.13321 -9.55862 -1.38721 116 115 129
-5.18095 -9.54261 -1.38838 118 118 130
-5.21369 -9.53413 -1.38954 118 120 130
-6.51261 -8.27397 -1.44473 143 136 130
-6.55677 -8.25209 -1.44622 132 129 128
-6.5915 -8.24469 -1.44862 123 125 122
-6.61538 -8.22306 -1.4483 119 119 121
-6.65938 -8.20063 -1.44979 124 123 130
-11.5132 -4.967 -1.75529 86 85 98
-11.5279 -4.93116 -1.75528 85 84 97
-11.5407 -4.89448 -1.75498 94 91 102
-11.5683 -4.84287 -1.75588 86 84 95
-11.5717 -4.80223 -1.75406 84 84 93
-11.595 -4.77 -1.75557 85 83 96
-13.0764 -3.05887 -1.7822 86 98 114
-13.1159 -3.02496 -1.78694 85 98 115
-13.1186 -2.98256 -1.78605 85 97 119
-13.9498 -2.10697 -1.81312 90 103 121
-14.859 -0.934237 -1.81693 85 101 127
-4.50696 -10.1279 -1.36771 119 119 129
-4.53868 -10.1164 -1.36798 120 123 132
-4.57576 -10.1176 -1.37025 118 120 131
-5.04287 -9.59874 -1.38638 118 118 128
-5.07835 -9.59604 -1.38844 118 116 129
-5.10671 -9.57913 -1.38812 118 116 130
-6.37494 -8.38463 -1.44541 142 132 126
-6.39228 -8.35411 -1.44328 139 130 124
-6.41772 -8.33469 -1.44327 132 123 117
-6.46207 -8.31333 -1.44476 145 136 131
-6.48737 -8.29369 -1.44474 140 131 129
-11.6074 -4.71203 -1.75405 81 84 96
-11.6304 -4.67961 -1.75556 83 85 98
-11.6369 -4.64041 -1.75435 84 86 99
-11.6598 -4.60783 -1.75585 81 84 97
-11.675 -4.55114 -1.75494 81 84 99
-13.1336 -2.9213 -1.78634 85 97 116
-13.1707 -2.88645 -1.79079 87 100 119
-13.202 -2.85014 -1.79434 89 102 122
-13.9802 -2.04449 -1.81627 84 97 122
-13.9798 -1.99975 -1.81541 86 101 127
-4.42373 -10.148 -1.36575 115 118 127
-4.4767 -10.143 -1.36802 116 119 128
-4.93534 -9.64173 -1.38496 114 117 126
-4.97083 -9.63945 -1.38702 114 116 128
-4.99845 -9.62111 -1.3864 118 118 128
-6.25205 -8.46105 -1.44367 144 134 125
-6.27323 -8.43564 -1.44244 146 135 124
-6.30583 -8.42625 -1.44424 145 135 125
-6.34075 -8.41994 -1.44664 144 134 125
-11.6976 -4.51837 -1.75644 80 83 98
-11.7165 -4.48406 -1.75734 80 82 97
-11.7348 -4.42857 -1.75704 80 86 102
-11.7423 -4.38988 -1.75613 75 82 96
-11.7663 -4.35746 -1.75794 78 84 97
-13.989 -1.95643 -1.81599 86 102 127
-13.9962 -1.9128 -1.81627 85 101 125
-14.0062 -1.84715 -1.81656 77 88 107
-4.35423 -10.1554 -1.36293 117 117 129
-4.3875 -10.1481 -1.36377 114 115 126
-4.81982 -9.66741 -1.38087 115 114 128
-4.85696 -9.66913 -1.38352 117 117 129
-4.89587 -9.67426 -1.38676 119 119 131
-6.11812 -8.54973 -1.44283 146 135 126
-6.16435 -8.53165 -1.44462 146 134 123
-6.19033 -8.51297 -1.44461 137 127 117
-6.21285 -8.48934 -1.44369 139 126 117
-11.7933 -4.30517 -1.75914 80 83 98
-11.8041 -4.26772 -1.75883 82 86 98
-11.8463 -4.24173 -1.76365 79 83 96
-11.8587 -4.20479 -1.76365 81 84 99
-11.8869 -4.15261 -1.76515 95 93 106
-14.0071 -1.80266 -1.81599 118 122 133
-14.0216 -1.75994 -1.81743 129 130 134
-4.23624 -10.1774 -1.35956 116 119 128
-4.27168 -10.176 -1.36126 114 117 126
-4.30569 -10.1708 -1.36238 116 116 126
-4.74467 -9.701 -1.38062 117 120 129
-4.77425 -9.68692 -1.3806 114 116 128
-6.02607 -8.61394 -1.44288 144 135 131
-6.06365 -8.58327 -1.44226 143 133 127
-6.08535 -8.55836 -1.44104 143 132 126
-7.94292 -6.81491 -1.52247 127 125 130
-7.94554 -6.77498 -1.51863 127 124 131
-7.96593 -6.75055 -1.51862 127 124 131
-8.00127 -6.71761 -1.51956 126 126 128
-8.02598 -6.69682 -1.52051 126 125 130
-8.05215 -6.67721 -1.52177 128 127 132
-8.06919 -6.6499 -1.52113 131 129 134
-8.1026 -6.61514 -1.52175 128 126 131
-8.124 -6.59145 -1.52206 128 126 131
-8.14837 -6.57018 -1.523 128 126 132
-8.17224 -6.52754 -1.52171 125 124 129
-8.20106 -6.5098 -1.52362 123 122 127
-8.22061 -6.48453 -1.52361 124 123 128
-8.26102 -6.4551 -1.52582 129 126 133
-8.28349 -6.43208 -1.52645 128 125 132
-8.31832 -6.41871 -1.52963 127 125 130
-8.3438 -6.39791 -1.5309 126 124 127
-8.37143 -6.35809 -1.53056 129 129 131
-8.39988 -6.33947 -1.53247 128 127 127
-8.44086 -6.33028 -1.53692 127 125 128
-8.46343 -6.28645 -1.53563 126 124 127
-8.49648 -6.27097 -1.53849 124 122 126
-8.51685 -6.24592 -1.5388 128 126 130
-8.55644 -6.21465 -1.54102 126 123 126
-8.57505 -6.18824 -1.54101 124 122 125
-8.58878 -6.15829 -1.54004 124 122 125
-8.62482 -6.14446 -1.54354 126 124 127
-8.63516 -6.09187 -1.54002 126 124 125
-8.67751 -6.08232 -1.5448 128 126 128
-8.6941 -6.05438 -1.54447 127 126 127
-8.73297 -6.02197 -1.54669 127 126 125
-8.76394 -6.00397 -1.54923 125 125 124
-8.78677 -5.98024 -1.55018 125 123 126
-8.82049 -5.94391 -1.55144 128 126 131
-8.85294 -5.9266 -1.5543 127 125 128
-8.89685 -5.91683 -1.5594 127 124 126
-8.92763 -5.89808 -1.56194 129 127 128
-8.94786 -5.85229 -1.56065 129 125 126
-8.97194 -5.82893 -1.56192 126 121 121
-9.01246 -5.81626 -1.56637 128 123 124
-9.077 -5.799 -1.5737 129 124 126
-11.9009 -4.1162 -1.76545 85 80 94
-11.9148 -4.07974 -1.76575 86 85 98
-11.9387 -4.0259 -1.76665 94 92 103
-11.9542 -3.98993 -1.76725 90 88 99
-14.0269 -1.69365 -1.81714 145 146 150
-14.0293 -1.64937 -1.81686 112 116 126
-14.0434 -1.60646 -1.81829 107 118 130
-4.15576 -10.2025 -1.35874 114 116 128
-4.1968 -10.2162 -1.36273 116 118 130
-4.67059 -9.69654 -1.37532 115 118 129
-4.71257 -9.7096 -1.37975 116 119 128
-5.895 -8.67671 -1.43963 135 128 126
-5.9394 -8.65657 -1.44082 144 137 130
-5.97885 -8.65842 -1.44442 147 139 134
-5.99759 -8.6288 -1.4423 147 137 131
-7.22643 -7.09039 -1.4669 126 125 131
-7.24921 -7.06966 -1.46721 124 123 129
-7.29561 -7.0502 -1.47038 126 125 130
-7.94238 -7.16128 -1.55924 126 125 132
-7.94503 -7.1196 -1.55508 125 124 130
-7.93726 -7.06868 -1.54869 124 123 130
-7.93512 -7.02316 -1.54358 124 122 127
-7.94372 -6.96554 -1.53846 124 122 127
-7.93665 -6.91625 -1.53239 128 126 131
-7.93824 -6.8749 -1.52823 128 126 131
-9.13582 -5.79752 -1.58166 132 128 128
-9.20138 -5.79996 -1.5909 141 133 133
-9.28612 -5.794 -1.60205 134 122 118
-9.34689 -5.79244 -1.61033 131 118 113
-9.42615 -5.802 -1.62212 130 121 116
-9.49549 -5.8049 -1.632 135 126 117
-9.57742 -5.79465 -1.64251 137 125 113
-11.9696 -3.9539 -1.76785 89 85 99
-11.9872 -3.89787 -1.76785 84 82 95
-12.0117 -3.86477 -1.76996 85 85 98
-12.0192 -3.82608 -1.76935 83 82 97
-12.0435 -3.79279 -1.77146 84 85 98
-14.048 -1.54008 -1.81801 90 105 127
-14.046 -1.49532 -1.81716 88 102 129
-4.08056 -10.2418 -1.36022 113 115 127
-4.12312 -10.2109 -1.35819 115 118 130
-4.56553 -9.74242 -1.37508 116 119 129
-4.60171 -9.74333 -1.37744 117 119 131
-4.62736 -9.72072 -1.37593 117 119 131
-5.76854 -8.74578 -1.43789 132 127 133
-5.79732 -8.73171 -1.43848 129 123 128
-5.83022 -8.69376 -1.43634 127 122 122
-5.86636 -8.69112 -1.43904 132 127 124
-7.40029 -7.37763 -1.51957 127 126 132
-7.20914 -7.11664 -1.46787 123 122 128
-7.9434 -7.47898 -1.59409 126 124 135
-7.94314 -7.43281 -1.58898 124 122 133
-7.93551 -7.37993 -1.58227 125 123 134
-7.94201 -7.31769 -1.57619 126 125 133
-7.94101 -7.27177 -1.57107 126 125 133
-7.9398 -7.22592 -1.56596 128 127 135
-9.64361 -5.79461 -1.65175 136 122 113
-9.72511 -5.80336 -1.66386 136 123 115
-9.804 -5.78939 -1.67373 130 117 108
-9.87559 -5.7911 -1.68393 134 125 116
-9.95069 -5.79442 -1.69476 124 111 103
-12.034 -3.7281 -1.76724 85 87 100
-12.075 -3.69994 -1.77206 86 86 99
-12.0631 -3.65528 -1.76844 86 85 99
-14.0478 -1.45099 -1.81688 86 100 126
-14.0711 -1.40888 -1.81974 91 105 132
-4.01309 -10.2524 -1.35826 114 116 128
-4.04717 -10.2481 -1.35938 116 118 130
-4.48984 -9.77394 -1.37483 117 119 131
-4.51965 -9.76068 -1.37481 119 120 132
-5.66609 -8.79256 -1.43553 125 121 128
-5.68979 -8.77042 -1.43461 128 124 132
-5.73554 -8.75304 -1.4361 124 118 126
-7.93654 -7.63559 -1.61072 124 123 129
-7.93984 -7.59196 -1.60625 125 124 132
-7.93728 -7.54288 -1.60049 126 125 133
-10.0367 -5.78275 -1.70591 133 120 114
-10.1206 -5.79002 -1.71834 132 118 115
-10.1892 -5.788 -1.7279 132 120 114
-10.2751 -5.79534 -1.74065 130 117 109
-10.3375 -5.76775 -1.74733 133 120 112
-10.3616 -5.73949 -1.7486 123 113 104
-10.3769 -5.70635 -1.74827 123 114 105
-12.104 -3.60623 -1.77236 89 87 101
-12.1276 -3.57241 -1.77447 87 85 99
-12.1266 -3.5312 -1.77266 87 85 99
-12.1632 -3.48046 -1.77597 83 86 103
-13.3993 -2.04796 -1.80383 94 105 129
-14.0885 -1.34372 -1.82146 91 105 132
-14.08 -1.29835 -1.81975 86 100 127
-14.0969 -1.25537 -1.82175 91 106 135
-4.41701 -9.81211 -1.37576 115 117 129
-4.45685 -9.77984 -1.37366 115 117 129
-5.52515 -8.83604 -1.42986 123 122 130
-5.5582 -8.82959 -1.43166 121 121 131
-5.60514 -8.81461 -1.43345 129 127 133
-5.6351 -8.80279 -1.43434 129 124 128
-7.45226 -7.90332 -1.58637 139 134 131
-7.499 -7.90509 -1.59178 144 138 138
-7.54852 -7.90953 -1.59783 142 136 137
-7.61055 -7.90211 -1.60387 141 136 140
-7.66298 -7.90886 -1.61055 133 129 133
-7.70736 -7.90678 -1.61532 129 126 132
-7.74769 -7.90023 -1.61914 123 123 130
-7.81005 -7.89149 -1.62518 118 116 122
-7.83257 -7.86613 -1.62485 116 114 121
-10.408 -5.66082 -1.74922 126 117 115
-10.4197 -5.62566 -1.74826 120 112 110
-10.4399 -5.59515 -1.74889 117 108 107
-10.4548 -5.54091 -1.74696 114 109 112
-10.473 -5.50934 -1.74727 114 110 113
-10.4894 -5.47679 -1.74727 115 114 115
-10.5144 -5.44874 -1.74885 113 111 114
-10.5251 -5.39246 -1.74629 111 109 115
-10.5446 -5.36154 -1.74693 110 105 112
-10.5605 -5.32875 -1.74692 106 99 107
-12.1599 -3.43868 -1.77386 82 83 101
-12.2097 -3.41204 -1.78019 82 89 105
-12.1967 -3.36751 -1.77657 81 87 104
-12.2154 -3.31142 -1.77717 82 89 107
-13.423 -1.94418 -1.80531 92 104 130
-13.4282 -1.90204 -1.80531 89 103 129
-14.0939 -1.18824 -1.82061 85 100 127
-14.1479 -1.14821 -1.82805 82 97 123
-4.34635 -9.81236 -1.37165 113 115 127
-4.3786 -9.80503 -1.37252 112 114 127
-5.41215 -8.86274 -1.42449 120 119 127
-5.45015 -8.86527 -1.42779 122 119 126
-5.49012 -8.83895 -1.42747 126 123 129
-6.54282 -7.71142 -1.46537 145 137 134
-6.56363 -7.68848 -1.46471 147 138 134
-6.60148 -7.66151 -1.46533 148 137 131
-6.63356 -7.65197 -1.46755 147 134 125
-6.70522 -7.6889 -1.47966 148 132 120
-6.94213 -7.89334 -1.52974 151 135 119
-6.99438 -7.90503 -1.53674 148 135 125
-7.03901 -7.90751 -1.54183 92 83 77
-7.09615 -7.89899 -1.54692 112 95 85
-7.14225 -7.90247 -1.55233 112 96 84
-7.18975 -7.90721 -1.55805 108 90 80
-7.23605 -7.91025 -1.56346 113 94 86
-7.29749 -7.90488 -1.56951 127 118 110
-7.34131 -7.90448 -1.57428 117 108 106
-7.38787 -7.90679 -1.57969 115 107 107
-10.5829 -5.27859 -1.74659 141 135 138
-10.6021 -5.24743 -1.74722 136 130 132
-10.6283 -5.2197 -1.74913 136 130 130
-10.6483 -5.16836 -1.74848 152 147 152
-10.6689 -5.13781 -1.74943 124 121 129
-10.6717 -5.09864 -1.7472 79 75 89
-10.6886 -5.06629 -1.74751 69 66 77
-10.7257 -5.02309 -1.75005 80 79 92
-12.2325 -3.27535 -1.77838 84 92 111
-12.2324 -3.23459 -1.77687 77 87 107
-12.2562 -3.17979 -1.77838 81 90 107
-13.4548 -1.86283 -1.80857 81 95 119
-13.4449 -1.79713 -1.80591 93 108 129
-14.1033 -1.09998 -1.82119 85 99 126
-14.0956 -1.0326 -1.81948 85 101 127
-4.23637 -9.84541 -1.36993 115 117 130
-4.26792 -9.83662 -1.37051 113 115 128
-4.30245 -9.83503 -1.37227 117 119 131
-5.31279 -8.9121 -1.42333 123 122 130
-5.33707 -8.891 -1.42241 122 120 131
-5.38506 -8.87893 -1.4245 123 123 133
-6.39078 -7.79177 -1.4597 142 138 140
-6.41562 -7.77389 -1.46 141 136 138
-6.44784 -7.76514 -1.46222 143 136 136
-6.48253 -7.75932 -1.46508 145 137 136
-6.52443 -7.73735 -1.46666 148 138 136
-10.7316 -4.98554 -1.74845 81 81 93
-10.7499 -4.9538 -1.74908 81 80 92
-10.7795 -4.90687 -1.75035 86 85 98
-10.7706 -4.86272 -1.7462 91 90 104
-10.7939 -4.83323 -1.74779 89 87 100
-10.8265 -4.78761 -1.74969 82 81 95
-10.8316 -4.74992 -1.74809 83 82 96
-12.3112 -3.15345 -1.78561 82 93 109
-12.324 -3.11597 -1.78622 80 91 109
-12.3358 -3.05773 -1.78591 85 98 117
-13.4555 -1.75567 -1.8068 93 105 129
-13.4483 -1.71194 -1.80503 93 105 129
-14.1118 -0.989295 -1.82149 81 95 121
-14.1179 -0.945216 -1.82206 83 99 125
-14.0962 -0.899282 -1.81864 85 101 127
-14.3346 -0.513069 -1.80847 81 97 123
-14.3254 -0.472381 -1.80691 86 102 128
-4.1585 -9.87059 -1.36909 115 117 129
-4.2085 -9.86326 -1.37084 114 116 128
-5.2101 -8.9551 -1.42128 120 124 133
-5.24864 -8.92645 -1.42035 122 122 130
-5.28264 -8.92279 -1.42245 122 122 132
-6.23512 -7.89099 -1.45659 127 123 135
-6.26625 -7.88144 -1.45849 134 130 141
-6.29761 -7.84667 -1.45719 136 133 144
-6.32382 -7.83066 -1.45782 141 138 145
-6.35731 -7.82385 -1.46036 138 135 141
-10.8528 -4.71934 -1.74936 81 83 98
-10.8777 -4.67018 -1.74999 81 83 96
-10.886 -4.63397 -1.74903 84 84 96
-10.896 -4.59853 -1.74839 82 84 97
-10.9241 -4.57068 -1.75094 81 83 98
-12.358 -3.02253 -1.78802 82 94 116
-12.3819 -2.98768 -1.79044 84 98 120
