-3.01347 -5.81208 -1.70273 112 106 106
-3.44282 -5.33645 -1.73037 75 92 120
-3.46168 -5.3312 -1.7321 73 90 118
-3.80819 -4.88498 -1.7449 80 97 128
-3.83254 -4.87097 -1.74609 81 99 128
-4.1522 -4.40634 -1.74942 78 93 126
-4.15759 -4.38543 -1.74572 75 91 124
-4.17051 -4.37301 -1.74572 72 88 121
-4.19103 -4.36901 -1.7494 75 90 123
-5.59159 -2.62304 -1.7998 72 84 106
-5.59381 -2.60335 -1.79795 69 84 107
-5.61481 -2.59267 -1.80287 71 83 105
-5.97896 -2.17315 -1.81887 87 88 100
-5.98847 -2.15579 -1.82007 83 85 98
-6.37865 -1.63842 -1.82637 81 90 102
-6.39215 -1.62085 -1.82926 83 92 109
-6.80146 -0.967473 -1.81858 127 139 158
-6.89792 -0.72662 -1.79962 134 144 160
-6.8595 -0.695691 -1.78463 84 88 115
-6.86265 -0.679103 -1.78529 81 86 116
-7.05021 -0.641812 -1.82444 72 86 113
-2.27207 -5.86905 -1.53276 126 128 140
-2.58449 -5.79224 -1.59827 118 110 111
-2.9599 -5.81232 -1.69605 111 102 103
-2.97805 -5.80569 -1.6966 108 100 98
-3.40157 -5.35998 -1.7298 73 90 118
-3.42299 -5.33999 -1.72806 80 97 125
-3.75905 -4.91107 -1.74192 79 96 124
-3.78034 -4.90908 -1.74551 79 96 124
-3.79256 -4.89476 -1.7443 79 96 126
-4.09606 -4.43791 -1.74452 77 96 128
-4.10789 -4.42426 -1.7439 77 94 125
-4.12846 -4.42057 -1.74759 77 94 124
-5.61519 -2.57213 -1.8004 72 84 106
-5.63157 -2.54859 -1.80224 73 86 105
-5.64041 -2.53203 -1.80285 73 85 107
-5.98687 -2.12396 -1.81646 87 89 101
-5.99621 -2.10655 -1.81766 78 79 91
-5.98572 -2.08224 -1.81226 116 116 122
-6.39262 -1.59988 -1.8281 83 91 109
-6.41345 -1.58408 -1.83331 84 93 110
-6.80359 -0.946229 -1.81857 130 141 162
-6.79994 -0.924216 -1.8169 110 115 140
-7.0389 -0.607562 -1.82063 79 93 119
-7.20446 -0.31746 -1.8107 78 93 118
-7.21418 -0.295128 -1.81334 77 91 117
-2.24957 -5.86063 -1.52854 127 129 141
-2.56297 -5.78857 -1.59502 121 114 111
-2.91876 -5.81494 -1.69159 112 104 102
-2.93771 -5.81019 -1.6927 112 103 104
-3.36761 -5.37658 -1.72866 76 93 119
-3.38364 -5.36666 -1.72865 74 91 119
-3.72775 -4.94658 -1.74494 79 94 123
-3.7379 -4.92932 -1.74253 81 96 125
-4.04953 -4.48032 -1.74455 78 95 125
-4.06398 -4.4697 -1.74515 78 95 125
-4.08213 -4.46336 -1.74761 75 92 122
-5.65954 -2.5202 -1.80716 72 83 105
-5.65667 -2.48774 -1.80223 71 83 105
-5.67051 -2.47342 -1.80468 74 87 106
-5.67912 -2.45671 -1.80529 75 88 105
-5.98914 -2.05237 -1.81045 101 96 93
-5.98383 -2.03003 -1.80685 90 85 82
-6.40511 -1.55027 -1.82867 76 87 107
-6.40907 -1.53021 -1.82867 80 88 109
-6.80574 -0.903464 -1.81801 123 129 150
-6.91786 -0.669172 -1.80498 76 89 115
-6.91907 -0.652149 -1.80495 73 89 114
-7.04756 -0.586239 -1.8228 80 95 118
-7.0485 -0.564218 -1.8228 77 89 113
-7.21996 -0.272597 -1.81492 75 89 115
-2.23021 -5.86124 -1.52696 128 130 144
-2.53101 -5.78473 -1.59067 121 115 120
-2.88281 -5.80621 -1.6849 109 101 99
-3.34597 -5.39633 -1.73041 80 96 121
-3.68621 -4.96787 -1.74255 78 95 123
-3.7131 -4.95762 -1.74494 81 98 126
-4.00859 -4.5295 -1.74765 76 92 125
-4.01709 -4.51174 -1.74518 78 94 128
-4.02676 -4.49541 -1.74332 80 96 129
-5.69326 -2.43196 -1.80652 73 86 105
-5.70522 -2.41668 -1.80836 74 87 106
-5.70494 -2.39606 -1.80589 76 87 107
-5.99834 -2.01437 -1.80984 96 93 88
-6.00504 -1.98568 -1.80924 108 103 99
-6.41856 -1.51147 -1.8304 75 83 104
-6.80142 -0.870609 -1.81577 127 140 159
-6.91189 -0.625489 -1.80152 83 97 123
-6.90365 -0.607391 -1.7981 73 87 113
-2.20528 -5.87573 -1.52856 125 127 142
-2.49089 -5.78412 -1.58634 120 115 119
-2.51093 -5.78446 -1.58851 116 110 114
-2.86543 -5.81428 -1.68491 110 100 100
-3.32606 -5.39948 -1.7281 78 94 119
-3.65128 -4.98182 -1.73957 84 101 129
-3.67478 -4.98344 -1.74436 87 104 132
-3.95267 -4.56055 -1.74336 80 96 129
-3.97095 -4.5547 -1.74582 80 97 130
-3.98672 -4.53111 -1.74334 76 95 125
-5.71159 -2.37846 -1.80589 75 86 104
-5.7306 -2.35571 -1.80896 76 87 105
-5.73536 -2.33729 -1.80834 73 85 101
-6.02485 -1.97164 -1.81404 101 96 92
-6.01199 -1.947 -1.80803 101 95 95
-6.03352 -1.93342 -1.81343 96 87 87
-6.41356 -1.47867 -1.82693 79 91 113
-6.41918 -1.459 -1.8275 73 87 110
-6.79562 -0.848425 -1.81354 115 127 149
-6.80692 -0.828312 -1.81632 130 143 163
-6.91025 -0.591043 -1.80012 70 84 110
-7.04637 -0.530872 -1.82171 78 92 118
-7.05481 -0.509432 -1.82388 71 85 111
-7.22029 -0.238477 -1.81492 78 92 118
-7.22399 -0.215826 -1.81597 72 86 112
-2.8434 -5.81176 -1.68157 114 105 106
-3.31145 -5.47044 -1.74434 77 94 120
-3.32785 -5.44084 -1.73912 78 94 120
-3.62681 -5.02754 -1.74678 84 101 129
-3.63193 -5.00268 -1.74138 87 103 133
-3.91958 -4.59119 -1.74399 78 99 130
-3.93917 -4.57224 -1.74337 79 96 126
-4.54472 -3.70888 -1.74993 115 115 135
-4.551 -3.69142 -1.74802 114 114 131
-4.5981 -3.69583 -1.76132 118 120 134
-4.60727 -3.68061 -1.76068 126 130 145
-4.61489 -3.66418 -1.75941 130 135 155
-4.64588 -3.6549 -1.76574 59 69 97
-4.64452 -3.63128 -1.76066 71 85 111
-4.66088 -3.62181 -1.76319 71 87 112
-4.68583 -3.60747 -1.76699 72 88 113
-4.67824 -3.57919 -1.75937 76 90 116
-4.69899 -3.57301 -1.7638 69 83 109
-4.71674 -3.56442 -1.76697 72 86 112
-4.72343 -3.5359 -1.76316 72 86 112
-4.73054 -3.51917 -1.76188 72 87 110
-4.76031 -3.5195 -1.77012 72 86 112
-4.76063 -3.48633 -1.76377 73 88 111
-4.77974 -3.47852 -1.76757 73 88 111
-4.79121 -3.46501 -1.76819 75 90 113
-4.80035 -3.43853 -1.76565 74 89 112
-4.8117 -3.42494 -1.76628 73 88 111
-4.83226 -3.41793 -1.77071 76 88 110
-4.83186 -3.38473 -1.76436 74 89 112
-4.84305 -3.37101 -1.76499 76 88 112
-4.86352 -3.36378 -1.76942 73 88 111
-4.86378 -3.34236 -1.76561 72 86 112
-4.8894 -3.3275 -1.77004 75 87 111
-4.90669 -3.31785 -1.7732 72 87 110
-4.9083 -3.29745 -1.77003 72 87 110
-4.92122 -3.27378 -1.76939 73 85 107
-5.74357 -2.32031 -1.80895 78 90 104
-5.75357 -2.29369 -1.80895 78 87 101
-6.02166 -1.89888 -1.80683 92 88 87
-6.03217 -1.88176 -1.80862 98 92 92
-6.43406 -1.44145 -1.83097 72 87 110
-6.80414 -0.795741 -1.81465 126 138 160
-6.92144 -0.566545 -1.80348 74 88 111
-7.05358 -0.487239 -1.82333 74 88 115
-7.21221 -0.192793 -1.8128 77 92 116
-2.44176 -5.78656 -1.58201 127 126 127
-2.46109 -5.78527 -1.58363 128 122 124
-2.79187 -5.8139 -1.676 115 109 109
-2.81 -5.80783 -1.67655 113 107 107
-3.26211 -5.45958 -1.73393 78 92 118
-3.28674 -5.46506 -1.73913 77 93 118
-3.5884 -5.03629 -1.742 84 99 128
-3.60761 -5.03195 -1.74439 83 98 127
-3.87253 -4.63304 -1.74463 61 77 109
-3.89116 -4.61283 -1.74339 78 97 129
-3.91188 -4.61022 -1.74708 77 97 129
-4.41895 -3.84317 -1.74556 117 123 139
-4.44878 -3.8343 -1.75125 120 123 140
-4.45413 -3.81579 -1.74871 117 120 137
-4.46371 -3.80101 -1.74807 117 120 135
-4.48485 -3.78436 -1.74996 120 122 137
-4.49718 -3.77195 -1.75059 117 119 134
-4.49651 -3.74844 -1.74551 119 120 138
-4.51457 -3.72913 -1.74614 110 113 133
-4.53545 -3.72391 -1.75057 115 118 137
-4.94155 -3.26604 -1.77382 73 85 107
-4.94452 -3.24667 -1.77128 73 88 111
-4.95401 -3.22074 -1.76937 71 86 109
-4.97743 -3.21484 -1.77507 75 87 111
-4.9802 -3.19541 -1.77253 74 84 111
-4.98925 -3.18009 -1.77252 75 87 111
-5.01597 -3.16521 -1.77758 73 88 109
-5.03135 -3.15383 -1.78011 70 83 109
-5.01781 -3.12423 -1.77123 71 86 111
-5.0186 -3.09304 -1.76616 48 59 82
-5.02251 -3.0746 -1.76425 126 134 154
-5.0328 -3.06013 -1.76488 139 145 160
-5.75812 -2.27521 -1.80833 81 90 106
-5.77144 -2.26026 -1.81078 79 86 103
-5.77763 -2.2321 -1.80955 77 86 103
-6.04262 -1.86458 -1.81042 96 87 88
-6.44177 -1.41161 -1.83155 77 88 110
-6.44716 -1.39182 -1.83213 73 88 111
-6.81526 -0.775522 -1.81743 129 140 164
-6.91487 -0.548708 -1.80074 76 88 112
-6.92503 -0.532637 -1.80411 73 87 113
-7.04847 -0.464784 -1.8217 73 89 115
-2.42504 -5.79501 -1.58256 127 125 129
-2.77374 -5.81991 -1.67545 115 109 109
-3.25499 -5.48588 -1.73973 77 92 115
-3.5474 -5.05789 -1.74022 78 94 122
-3.5698 -5.05846 -1.74441 81 97 126
-3.82659 -4.66116 -1.74219 68 84 113
-3.84271 -4.65285 -1.74342 70 85 115
-3.85414 -4.63847 -1.74218 62 77 109
-4.33207 -3.95303 -1.74751 120 127 143
-4.34129 -3.9256 -1.7437 121 127 143
-4.35542 -3.91501 -1.74496 122 129 145
-4.38629 -3.91972 -1.75382 126 133 151
-4.38685 -3.88447 -1.74621 119 125 141
-4.40369 -3.87624 -1.74874 121 127 143
-4.41346 -3.86161 -1.7481 118 124 140
-5.04454 -3.03588 -1.76424 122 124 139
-5.06448 -3.02718 -1.76867 125 127 140
-5.06815 -3.00865 -1.76676 126 130 141
-5.08966 -3.00077 -1.77183 126 130 142
-5.08641 -2.96762 -1.76548 127 131 143
-5.10622 -2.95862 -1.76991 129 131 143
-5.78551 -2.21494 -1.81016 77 83 102
-5.80043 -2.20052 -1.81323 81 84 101
-5.80113 -2.18053 -1.81138 86 89 102
-6.04861 -1.8357 -1.80981 94 88 92
-6.04982 -1.81571 -1.80861 96 91 94
-6.07288 -1.80217 -1.81461 93 91 92
-6.43943 -1.36917 -1.82865 75 88 112
-6.9266 -0.507042 -1.80408 76 90 116
-7.04781 -0.431601 -1.82116 68 82 108
-7.2141 -0.158733 -1.81333 70 84 111
-2.394 -5.79218 -1.57877 125 122 128
-2.73973 -5.8138 -1.66987 113 108 105
-3.20357 -5.49097 -1.73337 76 89 114
-3.22176 -5.48496 -1.73452 77 91 114
-3.49161 -5.05682 -1.73003 81 96 127
-3.51764 -5.04609 -1.73182 79 94 123
-3.78696 -4.6832 -1.73975 83 100 130
-3.80885 -4.68261 -1.74405 79 98 130
-4.23651 -4.03055 -1.74121 126 134 154
-4.25989 -4.0166 -1.74374 119 126 144
-4.26468 -3.99715 -1.74057 117 124 140
-4.28993 -3.99734 -1.7469 122 127 144
-4.30358 -3.97395 -1.74499 120 126 142
-4.31233 -3.95832 -1.74371 119 126 142
-5.12438 -2.94857 -1.77371 129 133 145
-5.12572 -2.91824 -1.76927 126 128 140
-5.14874 -2.91086 -1.77496 125 127 139
-5.16351 -2.89869 -1.77749 127 129 142
-5.16289 -2.86737 -1.77242 129 132 143
-5.17424 -2.85326 -1.77368 133 137 148
-5.81047 -2.15361 -1.81138 84 89 102
-5.8199 -2.13699 -1.8126 84 89 100
-6.08955 -1.77633 -1.8176 100 96 95
-6.44867 -1.33967 -1.8298 74 87 110
-6.4501 -1.31906 -1.82922 73 86 111
-6.81366 -0.721641 -1.81575 142 148 170
-6.92917 -0.490147 -1.80474 76 92 118
-6.92047 -0.47221 -1.80132 72 89 115
-7.05784 -0.410157 -1.82387 78 92 118
-7.27915 -0.136987 -1.83129 81 97 123
-7.20938 -0.113202 -1.81227 102 128 150
-2.37535 -5.79504 -1.57769 124 119 126
-2.69831 -5.81301 -1.66486 112 106 103
-2.71937 -5.81433 -1.66765 112 107 104
-3.18897 -5.50367 -1.73454 76 90 114
-3.48329 -5.11089 -1.74265 83 98 127
-3.47454 -5.06389 -1.72884 83 98 127
-3.76075 -4.7232 -1.74469 77 93 126
-3.77531 -4.69739 -1.74099 84 101 131
-4.18175 -4.08633 -1.74061 67 84 114
-4.1959 -4.06338 -1.7387 57 74 99
-4.21172 -4.05471 -1.74059 54 67 92
-4.23696 -4.05527 -1.74693 102 111 133
-5.19717 -2.8455 -1.77938 125 127 139
-5.19351 -2.82308 -1.77494 122 125 138
-5.21577 -2.80439 -1.77873 127 130 143
-5.24031 -2.79722 -1.78506 125 128 140
-5.23308 -2.77301 -1.77935 132 132 144
-5.83994 -2.12432 -1.81752 89 92 106
-5.83654 -2.0926 -1.81321 86 89 96
-6.08141 -1.75362 -1.8134 101 95 93
-6.09516 -1.73719 -1.81639 98 93 89
-6.46834 -1.30191 -1.83385 80 92 116
-6.46027 -1.27934 -1.83038 75 87 111
-6.79722 -0.677169 -1.81017 75 83 112
-7.06397 -0.388424 -1.8255 82 94 120
-7.20305 -0.0904182 -1.81068 126 144 160
-2.3548 -5.79239 -1.57498 118 116 122
-2.67801 -5.81339 -1.66264 114 106 104
-3.16206 -5.51418 -1.73339 76 89 110
-3.46112 -5.12783 -1.74326 83 98 127
-3.69994 -4.74632 -1.73856 81 98 128
-3.72481 -4.73454 -1.74039 80 96 129
-3.7411 -4.72661 -1.74162 80 96 129
-4.11833 -4.13309 -1.7362 72 87 118
-4.14748 -4.13834 -1.74444 66 81 109
-4.19112 -4.14526 -1.75647 68 84 117
-4.17786 -4.107 -1.74442 69 86 116
-5.26021 -2.75666 -1.78505 121 121 133
-5.26958 -2.74126 -1.78568 122 122 134
-5.27891 -2.72583 -1.78631 118 118 130
-5.84402 -2.07519 -1.81382 111 109 113
-5.86928 -2.06423 -1.82059 111 105 107
-6.12521 -1.69451 -1.82239 90 89 95
-6.47286 -1.25042 -1.83269 76 88 112
-6.7908 -0.65519 -1.80793 77 93 118
-6.93858 -0.448082 -1.8074 76 93 119
-6.94472 -0.431432 -1.80942 73 90 116
-6.89654 -0.410388 -1.79173 70 85 111
-7.06103 -0.35507 -1.82441 75 90 113
-2.33178 -5.78238 -1.57009 128 125 129
-2.64571 -5.81026 -1.65818 116 107 108
-3.13438 -5.54269 -1.73688 77 88 107
-3.14648 -5.52506 -1.73398 79 90 108
-3.42148 -5.1336 -1.73787 80 97 127
-3.44079 -5.12995 -1.74027 81 96 125
-3.68165 -4.78191 -1.74411 82 97 127
-3.69028 -4.76335 -1.74103 83 98 129
-4.09197 -4.2188 -1.75018 70 87 117
-4.09904 -4.20098 -1.74763 70 87 117
-4.12561 -4.20374 -1.7546 71 88 118
-4.14041 -4.18099 -1.75269 69 86 116
-4.48878 -3.63062 -1.74854 61 70 95
-4.50784 -3.61277 -1.74982 75 88 117
-4.52118 -3.60162 -1.7511 72 90 117
-4.52142 -3.57952 -1.74658 69 86 112
-4.54463 -3.56508 -1.7498 73 89 114
-4.55638 -3.55258 -1.75044 71 87 112
-4.56223 -3.53525 -1.74849 73 89 114
-4.59266 -3.52646 -1.75494 75 89 115
-4.59397 -3.5055 -1.75106 74 86 110
-4.59963 -3.4881 -1.74912 73 85 109
-4.62006 -3.48242 -1.75363 76 88 112
-4.63552 -3.46147 -1.75362 72 87 110
-4.64548 -3.44746 -1.75361 72 87 110
-4.65839 -3.43573 -1.75489 73 87 113
-4.67513 -3.41574 -1.75553 74 89 112
-4.68645 -3.40274 -1.75617 73 88 111
-4.69322 -3.38628 -1.75487 73 88 111
-4.7158 -3.37062 -1.75809 74 89 112
-4.71333 -3.34731 -1.75293 74 86 110
-4.73359 -3.34091 -1.75743 73 88 111
-4.74164 -3.32545 -1.75678 73 88 111
-4.75177 -3.30055 -1.75484 73 88 111
-4.76736 -3.29057 -1.75741 73 88 111
-4.77986 -3.27832 -1.7587 73 88 111
-4.78356 -3.2489 -1.75418 76 88 114
-4.80058 -3.23984 -1.75739 75 87 109
-4.80675 -3.2231 -1.7561 72 87 110
-4.82408 -3.20336 -1.75738 72 87 110
-4.83791 -3.19193 -1.75931 70 85 108
-4.8517 -3.18044 -1.76124 71 86 109
-4.85921 -3.16463 -1.76059 72 87 110
-4.86847 -3.13931 -1.75864 72 87 110
-4.87586 -3.12346 -1.75799 69 84 107
-5.29823 -2.68493 -1.7863 110 112 130
-5.30062 -2.66597 -1.78439 65 68 91
-5.3182 -2.65463 -1.78819 73 81 105
-5.86734 -2.03313 -1.81689 101 98 93
-5.86926 -2.0137 -1.81565 114 109 106
-5.88544 -1.99929 -1.81934 103 97 97
-6.13697 -1.67733 -1.82478 86 88 100
-6.145 -1.65911 -1.82598 84 92 104
-6.45524 -1.22609 -1.82632 73 88 111
-6.47133 -1.20834 -1.83037 77 92 115
-6.79484 -0.623482 -1.80848 75 87 114
-6.92499 -0.39556 -1.8019 73 87 113
-7.05357 -0.332589 -1.82223 75 89 115
-7.20446 -0.0563534 -1.81121 129 140 158
-7.20181 -0.0336298 -1.81068 130 141 159
-2.30469 -5.78997 -1.56956 126 124 128
-2.62764 -5.81577 -1.65763 111 106 103
-3.10471 -5.5478 -1.73399 81 89 106
-3.39494 -5.178 -1.74509 80 97 127
-3.41434 -5.15654 -1.74268 78 95 125
-3.63799 -4.79794 -1.73982 78 95 125
-3.66634 -4.79116 -1.7435 80 96 127
-4.03463 -4.27229 -1.74957 70 87 117
-4.05346 -4.26715 -1.75274 70 87 117
-4.05688 -4.24523 -1.74829 72 89 119
-4.08098 -4.23246 -1.75082 67 86 116
-4.38065 -3.7638 -1.7486 119 122 140
-4.38736 -3.74685 -1.74666 109 115 131
-4.40385 -3.73872 -1.74923 112 118 134
-4.41627 -3.71509 -1.74729 117 123 139
-4.42846 -3.70307 -1.74793 110 113 130
-4.4406 -3.691 -1.74856 113 116 131
-4.44985 -3.67641 -1.74791 119 125 139
-4.47197 -3.66125 -1.75048 130 138 154
-4.48399 -3.64902 -1.75112 77 87 108
-4.96507 -3.16198 -1.79088 72 86 112
-4.92373 -3.10295 -1.7683 49 61 84
-4.93098 -3.08694 -1.76765 119 128 146
-4.94452 -3.07502 -1.76958 141 148 166
-4.96125 -3.05447 -1.77086 126 132 148
-4.97151 -3.04038 -1.7715 124 130 144
-4.97855 -3.02423 -1.77085 127 130 145
-4.99666 -3.00448 -1.77277 127 130 145
-5.00197 -2.98725 -1.77148 127 131 143
-5.34666 -2.63831 -1.79452 74 86 108
-5.33867 -2.61423 -1.78881 75 86 105
-5.3408 -2.5952 -1.7869 74 87 103
-5.39299 -2.59007 -1.80211 73 85 108
-5.89572 -1.97256 -1.81995 91 85 88
-5.89026 -1.95062 -1.81626 93 89 90
-6.14817 -1.62929 -1.82477 80 90 107
-6.46668 -1.17612 -1.82747 71 85 111
-6.80163 -0.602706 -1.81016 81 93 119
-6.93904 -0.370884 -1.80662 72 85 111
-7.05754 -0.310702 -1.82332 69 83 109
-7.20871 -0.0108975 -1.81279 129 138 157
-2.26325 -5.78223 -1.56359 126 124 132
-2.28609 -5.79252 -1.56848 125 124 129
-2.6067 -5.81411 -1.65484 111 101 102
-3.0741 -5.57087 -1.73575 84 87 106
-3.08812 -5.5568 -1.734 84 89 106
-3.33929 -5.1572 -1.7301 84 99 128
-3.34858 -5.13766 -1.7265 82 97 126
-3.60835 -4.81764 -1.73922 78 95 124
-3.62916 -4.81639 -1.7429 77 94 123
-3.99294 -4.31721 -1.75086 76 93 123
-4.0093 -4.30946 -1.75276 74 91 121
-4.01296 -4.28759 -1.74831 77 94 124
-4.29673 -3.84961 -1.74606 117 124 142
-4.32168 -3.84971 -1.75251 117 123 139
-4.31632 -3.82124 -1.74476 121 124 141
-4.35555 -3.8224 -1.75507 121 124 141
-4.35276 -3.79651 -1.74862 121 124 141
-4.36238 -3.78218 -1.74796 117 122 138
-5.00883 -2.97101 -1.77083 126 130 142
-5.02531 -2.96068 -1.77405 127 131 143
-5.0383 -2.93768 -1.77404 127 129 142
-5.05147 -2.92524 -1.77597 121 122 135
-5.05489 -2.90691 -1.77403 134 137 150
-5.07577 -2.88858 -1.77724 137 141 153
-5.38477 -2.566 -1.7964 76 88 109
-5.41072 -2.55822 -1.80336 74 86 106
-5.43032 -2.53705 -1.80653 73 85 107
-5.89009 -1.93055 -1.81441 94 90 89
-5.90426 -1.91531 -1.81748 93 87 87
-6.16159 -1.61242 -1.82777 76 89 106
-6.15465 -1.5903 -1.82417 75 88 105
-6.47512 -1.15685 -1.8292 75 87 115
-6.79878 -0.581102 -1.80904 72 87 110
-6.93181 -0.353237 -1.80388 76 90 116
-6.93015 -0.336001 -1.80318 77 91 116
-7.05039 -0.277244 -1.82114 78 93 116
-2.58018 -5.82483 -1.65485 114 105 105
-3.054 -5.57293 -1.73344 82 86 105
-3.29363 -5.17007 -1.72592 82 97 126
-3.31982 -5.17834 -1.73251 79 94 123
-3.56455 -4.83296 -1.73493 79 96 126
-3.59072 -4.83973 -1.74169 78 95 123
-3.93701 -4.34597 -1.74518 73 90 123
-3.97218 -4.35978 -1.75659 76 93 123
-3.9761 -4.33794 -1.75214 76 95 126
-4.20973 -3.93199 -1.74288 121 128 144
-4.23869 -3.93665 -1.75126 122 130 143
-4.24412 -3.90574 -1.74545 123 128 147
-4.2704 -3.90752 -1.75254 117 122 141
-4.26681 -3.88031 -1.74543 119 124 143
-4.29508 -3.87158 -1.75059 117 124 142
-5.09371 -2.87883 -1.78111 128 132 143
-5.09858 -2.86137 -1.77981 128 130 143
-5.11602 -2.84084 -1.78174 130 132 145
-5.11746 -2.82145 -1.77915 128 130 145
-5.13199 -2.80955 -1.78173 133 132 146
-5.42013 -2.51223 -1.80018 72 84 106
-5.43569 -2.49936 -1.80335 74 86 107
-5.46541 -2.48266 -1.81031 72 85 104
-5.90334 -1.88489 -1.8144 102 97 96
-5.92461 -1.87188 -1.81993 93 87 87
-6.16304 -1.56185 -1.82476 75 88 109
-6.17997 -1.54574 -1.82896 78 91 108
-6.52868 -1.14566 -1.84484 76 92 118
-6.43706 -1.0981 -1.8153 120 136 159
-6.81777 -0.550506 -1.81406 80 92 116
-6.92707 -0.310111 -1.80179 77 92 115
-7.06379 -0.255719 -1.82494 70 84 110
-2.23677 -5.7913 -1.5636 132 128 133
-2.53634 -5.81569 -1.64761 119 113 114
-2.55789 -5.81941 -1.65095 111 106 103
-3.02942 -5.58787 -1.73403 85 83 99
-3.28706 -5.19441 -1.73133 82 98 124
-3.56084 -4.85911 -1.74109 80 97 127
-3.892 -4.38691 -1.74521 72 89 119
-3.9196 -4.3925 -1.75281 76 93 123
-3.93426 -4.36916 -1.75026 74 93 125
-4.13774 -3.99237 -1.73905 121 124 141
-4.15201 -3.98272 -1.74033 124 127 145
-4.1676 -3.97437 -1.74226 120 128 144
-4.18052 -3.96327 -1.7429 120 127 143
-4.19423 -3.94052 -1.74096 122 129 145
-5.14319 -2.79572 -1.78301 134 133 145
-5.16365 -2.77673 -1.78623 132 130 143
-5.17478 -2.76277 -1.78751 128 127 139
-5.18254 -2.74694 -1.78751 127 126 138
-5.20282 -2.72766 -1.79073 120 120 132
-5.45843 -2.45947 -1.80524 73 86 105
-5.47211 -2.44561 -1.80777 74 85 105
-5.47883 -2.42861 -1.80776 76 87 107
-5.91513 -1.84886 -1.81501 94 88 90
-5.93378 -1.82478 -1.81869 95 90 92
-6.17095 -1.52322 -1.82476 76 89 109
-6.45281 -1.08015 -1.81935 129 146 162
-6.72371 -0.573997 -1.79829 70 85 108
-6.80139 -0.527883 -1.80903 75 89 115
-6.80214 -0.506586 -1.80903 73 89 115
-6.93089 -0.293228 -1.80312 72 87 110
-7.04833 -0.23304 -1.82059 75 91 117
-7.05777 -0.211302 -1.82331 74 88 114
-2.2188 -5.79544 -1.56307 129 125 133
-2.50638 -5.81712 -1.64482 118 114 113
-2.99429 -5.60188 -1.73289 84 82 95
-3.01525 -5.60177 -1.73578 85 84 99
-3.23737 -5.2002 -1.72474 80 96 122
-3.25863 -5.20057 -1.72834 80 96 122
-3.50861 -4.89372 -1.7405 79 96 126
-3.52419 -4.88502 -1.74111 78 96 126
-3.54718 -4.88732 -1.74602 78 95 125
-3.85138 -4.43314 -1.74777 75 93 124
-3.86918 -4.42743 -1.75029 72 89 119
-3.88407 -4.40429 -1.74775 71 90 121
-4.08199 -4.0576 -1.74102 53 69 97
-4.10409 -4.04346 -1.74294 124 134 155
-4.12768 -4.04351 -1.74874 128 135 150
-4.12108 -4.01216 -1.73971 126 130 144
-5.22642 -2.70026 -1.79394 137 135 153
-5.21145 -2.66207 -1.78362 69 78 96
-5.2323 -2.65315 -1.78877 76 89 108
-5.23637 -2.63538 -1.78747 71 86 109
-5.49446 -2.40535 -1.80966 78 86 107
-5.49758 -2.38677 -1.80839 79 88 106
-5.50933 -2.37193 -1.81028 76 85 102
-5.94043 -1.80695 -1.81931 93 89 88
-5.96334 -1.79414 -1.82546 103 98 94
-6.17717 -1.49422 -1.82475 73 85 108
-6.18651 -1.47616 -1.82655 77 89 113
-6.44964 -1.05893 -1.81761 130 143 160
-6.45394 -1.03898 -1.81819 130 141 159
-6.7395 -0.559046 -1.80386 73 88 112
-6.72817 -0.533028 -1.79893 80 93 119
-6.94216 -0.27673 -1.80718 71 84 108
-2.19788 -5.79037 -1.55981 126 123 129
-2.48629 -5.81678 -1.6426 116 112 116
-2.9679 -5.61309 -1.73232 83 80 91
-3.21026 -5.2256 -1.72716 76 92 118
-3.22767 -5.2195 -1.72835 78 95 122
-3.4686 -4.91442 -1.73867 83 98 126
-3.49927 -4.91189 -1.74359 81 97 127
-3.80062 -4.46721 -1.74525 71 90 120
-3.81726 -4.46025 -1.74715 73 90 120
-3.84084 -4.44752 -1.74904 74 93 125
-4.02397 -4.10762 -1.73911 73 90 118
-4.03981 -4.09983 -1.74104 70 85 114
-4.06723 -4.09147 -1.74555 73 90 116
-4.06235 -4.06145 -1.73716 53 69 94
-5.25045 -2.62281 -1.79005 70 84 105
-5.26354 -2.59953 -1.79069 74 87 107
-5.2691 -2.58254 -1.79004 72 85 103
-5.516 -2.34475 -1.80901 76 85 100
-5.53289 -2.33201 -1.81281 78 87 102
-5.5445 -2.31699 -1.8147 79 87 103
-5.95816 -1.76251 -1.82114 101 96 92
-5.96643 -1.74512 -1.82237 106 102 100
-6.19022 -1.45678 -1.82655 76 88 112
-6.20691 -1.44034 -1.83074 73 85 109
-6.45224 -1.00765 -1.81645 130 142 158
-6.73639 -0.517247 -1.80171 72 86 113
-6.81505 -0.47539 -1.81238 71 87 113
-6.81566 -0.454044 -1.81237 73 89 114
-6.9313 -0.250434 -1.80307 71 85 112
-6.93306 -0.233401 -1.80372 73 89 115
-7.05589 -0.178102 -1.82276 74 89 114
-2.16905 -5.79179 -1.55765 125 123 129
-2.46554 -5.81458 -1.63981 118 113 119
-2.95029 -5.61992 -1.73174 84 81 90
-3.18556 -5.23793 -1.72657 78 94 120
-3.43419 -4.92657 -1.73561 83 98 127
-3.46634 -4.94368 -1.74606 79 96 125
-3.77681 -4.4927 -1.74654 78 94 127
-3.79113 -4.48291 -1.74716 74 91 124
-3.97366 -4.14073 -1.73527 67 84 114
-4.00366 -4.13563 -1.74106 69 84 113
-4.00811 -4.11536 -1.73719 69 84 113
-5.27967 -2.56808 -1.79132 72 84 106
-5.29252 -2.54463 -1.79196 74 87 104
-5.30976 -2.53342 -1.79582 73 86 104
-5.31001 -2.5138 -1.79324 74 86 108
-5.54037 -2.28535 -1.80963 78 87 100
-5.55361 -2.27097 -1.81216 78 87 103
-5.56857 -2.25724 -1.81532 78 87 103
-5.96737 -1.72552 -1.82114 104 100 103
-5.97008 -1.70646 -1.82052 123 120 128
-6.19785 -1.40782 -1.82594 74 86 112
-6.46584 -0.989161 -1.81992 137 144 163
-6.73897 -0.50091 -1.80238 72 88 114
-6.85063 -0.434756 -1.82242 76 90 116
-6.94039 -0.216598 -1.80642 73 87 113
-7.04787 -0.155809 -1.82059 75 91 115
-2.43703 -5.81922 -1.63815 113 109 110
-2.9351 -5.63187 -1.73291 84 81 88
-3.15253 -5.25306 -1.72539 77 94 121
-3.17657 -5.25878 -1.73078 75 92 120
-3.4209 -4.95597 -1.74116 84 99 130
-3.7302 -4.53175 -1.74656 77 94 124
-3.74345 -4.52065 -1.74655 76 93 123
-3.76256 -4.5169 -1.74971 79 97 127
-3.91955 -4.19473 -1.73594 70 89 121
-3.93557 -4.18737 -1.73787 75 92 122
-3.9531 -4.16844 -1.73722 69 86 116
-3.97034 -4.16236 -1.73979 69 86 116
-5.32771 -2.49265 -1.79581 72 84 106
-5.36018 -2.48858 -1.80548 72 84 106
-5.3739 -2.47538 -1.80805 72 85 104
-5.55887 -2.23357 -1.80961 78 87 102
-5.57897 -2.21178 -1.81341 80 89 104
-5.96442 -1.67496 -1.8162 88 89 105
-5.9706 -1.65697 -1.81682 84 86 104
-6.20508 -1.38921 -1.82714 74 88 114
-6.21598 -1.37136 -1.82954 72 86 112
-6.46048 -0.967678 -1.8176 117 127 148
-6.746 -0.476612 -1.80445 74 90 116
-6.81471 -0.411227 -1.81181 73 87 113
-6.94394 -0.199595 -1.80776 78 90 114
-7.10698 -0.135093 -1.83743 70 86 112
-2.41832 -5.82223 -1.63704 114 110 111
-2.88445 -5.63552 -1.72713 83 80 88
-2.90534 -5.63585 -1.73002 83 80 88
-3.13235 -5.27342 -1.7278 77 94 120
-3.39337 -4.97902 -1.7424 81 97 128
-3.39804 -4.95305 -1.73624 81 97 129
-3.69421 -4.55632 -1.74531 80 96 129
-3.70286 -4.53937 -1.74277 75 90 121
-3.87463 -4.23361 -1.73532 73 90 121
-3.88334 -4.21785 -1.73338 72 91 122
-3.90352 -4.20202 -1.73401 70 89 119
-4.53396 -3.39884 -1.75804 73 88 111
-4.54818 -3.3886 -1.76001 74 89 112
-4.54966 -3.35772 -1.75407 75 90 113
-4.5713 -3.35307 -1.75934 75 90 113
-4.58541 -3.34265 -1.76131 74 89 110
-4.58959 -3.31398 -1.75669 75 90 111
-4.60059 -3.30123 -1.75734 73 88 109
-4.6161 -3.29177 -1.75997 73 88 109
-4.62452 -3.26639 -1.75733 73 88 111
-4.64913 -3.26342 -1.76392 73 88 111
-4.65384 -3.24605 -1.76193 72 87 110
-4.6697 -3.226 -1.76259 74 86 108
-4.67581 -3.20968 -1.76126 77 90 109
-4.68186 -3.19335 -1.75993 72 87 110
-5.37565 -2.45645 -1.80611 74 87 104
-5.38797 -2.43247 -1.80675 75 87 103
-5.39126 -2.41432 -1.80546 78 87 102
-5.59201 -2.19718 -1.81594 84 91 107
-5.58913 -2.17634 -1.81277 84 89 105
-5.60367 -2.15225 -1.81466 88 92 107
-5.96945 -1.63688 -1.81497 81 89 106
-6.2047 -1.33856 -1.82413 73 86 110
-6.45086 -0.935242 -1.81355 129 141 163
-6.45479 -0.915239 -1.81412 109 121 141
-6.75778 -0.460989 -1.80863 76 92 117
-6.7434 -0.443235 -1.80301 83 96 122
-6.80805 -0.378797 -1.80957 71 88 115
-6.93082 -0.173364 -1.80297 77 93 117
-7.03947 -0.100489 -1.81841 127 153 170
-2.37572 -5.81363 -1.63035 116 111 115
-2.39505 -5.81256 -1.63202 112 108 109
-2.87159 -5.65249 -1.73004 82 79 87
-3.09547 -5.2815 -1.72421 77 93 119
-3.11759 -5.28416 -1.7284 78 94 120
-3.35281 -4.9987 -1.74057 81 96 125
-3.36366 -4.98247 -1.7381 83 97 126
-3.64461 -4.59139 -1.74407 78 95 126
-3.66609 -4.59111 -1.7485 78 97 128
-3.67738 -4.56276 -1.74342 79 96 126
-3.83417 -4.27776 -1.73728 72 91 123
-3.84973 -4.25642 -1.73534 73 90 123
-3.86341 -4.24648 -1.73597 72 89 119
-4.34447 -3.61268 -1.75089 74 90 116
-4.36347 -3.60699 -1.75484 72 89 116
-4.37388 -3.59388 -1.75483 72 90 117
-4.3826 -3.56808 -1.75152 71 89 114
-4.39431 -3.55612 -1.75218 73 89 115
-4.41036 -3.54773 -1.75481 71 89 116
-4.40895 -3.52485 -1.74952 71 88 114
-4.44207 -3.51927 -1.75744 71 87 112
-4.45366 -3.50709 -1.75809 73 88 111
-4.45786 -3.48894 -1.75544 75 91 116
-4.48361 -3.47703 -1.76006 72 88 113
-4.49066 -3.46117 -1.75873 72 88 113
-4.50206 -3.44881 -1.75938 74 90 115
-4.52474 -3.43424 -1.76268 75 89 115
-4.53311 -3.41943 -1.76201 75 87 113
-4.69406 -3.18132 -1.76125 73 85 111
-4.72203 -3.16958 -1.76718 73 85 109
-4.74038 -3.16164 -1.77113 70 85 107
-4.74315 -3.14303 -1.76849 77 92 114
-4.74601 -3.11407 -1.76386 71 83 109
-4.75798 -3.10176 -1.76517 62 74 98
-4.7558 -3.08002 -1.76055 59 72 92
-4.77406 -3.06145 -1.76252 135 142 160
-4.78748 -3.05003 -1.76449 124 131 146
-4.79138 -3.03241 -1.76251 131 134 151
-4.8079 -3.02295 -1.7658 129 132 149
-4.82274 -3.00203 -1.76645 127 128 146
-4.82805 -2.98535 -1.76513 127 129 144
-5.39623 -2.39697 -1.80481 76 85 100
-5.41518 -2.37598 -1.80802 79 88 104
-5.42172 -2.35934 -1.80802 76 85 100
-5.63075 -2.14284 -1.82226 86 94 107
-5.66672 -2.13661 -1.83303 84 91 107
-5.97806 -1.60957 -1.81558 80 92 108
-5.98038 -1.5905 -1.81496 76 88 108
-6.22104 -1.32182 -1.82833 72 86 112
-6.22242 -1.30192 -1.82773 72 86 112
-6.7427 -0.418289 -1.80228 74 88 113
-6.80641 -0.357365 -1.80901 76 92 118
-6.94171 -0.156602 -1.80702 76 92 116
-7.03505 -0.0783828 -1.81732 128 143 162
-2.84499 -5.66308 -1.72947 81 80 88
-3.07599 -5.30329 -1.72722 75 92 118
-3.32999 -4.99544 -1.73566 82 99 129
-3.61992 -4.61592 -1.74535 78 95 125
-3.63798 -4.61123 -1.74788 77 94 124
-3.80177 -4.29154 -1.73342 74 92 123
-3.824 -4.29196 -1.73858 74 92 123
-4.2009 -3.71938 -1.73643 112 117 134
-4.22138 -3.71572 -1.74104 108 115 133
-4.23232 -3.69169 -1.73839 112 119 137
-4.24017 -3.6765 -1.73707 109 114 133
-4.27748 -3.68768 -1.7496 105 111 126
-4.298 -3.68363 -1.75422 116 119 137
-4.31011 -3.66055 -1.75223 123 130 149
-4.32493 -3.65135 -1.7542 66 75 99
-4.33831 -3.64084 -1.75551 66 78 105
-4.84288 -2.97467 -1.76776 128 131 146
-4.8607 -2.95554 -1.76973 126 128 143
-4.85783 -2.93382 -1.76511 127 126 140
-4.87414 -2.92395 -1.7684 127 126 142
-4.89337 -2.90558 -1.77104 125 124 141
-4.89188 -2.88485 -1.76707 124 127 141
-4.90648 -2.87381 -1.7697 126 132 146
-5.42133 -2.33958 -1.80543 78 88 99
-5.44004 -2.31837 -1.80865 76 84 99
-5.43774 -2.29785 -1.80542 79 85 100
-5.59751 -2.0812 -1.80514 106 108 117
-5.61734 -2.06896 -1.81021 113 111 115
-5.59794 -2.04241 -1.80133 100 94 95
-5.98266 -1.57142 -1.81434 75 87 109
-6.00564 -1.54793 -1.81988 75 87 109
-6.22946 -1.273 -1.82832 80 92 114
-6.75991 -0.402941 -1.80855 76 90 116
-6.74534 -0.385336 -1.80293 75 91 117
-6.80854 -0.336119 -1.80957 76 91 117
-6.92791 -0.113347 -1.80221 99 125 145
-7.03056 -0.0562995 -1.81623 131 142 162
-2.34922 -5.82322 -1.63036 110 108 113
-2.80794 -5.67234 -1.72717 80 78 88
-2.83277 -5.68169 -1.73296 83 82 91
-3.06022 -5.31218 -1.72723 77 94 120
-3.29913 -5.03086 -1.73998 87 104 134
-3.31802 -5.02777 -1.74244 81 98 128
-3.58109 -4.63645 -1.74283 77 94 126
-3.59805 -4.63041 -1.74472 79 96 126
-3.77957 -4.35845 -1.7457 72 91 123
-3.79355 -4.34878 -1.74634 70 90 122
-3.78479 -4.31123 -1.73472 71 90 122
-4.12371 -3.80632 -1.73647 120 123 142
-4.13472 -3.79401 -1.73647 120 125 144
-4.15025 -3.77418 -1.7358 117 124 142
-4.16391 -3.76437 -1.73711 119 124 141
-4.20096 -3.77639 -1.74965 115 121 138
-4.21639 -3.75626 -1.74898 111 117 135
-4.9243 -2.86463 -1.77366 132 135 152
-4.92706 -2.83637 -1.76969 126 132 148
-4.9497 -2.82989 -1.77562 129 132 148
-4.96418 -2.81857 -1.77826 131 134 149
-4.96994 -2.79209 -1.77561 129 133 145
-4.98269 -2.77972 -1.77759 133 139 151
-5.4562 -2.28638 -1.80993 78 84 98
-5.46246 -2.26959 -1.80993 83 88 100
-5.47393 -2.2451 -1.81057 79 86 100
-5.62481 -2.03264 -1.80893 97 91 93
-5.62443 -2.00316 -1.80576 95 93 94
-6.00409 -1.52782 -1.81803 82 92 109
-6.00249 -1.50773 -1.81618 76 87 108
-6.22693 -1.25234 -1.82652 78 90 112
-6.22809 -1.23243 -1.82592 71 86 109
-6.74939 -0.369023 -1.80431 84 101 127
-6.82451 -0.304732 -1.81403 71 85 111
-7.01071 -0.141499 -1.83214 81 97 122
-6.92924 -0.0962571 -1.80287 126 147 164
-2.30685 -5.81408 -1.62368 110 105 111
-2.32802 -5.81869 -1.62702 108 106 111
-2.79406 -5.68736 -1.72949 81 80 89
-3.04173 -5.31598 -1.72544 74 91 117
-3.26425 -5.04171 -1.73692 83 100 128
-3.28608 -5.04366 -1.74122 90 107 137
-3.51632 -4.65016 -1.73335 78 95 123
-3.54994 -4.66737 -1.74475 76 93 123
-3.56638 -4.64549 -1.7422 74 91 121
-3.70835 -4.36445 -1.73154 77 94 122
-3.72938 -4.36391 -1.73604 74 93 125
-3.75753 -4.37213 -1.74442 73 91 123
-4.06198 -3.87333 -1.73651 119 126 142
-4.0692 -3.85726 -1.73452 120 127 145
-4.09247 -3.85703 -1.74046 122 129 147
-4.0975 -3.82687 -1.73451 117 124 142
-4.11401 -3.8199 -1.73714 119 124 143
-4.99048 -2.76451 -1.77758 125 129 141
-5.00582 -2.74348 -1.77889 134 133 147
-5.0168 -2.73001 -1.78021 126 125 138
-5.02939 -2.71741 -1.78218 128 128 140
-5.4522 -2.21652 -1.80024 77 85 100
-5.46697 -2.20337 -1.80346 79 89 105
-5.4659 -2.17379 -1.79959 80 89 103
-5.6262 -1.98436 -1.80449 101 95 99
-5.63864 -1.96929 -1.80702 92 89 92
-6.02288 -1.4933 -1.82171 73 85 109
-6.22356 -1.21145 -1.82352 69 84 107
-6.75393 -0.344396 -1.80567 87 102 127
-6.74477 -0.327281 -1.80216 76 90 116
-6.82456 -0.283334 -1.81403 67 83 108
-6.92679 -0.0790828 -1.80217 127 141 161
-2.76656 -5.6958 -1.72835 85 83 94
-3.00346 -5.3412 -1.72665 77 91 117
-3.01666 -5.32744 -1.72485 72 88 114
-3.24702 -5.06567 -1.74062 82 98 126
-3.49828 -4.65434 -1.73082 78 95 122
-3.67806 -4.39453 -1.73284 74 91 121
-3.69795 -4.39266 -1.73671 76 95 125
-3.99783 -3.9265 -1.73324 126 133 151
-4.01402 -3.90731 -1.73257 119 126 144
-4.03066 -3.90073 -1.73521 122 129 145
-4.04065 -3.8874 -1.73454 124 131 147
-5.03215 -2.66999 -1.77557 78 85 101
-5.04791 -2.65905 -1.77886 66 74 94
-5.04534 -2.63831 -1.7749 75 86 109
-5.09351 -2.63443 -1.78941 73 85 107
-5.46657 -2.15481 -1.79765 83 90 106
-5.48119 -2.14151 -1.80087 83 89 103
-5.62717 -1.93616 -1.80004 95 92 90
-5.64488 -1.92284 -1.80447 98 94 91
-5.64459 -1.90342 -1.80257 100 96 95
-6.01424 -1.46151 -1.81678 74 86 110
-6.01979 -1.44326 -1.8174 74 86 108
-6.23767 -1.18388 -1.82651 71 86 109
-6.75425 -0.311223 -1.80563 75 89 115
-6.72302 -0.284787 -1.79371 68 84 109
-6.82071 -0.2618 -1.81291 75 89 115
-6.92998 -0.0534357 -1.8035 128 139 159
-6.91986 -0.0361865 -1.80008 128 139 159
-2.25682 -5.81128 -1.61811 112 109 112
-2.27973 -5.82152 -1.62313 110 105 109
-2.75102 -5.7072 -1.72951 82 80 91
-2.98581 -5.34648 -1.72546 77 92 116
-3.22152 -5.09259 -1.74372 83 98 127
-3.22428 -5.06189 -1.73571 83 98 127
-3.48652 -4.71251 -1.74415 79 96 126
-3.49706 -4.69758 -1.74224 82 99 129
-3.62989 -4.42902 -1.73158 76 92 125
-3.65444 -4.41903 -1.73415 74 93 125
-3.66628 -4.4068 -1.7335 73 91 122
-3.94694 -3.98087 -1.73393 121 128 144
-3.95819 -3.95647 -1.73062 119 128 143
-3.9736 -3.94879 -1.7326 123 128 147
-3.98638 -3.93834 -1.73325 125 132 150
-5.11422 -2.62582 -1.79469 72 84 108
-5.09977 -2.59891 -1.7861 70 82 106
-5.13119 -2.58578 -1.79402 74 86 108
-5.49031 -2.11617 -1.80086 82 89 105
-5.49254 -2.09786 -1.79957 84 91 107
-5.52288 -2.09056 -1.80859 75 82 93
-5.65254 -1.87697 -1.80256 91 86 92
-6.02527 -1.42499 -1.81801 75 87 109
-6.23299 -1.16292 -1.82411 75 86 112
-6.22072 -1.14065 -1.81931 73 87 113
-6.7118 -0.267778 -1.78949 75 90 116
-6.82101 -0.229716 -1.81291 79 94 117
-6.92472 -0.019113 -1.80209 126 137 159
-2.23762 -5.81185 -1.61644 107 105 108
-2.73167 -5.70977 -1.72778 79 77 88
-2.97162 -5.35846 -1.72667 78 93 117
-3.18793 -5.08833 -1.73695 80 95 124
-3.45037 -4.73647 -1.74353 78 93 122
-3.46944 -4.71809 -1.74225 77 94 124
-3.60377 -4.45019 -1.73159 79 95 128
-3.61457 -4.43661 -1.7303 75 91 124
-3.88633 -4.02477 -1.73 87 98 121
-3.90445 -4.02017 -1.7333 137 145 168
-3.93012 -4.01106 -1.73725 122 128 144
-3.93274 -3.98979 -1.73262 123 129 145
-5.1451 -2.57347 -1.79665 73 85 109
-5.14889 -2.55602 -1.79532 71 83 107
-5.15319 -2.52899 -1.79268 68 83 104
-5.17034 -2.5182 -1.79663 73 84 106
-5.16886 -2.49821 -1.79333 73 86 105
-5.53353 -2.06569 -1.80923 110 108 113
-5.53382 -2.0466 -1.80729 112 108 110
-5.66471 -1.86167 -1.80509 91 88 95
-5.66239 -1.84165 -1.80256 93 91 97
-6.03658 -1.3982 -1.81985 72 87 110
-6.04748 -1.38116 -1.82231 69 82 108
-6.27581 -1.12018 -1.8355 54 74 101
-6.74727 -0.252823 -1.80276 75 89 115
-6.82465 -0.208422 -1.81402 72 87 110
-2.70335 -5.71613 -1.72605 85 82 90
-2.92955 -5.37633 -1.72549 77 90 113
-2.95332 -5.38313 -1.73088 76 90 116
-3.15568 -5.10332 -1.73574 81 96 125
-3.17838 -5.10743 -1.74066 79 94 123
-3.41718 -4.74885 -1.74038 78 95 124
-3.43967 -4.75128 -1.74544 81 96 125
-3.56712 -4.47184 -1.72967 78 97 129
-3.5859 -4.46899 -1.73289 79 95 128
-3.8459 -4.06615 -1.73068 67 83 112
-3.85901 -4.05617 -1.73134 66 82 111
-3.87332 -4.03485 -1.72935 72 83 109
-5.18425 -2.48648 -1.79662 73 86 105
-5.19668 -2.46344 -1.79727 71 86 107
-5.20179 -2.44669 -1.79661 71 84 103
-5.51811 -2.02149 -1.79955 97 93 94
-5.54302 -2.01177 -1.80664 93 89 90
-5.6907 -1.83144 -1.81079 88 85 92
-5.67662 -1.79796 -1.80318 100 99 106
-6.04722 -1.36148 -1.82107 74 88 115
-6.22774 -1.09178 -1.8193 128 145 166
-6.22837 -1.07189 -1.8187 130 141 159
-6.81482 -0.186787 -1.81123 74 89 112
-2.21052 -5.81895 -1.61589 112 107 108
-2.67352 -5.74204 -1.72955 81 79 79
-2.6892 -5.73087 -1.72838 82 78 81
-2.93063 -5.41878 -1.7375 76 88 110
-3.14256 -5.13517 -1.74252 77 92 121
-3.38707 -4.78166 -1.74356 81 96 127
-3.40641 -4.76357 -1.74228 76 93 123
-3.54254 -4.51001 -1.73485 79 96 127
-3.55841 -4.48834 -1.73226 74 93 125
-3.80251 -4.10423 -1.73005 69 86 116
-3.81573 -4.09441 -1.7307 62 79 107
-3.82649 -4.06905 -1.72673 69 85 111
-5.21195 -2.43234 -1.79792 74 85 103
-5.22584 -2.40994 -1.79924 75 83 101
-5.23933 -2.39706 -1.80187 75 84 101
-5.56219 -1.99003 -1.8105 93 89 90
-5.56752 -1.97287 -1.8105 93 87 88
-5.54259 -1.94473 -1.79953 93 86 86
-5.68494 -1.78135 -1.80444 102 100 105
-5.71496 -1.77136 -1.81331 110 106 108
-6.05084 -1.33282 -1.82046 75 90 113
-6.04675 -1.31233 -1.81799 77 90 113
-6.22118 -1.04069 -1.8151 125 138 155
-6.76248 -0.228521 -1.80832 80 95 119
-6.74734 -0.211374 -1.8027 73 88 111
-2.17159 -5.81786 -1.612 101 96 96
-2.19017 -5.81571 -1.61311 109 104 103
-2.88989 -5.39896 -1.7261 78 89 111
-3.11095 -5.1515 -1.74192 75 92 118
-3.11622 -5.12423 -1.73514 75 91 118
-3.33073 -4.7588 -1.72646 84 99 128
-3.35202 -4.76005 -1.73089 82 97 128
-3.49816 -4.53466 -1.73229 71 90 122
-3.51591 -4.5306 -1.73487 74 90 123
-3.52482 -4.51418 -1.73228 77 93 125
-3.75134 -4.13322 -1.72545 72 89 119
-3.77849 -4.12657 -1.73006 69 86 114
-3.79053 -4.11542 -1.73006 67 84 113
-5.22536 -2.37154 -1.79395 80 87 100
-5.25787 -2.35758 -1.80252 78 83 94
-5.26435 -2.34143 -1.80252 83 86 97
-5.58107 -1.92986 -1.81049 93 89 86
-5.55948 -1.90317 -1.80081 95 91 88
-5.69327 -1.7358 -1.80317 106 104 102
-5.70867 -1.72124 -1.80697 104 102 106
-6.05738 -1.29514 -1.82045 70 85 111
-6.06241 -1.27668 -1.82106 69 85 110
-6.22919 -1.02203 -1.8169 129 140 158
-6.75086 -0.194908 -1.80408 76 91 114
-2.62499 -5.7485 -1.72551 76 71 77
-2.64511 -5.74809 -1.72782 76 71 75
-2.86272 -5.42573 -1.72972 80 91 113
-2.8755 -5.41066 -1.72731 78 89 111
-3.08923 -5.14874 -1.73762 75 92 118
-3.32007 -4.82113 -1.74169 78 95 125
-3.32902 -4.80347 -1.73851 82 99 129
-3.46422 -4.55999 -1.73231 76 93 126
-3.46895 -4.53752 -1.72714 77 96 128
-3.75156 -4.18395 -1.73867 66 83 113
-3.77234 -4.18292 -1.74328 71 88 118
-5.26562 -2.32295 -1.80053 84 86 97
-5.2737 -2.30753 -1.80119 84 88 99
-5.28533 -2.28397 -1.80184 83 87 98
-5.59487 -1.89661 -1.81177 89 85 86
-5.57606 -1.86144 -1.80209 87 85 88
-5.70924 -1.67342 -1.80316 77 78 96
-6.06007 -1.24678 -1.8186 69 85 110
-6.23713 -1.00334 -1.81869 128 139 157
-6.75271 -0.170062 -1.80475 73 89 113
-6.7033 -0.135855 -1.78652 75 91 117
-6.82728 -0.112114 -1.81513 91 114 132
-2.60634 -5.75238 -1.72436 80 75 79
-2.84384 -5.45 -1.73393 75 89 110
-3.04763 -5.16573 -1.73579 74 91 117
-3.07293 -5.17538 -1.74255 75 92 118
-3.30795 -4.83399 -1.74297 82 99 129
-3.41831 -4.56791 -1.72523 75 93 123
-3.44968 -4.5685 -1.73167 80 97 127
-3.70934 -4.22377 -1.73935 76 91 122
-3.72771 -4.22008 -1.74265 72 89 119
-3.73882 -4.20766 -1.74198 73 92 121
-5.30195 -2.27221 -1.80579 84 85 97
-5.31855 -2.26036 -1.80975 83 85 98
-5.30392 -2.22553 -1.8005 82 86 97
-5.62392 -1.85886 -1.81756 91 90 95
-5.61452 -1.83663 -1.8124 88 87 92
-5.76094 -1.66911 -1.81963 87 92 109
-6.0668 -1.22869 -1.81982 68 83 106
-6.05116 -1.20596 -1.81367 71 85 111
-6.22394 -0.971343 -1.81329 106 117 135
-6.22986 -0.952332 -1.81449 130 142 161
-6.75983 -0.153631 -1.80752 74 89 115
-6.83634 -0.0907755 -1.81792 127 148 162
-2.58984 -5.76152 -1.72494 89 83 87
-2.83089 -5.465 -1.73634 73 88 109
-3.04199 -5.19292 -1.74257 72 89 115
-3.2344 -4.83071 -1.72841 81 98 128
-3.26684 -4.85003 -1.73982 86 103 133
-3.28311 -4.84366 -1.74108 88 105 135
-3.39765 -4.59707 -1.72912 74 91 121
-3.40801 -4.5825 -1.72718 76 93 123
-3.66785 -4.26457 -1.7407 72 89 119
-3.67911 -4.25233 -1.74003 76 91 120
-3.69153 -4.24152 -1.74002 76 91 120
-5.32389 -2.21505 -1.80578 80 87 97
-5.33339 -2.20011 -1.80709 80 86 98
-5.32883 -2.16976 -1.80181 84 90 104
-5.61759 -1.81868 -1.81175 88 87 92
-5.61803 -1.79026 -1.80917 95 93 96
-5.77253 -1.65315 -1.82216 80 89 106
-5.75192 -1.61844 -1.81265 81 89 110
-6.05778 -1.17805 -1.81428 70 84 110
-6.22628 -0.931916 -1.81269 121 134 153
-6.76457 -0.120462 -1.80958 58 79 103
-2.55858 -5.76002 -1.7209 104 102 105
-2.80805 -5.45932 -1.73155 73 88 109
-3.00595 -5.18237 -1.73396 73 90 116
-3.22421 -4.84654 -1.73096 87 104 132
-3.35589 -4.61056 -1.72462 76 93 123
-3.37579 -4.61023 -1.72848 79 96 126
-3.63141 -4.28543 -1.73807 72 91 121
-3.65535 -4.2753 -1.74071 76 93 123
-5.33995 -2.15548 -1.80378 80 88 101
-5.36153 -2.14538 -1.80972 84 92 103
-5.62993 -1.77522 -1.81174 98 93 97
-5.63641 -1.75839 -1.81238 100 96 97
-5.77253 -1.60494 -1.81835 72 83 104
-5.7748 -1.58638 -1.81771 74 84 107
-6.07548 -1.16212 -1.8192 72 86 113
-6.21132 -0.909915 -1.80729 117 129 150
-6.75484 -0.0953677 -1.80605 125 149 164
-6.83582 -0.0585858 -1.81792 128 140 159
-2.54412 -5.77435 -1.72322 107 102 106
-2.79017 -5.46388 -1.73036 72 87 108
-2.97494 -5.19947 -1.73398 77 93 119
-3.00183 -5.21287 -1.74197 75 92 120
-3.18413 -4.86343 -1.72844 81 98 126
-3.20439 -4.8638 -1.73223 79 96 125
-3.33069 -4.63307 -1.72593 76 93 123
-3.34747 -4.62814 -1.72785 76 93 123
-3.58338 -4.31794 -1.73612 76 92 123
-3.60975 -4.31106 -1.74007 70 89 121
-3.62589 -4.3049 -1.74204 69 88 120
-5.35509 -2.12398 -1.80509 85 93 106
-5.33605 -2.08817 -1.79453 78 85 100
-5.35045 -2.07516 -1.79782 89 93 104
-5.63652 -1.72994 -1.8098 103 101 99
-5.78251 -1.56927 -1.81897 73 84 104
-6.07636 -1.14283 -1.81858 72 87 110
-6.20523 -0.879305 -1.80428 130 142 164
-6.75426 -0.0787441 -1.80603 127 143 158
-6.84085 -0.0371325 -1.81959 126 137 157
-2.52198 -5.76904 -1.71918 104 99 105
-2.74578 -5.47674 -1.72797 75 88 107
-2.76531 -5.47578 -1.73037 75 88 105
-2.95552 -5.22063 -1.73706 81 93 119
-3.16981 -4.87267 -1.72845 81 97 123
-3.31487 -4.6554 -1.72916 78 95 125
-3.56031 -4.34179 -1.73745 77 94 124
-3.57418 -4.33286 -1.73811 72 89 119
-5.35254 -2.05732 -1.7965 114 112 116
-5.35598 -2.03055 -1.79451 107 98 99
-5.65367 -1.71646 -1.81431 104 103 107
-5.6383 -1.6928 -1.80721 128 127 136
-5.79074 -1.54258 -1.8196 76 89 108
-5.79647 -1.52492 -1.82023 75 88 107
-6.08828 -1.11583 -1.82104 74 94 119
-6.08902 -1.0965 -1.82042 75 96 122
-6.24106 -0.864343 -1.81508 133 144 166
-6.21642 -0.841235 -1.80668 135 146 168
-6.75735 -0.0621403 -1.80741 129 141 160
-6.83624 -0.0156586 -1.81847 125 138 157
-2.49219 -5.77072 -1.71629 115 110 114
-2.72867 -5.48281 -1.72738 74 86 106
-2.93563 -5.22056 -1.73399 81 93 117
-3.12861 -4.88744 -1.72529 80 95 124
-3.142 -4.87672 -1.72465 81 96 125
-3.28119 -4.66493 -1.72531 78 95 125
-3.29495 -4.65543 -1.7253 77 94 124
-3.52228 -4.36014 -1.73417 74 93 124
-3.53962 -4.35584 -1.7368 74 91 121
-5.38435 -2.0227 -1.80309 105 98 102
-5.37213 -1.99949 -1.79648 98 89 94
-5.37172 -1.97137 -1.79317 95 89 90
-5.63989 -1.66497 -1.80527 85 85 100
-5.6424 -1.64696 -1.80462 82 89 105
-5.78748 -1.50347 -1.81579 72 86 107
-6.0953 -1.0782 -1.82165 125 142 159
-6.22133 -0.812124 -1.80728 120 130 155
-6.76232 -0.0371944 -1.80947 129 140 160
-2.47015 -5.7652 -1.71224 108 103 107
-2.70529 -5.49788 -1.72859 76 84 103
-2.90441 -5.23721 -1.73401 74 88 114
-2.93111 -5.25099 -1.74201 82 94 120
-3.11907 -4.90463 -1.72847 80 95 124
-3.24723 -4.69007 -1.72597 79 96 126
-3.26513 -4.68707 -1.72854 78 95 125
-3.49779 -4.38211 -1.73484 72 91 121
-3.5197 -4.38393 -1.74012 72 91 121
-4.24386 -3.40126 -1.75716 71 88 114
-4.24936 -3.38476 -1.75511 74 90 115
-4.27503 -3.38501 -1.76259 76 88 114
-4.27413 -3.35241 -1.7551 71 87 113
-4.29691 -3.35008 -1.76121 73 87 114
-4.29925 -3.3311 -1.75781 73 87 113
-4.32432 -3.31968 -1.76256 73 89 114
-4.32801 -3.30184 -1.75984 73 87 113
-4.33308 -3.28517 -1.75779 72 86 112
-4.35139 -3.27893 -1.76187 73 88 111
-4.37633 -3.26711 -1.76662 71 85 111
-4.37086 -3.24228 -1.75981 75 89 115
-4.39059 -3.23696 -1.76457 72 86 112
-4.40048 -3.21346 -1.76252 75 87 111
-4.41719 -3.2057 -1.76592 72 86 112
-4.43088 -3.1956 -1.76795 69 83 110
-4.44656 -3.17642 -1.76862 71 87 112
-4.44811 -3.15727 -1.76522 72 87 110
-4.45717 -3.14369 -1.76521 71 87 110
-4.47565 -3.12657 -1.76725 73 85 111
-4.48003 -3.10959 -1.7652 74 88 114
-4.49197 -3.09809 -1.76656 50 60 87
-4.51766 -3.09634 -1.77403 104 112 133
-4.51293 -3.06262 -1.76587 136 142 158
-4.52782 -3.05313 -1.76858 130 133 149
-4.53501 -3.0382 -1.76789 132 137 151
-4.54842 -3.01738 -1.76789 129 134 153
-4.56631 -3.00982 -1.77196 128 134 150
-4.56714 -2.99056 -1.76856 126 133 149
-4.56949 -2.90361 -1.7529 127 129 144
-5.38761 -1.95868 -1.79713 91 90 87
-5.37866 -1.93694 -1.79185 93 90 89
-5.65029 -1.63057 -1.80591 79 88 106
-5.67988 -1.62055 -1.81493 84 92 110
-5.81379 -1.48134 -1.82276 74 86 108
-5.81014 -1.46129 -1.82022 74 86 108
-6.09011 -1.04802 -1.81857 124 135 153
-6.2154 -0.791608 -1.80487 127 139 162
-6.6079 -0.203092 -1.80124 71 85 111
-6.58343 -0.186078 -1.79188 71 83 109
-6.75781 -0.0205435 -1.80805 127 138 158
-2.45423 -5.7757 -1.71341 104 99 103
-2.69043 -5.50903 -1.7298 82 90 104
-2.88468 -5.25808 -1.7371 74 88 114
-3.08155 -4.92546 -1.72785 75 92 118
-3.09313 -4.91162 -1.72594 77 94 120
-3.23336 -4.69941 -1.72598 78 95 125
-3.45554 -4.42206 -1.73685 78 95 125
-3.46737 -4.41047 -1.73618 75 92 122
-3.48255 -4.40339 -1.73749 79 96 126
-4.11703 -3.53831 -1.75246 71 86 115
-4.13287 -3.53085 -1.75517 69 84 113
-4.13609 -3.51209 -1.75177 71 86 115
-4.15879 -3.49948 -1.75516 71 88 114
-4.17456 -3.49182 -1.75787 71 88 113
-4.19034 -3.48409 -1.76059 71 88 114
-4.20445 -3.46378 -1.7599 72 87 114
-4.20733 -3.44491 -1.7565 70 87 114
-4.21014 -3.42605 -1.75309 70 87 114
-4.22433 -3.4169 -1.75512 71 88 115
-4.59123 -2.9769 -1.77331 125 131 145
-4.59346 -2.95866 -1.77059 124 130 144
-4.60032 -2.94355 -1.7699 128 131 146
-4.60587 -2.89799 -1.76309 125 129 142
-4.60623 -2.87876 -1.75969 127 131 145
-4.6207 -2.8687 -1.7624 125 128 145
-4.6349 -2.84844 -1.76308 129 131 147
-4.65884 -2.84425 -1.76987 129 131 146
-4.67325 -2.83395 -1.77259 130 135 150
-5.38559 -1.92097 -1.7925 96 93 94
-5.40077 -1.89854 -1.79514 97 91 94
-5.69382 -1.59625 -1.8175 76 87 109
-5.69975 -1.57913 -1.81814 78 91 108
-5.82117 -1.44488 -1.82275 74 86 108
-5.82329 -1.41662 -1.82148 70 83 107
-6.09998 -1.03033 -1.82103 127 138 156
-6.10231 -1.0113 -1.82103 127 138 156
-6.23022 -0.773626 -1.80907 118 130 153
-6.58338 -0.162165 -1.79185 73 89 114
-6.76073 -0.00388024 -1.80943 127 138 157
-2.42251 -5.77163 -1.70878 105 103 104
-2.67479 -5.51839 -1.73041 103 108 120
-2.8648 -5.25771 -1.73403 74 88 114
-3.04779 -4.93501 -1.7247 76 93 119
-3.06514 -4.93109 -1.72659 75 92 118
-3.19812 -4.72255 -1.72599 76 93 123
-3.21108 -4.71172 -1.72534 80 97 127
-3.42787 -4.4264 -1.73224 79 96 127
-4.04057 -3.62204 -1.75114 73 87 116
-4.04696 -3.60598 -1.74909 71 86 115
-4.0686 -3.59272 -1.7518 72 87 116
-4.08178 -3.58295 -1.75316 72 87 116
-4.09495 -3.57314 -1.75451 71 86 115
-4.10532 -3.56074 -1.75451 71 86 115
-4.68251 -2.81043 -1.77122 128 134 150
-4.69366 -2.79803 -1.77257 127 136 149
-4.70317 -2.78459 -1.77325 132 138 152
-4.71424 -2.77209 -1.7746 130 136 152
-4.72641 -2.75035 -1.7746 129 136 152
-4.73416 -2.73582 -1.77459 132 138 154
-5.40938 -1.88312 -1.79645 95 91 92
-5.43218 -1.87257 -1.80305 92 90 95
-5.69652 -1.55941 -1.81556 71 86 105
-5.82864 -1.39879 -1.82211 72 85 109
-5.79518 -1.37193 -1.80943 72 84 106
-6.10087 -0.991636 -1.81979 134 142 161
-6.22347 -0.74311 -1.80607 127 137 162
-6.59977 -0.14678 -1.79829 70 86 112
-2.38401 -5.77433 -1.70532 109 105 106
-2.40128 -5.76763 -1.70531 111 107 108
-2.64354 -5.51577 -1.72561 111 109 118
-2.85902 -5.28636 -1.74142 74 88 114
-3.02556 -4.94817 -1.72471 78 95 123
-3.17014 -4.74085 -1.72601 70 86 116
-3.18219 -4.7285 -1.72471 73 89 119
-3.4128 -4.46156 -1.73885 79 98 130
-3.42587 -4.45163 -1.73885 79 98 130
-3.92352 -3.68806 -1.73554 117 126 142
-3.92755 -3.66965 -1.73214 115 122 138
-3.9856 -3.67003 -1.74776 117 123 140
-4.00303 -3.66451 -1.75116 134 141 159
-4.01639 -3.65502 -1.75251 92 101 121
-4.04092 -3.64456 -1.75658 66 81 105
-4.75317 -2.72798 -1.77935 124 129 143
-4.76351 -2.70509 -1.77866 125 127 140
-4.7657 -2.66823 -1.77322 92 94 110
-4.80344 -2.66115 -1.78409 66 72 93
-5.42039 -1.84072 -1.79578 88 86 97
-5.42526 -1.82398 -1.79578 91 88 97
-5.70109 -1.53242 -1.81491 75 87 109
-5.72141 -1.51925 -1.82071 78 89 110
-5.83366 -1.3618 -1.82147 73 85 107
-6.10273 -0.962773 -1.81917 92 103 123
-6.22247 -0.703491 -1.80487 112 114 139
-2.35958 -5.76117 -1.69895 103 99 100
-2.61288 -5.5359 -1.72743 111 110 118
-2.62785 -5.52499 -1.72622 107 105 114
-2.81739 -5.30305 -1.74021 71 85 111
-2.82338 -5.27447 -1.73281 72 88 113
-2.99546 -4.9639 -1.72409 76 91 120
-3.00911 -4.95359 -1.72345 78 95 123
-3.14865 -4.75446 -1.72602 80 95 124
-3.37843 -4.48464 -1.73821 80 97 127
-3.38942 -4.47175 -1.73688 77 96 128
-3.87172 -3.73816 -1.73421 116 121 140
-3.88922 -3.73318 -1.7376 120 125 144
-3.92788 -3.74944 -1.75187 117 123 139
-3.9194 -3.70648 -1.73895 118 125 143
-3.9852 -3.70376 -1.75593 113 118 131
-4.81908 -2.651 -1.78748 73 88 109
-4.82651 -2.63616 -1.78748 72 84 106
-4.84375 -2.6268 -1.79155 75 87 109
-4.86178 -2.60805 -1.79427 71 83 105
-5.45152 -1.81437 -1.80369 103 102 106
-5.44655 -1.78498 -1.79907 98 97 102
