-6.7087 -2.86964 -1.81225 74 81 92
-6.71948 -2.83764 -1.81172 76 80 89
-7.19961 -2.25204 -1.82267 71 80 97
-7.19844 -2.22726 -1.82062 73 82 96
-7.22272 -2.19814 -1.82471 73 82 99
-7.59949 -1.68277 -1.82593 73 84 102
-8.63338 -0.284896 -1.84326 75 89 115
-3.10013 -6.49522 -1.58191 135 132 138
-3.48291 -6.04741 -1.59687 136 132 137
-3.49824 -6.03206 -1.59539 139 135 136
-4.22188 -5.95456 -1.74021 132 123 114
-4.24724 -5.95319 -1.74379 128 118 109
-4.7434 -5.45934 -1.78089 103 102 101
-4.75964 -5.44506 -1.78089 118 116 121
-4.77585 -5.43073 -1.78089 139 137 140
-4.80174 -5.4106 -1.78142 143 138 142
-5.62381 -4.31969 -1.80126 71 80 95
-5.64477 -4.29522 -1.8018 70 79 94
-5.6559 -4.27685 -1.80125 75 82 98
-5.67603 -4.26557 -1.80397 71 80 97
-5.69463 -4.25301 -1.80614 70 79 96
-5.70617 -4.22113 -1.80342 71 80 95
-5.71703 -4.20259 -1.80287 71 80 95
-5.74008 -4.19332 -1.80667 68 77 92
-5.75434 -4.1636 -1.80504 74 83 100
-5.76962 -4.14837 -1.80613 74 83 98
-5.78487 -4.13308 -1.80721 73 82 97
-5.805 -4.10775 -1.80775 75 84 101
-5.80927 -4.08438 -1.80503 76 85 102
-5.8228 -4.06779 -1.80557 74 83 98
-5.85187 -4.06239 -1.81155 76 85 100
-5.85603 -4.02554 -1.80665 72 84 100
-5.85996 -4.00211 -1.80393 73 85 101
-5.8811 -3.99086 -1.80719 74 83 100
-5.89742 -3.96282 -1.80665 71 80 95
-5.91532 -3.94918 -1.80882 71 80 95
-5.92845 -3.9322 -1.80936 75 84 99
-6.72216 -2.81453 -1.81013 80 84 95
-6.73897 -2.79736 -1.81277 78 81 96
-6.74686 -2.77642 -1.81276 77 81 93
-7.23057 -2.17617 -1.82522 72 81 96
-7.23467 -2.15304 -1.8247 73 82 97
-7.61782 -1.6494 -1.82889 75 88 105
-7.63158 -1.62747 -1.83136 75 86 105
-8.64314 -0.258109 -1.84551 86 100 126
-3.08114 -6.50593 -1.58239 142 137 143
-3.42884 -6.05743 -1.59242 136 134 139
-3.46659 -6.06101 -1.59787 134 131 137
-4.12921 -5.95287 -1.72588 131 119 113
-4.15021 -5.94542 -1.72741 130 119 113
-4.18187 -5.954 -1.73407 130 119 113
-4.68211 -5.50442 -1.77931 115 112 119
-4.6985 -5.49034 -1.77931 115 113 116
-4.71239 -5.47325 -1.77825 99 98 93
-5.42227 -4.56847 -1.8002 69 81 97
-5.45159 -4.55138 -1.80346 68 77 94
-5.45921 -4.52982 -1.80128 69 78 95
-5.47696 -4.51702 -1.80291 70 79 96
-5.49296 -4.48834 -1.80128 69 78 95
-5.50033 -4.4667 -1.7991 72 82 98
-5.52086 -4.4562 -1.80182 69 81 97
-5.52515 -4.43204 -1.79856 71 83 99
-5.55993 -4.41912 -1.80399 69 81 97
-5.55812 -4.39001 -1.79855 70 82 98
-5.577 -4.37799 -1.80072 71 83 99
-5.59972 -4.35498 -1.80181 69 81 97
-5.61405 -4.33916 -1.80235 65 74 91
-5.93675 -3.91192 -1.80827 75 84 99
-5.96223 -3.89008 -1.81098 73 82 97
-5.96084 -3.86328 -1.80663 72 81 96
-5.99447 -3.86 -1.81424 73 82 99
-6.00213 -3.82613 -1.81097 73 82 97
-6.00365 -3.80144 -1.80771 74 83 100
-6.01955 -3.78622 -1.80934 74 83 100
-6.04295 -3.76275 -1.81151 74 83 100
-6.062 -3.74944 -1.81422 73 82 99
-6.07452 -3.73191 -1.81476 73 82 97
-6.074 -3.70613 -1.81096 70 82 98
-6.09056 -3.67822 -1.81095 72 81 96
-6.09961 -3.65855 -1.81041 74 83 98
-6.7661 -2.74787 -1.81487 74 80 92
-6.77203 -2.72613 -1.81434 74 82 93
-6.77254 -2.70223 -1.81222 74 80 92
-7.26272 -2.13711 -1.83084 69 78 93
-7.24037 -2.09381 -1.82213 76 85 102
-7.24791 -2.07174 -1.82264 75 84 101
-7.6396 -1.60429 -1.83235 78 89 109
-7.64052 -1.56714 -1.83086 76 87 105
-8.64112 -0.230977 -1.84505 84 96 120
-3.06058 -6.51299 -1.58192 161 157 154
-3.39154 -6.07571 -1.59193 134 131 138
-3.41156 -6.06917 -1.59292 136 133 140
-4.03396 -5.94492 -1.71 134 120 111
-4.06321 -5.95082 -1.71564 132 118 109
-4.08837 -5.9501 -1.71922 130 117 108
-4.62399 -5.55325 -1.77932 119 117 121
-4.63569 -5.53337 -1.7772 121 119 124
-4.6596 -5.51098 -1.77667 118 115 124
-5.29768 -4.71434 -1.80022 70 79 96
-5.30175 -4.68917 -1.79641 71 80 97
-5.33288 -4.67419 -1.80022 72 80 98
-5.34386 -4.65547 -1.79913 71 79 98
-5.36334 -4.64445 -1.8013 72 80 99
-5.38005 -4.61622 -1.79967 75 87 103
-5.39943 -4.60505 -1.80184 74 83 100
-5.41159 -4.58741 -1.80129 69 81 97
-6.12167 -3.64692 -1.81421 75 84 99
-6.13139 -3.61477 -1.81203 74 83 98
-6.15338 -3.60295 -1.81583 75 84 99
-6.16053 -3.5821 -1.81474 75 84 99
-6.16494 -3.54688 -1.81094 74 84 96
-6.1901 -3.53677 -1.81582 74 84 96
-6.19204 -3.51293 -1.8131 74 84 96
-6.20222 -3.49393 -1.8131 74 84 96
-6.21776 -3.46537 -1.8131 72 81 96
-6.7825 -2.66994 -1.81169 75 81 93
-6.80074 -2.65305 -1.81486 74 82 93
-6.81356 -2.63399 -1.81644 75 83 94
-6.80294 -2.60592 -1.81115 74 82 93
-7.27206 -2.05446 -1.82776 75 84 101
-7.65783 -1.54579 -1.83432 76 87 105
-8.64712 -0.190465 -1.8464 75 89 115
-3.00984 -6.53304 -1.58145 136 133 140
-3.03194 -6.52973 -1.58286 155 150 155
-3.36466 -6.09226 -1.59243 136 134 139
-3.97452 -5.9517 -1.70284 137 125 113
-4.00162 -5.95461 -1.70744 134 121 110
-4.56295 -5.59838 -1.77827 122 120 125
-4.58083 -5.58621 -1.77879 119 117 121
-4.61101 -5.5716 -1.7809 120 119 125
-5.18675 -4.81446 -1.79589 70 79 96
-5.20302 -4.78561 -1.79371 70 79 96
-5.22414 -4.77655 -1.79643 78 87 102
-5.19793 -4.72232 -1.78067 75 87 101
-5.22028 -4.71454 -1.78392 74 83 100
-5.28087 -4.72769 -1.79914 70 78 97
-6.22612 -3.44534 -1.81255 75 84 99
-6.2578 -3.43856 -1.81961 72 81 96
-6.26973 -3.40785 -1.81852 74 84 96
-6.26613 -3.38111 -1.81417 73 83 95
-6.28261 -3.36559 -1.81634 73 83 95
-6.28726 -3.34351 -1.81471 74 84 96
-6.82506 -2.57825 -1.81432 73 81 94
-6.83407 -2.5577 -1.81484 73 81 94
-6.83577 -2.53443 -1.81325 73 81 94
-7.33649 -2.03616 -1.84312 73 84 102
-7.2974 -2.00076 -1.83082 43 55 69
-7.28419 -1.97282 -1.8257 142 147 151
-7.65618 -1.49583 -1.83184 89 97 115
-8.6449 -0.163333 -1.84595 78 92 118
-8.65037 -0.136311 -1.8473 78 92 118
-2.98996 -6.54166 -1.58145 136 133 140
-3.3201 -6.09633 -1.58797 136 131 138
-3.34103 -6.09176 -1.58946 137 135 140
-3.91646 -5.93895 -1.69157 138 124 111
-3.94851 -5.95031 -1.69874 135 123 109
-4.52062 -5.63235 -1.77827 122 117 113
-4.55214 -5.61961 -1.78091 122 118 121
-5.08734 -4.92547 -1.79699 105 104 120
-5.10021 -4.8929 -1.79318 88 86 100
-5.12288 -4.88569 -1.79644 88 88 99
-5.13465 -4.86753 -1.79535 101 106 119
-5.16217 -4.84968 -1.79752 74 80 96
-5.17519 -4.83276 -1.79698 73 80 96
-6.30716 -3.31728 -1.81634 73 83 95
-6.33363 -3.30702 -1.82177 72 81 96
-6.32958 -3.2803 -1.81742 71 78 94
-6.34072 -3.2493 -1.81633 72 79 95
-6.35517 -3.23249 -1.81795 70 78 91
-6.36103 -3.21117 -1.81686 69 77 90
-6.84312 -2.50119 -1.81219 72 80 91
-6.86638 -2.48579 -1.81694 72 80 91
-7.29812 -1.94019 -1.82723 126 127 129
-7.31638 -1.92089 -1.83081 123 123 123
-7.6813 -1.46331 -1.83678 86 95 110
-7.66789 -1.43602 -1.83232 85 94 109
-8.6462 -0.0956017 -1.84639 78 92 118
-2.95748 -6.54906 -1.58003 141 138 147
-3.30706 -6.11634 -1.59095 135 133 138
-3.84055 -5.95759 -1.68492 138 126 114
-3.86039 -5.94954 -1.68594 137 125 113
-3.88626 -5.9513 -1.69004 137 123 112
-4.46883 -5.67112 -1.77775 121 117 118
-4.49509 -5.67 -1.78197 120 118 121
-4.51082 -5.65501 -1.78144 120 119 117
-4.95512 -4.98618 -1.78233 76 74 87
-4.97125 -4.97267 -1.78287 81 77 91
-4.99798 -4.97023 -1.78776 90 86 100
-5.03786 -4.96564 -1.79482 103 102 115
-5.05394 -4.95185 -1.79536 106 105 119
-5.06731 -4.93525 -1.79481 101 103 118
-6.39062 -3.18973 -1.82175 73 79 93
-6.37924 -3.15958 -1.81523 75 81 93
-6.40371 -3.14777 -1.82011 75 79 90
-6.41445 -3.12893 -1.82065 76 80 91
-6.85877 -2.45922 -1.81271 73 81 92
-6.89117 -2.43488 -1.81905 73 81 93
-6.87793 -2.40644 -1.81323 71 79 92
-7.31593 -1.89654 -1.82927 123 123 125
-7.66005 -1.37273 -1.82786 89 101 122
-8.64368 -0.068484 -1.84593 84 97 121
-2.91974 -6.57133 -1.58145 139 137 141
-2.93972 -6.56294 -1.58145 140 137 144
-3.25721 -6.13337 -1.58897 138 133 140
-3.27038 -6.11347 -1.586 137 133 139
-3.77276 -5.9475 -1.67314 137 125 113
-3.80044 -5.95295 -1.67826 136 124 112
-4.41347 -5.72369 -1.77986 121 115 115
-4.42711 -5.70586 -1.77828 121 115 117
-4.44643 -5.6957 -1.77933 123 117 121
-4.89526 -5.06112 -1.7856 66 66 82
-4.90509 -5.04077 -1.78342 72 75 90
-4.91353 -5.01899 -1.7807 85 87 100
-4.93633 -5.01265 -1.78396 77 77 89
-6.42484 -3.09759 -1.81956 74 81 91
-6.44575 -3.08377 -1.82337 77 81 92
-6.44939 -3.06139 -1.82173 79 83 95
-6.47501 -3.03744 -1.82553 74 80 94
-6.86638 -2.37873 -1.80795 71 80 95
-6.89116 -2.36358 -1.81323 71 80 95
-7.33823 -1.84173 -1.83182 128 127 135
-7.30757 -1.8098 -1.82209 72 76 94
-7.69209 -1.35358 -1.83528 76 88 111
-7.69735 -1.32972 -1.83577 76 90 115
-8.63133 -0.0413623 -1.84322 86 98 120
-2.89689 -6.57242 -1.57956 138 136 141
-3.23536 -6.1359 -1.58699 138 135 142
-3.72438 -5.94791 -1.66649 137 124 113
-3.75295 -5.95524 -1.67212 137 125 113
-4.36678 -5.75175 -1.77828 118 114 115
-4.38053 -5.73405 -1.7767 118 113 116
-4.85336 -5.12506 -1.79049 97 94 105
-4.85186 -5.09195 -1.78343 105 103 114
-4.86442 -5.07454 -1.78234 76 75 89
-6.48367 -3.0175 -1.82553 78 82 95
-6.49053 -2.9967 -1.82498 77 81 93
-6.51418 -2.97159 -1.82824 73 79 91
-6.50348 -2.94258 -1.82226 77 83 94
-6.50835 -2.92093 -1.82117 74 81 91
-6.91594 -2.33629 -1.81745 70 79 94
-6.90775 -2.30987 -1.81322 69 78 93
-6.92324 -2.29137 -1.81586 70 79 94
-7.33108 -1.79162 -1.8272 77 88 106
-7.33296 -1.75585 -1.82566 76 87 105
-7.70839 -1.29436 -1.83725 71 86 109
-8.64226 -0.0142778 -1.84592 74 86 109
-2.86363 -6.57753 -1.57768 135 132 141
-3.18544 -6.1523 -1.58501 135 132 139
-3.21069 -6.15691 -1.58897 135 132 139
-3.63939 -5.94727 -1.65471 131 118 110
-3.66872 -5.95667 -1.66086 136 123 115
-3.6856 -5.9442 -1.66034 137 124 115
-4.3026 -5.79224 -1.7767 129 120 121
-4.32437 -5.78567 -1.77881 119 113 115
-4.3473 -5.76162 -1.77723 120 116 117
-4.75916 -5.17825 -1.78343 121 115 125
-4.78651 -5.16118 -1.78506 117 111 115
-4.80314 -5.14828 -1.7856 112 111 117
-4.82486 -5.14106 -1.78832 106 106 116
-6.51666 -2.90087 -1.82116 76 83 93
-6.53641 -2.87389 -1.82333 78 82 94
-6.5428 -2.85295 -1.82279 78 81 96
-6.92942 -2.25781 -1.8148 68 77 92
-6.93743 -2.2368 -1.81532 72 81 96
-6.93806 -2.21342 -1.81373 71 80 95
-7.34696 -1.73518 -1.82822 76 87 104
-7.34401 -1.71041 -1.82617 77 89 105
-7.67528 -1.26426 -1.82784 75 87 109
-7.68983 -1.24194 -1.8308 78 90 112
-7.93373 -0.890821 -1.83019 76 88 112
-2.82356 -6.59377 -1.57768 137 134 142
-2.8436 -6.58568 -1.57768 137 134 143
-3.17032 -6.1685 -1.58699 138 133 141
-3.61029 -5.95984 -1.65369 128 115 107
-4.26786 -5.81773 -1.77671 124 119 116
-4.28192 -5.8003 -1.77512 125 120 117
-4.71762 -5.22656 -1.78561 85 85 97
-4.73195 -5.21099 -1.78507 88 88 96
-4.75375 -5.20409 -1.78778 108 108 114
-6.55792 -2.8359 -1.82496 73 79 93
-6.57915 -2.80941 -1.82767 73 81 94
-6.57478 -2.78373 -1.82386 70 78 91
-6.58795 -2.76573 -1.82549 73 79 91
-6.95121 -2.18212 -1.81478 74 83 98
-6.96819 -2.16386 -1.81795 75 83 99
-7.36353 -1.69096 -1.83026 75 86 103
-7.69285 -1.21775 -1.8308 77 89 111
-7.94893 -0.872273 -1.83425 80 91 115
-7.94833 -0.841116 -1.8331 75 89 115
-2.79098 -6.60031 -1.57627 135 132 142
-3.12185 -6.18784 -1.58601 138 135 142
-3.14292 -6.18399 -1.58749 139 136 143
-3.5567 -5.9488 -1.64396 115 105 98
-3.57924 -5.94679 -1.64652 130 118 109
-4.22163 -5.8461 -1.77565 115 105 104
-4.24461 -5.84144 -1.77829 126 118 116
-4.62847 -5.28452 -1.78127 129 127 132
-4.66112 -5.27409 -1.78508 70 70 80
-4.66697 -5.24838 -1.78073 86 86 96
-4.69625 -5.25058 -1.7867 95 93 106
-5.37273 -4.31777 -1.79921 69 80 98
-5.38688 -4.30267 -1.79977 68 79 97
-5.41662 -4.28656 -1.80367 70 81 99
-5.42021 -4.26288 -1.80032 71 83 99
-5.43422 -4.2476 -1.80088 71 83 99
-5.44726 -4.21803 -1.79864 71 83 99
-5.47165 -4.21096 -1.80311 69 81 97
-5.47341 -4.18604 -1.79919 70 82 98
-5.47808 -4.16349 -1.7964 70 82 98
-5.50889 -4.14784 -1.80086 70 82 98
-5.52254 -4.13223 -1.80142 70 82 98
-5.52698 -4.10961 -1.79863 72 81 96
-5.55151 -4.08896 -1.80086 68 77 94
-5.56345 -4.07204 -1.80085 70 79 96
-5.57841 -4.05738 -1.80197 73 82 97
-5.59796 -4.04607 -1.80476 71 80 97
-5.61298 -4.01819 -1.80364 75 84 99
-5.61383 -3.99318 -1.79973 76 85 102
-5.63479 -3.98279 -1.80307 72 81 98
-5.65262 -3.95699 -1.80307 72 81 98
-5.67352 -3.9464 -1.80642 69 78 93
-5.6756 -3.92244 -1.80307 73 82 97
-5.70257 -3.90302 -1.80641 73 82 99
-5.71865 -3.88889 -1.80809 72 81 98
-5.72206 -3.86597 -1.80529 72 81 98
-5.73489 -3.84957 -1.80585 73 82 97
-5.75841 -3.82757 -1.80808 74 83 98
-5.76316 -3.80568 -1.80584 72 81 96
-5.779 -3.79126 -1.80752 73 82 97
-5.7975 -3.76579 -1.80807 72 81 96
-5.81643 -3.75332 -1.81086 72 81 96
-5.8209 -3.73133 -1.80862 74 83 98
-5.81979 -3.69315 -1.80248 73 82 97
-6.61164 -2.75222 -1.83038 75 82 92
-6.61661 -2.7186 -1.8282 75 82 92
-6.6296 -2.7004 -1.82983 75 82 92
-6.95751 -2.13706 -1.81319 70 78 91
-6.9707 -2.11759 -1.8153 72 82 94
-7.37431 -1.65726 -1.83128 74 85 103
-7.36921 -1.63206 -1.82871 76 89 106
-7.37534 -1.60941 -1.82922 76 89 107
-7.68235 -1.17915 -1.82683 71 83 109
-7.71196 -1.15891 -1.83376 73 85 109
-7.96716 -0.822908 -1.83832 75 91 114
-7.9537 -0.800484 -1.83368 76 91 114
-2.77224 -6.61188 -1.57721 137 134 145
-3.08545 -6.20757 -1.5865 138 133 140
-3.09999 -6.18985 -1.58403 137 133 140
-3.47346 -5.94749 -1.6327 141 135 132
-3.50051 -5.95428 -1.63782 130 122 118
-3.52115 -5.94911 -1.63936 112 102 98
-4.17955 -5.88045 -1.77671 114 106 103
-4.20631 -5.86179 -1.77671 118 108 106
-4.58343 -5.34597 -1.78617 137 135 134
-4.60775 -5.32543 -1.78617 154 152 155
-4.62365 -5.31167 -1.78617 145 144 147
-5.22084 -4.50105 -1.79868 68 79 99
-5.23407 -4.48523 -1.79867 68 79 97
-5.25425 -4.46143 -1.79867 69 81 97
-5.26301 -4.44174 -1.79699 67 79 95
-5.27896 -4.42829 -1.79811 69 77 96
-5.30617 -4.41049 -1.8009 74 86 102
-5.31473 -4.39067 -1.79922 70 81 99
-5.32908 -4.37578 -1.79978 69 80 98
-5.33163 -4.35098 -1.79587 72 80 99
-5.36741 -4.34017 -1.80201 70 81 99
-5.8434 -3.68362 -1.80694 76 86 98
-5.8557 -3.66676 -1.8075 77 87 99
-5.87766 -3.65601 -1.8114 79 89 101
-5.88741 -3.62491 -1.80917 76 85 102
-5.89465 -3.60485 -1.80805 73 82 99
-5.91485 -3.59283 -1.8114 75 87 103
-5.93082 -3.56563 -1.81139 74 83 98
-5.94112 -3.54744 -1.81139 75 84 99
-5.94314 -3.52428 -1.8086 74 83 98
-5.94836 -3.5031 -1.80692 74 83 98
-6.62123 -2.67329 -1.82493 74 81 91
-6.64357 -2.64699 -1.82819 75 82 92
-6.64746 -2.62502 -1.8271 78 82 93
-6.97601 -2.08387 -1.81424 74 83 98
-6.99089 -2.06481 -1.81688 74 83 98
-6.98908 -2.04085 -1.81476 78 88 103
-7.40459 -1.57971 -1.83536 78 89 107
-7.70705 -1.13354 -1.83177 74 86 108
-7.95913 -0.780501 -1.83485 77 92 115
-2.75415 -6.62521 -1.57863 138 135 143
-3.06027 -6.22794 -1.58849 137 132 139
-3.45652 -5.9593 -1.63322 141 132 129
-4.12339 -5.91258 -1.77513 122 114 111
-4.12821 -5.88114 -1.76879 122 114 111
-4.16192 -5.89282 -1.77671 118 110 108
-4.5353 -5.38669 -1.78617 141 131 139
-4.55499 -5.37768 -1.7878 141 135 139
-4.57105 -5.36409 -1.7878 138 134 135
-5.08468 -4.62821 -1.79311 68 80 96
-5.10533 -4.61939 -1.7959 71 83 99
-5.11753 -4.60266 -1.79534 68 80 96
-5.14249 -4.58333 -1.79701 71 79 98
-5.15175 -4.56389 -1.79533 69 78 95
-5.17086 -4.55346 -1.79757 72 81 98
-5.1814 -4.53525 -1.79645 68 80 96
-5.19898 -4.50915 -1.79533 66 77 96
-5.97712 -3.48353 -1.81138 74 83 98
-5.97557 -3.45839 -1.80747 75 84 99
-5.99547 -3.44585 -1.81082 75 85 97
-6.02238 -3.42494 -1.81472 74 84 96
-6.02558 -3.40263 -1.81249 73 83 95
-6.04536 -3.38982 -1.81583 75 85 97
-6.06207 -3.36289 -1.81639 80 87 101
-6.65126 -2.60305 -1.82601 77 81 92
-6.65724 -2.57008 -1.82438 73 79 91
-6.67338 -2.55303 -1.82709 73 79 91
-7.03846 -2.01975 -1.82638 79 86 103
-7.00128 -1.98576 -1.81422 56 66 80
-7.39168 -1.55288 -1.83075 86 94 112
-7.40323 -1.53134 -1.83279 84 93 109
-7.68654 -1.0937 -1.82533 75 85 108
-7.72743 -1.07471 -1.83523 72 84 110
-7.95239 -0.748655 -1.83196 75 87 111
-7.97288 -0.730403 -1.83776 80 92 116
-2.7188 -6.62408 -1.57533 137 134 145
-3.03916 -6.23148 -1.587 135 132 139
-3.39425 -5.95185 -1.62349 137 131 127
-3.41662 -5.95047 -1.62605 140 135 130
-4.07123 -5.93166 -1.77144 124 114 111
-4.09637 -5.93084 -1.77513 122 114 111
-4.47827 -5.43359 -1.78618 146 142 149
-4.49449 -5.42026 -1.78618 143 138 144
-4.51306 -5.40989 -1.78726 139 133 137
-5.00653 -4.72478 -1.79535 70 82 97
-5.03197 -4.70611 -1.79703 70 82 98
-5.04447 -4.68959 -1.79647 69 80 98
-5.05414 -4.67039 -1.79479 69 80 98
-5.07068 -4.65777 -1.7959 68 79 97
-6.06334 -3.3396 -1.81359 74 81 97
-6.08467 -3.32747 -1.8175 73 80 96
-6.07742 -3.29953 -1.81191 71 80 95
-6.09874 -3.27516 -1.81414 72 82 94
-6.10981 -3.25732 -1.8147 71 80 95
-6.13098 -3.24487 -1.8186 72 80 93
-6.6841 -2.5338 -1.82817 73 80 92
-6.68222 -2.50968 -1.82545 72 80 91
-6.70211 -2.48211 -1.82817 72 79 93
-7.00477 -1.96339 -1.81369 133 136 140
-7.01746 -1.94356 -1.8158 127 127 129
-7.41329 -1.49734 -1.83381 85 95 110
-7.41143 -1.47297 -1.83227 85 95 110
-7.71649 -1.04861 -1.83176 76 88 112
-7.9705 -0.709449 -1.8366 74 86 111
-2.67844 -6.63938 -1.57533 135 132 142
-2.69862 -6.63176 -1.57533 136 133 144
-3.01883 -6.2367 -1.58601 136 131 138
-3.34204 -5.96265 -1.61939 144 138 139
-3.37014 -5.94972 -1.6199 139 131 127
-4.00652 -5.93081 -1.7614 125 116 108
-4.04507 -5.93075 -1.76721 126 117 112
-4.4184 -5.47677 -1.7851 107 104 114
-4.4336 -5.4621 -1.78455 121 116 124
-4.45811 -5.45959 -1.78835 145 140 145
-4.88127 -4.80318 -1.78476 72 79 98
-4.92589 -4.80429 -1.79425 71 80 97
-4.93331 -4.78266 -1.79145 69 77 96
-4.95153 -4.77186 -1.79313 70 81 101
-4.97305 -4.74946 -1.79313 71 82 100
-4.98432 -4.73178 -1.79201 70 82 99
-6.13683 -3.21208 -1.81581 70 80 92
-6.1528 -3.19678 -1.81804 70 80 92
-6.16365 -3.17873 -1.81859 74 84 96
-6.17595 -3.14939 -1.81803 75 83 94
-6.17811 -3.12688 -1.8158 76 80 89
-6.70363 -2.45935 -1.82653 73 81 94
-6.71769 -2.44131 -1.8287 70 80 92
-6.72287 -2.40814 -1.82707 70 82 94
-7.02007 -1.90918 -1.81421 121 121 123
-7.0289 -1.88825 -1.81526 126 126 127
-7.41139 -1.449 -1.83124 82 94 110
-7.72626 -1.0129 -1.83324 75 87 109
-7.70742 -0.985951 -1.82779 75 87 109
-7.95771 -0.67703 -1.83198 77 91 114
-7.97228 -0.657944 -1.83604 77 92 115
-2.65498 -6.63776 -1.57297 137 134 142
-2.97073 -6.25652 -1.58552 139 137 140
-2.99265 -6.255 -1.5875 136 134 139
-3.29222 -5.95441 -1.6112 139 135 137
-3.31358 -5.9517 -1.61325 143 137 136
-3.9202 -5.93437 -1.74925 132 118 108
-3.95548 -5.92998 -1.75348 127 115 106
-3.98253 -5.93288 -1.75823 127 117 109
-4.37459 -5.50629 -1.78401 114 110 118
-4.40431 -5.49293 -1.78619 104 101 109
-4.80585 -4.85761 -1.7803 68 72 88
-4.83178 -4.84007 -1.78197 73 80 96
-4.84875 -4.82829 -1.78309 71 79 97
-4.85765 -4.80822 -1.78085 70 79 97
-6.19901 -3.11394 -1.8197 77 77 87
-6.19418 -3.08795 -1.81523 62 65 71
-6.22321 -3.06702 -1.82025 76 76 87
-6.23369 -3.0487 -1.82081 75 77 89
-6.23375 -3.02527 -1.81801 75 82 92
-6.73316 -2.38866 -1.82815 69 81 94
-6.72894 -2.36391 -1.82489 64 76 91
-7.02462 -1.86384 -1.81262 124 125 127
-7.01194 -1.82562 -1.8068 134 132 140
-7.4283 -1.42839 -1.83482 84 96 112
-7.4265 -1.39203 -1.83277 85 97 114
-7.69811 -0.960283 -1.82481 78 90 112
-7.95635 -0.635675 -1.83083 78 93 116
-7.96033 -0.605135 -1.83141 85 100 123
-2.62423 -6.64895 -1.57297 137 134 143
-2.95579 -6.27391 -1.588 142 140 143
-3.25893 -5.95659 -1.60762 139 133 137
-3.87243 -5.93773 -1.74292 133 119 110
-3.89121 -5.92793 -1.74344 133 120 111
-4.34269 -5.53367 -1.78456 115 112 126
-4.35809 -5.51924 -1.78402 114 111 120
-4.73087 -4.94184 -1.78254 104 104 114
-4.74027 -4.92202 -1.78031 105 105 115
-4.75875 -4.912 -1.78198 102 102 114
-4.802 -4.91288 -1.79091 80 78 92
-4.82048 -4.90263 -1.79258 69 68 84
-6.24358 -2.99477 -1.81689 77 79 92
-6.25383 -2.97636 -1.81745 76 79 92
-6.27266 -2.96203 -1.8208 74 81 91
-6.29146 -2.94761 -1.82414 75 78 93
-6.75003 -2.33654 -1.82814 69 78 93
-6.76373 -2.3182 -1.83031 71 80 96
-6.76469 -2.29537 -1.82868 71 80 95
-6.75287 -2.26815 -1.82324 72 81 96
-7.05596 -1.8137 -1.81789 74 74 88
-7.04956 -1.78883 -1.81472 79 86 102
-7.44327 -1.37126 -1.83635 80 91 109
-7.4353 -1.34582 -1.83327 78 89 109
-7.72139 -0.938536 -1.83025 73 85 109
-7.70948 -0.900313 -1.82629 74 89 112
-7.9747 -0.585887 -1.83547 82 97 120
-2.60208 -6.65081 -1.57156 138 135 142
-2.9217 -6.27418 -1.58453 141 134 142
-3.21287 -5.95459 -1.60148 138 136 141
-3.24103 -5.96601 -1.60762 139 134 140
-3.80546 -5.92985 -1.7313 135 121 110
-3.84355 -5.93105 -1.73711 132 118 109
-4.28741 -5.58304 -1.7862 117 114 121
-4.2951 -5.55787 -1.78185 118 115 123
-4.3185 -5.55446 -1.78511 115 112 122
-4.6564 -4.99654 -1.7792 106 106 118
-4.67122 -4.98259 -1.7792 97 96 107
-4.68467 -4.96717 -1.77864 102 102 113
-4.70584 -4.96021 -1.78143 103 102 113
-6.29397 -2.91363 -1.82079 73 79 91
-6.29351 -2.89018 -1.81799 72 78 92
-6.31214 -2.87557 -1.82134 72 78 92
-6.32648 -2.84714 -1.8219 73 79 91
-6.78264 -2.24359 -1.82921 75 83 96
-6.7888 -2.22258 -1.82921 73 83 95
-7.05515 -1.75532 -1.81419 80 89 104
-7.06726 -1.73509 -1.81629 78 87 102
-7.44639 -1.31189 -1.8348 77 89 108
-7.71719 -0.876665 -1.82777 78 93 116
-7.96614 -0.56448 -1.83258 84 99 122
-7.96895 -0.544126 -1.83316 69 84 105
-2.58308 -6.6618 -1.5725 140 137 144
-2.8847 -6.29263 -1.58503 137 133 138
-2.90208 -6.28077 -1.58404 139 133 140
-3.19414 -5.96212 -1.60097 139 137 141
-3.75899 -5.93395 -1.72549 137 123 112
-3.78371 -5.93442 -1.72918 135 121 110
-4.22599 -5.62394 -1.78511 120 118 123
-4.23839 -5.60515 -1.78294 119 117 122
-4.25405 -5.59103 -1.78239 117 115 118
-4.60133 -5.0421 -1.77809 67 65 79
-4.64292 -5.05853 -1.78981 83 81 95
-4.63371 -5.01737 -1.7792 102 101 115
-6.32578 -2.82368 -1.8191 73 78 90
-6.35826 -2.8151 -1.82691 75 79 91
-6.346 -2.77482 -1.81909 73 79 91
-6.78763 -2.19913 -1.82703 73 83 95
-6.80619 -2.17058 -1.82975 73 82 99
-7.07742 -1.71434 -1.81788 83 92 109
-7.08565 -1.6931 -1.81893 79 88 103
-7.43254 -1.28552 -1.83019 82 94 116
-7.45089 -1.26487 -1.83428 83 95 117
-7.71907 -0.852353 -1.82776 67 79 106
-7.97823 -0.513959 -1.83549 73 85 110
-2.54724 -6.65788 -1.56873 139 136 143
-2.86728 -6.30445 -1.58602 140 135 139
-3.14473 -5.97632 -1.59841 139 132 140
-3.16264 -5.96722 -1.59841 140 136 139
-3.67287 -5.93232 -1.71281 135 123 111
-3.69843 -5.93481 -1.71704 134 122 110
-3.72404 -5.93719 -1.72126 137 123 110
-4.18659 -5.65971 -1.78675 121 119 120
-4.20582 -5.63166 -1.78349 122 118 125
-4.56327 -5.10737 -1.78479 104 106 115
-4.57967 -5.09518 -1.78535 93 94 107
-4.60609 -5.09452 -1.79037 71 69 83
-6.3749 -2.76444 -1.82579 74 80 92
-6.37388 -2.74094 -1.823 74 80 92
-6.37809 -2.71974 -1.82188 73 79 93
-6.39347 -2.69167 -1.82299 73 79 93
-6.81395 -2.15008 -1.83029 71 80 95
-6.82167 -2.12956 -1.83083 74 83 98
-6.81649 -2.10493 -1.82756 73 83 96
-7.06455 -1.65334 -1.811 83 92 109
-7.44829 -1.22853 -1.83223 70 82 106
-7.73177 -0.816854 -1.83023 70 81 109
-7.96753 -0.492485 -1.83202 73 85 109
-7.96248 -0.471517 -1.83028 72 84 108
-2.52821 -6.6687 -1.56967 141 138 147
-2.83768 -6.31492 -1.58553 142 137 141
-3.12594 -5.98362 -1.5979 138 133 139
-3.63999 -5.93839 -1.70964 134 124 112
-4.14609 -5.67477 -1.78349 120 118 119
-4.16527 -5.6657 -1.78457 120 118 119
-4.51814 -5.16501 -1.78871 92 90 103
-4.51739 -5.13246 -1.78145 86 84 97
-4.5456 -5.11804 -1.78368 93 93 101
-6.38864 -2.66671 -1.81908 71 77 89
-6.40675 -2.65139 -1.82242 73 81 94
-6.41828 -2.62168 -1.82242 74 80 92
-6.83283 -2.07552 -1.82973 75 84 99
-6.83848 -2.05434 -1.82973 74 83 100
-7.10638 -1.63982 -1.82156 82 90 109
-7.12002 -1.6197 -1.8242 76 88 104
-7.45128 -1.20518 -1.83222 69 81 104
-7.47512 -1.18522 -1.83785 71 83 105
-7.96952 -0.441145 -1.83203 73 88 111
-2.79308 -6.31493 -1.58108 138 133 137
-2.815 -6.31407 -1.58306 138 133 137
-3.07808 -6.00071 -1.59636 128 124 133
-3.09607 -5.99183 -1.59636 135 129 138
-3.56944 -5.93992 -1.70014 136 123 114
-3.59101 -5.93616 -1.70225 136 123 114
-3.61645 -5.93899 -1.70647 135 125 113
-4.10944 -5.71473 -1.78675 119 114 120
-4.12119 -5.69463 -1.78403 119 116 125
-4.45889 -5.20589 -1.78648 82 83 96
-4.47557 -5.19407 -1.78704 81 81 92
-4.49541 -5.1696 -1.78536 81 79 91
-6.42561 -2.60184 -1.82242 72 79 89
-6.45246 -2.58987 -1.82855 75 82 92
-6.44766 -2.55354 -1.82353 76 80 91
-6.89733 -2.04942 -1.84548 70 79 96
-6.81039 -1.98859 -1.81722 62 71 87
-7.1267 -1.58628 -1.8242 82 90 109
-7.13831 -1.56561 -1.8263 76 87 105
-7.45699 -1.15843 -1.83222 77 89 111
-7.98148 -0.421385 -1.83551 72 87 112
-7.97429 -0.400303 -1.8332 74 88 114
-2.76634 -6.33221 -1.58256 138 136 138
-3.06492 -6.02005 -1.59944 127 124 132
-3.53385 -5.94036 -1.69538 136 124 112
-4.06077 -5.73677 -1.78404 122 116 120
-4.08908 -5.722 -1.78512 120 115 121
-4.39684 -5.24305 -1.78314 89 89 104
-4.41003 -5.22697 -1.78202 79 77 91
-4.44097 -5.21616 -1.78537 85 83 97
-6.46548 -2.53782 -1.82687 73 79 91
-6.47078 -2.51712 -1.82631 72 80 91
-6.47241 -2.49503 -1.82463 70 78 91
-6.81761 -1.96802 -1.81776 130 135 140
-6.82844 -1.9485 -1.81939 126 126 127
-7.12538 -1.53966 -1.82154 79 90 108
-7.46915 -1.12452 -1.83426 77 89 111
-7.46036 -1.09936 -1.83118 74 86 109
-7.96955 -0.369108 -1.83147 79 93 119
-2.74728 -6.34007 -1.58256 137 134 141
-3.01842 -6.04013 -1.59893 135 131 138
-3.03173 -6.02091 -1.59585 132 129 136
-3.48332 -5.93389 -1.68693 134 124 114
-3.50856 -5.93718 -1.69116 134 124 114
-4.00376 -5.76427 -1.78133 122 114 115
-4.02418 -5.75732 -1.78296 122 116 116
-4.0446 -5.7503 -1.78458 122 116 118
-4.3416 -5.28847 -1.78314 99 100 106
-4.36677 -5.27058 -1.7837 72 74 84
-4.38243 -5.25759 -1.7837 79 81 94
-6.49754 -2.47045 -1.8291 69 77 90
-6.48289 -2.44219 -1.82239 69 77 92
-6.50941 -2.42953 -1.82853 69 78 93
-6.84038 -1.91779 -1.82047 124 123 128
-6.84554 -1.89656 -1.82046 123 123 125
-7.14865 -1.50974 -1.8263 78 89 107
-7.16192 -1.4893 -1.82893 82 93 111
-7.4572 -1.0751 -1.82964 70 82 106
-7.96028 -0.34801 -1.82857 75 89 115
-7.97578 -0.328311 -1.83321 85 99 125
-2.72679 -6.34427 -1.58158 137 134 141
-2.99553 -6.0382 -1.59586 137 131 141
-3.4283 -5.94044 -1.68112 133 123 113
-3.44885 -5.93551 -1.68271 134 124 114
-3.98253 -5.78994 -1.78404 128 119 117
-4.28353 -5.3302 -1.78203 142 141 138
-4.31123 -5.31565 -1.7837 148 147 150
-4.32349 -5.2983 -1.78203 100 98 105
-6.5127 -2.39663 -1.82629 70 79 94
-6.51575 -2.37515 -1.82517 68 78 90
-6.52411 -2.35562 -1.82573 72 82 94
-6.85801 -1.87741 -1.82263 121 120 125
-7.14496 -1.46269 -1.82312 81 93 109
-7.16755 -1.44407 -1.8284 79 90 109
-7.46515 -1.04054 -1.83066 76 88 112
-7.45607 -1.01551 -1.82758 73 85 108
-7.96831 -0.307345 -1.8309 81 93 117
-2.67374 -6.35085 -1.57811 138 133 139
-2.69845 -6.35765 -1.58207 138 133 139
-2.97737 -6.04675 -1.59586 141 136 143
-3.36978 -5.93966 -1.6732 136 123 114
-3.40321 -5.93681 -1.6769 134 124 114
-3.94257 -5.80506 -1.78133 127 118 113
-3.96204 -5.79672 -1.78242 127 119 116
-4.25288 -5.35702 -1.78259 143 139 142
-4.26765 -5.34287 -1.78203 144 139 141
-6.53061 -2.33541 -1.82572 71 81 93
-6.52982 -2.30122 -1.82237 72 81 95
-6.89495 -1.83075 -1.82969 70 72 85
-6.90538 -1.81085 -1.83132 79 88 106
-7.15639 -1.4071 -1.82364 76 88 110
-7.15613 -1.38397 -1.82257 78 90 112
-7.47366 -0.994196 -1.83167 75 87 111
-7.97075 -0.276599 -1.83149 79 94 117
-2.65602 -6.36203 -1.5791 138 133 139
-2.93611 -6.0785 -1.59893 142 137 144
-2.94969 -6.05948 -1.59586 140 138 143
-3.32254 -5.93692 -1.66634 135 123 112
-3.34479 -5.93579 -1.66898 135 124 112
-3.89745 -5.83213 -1.78079 116 106 103
-3.91394 -5.81906 -1.78025 109 99 90
-4.20666 -5.41465 -1.78762 140 135 139
-4.22048 -5.39911 -1.7865 142 137 143
-4.23653 -5.38659 -1.7865 142 137 143
-6.55425 -2.28732 -1.82795 70 79 94
-6.55328 -2.2645 -1.82571 70 79 94
-6.57027 -2.2365 -1.82794 71 80 95
-6.91204 -1.7899 -1.83186 74 85 103
-6.90656 -1.7543 -1.82805 78 87 103
-7.16716 -1.36297 -1.82468 73 86 103
-7.4587 -0.968435 -1.82706 74 88 114
-7.98793 -0.256775 -1.83671 77 92 115
-7.97068 -0.235463 -1.83149 84 98 124
-2.63551 -6.36591 -1.57812 139 134 140
-2.9117 -6.07269 -1.59484 137 134 141
-3.29766 -5.93285 -1.66211 130 120 110
-3.85615 -5.8654 -1.78242 123 117 114
-3.88194 -5.84679 -1.78188 124 115 116
-4.16127 -5.43938 -1.78539 149 144 151
-4.18709 -5.42243 -1.78595 143 138 143
-5.26541 -3.935 -1.80195 72 81 98
-5.27698 -3.90608 -1.79963 71 80 97
-5.29599 -3.89564 -1.80252 72 81 98
-5.31041 -3.88167 -1.80368 75 84 99
-5.34213 -3.84306 -1.80483 72 81 96
-5.35025 -3.82436 -1.80367 71 81 93
-5.36758 -3.81242 -1.80598 71 81 93
-5.38773 -3.78988 -1.80714 72 81 96
-5.38636 -3.76435 -1.8025 75 84 99
-6.57639 -2.21613 -1.82794 72 81 96
-6.57335 -2.1927 -1.82514 71 80 94
-6.9242 -1.73621 -1.83185 75 84 101
-6.91948 -1.71234 -1.82913 76 85 102
-7.16126 -1.32721 -1.82151 79 91 113
-7.15506 -1.30308 -1.81886 74 87 106
-7.46615 -0.9338 -1.82808 78 92 114
-7.46628 -0.910116 -1.82756 67 82 105
-7.73142 -0.54304 -1.82848 76 90 114
-7.72275 -0.522487 -1.82548 76 91 114
-7.9919 -0.205348 -1.83788 78 93 116
-2.60635 -6.37704 -1.57812 134 131 138
-2.88465 -6.08686 -1.59535 134 132 137
-3.24399 -5.93936 -1.65683 130 119 113
-3.2644 -5.9351 -1.65841 129 118 112
-3.81886 -5.88453 -1.78134 118 109 104
-3.83751 -5.875 -1.78188 118 110 107
-4.12205 -5.4545 -1.78204 143 138 145
-4.1428 -5.44853 -1.78427 152 146 152
-5.02864 -4.21581 -1.79678 71 79 99
-5.06066 -4.20394 -1.80199 73 81 100
-5.06283 -4.17974 -1.79794 74 83 100
-5.08384 -4.17167 -1.80141 69 78 95
-5.08795 -4.13598 -1.79561 71 80 97
-5.12064 -4.13757 -1.80372 72 81 98
-5.11952 -4.11087 -1.7985 69 81 97
-5.1498 -4.09704 -1.80314 73 84 102
-5.1633 -4.08246 -1.80371 71 82 100
-5.16931 -4.0618 -1.80139 70 81 99
-5.1693 -4.03633 -1.79676 72 84 100
-5.20835 -4.02925 -1.80486 71 83 99
-5.21414 -4.00851 -1.80254 70 82 98
-5.22286 -3.99013 -1.80138 70 82 98
-5.24529 -3.9696 -1.80311 70 82 98
-5.26596 -3.96053 -1.80659 73 82 97
-5.33247 -3.87337 -1.80773 72 84 98
-5.41288 -3.7589 -1.80829 74 83 98
-5.43006 -3.74667 -1.8106 72 84 100
-5.42959 -3.70946 -1.80423 72 84 98
-5.44195 -3.69383 -1.80481 75 87 101
-5.45111 -3.67597 -1.80422 75 87 101
-5.47383 -3.6551 -1.80654 75 84 99
-5.48603 -3.63931 -1.80711 76 85 100
-5.50451 -3.62776 -1.81 75 84 99
-5.52863 -3.60762 -1.8129 75 84 99
-5.51682 -3.57571 -1.80479 73 82 97
-5.52718 -3.5587 -1.80478 74 83 98
-5.55027 -3.55005 -1.80941 76 85 100
-5.57893 -3.5327 -1.81404 73 82 97
-5.5779 -3.50821 -1.80999 74 84 96
-5.58323 -3.48789 -1.80824 74 84 96
-5.6133 -3.47125 -1.81345 73 83 93
-6.57727 -2.16032 -1.82347 72 81 96
-6.55398 -2.13043 -1.81453 73 82 97
-6.57255 -2.11422 -1.81843 73 82 97
-6.9285 -1.68055 -1.82967 75 87 104
-6.94782 -1.6627 -1.83401 77 89 106
-7.16775 -1.28232 -1.8215 75 87 104
-7.17657 -1.26084 -1.82308 73 86 103
-7.47209 -0.887138 -1.82858 70 85 108
-7.72239 -0.492676 -1.82489 78 90 114
-7.96874 -0.183969 -1.83092 76 91 114
-2.58649 -6.38257 -1.57762 138 135 142
-2.84429 -6.09429 -1.59279 134 131 138
-2.86485 -6.0915 -1.59433 135 133 138
-3.21838 -5.93324 -1.65208 127 117 108
-3.77121 -5.90726 -1.77971 130 119 113
-3.80314 -5.89896 -1.78243 127 116 112
-4.0667 -5.49988 -1.78316 110 108 119
-4.08419 -5.48944 -1.78372 104 101 112
-4.10165 -5.47894 -1.78428 117 113 122
-4.91563 -4.35374 -1.79739 66 77 95
-4.92563 -4.33614 -1.79622 70 78 97
-4.95083 -4.31869 -1.79854 72 84 100
-4.96781 -4.30739 -1.80027 70 82 98
-4.97764 -4.28966 -1.79911 68 80 96
-5.00411 -4.27315 -1.80201 74 85 103
-4.99943 -4.24268 -1.79505 70 81 99
-5.02054 -4.23494 -1.79852 71 83 99
-5.61524 -3.44881 -1.81055 75 85 97
-5.62844 -3.4335 -1.81171 74 84 96
-5.65023 -3.41143 -1.81402 74 83 96
-5.65355 -3.38996 -1.8117 75 84 97
-5.65353 -3.3665 -1.80822 78 85 100
-5.68287 -3.36094 -1.81517 73 80 96
-5.68303 -3.32571 -1.80995 74 84 96
-5.69096 -3.30715 -1.80937 72 82 94
-5.70214 -3.29053 -1.80995 71 80 95
-6.5783 -2.09383 -1.81843 73 83 96
-6.58355 -2.06206 -1.81731 74 83 98
-6.94656 -1.63975 -1.83237 75 87 103
-6.94711 -1.61727 -1.83128 75 88 105
-7.18346 -1.22742 -1.8236 77 89 111
-7.46767 -0.851034 -1.82653 75 89 114
-7.48862 -0.82977 -1.83165 74 86 110
-7.72877 -0.473302 -1.82669 75 90 113
-7.73888 -0.454143 -1.8297 80 95 118
-7.98375 -0.163843 -1.83557 79 91 115
-7.97575 -0.143025 -1.83325 78 90 114
-2.56197 -6.37531 -1.57366 139 137 142
-2.82967 -6.11126 -1.59536 133 132 138
-3.1632 -5.93557 -1.64574 129 118 113
-3.18611 -5.93676 -1.64891 121 110 104
-3.7289 -5.9175 -1.77591 127 116 110
-3.75054 -5.91325 -1.77808 129 118 112
-4.02735 -5.53282 -1.78428 114 112 125
-4.03836 -5.51307 -1.78149 112 111 120
-4.82104 -4.45499 -1.79624 69 78 94
-4.83837 -4.43028 -1.79508 69 80 98
-4.8681 -4.43129 -1.80203 68 79 97
-4.86442 -4.40071 -1.79508 66 78 94
-4.89548 -4.38886 -1.79971 68 79 97
-4.90278 -4.36871 -1.79739 65 76 94
-5.72828 -3.27082 -1.814 71 80 95
-5.72941 -3.24829 -1.8111 70 80 92
-5.76361 -3.24491 -1.81978 74 81 94
-5.75467 -3.21661 -1.81341 73 82 97
-5.77558 -3.19365 -1.81572 74 83 98
-5.79809 -3.18327 -1.82035 78 87 102
-6.60012 -2.04503 -1.82065 76 83 99
-6.69003 -2.05038 -1.84633 74 83 98
-6.96876 -1.58839 -1.83563 83 93 110
-7.17883 -1.20365 -1.82149 73 85 107
-7.18932 -1.18237 -1.82359 77 89 111
-7.45776 -0.802617 -1.82293 74 86 108
-7.72992 -0.433692 -1.8267 71 85 111
-7.9755 -0.112127 -1.83326 79 91 117
-2.51094 -6.3859 -1.57169 138 137 142
-2.53473 -6.39154 -1.57515 137 136 141
-2.79435 -6.10541 -1.59024 135 133 138
-3.12083 -5.93982 -1.64152 131 119 112
-3.13947 -5.93255 -1.64204 136 123 115
-3.67535 -5.92943 -1.77102 128 118 109
-3.69793 -5.92705 -1.77374 128 119 112
-3.9921 -5.55325 -1.78317 117 117 125
-4.00756 -5.5399 -1.78261 118 115 126
-4.72874 -4.54406 -1.79394 68 80 96
-4.75437 -4.54181 -1.79915 67 78 96
-4.75552 -4.51522 -1.79394 68 79 97
-4.77293 -4.50476 -1.79567 69 80 98
-4.80424 -4.4936 -1.8003 69 81 97
-4.80924 -4.47098 -1.79683 70 79 95
-5.79385 -3.15785 -1.81572 75 84 99
-5.81954 -3.1374 -1.81977 77 84 100
-5.82014 -3.11477 -1.81687 72 81 96
-5.82065 -3.09216 -1.81397 75 84 99
-5.8461 -3.07144 -1.81802 74 84 96
-5.84814 -3.04972 -1.8157 75 85 97
-6.61426 -1.99378 -1.82065 68 80 92
-6.62146 -1.97379 -1.8212 136 142 148
-6.62861 -1.95377 -1.82176 126 126 128
-6.97474 -1.56715 -1.83617 77 89 105
-6.97505 -1.54462 -1.83507 77 89 105
-7.1502 -1.1417 -1.81144 79 92 111
-7.4913 -0.770737 -1.83112 74 86 109
-7.74437 -0.404769 -1.83091 74 88 114
-7.73145 -0.384153 -1.82671 75 89 115
-7.9769 -0.0915627 -1.83384 81 93 119
-7.97249 -0.070899 -1.83269 85 97 123
-2.49109 -6.3911 -1.57119 137 137 139
-2.75832 -6.12294 -1.59075 136 132 139
-2.77452 -6.10973 -1.58921 137 133 140
-3.08617 -5.9376 -1.63676 115 103 96
-3.62647 -5.92722 -1.76342 127 117 108
-3.65279 -5.93172 -1.76831 125 115 106
-3.94694 -5.57763 -1.7815 120 117 126
-3.96894 -5.57397 -1.78429 120 117 128
-4.66015 -4.61538 -1.79395 65 77 93
-4.67432 -4.58726 -1.79105 66 78 98
-4.69727 -4.58259 -1.79511 64 77 96
-4.71349 -4.57101 -1.79626 70 81 99
-5.85684 -3.03159 -1.81569 72 82 94
-5.86718 -3.01432 -1.81627 71 81 93
-5.88557 -2.98967 -1.818 71 80 92
-5.89409 -2.97141 -1.818 71 79 90
-6.63871 -1.92342 -1.82231 129 128 133
-6.98702 -1.51333 -1.8367 82 91 106
-6.98151 -1.48954 -1.83398 83 92 108
-7.17954 -1.12336 -1.81883 74 85 107
-7.47172 -0.745015 -1.82548 73 85 109
-7.50007 -0.724228 -1.83265 76 88 112
-7.73177 -0.364329 -1.82672 73 87 112
-7.97382 -0.0400258 -1.83327 80 92 116
-2.47121 -6.39625 -1.5707 138 136 140
-2.72457 -6.12024 -1.58665 135 132 141
-3.04312 -5.93954 -1.63201 101 91 87
-3.06672 -5.94295 -1.63571 111 98 94
-3.59368 -5.93286 -1.76016 127 118 111
-3.90481 -5.60643 -1.7815 122 120 125
-3.93453 -5.59558 -1.78373 119 116 123
-4.54396 -4.67835 -1.78238 68 79 97
-4.58001 -4.68831 -1.79223 67 79 94
-4.59914 -4.67997 -1.79454 67 79 95
-4.61297 -4.666 -1.79454 70 80 97
-4.63539 -4.64635 -1.79512 69 80 96
-4.65046 -4.63364 -1.79569 69 81 97
-5.90254 -2.95313 -1.818 73 81 93
-5.90873 -2.92219 -1.81568 69 77 90
-5.92045 -2.90557 -1.81683 67 75 88
-5.93728 -2.89147 -1.81972 72 78 92
-6.64385 -1.9028 -1.82231 124 124 126
-6.65632 -1.88424 -1.82454 122 122 124
-6.99847 -1.47067 -1.83778 81 93 109
-6.99845 -1.4481 -1.83669 83 92 109
-7.1936 -1.10256 -1.822 79 92 111
-7.19976 -1.06898 -1.82252 77 89 111
-7.46883 -0.697489 -1.82394 70 82 106
-7.72878 -0.334404 -1.82552 72 87 110
-7.97691 -0.0194495 -1.83444 78 90 114
-2.44316 -6.41023 -1.57169 139 137 143
-2.70969 -6.13689 -1.58922 134 131 140
-3.01191 -5.94383 -1.62937 113 104 99
-3.54042 -5.92154 -1.74984 128 119 114
-3.5712 -5.93483 -1.75745 128 119 112
-3.86917 -5.626 -1.78039 118 117 120
-3.89643 -5.6307 -1.78597 121 119 124
-4.5128 -4.74607 -1.7905 70 79 96
-4.5333 -4.73944 -1.79339 70 79 96
-4.54345 -4.72146 -1.79165 69 77 96
-5.95515 -2.86634 -1.82146 74 77 92
-5.94093 -2.83694 -1.81392 73 79 93
-5.97651 -2.83184 -1.82319 71 79 92
-5.97247 -2.80748 -1.81913 71 78 91
-6.65437 -1.82845 -1.82006 84 83 99
-6.65553 -1.80677 -1.81894 76 81 101
-7.00622 -1.41583 -1.83723 85 94 111
-7.19843 -1.04585 -1.82146 74 86 108
-7.49423 -0.664396 -1.83008 67 82 105
-7.74037 -0.315106 -1.82913 82 97 120
-7.73287 -0.294922 -1.82673 79 94 117
-2.42262 -6.41338 -1.5707 138 135 141
-2.68492 -6.12834 -1.58461 133 132 140
-2.96417 -5.93472 -1.62145 142 137 134
-2.98843 -5.94019 -1.62567 115 107 104
-3.4836 -5.92496 -1.74278 130 121 114
-3.50962 -5.93008 -1.74767 129 120 113
-3.83179 -5.66224 -1.78318 118 118 117
-3.85755 -5.64537 -1.78318 118 117 119
-4.46413 -4.79503 -1.79109 70 79 95
-4.47451 -4.77723 -1.78935 71 79 98
-4.50276 -4.7793 -1.79571 70 78 99
-5.98997 -2.7821 -1.82086 71 79 92
-6.00129 -2.76512 -1.82202 71 77 90
-6.00738 -2.74567 -1.82143 71 77 91
-6.02635 -2.72086 -1.82375 72 79 93
-6.65475 -1.7846 -1.81726 74 83 99
-7.01169 -1.39441 -1.83777 80 91 109
-7.01142 -1.37183 -1.83667 77 89 108
-7.20273 -1.02353 -1.82198 86 98 120
-7.19551 -0.999631 -1.81933 69 81 103
-7.47815 -0.639295 -1.82546 73 85 109
-7.72383 -0.264803 -1.82374 72 87 110
-2.66309 -6.15584 -1.58922 134 132 143
-2.93547 -5.94384 -1.62039 141 137 135
-3.4287 -5.93123 -1.73681 130 121 114
-3.46034 -5.92482 -1.73952 130 121 114
-3.79586 -5.6813 -1.78207 132 127 127
-3.81486 -5.67342 -1.78318 121 116 115
-4.39678 -4.8524 -1.78994 70 77 94
-4.40864 -4.83622 -1.78878 72 79 97
-4.42423 -4.82431 -1.78935 72 81 96
-4.45749 -4.8171 -1.79456 70 79 94
-6.02184 -2.69656 -1.81969 71 79 92
-6.03642 -2.681 -1.822 72 80 93
-6.04571 -2.66302 -1.82258 72 78 90
-6.0486 -2.63092 -1.81968 74 80 92
-6.67334 -1.75647 -1.82061 75 86 102
-6.67426 -1.73476 -1.81949 72 84 100
-6.68624 -1.71591 -1.82172 73 85 101
-7.00943 -1.33761 -1.8345 67 79 101
-7.2222 -0.968751 -1.82567 65 77 101
-7.49081 -0.616772 -1.82853 71 86 109
-7.73902 -0.24552 -1.82854 78 93 116
-2.62466 -6.16711 -1.5882 136 134 139
-2.64456 -6.16331 -1.58922 136 133 142
-2.89037 -5.93937 -1.61406 137 134 135
-2.91291 -5.94165 -1.61723 135 132 133
-3.37969 -5.9253 -1.72866 127 119 116
-3.4064 -5.93258 -1.73409 126 119 112
-3.75088 -5.70559 -1.78095 122 120 121
-3.77297 -5.70276 -1.78374 122 120 121
-4.33951 -4.89128 -1.78705 72 76 93
-4.36393 -4.88982 -1.79168 71 77 93
-4.37718 -4.87517 -1.7911 72 79 96
-6.0525 -2.61057 -1.81851 73 79 91
-6.07735 -2.5994 -1.8243 73 79 91
-6.08343 -2.56876 -1.82256 74 81 91
-6.72421 -1.70355 -1.83176 74 86 102
-7.01088 -1.31543 -1.83395 72 84 106
-7.01602 -1.29396 -1.83449 71 83 105
-7.20334 -0.943397 -1.81985 71 83 107
-7.19968 -0.920071 -1.81826 72 84 108
-7.49086 -0.581282 -1.82801 80 95 116
-7.49951 -0.558325 -1.83006 78 90 114
-7.74653 -0.225897 -1.83095 82 95 117
-7.73687 -0.205736 -1.82795 74 87 111
-2.60273 -6.16542 -1.58564 134 132 135
-2.86789 -5.937 -1.61089 140 135 136
-3.35747 -5.92646 -1.72595 128 121 116
-3.73482 -5.71814 -1.78151 122 117 121
-4.25507 -4.92753 -1.77837 74 75 93
-4.29287 -4.9427 -1.78937 80 83 100
-4.30876 -4.93121 -1.78995 71 77 92
-4.32338 -4.9182 -1.78995 75 81 97
-6.10822 -2.55735 -1.82835 74 80 92
-6.10657 -2.53461 -1.82545 72 78 90
-6.10877 -2.5024 -1.82255 73 79 91
-6.74063 -1.67446 -1.83455 72 83 101
-6.7394 -1.65213 -1.83287 71 84 101
-7.0193 -1.26084 -1.83394 73 84 104
-6.99783 -1.23451 -1.82687 75 88 108
-7.20882 -0.886846 -1.81984 75 87 111
-7.48306 -0.533438 -1.82544 78 90 114
-7.75025 -0.17626 -1.83216 76 88 111
-2.5758 -6.17993 -1.58666 137 135 140
-2.83537 -5.93682 -1.60719 143 137 136
-3.30202 -5.92982 -1.71943 131 121 112
-3.32507 -5.9306 -1.72269 126 118 111
-3.68564 -5.73534 -1.77817 123 119 118
-3.70276 -5.72458 -1.77816 123 118 122
-4.22756 -4.97131 -1.78301 93 91 106
-4.22782 -4.94076 -1.77606 80 82 97
-6.12284 -2.48631 -1.82486 71 79 91
-6.12269 -2.46434 -1.82254 72 78 92
-6.12956 -2.44527 -1.82254 72 80 91
-6.73996 -1.63026 -1.83175 74 85 103
-6.74484 -1.59835 -1.83119 74 85 103
-7.02919 -1.21779 -1.83502 73 86 108
-7.20116 -0.863093 -1.8172 82 94 118
-7.49811 -0.499072 -1.82902 74 89 113
-7.72517 -0.155842 -1.82436 74 86 110
-2.55853 -6.19075 -1.58769 137 135 140
-2.7929 -5.93687 -1.60244 145 139 140
-2.81526 -5.93953 -1.60561 143 137 136
-3.27643 -5.92381 -1.71454 132 122 113
-3.65519 -5.76328 -1.7804 128 124 120
-3.67143 -5.75098 -1.77984 123 119 115
-4.17278 -5.01254 -1.78186 86 86 101
-4.18886 -5.00147 -1.78243 88 90 105
-4.21155 -4.98252 -1.78243 100 97 114
-4.94303 -3.9636 -1.79411 69 80 98
-4.96346 -3.95568 -1.79771 69 80 98
-4.97669 -3.9293 -1.79591 71 83 99
-4.98667 -3.91287 -1.7953 72 81 98
-5.00851 -3.90589 -1.7995 73 82 99
-5.01247 -3.87227 -1.7941 70 82 98
-5.03577 -3.86629 -1.79889 74 83 100
-5.03496 -3.84152 -1.79409 74 83 98
-5.05518 -3.83306 -1.79769 74 83 98
-5.07685 -3.81327 -1.79948 72 81 96
-5.09552 -3.80345 -1.80248 71 80 95
-5.10809 -3.78897 -1.80308 73 82 97
-5.11278 -3.75633 -1.79828 72 81 96
-5.12521 -3.74177 -1.79887 74 83 98
-5.1376 -3.72717 -1.79947 77 84 100
-5.1496 -3.70012 -1.79767 73 82 97
-5.16958 -3.69101 -1.80126 73 82 97
-5.17873 -3.67402 -1.80066 74 83 98
-5.18784 -3.657 -1.80006 73 82 97
-5.20723 -3.63527 -1.80125 74 83 98
-5.22243 -3.62255 -1.80305 71 81 93
-5.2251 -3.60103 -1.80005 73 83 95
-5.24896 -3.58233 -1.80304 73 83 95
-5.25931 -3.56618 -1.80304 74 83 98
-5.27749 -3.55537 -1.80604 74 84 96
-5.29171 -3.52993 -1.80543 75 84 99
-5.29715 -3.51045 -1.80363 73 82 97
-5.29936 -3.48886 -1.80063 75 84 99
-5.32531 -3.48305 -1.80662 74 83 98
-6.14017 -2.41663 -1.82253 70 80 92
-6.13623 -2.39326 -1.81905 70 80 92
-6.14643 -2.37555 -1.82021 68 78 90
-6.7471 -1.57692 -1.83063 76 87 105
-7.02646 -1.19489 -1.83338 67 81 104
-6.98195 -1.15365 -1.81925 72 84 108
-7.19532 -0.839612 -1.81508 75 88 112
-7.47956 -0.474195 -1.8239 66 80 106
-7.74385 -0.136344 -1.83036 78 90 116
-2.53597 -6.18699 -1.58462 135 134 140
-2.76277 -5.94158 -1.60033 140 138 139
-3.22123 -5.92641 -1.70802 131 121 112
-3.24586 -5.93094 -1.71237 131 121 112
-3.61451 -5.79465 -1.78208 129 120 118
-3.63084 -5.78247 -1.78152 125 120 118
-4.11526 -5.05008 -1.77955 64 67 84
-4.13379 -5.04223 -1.78128 75 78 95
-4.15311 -5.01904 -1.77954 72 73 91
-4.7998 -4.12965 -1.79174 68 79 97
-4.80327 -4.10749 -1.78814 70 83 100
-4.83177 -4.0942 -1.79233 69 80 98
-4.86252 -4.09559 -1.80013 71 82 99
-4.8687 -4.07579 -1.79773 73 84 102
-4.8855 -4.05223 -1.79712 73 85 101
-4.90462 -4.04343 -1.80012 71 83 99
-4.90619 -4.01989 -1.79592 75 83 102
-4.93153 -4.00345 -1.79892 70 82 98
-4.94909 -3.9932 -1.80131 69 81 97
-5.34714 -3.46261 -1.80902 73 82 97
-5.34595 -3.43886 -1.80482 72 81 96
-5.36545 -3.42859 -1.80841 73 83 95
-5.36781 -3.39556 -1.80361 74 84 96
-5.38565 -3.38411 -1.80661 76 84 97
-5.40344 -3.37258 -1.8096 71 80 97
-5.40828 -3.35288 -1.8078 73 82 97
-5.42476 -3.32885 -1.8084 73 82 97
-5.43594 -3.3131 -1.80899 74 84 96
-5.44707 -3.29732 -1.80959 72 82 94
-5.45514 -3.26815 -1.80719 72 82 94
-6.16028 -2.3482 -1.82136 72 80 93
-6.17749 -2.33313 -1.82483 74 80 92
-6.17322 -2.30978 -1.82135 71 78 89
-6.76237 -1.55848 -1.83397 74 87 106
-6.7613 -1.52522 -1.83173 76 87 105
-7.04152 -1.14142 -1.83555 64 76 100
-7.20601 -0.806539 -1.81719 67 82 105
-7.20574 -0.783699 -1.81665 73 88 111
-7.49942 -0.451886 -1.82901 71 87 112
-7.49033 -0.427704 -1.82645 85 101 126
-7.73595 -0.106407 -1.82797 75 90 113
-7.73541 -0.0865376 -1.82797 80 95 116
-2.50502 -6.19028 -1.58257 131 129 135
-2.74196 -5.94226 -1.59822 143 138 142
-3.20086 -5.93041 -1.70639 133 123 114
-3.59619 -5.80346 -1.78152 129 119 117
-4.08164 -5.07013 -1.77781 80 80 92
-4.09787 -5.05938 -1.77839 72 72 86
-4.70771 -4.25181 -1.79476 69 78 95
-4.70893 -4.22716 -1.78996 73 82 99
-4.74343 -4.21973 -1.79655 74 86 102
-4.75578 -4.20528 -1.79655 67 79 95
-4.76667 -4.1895 -1.79595 68 79 97
-4.77837 -4.16136 -1.79295 70 81 99
-4.79054 -4.14678 -1.79294 72 83 101
-5.47431 -3.25718 -1.81078 70 79 95
-5.48527 -3.24125 -1.81138 71 80 95
-5.49468 -3.21292 -1.80958 72 81 98
-5.5121 -3.20076 -1.81257 72 81 96
-5.5163 -3.18085 -1.81077 73 83 95
-5.51055 -3.15523 -1.80537 76 86 98
-6.19394 -2.28496 -1.82482 70 80 92
-6.19128 -2.2623 -1.82192 70 80 92
-6.78018 -1.50746 -1.8362 77 88 106
-6.77652 -1.48472 -1.83396 76 88 104
-7.02906 -1.11699 -1.8312 71 83 106
-7.19965 -0.760277 -1.81454 75 87 107
-7.7272 -0.0666166 -1.82558 81 94 116
-2.48832 -6.2027 -1.58411 136 133 140
-2.72413 -5.94997 -1.59822 142 137 141
-3.14169 -5.92362 -1.69716 134 124 115
-3.16783 -5.93195 -1.70259 132 122 113
-3.55323 -5.83104 -1.78208 138 129 124
-3.57066 -5.82071 -1.78208 128 120 115
-4.03388 -5.12034 -1.78072 100 100 112
-4.04566 -5.10364 -1.77898 112 110 122
-4.07469 -5.10981 -1.78592 101 100 108
-4.63245 -4.32465 -1.79237 68 79 97
-4.65205 -4.31712 -1.79537 68 79 97
-4.66056 -4.29904 -1.79357 68 81 98
-4.66482 -4.27704 -1.78996 66 77 95
-4.68823 -4.25962 -1.79176 68 79 97
-5.5526 -3.14572 -1.81556 76 85 102
-5.55661 -3.12574 -1.81376 74 86 103
-5.56888 -3.11042 -1.81496 80 89 106
-5.58758 -3.08734 -1.81675 77 86 103
-5.5897 -3.06637 -1.81435 78 87 104
-5.61014 -3.05548 -1.81854 77 86 102
-6.20649 -2.24631 -1.82482 70 79 93
-6.20909 -2.22564 -1.82365 71 80 95
-6.7728 -1.46201 -1.83172 76 88 102
-7.03531 -1.08443 -1.83174 73 86 107
-7.05112 -1.06458 -1.83553 73 87 110
-7.21649 -0.739171 -1.81876 78 90 112
-7.51262 -0.393525 -1.83208 75 89 114
-7.48985 -0.368661 -1.82592 73 87 113
-7.73803 -0.0368624 -1.82919 81 93 117
-2.47028 -6.21143 -1.58462 139 133 142
-2.67179 -5.95117 -1.59294 141 136 140
-2.69402 -5.9543 -1.59611 141 136 140
-3.09948 -5.92751 -1.69282 135 123 114
-3.11975 -5.92387 -1.69445 136 123 113
-3.53575 -5.84131 -1.78208 136 128 125
-3.99409 -5.14886 -1.78014 86 86 97
-4.01737 -5.14765 -1.78419 96 96 104
-4.54155 -4.42206 -1.79239 68 80 94
-4.55592 -4.40961 -1.79298 67 80 96
-4.5743 -4.40113 -1.79538 67 78 96
-4.57637 -4.36296 -1.78758 66 77 95
-4.60149 -4.36101 -1.79298 69 80 98
-4.61703 -4.34967 -1.79417 67 78 96
-5.62023 -3.02761 -1.81734 75 82 98
-5.60702 -2.99848 -1.80954 75 85 97
-5.63405 -2.99099 -1.81613 72 81 96
-5.65096 -2.978 -1.81913 70 80 92
-5.65053 -2.94466 -1.81433 73 83 95
-6.21686 -2.19594 -1.82307 71 80 95
-6.23729 -2.18169 -1.8277 73 82 96
-6.23968 -2.16095 -1.82654 72 80 93
-6.79752 -1.43427 -1.8373 87 96 111
-6.7861 -1.41 -1.83283 78 89 105
-7.04409 -1.04114 -1.83281 68 83 106
-7.2152 -0.704787 -1.8177 84 96 120
-7.49398 -0.345273 -1.82694 73 87 113
-7.73918 -0.0169752 -1.82979 76 88 114
-2.44368 -6.22714 -1.58616 137 135 138
-2.65251 -5.95508 -1.59188 138 136 141
-3.06581 -5.92673 -1.68847 135 125 116
-3.49062 -5.86504 -1.78153 129 122 116
-3.50628 -5.85158 -1.78041 132 124 121
-3.96783 -5.17887 -1.78246 91 91 103
-3.97873 -5.16079 -1.78014 77 79 91
-4.47814 -4.47945 -1.7906 67 79 97
-4.49797 -4.47269 -1.79359 65 78 96
-4.50712 -4.45497 -1.79179 67 79 96
-4.53389 -4.4412 -1.79479 69 80 95
-5.66566 -2.93067 -1.81672 70 80 92
-5.66211 -2.907 -1.81252 72 82 93
-5.67655 -2.88153 -1.81312 71 81 95
-5.69152 -2.86738 -1.81551 72 82 94
-5.70132 -2.85059 -1.81611 72 81 93
-6.23991 -2.1286 -1.82364 73 82 94
-6.24572 -2.10913 -1.82363 73 83 95
-6.78589 -1.38809 -1.83171 79 90 107
-7.04049 -1.00707 -1.83064 74 86 110
-7.21654 -0.68211 -1.81769 77 89 111
-7.22356 -0.659929 -1.81927 73 86 107
-7.49662 -0.309968 -1.82745 84 96 120
-2.40248 -6.22963 -1.58309 133 130 137
-2.41748 -6.21198 -1.58002 132 130 134
-2.63036 -5.95178 -1.58871 137 134 143
-3.02533 -5.93355 -1.68521 137 124 115
-3.04396 -5.92668 -1.68576 134 124 114
-3.45728 -5.88848 -1.78265 111 103 101
-3.47212 -5.87343 -1.78097 122 115 108
-3.91205 -5.21853 -1.78189 80 81 95
-3.92204 -5.19902 -1.77899 83 81 95
-3.93976 -5.19039 -1.78015 99 97 111
-4.40948 -4.54528 -1.79001 68 76 98
-4.42076 -4.51557 -1.78581 66 74 95
-4.44327 -4.51182 -1.79 69 78 97
-4.46978 -4.51208 -1.796 65 77 93
-5.70085 -2.82866 -1.81311 71 79 92
-5.72693 -2.80886 -1.8179 69 75 91
-5.728 -2.78775 -1.8155 71 77 91
-5.7513 -2.77745 -1.82089 72 78 92
