-5.75834 -2.70668 -1.81462 76 84 101
-5.77632 -2.69362 -1.81821 75 82 100
-6.28431 -2.05842 -1.83096 73 82 96
-6.27676 -2.02359 -1.82575 72 81 99
-6.75742 -1.30674 -1.82011 73 84 104
-6.77385 -1.28813 -1.82402 71 83 101
-7.02393 -0.938234 -1.82434 75 87 109
-7.02223 -0.915804 -1.82325 76 88 110
-7.20424 -0.60143 -1.8133 73 85 109
-7.58281 -0.149269 -1.82981 78 88 113
-2.42828 -6.33562 -1.61385 141 136 140
-2.64659 -6.06994 -1.62241 141 135 139
-3.0704 -6.05408 -1.72353 141 127 114
-3.42837 -5.93856 -1.79339 127 119 116
-3.4425 -5.92187 -1.79115 131 123 120
-3.89494 -5.30669 -1.80183 101 92 116
-3.9086 -5.29188 -1.80067 98 93 115
-4.34451 -4.6497 -1.80085 84 87 106
-4.35827 -4.63655 -1.80084 81 80 98
-4.3539 -4.60371 -1.79244 83 81 102
-5.78045 -2.67407 -1.81701 71 76 95
-5.78453 -2.65452 -1.81581 74 81 99
-5.80479 -2.63148 -1.8188 76 79 96
-6.295 -2.00812 -1.8298 69 76 97
-6.30229 -1.98904 -1.83038 73 84 100
-6.30404 -1.96819 -1.82922 71 82 99
-6.76952 -1.26561 -1.82178 72 84 101
-6.7613 -1.24244 -1.81843 73 84 103
-7.01665 -0.892887 -1.82108 72 84 108
-7.21294 -0.579357 -1.81541 71 83 109
-7.59003 -0.13007 -1.83224 76 88 112
-2.40856 -6.34053 -1.61335 139 135 137
-2.62624 -6.072 -1.62083 138 132 135
-3.0252 -6.05218 -1.71757 139 127 113
-3.04739 -6.0523 -1.72028 139 127 114
-3.40212 -5.95506 -1.79396 131 123 121
-3.84939 -5.32773 -1.79896 99 94 116
-3.86746 -5.31936 -1.80011 101 96 116
-4.28052 -4.70687 -1.80028 82 83 104
-4.29317 -4.69251 -1.79967 77 78 101
-4.30197 -4.67384 -1.79727 76 74 98
-4.31195 -4.65658 -1.79546 95 96 116
-5.81739 -2.61578 -1.8206 76 80 98
-5.82301 -2.59691 -1.81999 73 79 95
-5.83432 -2.56974 -1.81999 74 83 96
-5.83453 -2.54855 -1.81759 73 82 97
-6.3179 -1.94034 -1.83096 70 78 99
-6.33594 -1.92456 -1.83501 69 77 96
-6.77379 -1.21212 -1.82066 74 85 105
-7.01043 -0.858825 -1.81836 72 83 103
-7.20046 -0.55568 -1.81172 84 99 118
-7.21864 -0.534245 -1.81647 82 95 114
-7.55316 -0.0809266 -1.82054 70 85 108
-2.39004 -6.34903 -1.61388 137 130 137
-2.59635 -6.07763 -1.61926 136 130 136
-2.9935 -6.05624 -1.71487 139 127 113
-3.36367 -5.96951 -1.79231 131 123 118
-3.38334 -5.96317 -1.79342 131 122 119
-3.80905 -5.35631 -1.79898 85 83 97
-3.83129 -5.33604 -1.79781 97 94 113
-4.22112 -4.74025 -1.79551 84 80 107
-4.23389 -4.72606 -1.7949 82 79 108
-4.25415 -4.72045 -1.79789 84 84 112
-4.83118 -3.92613 -1.80859 104 104 116
-4.83398 -3.90411 -1.80489 103 101 114
-4.85417 -3.89676 -1.80858 109 107 120
-4.86438 -3.86856 -1.80549 96 94 107
-4.87863 -3.8562 -1.80672 89 87 101
-4.89581 -3.84619 -1.80917 102 100 112
-4.91161 -3.82266 -1.80855 101 99 113
-4.91984 -3.80534 -1.80731 111 109 122
-4.92505 -3.78562 -1.80484 87 85 98
-4.94206 -3.77537 -1.8073 80 79 93
-4.96646 -3.75869 -1.81037 90 87 104
-4.96999 -3.73771 -1.80729 95 91 106
-4.9839 -3.72491 -1.80851 103 101 115
-5.00211 -3.70329 -1.80912 84 82 96
-5.00689 -3.68343 -1.80665 85 83 96
-5.02671 -3.67508 -1.81034 103 101 114
-5.04165 -3.65095 -1.80972 89 85 99
-5.05079 -3.63444 -1.8091 92 88 102
-5.069 -3.62471 -1.81217 120 116 131
-5.07497 -3.60587 -1.81032 104 101 110
-5.08959 -3.58151 -1.80969 113 110 117
-5.10769 -3.57157 -1.81276 110 107 114
-5.115 -3.55375 -1.81153 109 106 115
-5.1309 -3.53032 -1.81152 114 111 122
-5.14891 -3.52016 -1.81459 113 110 119
-5.15603 -3.50224 -1.81336 110 107 116
-5.16547 -3.47425 -1.81089 112 109 120
-5.18024 -3.46172 -1.81273 109 106 117
-5.19497 -3.44912 -1.81457 104 100 114
-5.19715 -3.42787 -1.81149 105 103 117
-5.20615 -3.39976 -1.80902 94 92 105
-5.21285 -3.38172 -1.80779 83 82 96
-5.22739 -3.36894 -1.80963 95 93 107
-5.24399 -3.34599 -1.81024 90 90 100
-5.25208 -3.3289 -1.80961 89 86 97
-5.27285 -3.3201 -1.81392 100 98 111
-5.27806 -3.28968 -1.81022 89 87 101
-5.85392 -2.53569 -1.82178 74 81 97
-5.85793 -2.50537 -1.81938 72 81 96
-5.85615 -2.48343 -1.81638 75 85 97
-6.33199 -1.90195 -1.83211 75 84 101
-6.33458 -1.87059 -1.83037 76 85 102
-6.77864 -1.1913 -1.82122 74 85 103
-6.78341 -1.17047 -1.82178 71 82 102
-7.02371 -0.838365 -1.82162 74 85 105
-7.03504 -0.817593 -1.82434 80 91 110
-7.20489 -0.499163 -1.81225 90 102 123
-7.54117 -0.0614657 -1.81684 70 83 105
-2.55432 -6.07771 -1.61505 139 134 137
-2.57601 -6.0795 -1.61768 140 134 139
-2.94849 -6.05376 -1.70891 141 127 114
-2.97291 -6.05944 -1.71325 140 127 113
-3.33285 -5.97719 -1.79009 129 119 115
-3.78116 -5.38532 -1.80131 78 74 89
-3.79302 -5.36765 -1.79898 89 84 100
-4.16764 -4.78011 -1.79373 81 78 105
-4.19165 -4.77916 -1.79852 85 83 107
-4.20581 -4.76651 -1.79852 86 83 108
-4.7084 -4.0546 -1.80434 102 102 117
-4.73518 -4.04079 -1.80802 104 103 118
-4.74705 -4.02645 -1.80801 104 102 116
-4.75176 -4.00577 -1.80493 103 101 115
-4.77983 -3.9929 -1.80923 106 103 120
-4.78581 -3.97342 -1.80676 109 106 123
-4.80179 -3.96263 -1.8086 106 104 118
-4.80621 -3.94188 -1.80552 106 106 118
-5.30035 -3.28173 -1.81514 88 86 100
-5.29222 -3.25426 -1.80836 98 95 112
-5.31124 -3.24415 -1.81205 88 85 102
-5.31117 -3.21065 -1.80651 71 76 90
-5.3269 -3.19839 -1.80896 72 79 94
-5.34258 -3.18605 -1.81142 76 79 98
-5.34862 -3.15652 -1.80834 76 82 98
-5.35934 -3.1411 -1.80895 75 81 97
-5.37651 -3.12957 -1.81202 75 80 99
-5.37897 -3.09801 -1.80771 73 80 99
-5.88243 -2.47331 -1.82297 74 84 96
-5.86822 -2.44622 -1.81577 73 83 95
-6.34695 -1.85297 -1.83269 77 86 103
-6.35926 -1.83528 -1.835 72 81 98
-6.78233 -1.13776 -1.8201 75 86 106
-7.02845 -0.783537 -1.82162 79 89 110
-7.2056 -0.476489 -1.81225 76 89 108
-7.54627 -0.0326187 -1.81865 79 91 114
-2.52108 -6.07396 -1.61084 140 135 140
-2.91536 -6.05387 -1.70512 141 127 116
-3.29605 -5.99458 -1.78956 120 112 109
-3.31314 -5.98336 -1.78899 130 120 118
-3.76189 -5.39177 -1.79958 78 77 92
-4.11707 -4.79374 -1.78655 89 85 110
-4.14349 -4.79595 -1.79254 87 84 111
-4.612 -4.16855 -1.805 95 94 108
-4.62804 -4.14502 -1.80376 105 104 120
-4.64303 -4.13362 -1.80499 97 96 110
-4.6538 -4.11828 -1.80437 99 98 112
-4.67151 -4.10936 -1.80682 97 95 109
-4.69285 -4.0907 -1.80804 98 96 110
-4.69926 -4.07138 -1.80557 106 105 119
-5.38788 -3.0815 -1.8077 73 80 98
-5.40163 -3.06785 -1.80954 72 79 97
-5.41043 -3.05127 -1.80954 74 81 99
-5.43219 -3.0311 -1.81261 75 82 98
-5.43757 -3.01252 -1.81138 72 79 97
-5.43959 -2.99207 -1.80891 77 86 103
-5.89644 -2.42604 -1.82177 68 76 89
-5.88909 -2.40193 -1.81697 76 86 98
-5.91343 -2.39072 -1.82296 73 83 95
-6.35599 -1.80225 -1.83153 71 79 98
-6.35713 -1.78131 -1.83037 73 86 103
-6.82102 -1.12241 -1.8307 78 90 111
-6.7877 -1.0954 -1.8201 70 81 101
-7.0396 -0.762671 -1.82433 73 85 107
-7.17742 -0.452102 -1.80432 74 89 111
-7.56833 -0.0134711 -1.82599 82 94 118
-2.50551 -6.08819 -1.61296 140 135 141
-2.89482 -6.05679 -1.7035 140 126 115
-3.27123 -6.01388 -1.79125 120 110 108
-3.70068 -5.42424 -1.79729 126 125 145
-3.71898 -5.41641 -1.79844 91 92 113
-3.7456 -5.42136 -1.80423 77 71 91
-4.0883 -4.86339 -1.79738 86 83 110
-4.10274 -4.85109 -1.79737 86 83 110
-4.12832 -4.83695 -1.79916 85 83 109
-4.54054 -4.24182 -1.80381 100 99 115
-4.55036 -4.22546 -1.80257 97 96 112
-4.56964 -4.21834 -1.80564 89 91 106
-4.58319 -4.19236 -1.80317 95 96 112
-4.59694 -4.17982 -1.80378 103 103 118
-5.47271 -2.97817 -1.81629 73 80 99
-5.47127 -2.95579 -1.81259 71 78 97
-5.47806 -2.93806 -1.81197 72 81 98
-5.49439 -2.91462 -1.8132 76 83 101
-5.49604 -2.89409 -1.81073 77 84 102
-5.49928 -2.87448 -1.80888 74 81 99
-5.90606 -2.35604 -1.81696 74 84 96
-5.93033 -2.34463 -1.82296 71 81 93
-5.94038 -2.32753 -1.82415 78 86 97
-6.36556 -1.76246 -1.83152 70 82 98
-6.37208 -1.74306 -1.8321 69 81 97
-6.79005 -1.06331 -1.81954 76 87 105
-7.02589 -0.73901 -1.81999 76 88 110
-7.20748 -0.419785 -1.81225 81 93 115
-2.48456 -6.08794 -1.61086 142 137 141
-2.87281 -6.0561 -1.70079 139 125 114
-3.24799 -6.01296 -1.78791 123 114 109
-3.63307 -5.40951 -1.78225 136 136 147
-3.68409 -5.45362 -1.80194 143 143 155
-4.02767 -4.89414 -1.7926 85 82 110
-4.0713 -4.90272 -1.80339 86 82 107
-4.07865 -4.88158 -1.79978 86 82 106
-4.4611 -4.32045 -1.80262 91 90 108
-4.47662 -4.29622 -1.80076 87 86 102
-4.49735 -4.2908 -1.80445 92 91 106
-4.50195 -4.26919 -1.80075 105 104 118
-4.52129 -4.2623 -1.80382 103 105 118
-5.51585 -2.86206 -1.81196 81 88 106
-5.52847 -2.8366 -1.81195 79 85 104
-5.53654 -2.81959 -1.81195 71 78 96
-5.54289 -2.80167 -1.81133 72 79 96
-5.94686 -2.29839 -1.82295 74 81 97
-5.95144 -2.27917 -1.82235 80 87 102
-5.96486 -2.26331 -1.82475 74 83 96
-6.37204 -1.71112 -1.82978 72 83 99
-6.80202 -1.04353 -1.82233 73 85 101
-7.04566 -0.707901 -1.82488 78 89 111
-7.22909 -0.398185 -1.81806 78 90 112
-2.45406 -6.09103 -1.60876 138 133 139
-2.81566 -6.04957 -1.69267 141 127 114
-2.8398 -6.05579 -1.697 142 128 115
-3.23165 -6.0257 -1.78904 121 113 109
-3.64122 -5.4592 -1.79616 127 127 138
-4.01854 -4.9437 -1.80282 85 85 109
-4.02612 -4.92265 -1.79921 83 80 109
-4.39749 -4.37491 -1.80019 84 86 105
-4.41307 -4.36442 -1.80141 86 84 105
-4.4381 -4.34994 -1.80386 85 85 106
-4.44431 -4.32977 -1.80078 92 91 109
-5.56197 -2.77955 -1.81378 73 81 99
-5.56479 -2.75983 -1.81193 75 83 100
-5.57094 -2.74184 -1.81132 81 88 104
-5.5779 -2.71354 -1.80946 76 82 97
-5.9711 -2.24471 -1.82474 74 83 97
-5.98434 -2.21809 -1.82594 76 84 97
-6.3821 -1.69268 -1.83152 77 86 102
-6.38472 -1.6722 -1.83094 75 87 103
-6.79495 -1.02088 -1.81954 77 90 109
-6.79539 -0.999376 -1.81898 67 79 99
-7.04512 -0.685699 -1.82433 78 90 112
-7.0407 -0.663125 -1.8227 74 86 108
-7.21411 -0.37468 -1.81383 70 84 105
-2.43964 -6.10869 -1.61195 137 135 138
-2.79523 -6.05213 -1.69105 143 129 116
-3.18678 -6.05042 -1.78962 130 120 111
-3.20662 -6.04471 -1.79073 124 115 108
-3.58783 -5.46652 -1.78923 128 126 139
-3.61426 -5.47211 -1.79502 126 126 137
-3.95608 -4.97196 -1.79744 88 86 112
-3.97316 -4.96311 -1.79864 87 84 111
-3.98321 -4.94516 -1.79623 87 87 111
-4.34355 -4.4395 -1.80268 100 99 115
-4.35149 -4.42089 -1.80021 97 96 112
-4.36718 -4.41058 -1.80143 84 85 105
-4.38583 -4.38948 -1.80081 86 87 107
-5.60258 -2.70483 -1.81561 78 84 100
-5.59663 -2.68083 -1.81069 73 80 96
-5.59739 -2.66024 -1.80822 74 80 96
-5.62614 -2.64264 -1.81437 75 81 97
-5.98865 -2.19878 -1.82534 76 83 99
-5.98751 -2.1775 -1.82294 76 83 99
-5.99688 -2.14947 -1.82293 71 78 96
-6.39172 -1.64221 -1.83094 68 79 97
-6.39417 -1.62172 -1.83036 75 83 102
-6.79541 -0.966992 -1.81786 75 88 104
-6.81748 -0.897335 -1.80951 63 75 97
-6.82132 -0.880671 -1.81016 74 86 106
-7.04576 -0.641493 -1.82379 74 87 109
-7.22074 -0.340855 -1.81542 80 92 116
-2.41805 -6.10638 -1.60931 135 133 135
-2.77696 -6.05997 -1.69106 140 126 113
-3.16777 -6.05779 -1.78907 132 121 113
-3.55603 -5.48933 -1.78983 132 130 141
-3.57544 -5.48366 -1.79156 129 127 138
-3.91519 -4.99685 -1.79566 87 84 111
-3.92541 -4.97905 -1.79326 87 84 113
-4.28223 -4.49629 -1.80209 96 95 110
-4.28788 -4.47499 -1.79839 96 95 109
-4.30882 -4.47054 -1.80208 95 97 112
-4.31822 -4.4534 -1.80023 100 99 113
-5.62507 -2.62118 -1.81129 76 82 96
-5.6359 -2.60548 -1.81252 75 82 96
-5.64215 -2.57697 -1.81067 74 80 96
-5.64769 -2.55877 -1.81005 75 81 97
-5.99557 -2.12822 -1.82053 72 79 97
-6.01578 -2.11454 -1.82533 74 83 100
-6.41694 -1.60643 -1.83615 75 86 105
-6.80708 -0.947051 -1.82065 74 85 102
-6.82088 -0.854583 -1.80878 70 82 104
-6.82087 -0.837299 -1.80808 73 85 107
-7.02684 -0.606561 -1.81781 73 88 111
-7.22288 -0.318193 -1.81595 84 96 118
-2.39264 -6.12364 -1.61144 136 134 137
-2.74269 -6.05556 -1.68618 139 127 113
-3.11525 -6.06641 -1.78463 130 120 110
-3.14958 -6.06683 -1.78909 133 124 117
-3.51737 -5.52044 -1.79159 132 129 142
-3.52699 -5.49852 -1.78752 129 127 139
-3.88086 -5.01406 -1.79328 82 84 109
-3.89918 -5.00701 -1.79507 86 86 112
-4.23238 -4.53807 -1.80089 82 81 99
-4.24835 -4.52822 -1.80211 99 98 115
-4.2567 -4.50981 -1.79964 99 98 112
-5.65834 -2.54294 -1.81128 74 80 96
-5.66772 -2.51596 -1.81066 74 81 97
-5.68863 -2.50475 -1.81558 72 79 95
-6.03384 -2.08947 -1.82832 75 84 99
-6.02691 -2.06633 -1.82412 74 84 96
-6.42734 -1.57721 -1.8373 74 85 105
-6.41474 -1.55295 -1.83209 79 92 108
-6.41878 -1.53285 -1.83209 77 90 107
-6.8092 -0.925774 -1.82065 76 87 107
-6.80887 -0.893355 -1.81953 77 89 113
-6.82267 -0.820305 -1.80806 74 86 110
-6.7904 -0.789464 -1.79514 76 88 110
-6.77904 -0.770637 -1.79037 73 86 107
-7.04321 -0.58594 -1.82216 63 78 101
-7.23073 -0.295732 -1.81806 87 98 120
-7.2385 -0.273215 -1.82018 77 92 115
-2.37297 -6.12661 -1.6104 136 131 135
-2.69697 -6.04758 -1.67914 140 126 114
-2.71945 -6.05072 -1.68239 140 126 114
-3.09784 -6.07701 -1.7852 133 120 111
-3.50082 -5.53082 -1.7916 134 130 144
-3.83926 -5.06975 -1.79931 89 90 118
-3.85322 -5.05673 -1.7987 84 84 110
-3.86823 -5.0452 -1.79869 86 86 112
-4.18334 -4.58068 -1.8003 79 80 98
-4.2019 -4.57389 -1.80275 76 79 98
-4.21297 -4.55844 -1.80151 78 79 97
-5.69739 -2.48798 -1.81619 75 82 98
-5.69782 -2.45696 -1.81249 75 83 96
-5.70124 -2.43783 -1.81126 72 81 96
-6.04336 -2.05116 -1.82772 73 83 95
-6.0381 -2.02867 -1.82412 73 82 97
-6.4307 -1.50402 -1.83383 74 85 103
-6.80701 -0.871593 -1.81841 79 91 112
-6.7862 -0.754575 -1.79239 69 81 103
-7.04994 -0.564413 -1.82379 74 86 110
-2.35455 -6.13314 -1.61041 140 136 138
-2.6678 -6.05525 -1.67806 139 127 113
-3.07392 -6.07365 -1.78131 129 119 110
-3.4512 -5.54331 -1.78698 119 118 130
-3.46972 -5.53639 -1.78813 137 136 147
-3.79329 -5.0874 -1.79513 85 89 116
-3.80952 -5.07761 -1.79572 85 91 117
-4.13385 -4.62271 -1.79971 85 81 98
-4.15249 -4.61614 -1.80216 93 91 105
-4.16001 -4.59649 -1.79908 95 95 112
-5.71849 -2.42479 -1.81495 73 80 96
-5.7183 -2.40411 -1.81248 72 79 95
-5.73051 -2.37836 -1.81309 72 81 96
-6.05398 -2.00276 -1.82652 75 85 98
-6.06665 -1.9862 -1.82891 73 83 95
-6.05389 -1.96141 -1.82291 72 81 96
-6.42526 -1.48167 -1.83093 73 86 102
-6.42161 -1.4598 -1.82861 74 85 103
-6.80508 -0.849846 -1.81729 73 85 107
-6.78144 -0.728192 -1.78964 75 88 111
-6.77545 -0.71029 -1.78691 73 88 111
-7.05363 -0.531509 -1.82433 77 89 113
-7.05447 -0.509456 -1.82433 82 96 119
-7.22736 -0.238668 -1.81701 76 91 114
-2.33424 -6.13415 -1.60884 140 135 139
-2.64608 -6.05371 -1.67536 138 126 112
-3.02386 -6.08665 -1.77854 132 119 110
-3.04292 -6.07976 -1.77909 133 120 112
-3.43841 -5.56011 -1.78931 115 113 125
-3.78144 -5.10334 -1.79694 90 88 115
-4.07908 -4.65829 -1.79666 103 101 115
-4.1014 -4.65634 -1.80096 100 97 113
-4.11887 -4.63357 -1.7991 75 73 94
-5.74413 -2.36362 -1.81555 73 82 97
-5.73846 -2.34072 -1.81124 72 80 93
-5.75741 -2.31774 -1.81431 73 81 94
-6.0713 -1.93591 -1.82591 70 82 98
-6.07651 -1.91693 -1.82591 69 80 98
-6.43841 -1.44267 -1.83267 74 85 103
-6.80819 -0.817922 -1.81729 72 84 106
-6.81964 -0.699149 -1.80248 70 85 108
-7.05904 -0.487682 -1.82542 78 88 113
-7.23881 -0.216198 -1.82018 74 89 110
-7.22902 -0.193164 -1.81754 80 91 113
-2.30677 -6.14557 -1.60938 139 134 138
-2.62302 -6.04849 -1.67157 140 128 116
-2.99847 -6.07949 -1.77353 132 122 113
-3.39529 -5.58365 -1.78875 83 82 89
-3.41771 -5.58358 -1.79222 95 92 101
-3.72223 -5.13464 -1.79396 90 87 116
-3.73642 -5.12198 -1.79336 91 91 119
-3.75932 -5.12174 -1.79755 88 89 115
-4.0487 -4.69445 -1.79914 72 71 90
-4.07362 -4.68072 -1.80097 93 92 108
-4.70909 -3.71376 -1.79717 90 88 102
-4.72429 -3.70289 -1.79907 90 86 101
-4.73774 -3.67884 -1.79779 97 93 108
-4.7424 -3.65967 -1.79525 89 85 100
-4.75596 -3.64747 -1.79651 91 89 103
-4.76915 -3.6233 -1.79524 84 80 94
-4.78562 -3.61329 -1.79777 103 101 112
-4.79001 -3.59404 -1.79523 111 109 120
-4.8049 -3.58278 -1.79712 107 104 115
-4.81774 -3.5584 -1.79585 113 111 122
-4.82648 -3.5425 -1.79521 112 109 120
-4.83667 -3.52769 -1.7952 92 86 100
-4.86605 -3.51549 -1.8009 103 99 113
-4.86698 -3.49386 -1.79709 98 95 106
-4.88778 -3.48669 -1.80152 104 101 110
-4.8924 -3.45644 -1.79708 116 109 125
-4.89616 -3.43703 -1.79454 102 95 113
-4.91842 -3.43072 -1.7996 96 90 104
-4.92671 -3.41452 -1.79896 108 107 115
-4.94959 -3.39719 -1.80212 104 102 115
-4.94842 -3.37444 -1.79768 100 98 112
-4.96278 -3.36244 -1.79958 87 85 99
-4.97764 -3.33952 -1.79957 96 95 109
-4.97933 -3.31892 -1.7964 94 94 106
-5.00144 -3.31202 -1.80146 91 91 103
-5.76561 -2.30067 -1.81493 74 84 95
-5.75792 -2.27711 -1.81 74 84 96
-5.78012 -2.25536 -1.8143 74 82 98
-6.09442 -1.90188 -1.8301 75 84 101
-6.08606 -1.8683 -1.8247 74 83 100
-6.44805 -1.41322 -1.83382 72 83 101
-6.45164 -1.393 -1.83382 67 79 98
-6.80418 -0.795978 -1.81562 77 89 111
-6.80582 -0.774696 -1.81562 73 85 107
-6.81541 -0.681413 -1.80043 78 90 112
-7.0547 -0.454175 -1.82379 75 87 109
-2.59321 -6.05399 -1.66995 138 126 114
-2.96986 -6.09045 -1.77298 133 120 112
-3.36082 -5.6019 -1.78819 120 117 124
-3.37855 -5.59364 -1.78876 89 89 97
-3.68459 -5.16375 -1.79458 96 93 121
-3.71235 -5.15353 -1.79697 92 93 121
-4.00391 -4.74234 -1.80163 82 80 101
-4.0195 -4.717 -1.79854 76 74 97
-4.04307 -4.71685 -1.80345 76 73 92
-4.56708 -3.88822 -1.79598 104 101 118
-4.56832 -3.86563 -1.79154 107 106 122
-4.5824 -3.85416 -1.7928 105 104 120
-4.59956 -3.83317 -1.79279 103 101 114
-4.61501 -3.8228 -1.79469 103 101 115
-4.62172 -3.80505 -1.79278 91 90 105
-4.64448 -3.78871 -1.79531 103 102 116
-4.65545 -3.77452 -1.7953 88 87 103
-4.67956 -3.7711 -1.801 77 76 90
-4.68461 -3.75201 -1.79845 94 92 105
-4.7057 -3.73408 -1.80035 107 106 114
-5.00815 -3.28368 -1.79828 96 96 108
-5.02545 -3.27346 -1.80145 83 82 96
-5.03481 -3.25798 -1.80144 83 82 100
-5.06004 -3.25278 -1.80777 79 77 98
-5.08234 -3.2345 -1.81093 76 82 98
-5.058 -3.19745 -1.79762 78 85 101
-5.07193 -3.18489 -1.79952 74 81 97
-5.07791 -3.15639 -1.79634 76 81 100
-5.1207 -3.16175 -1.80965 72 77 96
-5.10391 -3.13002 -1.7995 74 81 99
-5.12415 -3.11033 -1.80203 71 78 96
-5.78636 -2.23748 -1.8143 73 79 95
-5.80138 -2.22307 -1.81738 73 79 94
-5.80577 -2.20443 -1.81676 76 82 98
-6.102 -1.85257 -1.8283 74 83 98
-6.11246 -1.83511 -1.8301 75 85 97
-6.46452 -1.37481 -1.83672 67 78 96
-6.81694 -0.754427 -1.81841 87 100 118
-6.81774 -0.655917 -1.8004 81 93 114
-6.78845 -0.618117 -1.78883 77 89 111
-7.0572 -0.432239 -1.82433 76 88 110
-7.23673 -0.159132 -1.81965 74 86 110
-2.55133 -6.05387 -1.66562 137 124 115
-2.57428 -6.05937 -1.66942 138 126 114
-2.92014 -6.07734 -1.76351 134 121 110
-2.94458 -6.08307 -1.76797 134 121 112
-3.33151 -5.60999 -1.78589 125 121 128
-3.65377 -5.18554 -1.7946 101 96 124
-3.67454 -5.18255 -1.79759 98 94 122
-3.95439 -4.76887 -1.79796 82 83 104
-3.97091 -4.76009 -1.79918 85 83 106
-3.9886 -4.75274 -1.80102 82 82 102
-4.46887 -3.99314 -1.7935 106 104 118
-4.47768 -3.977 -1.79222 100 98 112
-4.49627 -3.96971 -1.79538 91 90 104
-4.50971 -3.94537 -1.79348 107 105 119
-4.52402 -3.93415 -1.79474 109 107 121
-4.52691 -3.91285 -1.79093 110 107 123
-4.54681 -3.90654 -1.79472 105 103 117
-5.12165 -3.08764 -1.79759 75 84 101
-5.15804 -3.08845 -1.80836 74 83 100
-5.16682 -3.07252 -1.80835 76 84 103
-5.18356 -3.0505 -1.80961 74 82 101
-5.19387 -3.03545 -1.81024 73 80 99
-5.20411 -3.02035 -1.81087 70 76 98
-5.81173 -2.17611 -1.81552 77 85 100
-5.82482 -2.16084 -1.81798 72 82 94
-6.1137 -1.81492 -1.8289 78 85 102
-6.12133 -1.78623 -1.8289 70 82 98
-6.4514 -1.34042 -1.83093 69 81 99
-6.45476 -1.32019 -1.83092 70 83 102
-6.79479 -0.719887 -1.81115 68 81 101
-6.82828 -0.640052 -1.80377 71 83 105
-7.06538 -0.410643 -1.8265 83 98 121
-7.22869 -0.136202 -1.81754 75 87 111
-7.22442 -0.113368 -1.81648 78 89 111
-2.53108 -6.0555 -1.664 140 127 118
-2.89727 -6.07502 -1.76017 134 121 112
-3.30511 -5.64293 -1.79054 126 125 132
-3.31835 -5.62648 -1.78821 126 121 130
-3.62699 -5.197 -1.79281 101 96 123
-3.896 -4.79911 -1.79368 85 83 107
-3.92182 -4.80262 -1.79982 83 81 104
-3.93728 -4.79246 -1.80043 82 83 104
-4.38699 -4.08853 -1.79418 95 93 108
-4.40304 -4.07912 -1.79607 99 97 113
-4.40249 -4.05405 -1.79036 105 104 119
-4.43443 -4.04689 -1.79669 103 100 117
-4.43371 -4.02182 -1.79098 101 98 115
-4.45376 -4.01603 -1.79477 105 103 117
-5.22063 -2.99811 -1.81213 75 82 101
-5.23079 -2.98291 -1.81276 74 82 100
-5.24088 -2.96768 -1.81339 75 83 101
-5.25222 -2.94242 -1.81275 74 83 100
-5.26221 -2.9271 -1.81338 74 83 100
-5.27214 -2.91174 -1.81401 74 82 100
-5.82367 -2.14012 -1.81552 73 82 97
-5.8311 -2.11241 -1.8149 74 83 98
-6.1096 -1.76237 -1.8235 73 85 102
-6.11977 -1.74481 -1.82529 73 85 101
-6.47493 -1.30341 -1.83614 75 86 104
-6.81528 -0.700523 -1.81673 61 77 101
-6.78418 -0.676069 -1.80724 76 88 110
-6.83338 -0.597649 -1.80439 72 84 105
-7.05815 -0.38809 -1.82433 89 104 127
-2.49936 -6.05509 -1.66076 144 131 122
-2.87023 -6.089 -1.76075 137 123 114
-3.27567 -5.6507 -1.78824 125 123 129
-3.60329 -5.22957 -1.79703 100 98 122
-3.61464 -5.21251 -1.79462 98 96 120
-3.85973 -4.82786 -1.7937 86 84 107
-3.87754 -4.82095 -1.79553 82 78 103
-4.31118 -4.16496 -1.79295 101 99 113
-4.32708 -4.14268 -1.79167 98 97 111
-4.33915 -4.12956 -1.79167 99 98 112
-4.35119 -4.11639 -1.79166 102 101 117
-4.37002 -4.10976 -1.79482 102 101 117
-5.27538 -2.89268 -1.8121 72 81 98
-5.29303 -2.87089 -1.814 71 80 95
-5.30114 -2.8545 -1.81399 72 80 99
-5.30417 -2.8354 -1.81209 71 79 98
-5.31488 -2.80986 -1.81145 77 86 103
-5.84045 -2.09567 -1.81613 77 86 101
-5.84621 -2.07758 -1.81612 73 82 97
-5.86226 -2.05299 -1.81858 73 83 95
-6.13993 -1.71963 -1.82949 73 82 99
-6.4708 -1.27105 -1.83324 69 80 98
-6.47206 -1.25038 -1.83266 73 84 102
-6.7941 -0.644914 -1.80947 73 85 107
-6.84376 -0.581625 -1.80776 71 84 103
-6.80369 -0.560085 -1.79283 79 91 113
-7.05718 -0.354862 -1.82379 73 87 110
-7.22598 -0.0792162 -1.81701 78 90 112
-2.48173 -6.06378 -1.66131 142 130 119
-2.82466 -6.08389 -1.75407 138 124 113
-2.84593 -6.08296 -1.75629 137 123 115
-3.24351 -5.67322 -1.78941 124 122 126
-3.26502 -5.67211 -1.7923 126 121 128
-3.55863 -5.24811 -1.79405 102 94 117
-3.5722 -5.23436 -1.79284 100 95 118
-3.82325 -4.85632 -1.79372 90 88 110
-3.85213 -4.84843 -1.7974 86 83 110
-4.24897 -4.21651 -1.78981 101 100 115
-4.25596 -4.19825 -1.78727 101 100 116
-4.28141 -4.18561 -1.79043 101 100 114
-4.29764 -4.17665 -1.79232 103 101 115
-5.33118 -2.7978 -1.81461 70 77 95
-5.34577 -2.78479 -1.81714 75 82 98
-5.36129 -2.76167 -1.81841 71 79 97
-5.36061 -2.74073 -1.81523 73 81 99
-5.35816 -2.71895 -1.81143 73 82 98
-5.86071 -2.03228 -1.81612 72 81 96
-5.86807 -2.01475 -1.81673 74 83 98
-6.14264 -1.69991 -1.82889 79 88 105
-6.12688 -1.67522 -1.82229 80 89 105
-6.47891 -1.2308 -1.83382 74 87 103
-6.48944 -1.2119 -1.83613 78 89 108
-6.79527 -0.623644 -1.80947 75 87 109
-6.82412 -0.536551 -1.79958 80 92 115
-7.06319 -0.333077 -1.82542 76 91 112
-7.22539 -0.0564287 -1.81701 69 81 103
-2.45832 -6.0561 -1.65698 143 130 122
-3.21489 -5.68234 -1.78769 125 123 128
-3.52933 -5.27229 -1.79527 106 96 119
-3.54709 -5.26503 -1.79646 106 94 117
-3.79644 -4.88194 -1.79496 84 82 103
-3.81546 -4.87682 -1.79742 88 86 107
-4.17757 -4.28376 -1.78858 81 82 100
-4.19401 -4.27525 -1.79048 84 85 103
-4.20649 -4.26257 -1.79047 106 105 123
-4.21632 -4.24712 -1.7892 107 104 121
-4.24986 -4.24289 -1.79616 96 95 112
-4.71938 -3.58067 -1.80366 106 104 115
-4.73721 -3.57222 -1.80688 110 108 119
-4.74905 -3.55903 -1.80752 113 111 122
-4.74744 -3.53533 -1.80235 110 107 118
-4.77219 -3.52065 -1.80621 108 104 118
-4.75238 -3.48317 -1.79331 104 98 112
-4.79105 -3.49051 -1.80556 107 104 115
-4.78396 -3.45161 -1.79588 105 103 116
-4.79697 -3.43935 -1.79716 103 101 114
-4.80084 -3.42027 -1.79458 99 95 109
-4.83433 -3.41184 -1.80231 104 102 115
-4.83656 -3.39156 -1.79908 101 99 112
-4.84176 -3.37353 -1.79714 83 81 92
-4.86684 -3.36988 -1.80358 84 82 96
-4.8649 -3.33556 -1.79648 103 102 116
-4.87143 -3.31858 -1.79518 85 84 98
-4.89027 -3.3103 -1.79905 83 81 95
-4.90032 -3.28471 -1.79711 100 96 110
-4.91443 -3.27303 -1.79903 89 87 100
-4.91764 -3.25377 -1.79645 81 79 93
-4.93676 -3.23449 -1.79838 79 81 96
-4.9445 -3.21839 -1.79773 79 82 99
-5.37595 -2.70746 -1.81522 75 84 101
-5.38433 -2.68074 -1.81395 75 82 98
-5.39693 -2.66656 -1.81585 75 82 98
-5.87356 -1.99657 -1.81673 74 83 98
-5.88567 -1.9705 -1.81796 72 81 98
-6.15411 -1.65181 -1.82888 74 86 100
-6.15661 -1.63206 -1.82828 71 83 98
-6.47359 -1.17749 -1.82976 72 83 100
-6.7983 -0.602533 -1.81003 85 95 116
-6.83058 -0.520071 -1.80159 69 81 105
-6.84258 -0.504094 -1.80564 70 82 106
-7.06531 -0.311064 -1.82596 73 88 111
-7.24012 -0.0336598 -1.82124 72 84 106
-7.2182 -0.0108699 -1.81543 80 93 116
-2.42924 -6.06257 -1.6559 141 131 122
-2.77046 -6.08409 -1.74795 138 124 113
-2.7924 -6.08513 -1.75073 138 124 115
-3.19783 -5.69174 -1.7877 124 122 125
-3.50429 -5.28628 -1.79468 109 97 116
-3.7551 -4.90368 -1.79252 84 84 108
-3.78854 -4.90239 -1.79866 81 82 103
-4.13948 -4.33456 -1.79178 89 87 109
-4.1457 -4.31514 -1.7886 93 91 111
-4.15831 -4.30262 -1.78859 90 90 109
-4.55087 -3.78591 -1.80118 111 109 122
-4.56047 -3.77093 -1.80052 85 87 100
-4.5729 -3.7584 -1.80116 69 68 82
-4.58099 -3.74212 -1.79987 96 95 109
-4.60493 -3.72747 -1.80308 96 94 107
-4.60712 -3.70623 -1.79921 94 94 106
-4.6208 -3.69473 -1.80049 94 93 107
-4.64022 -3.67617 -1.80177 85 83 97
-4.65384 -3.66454 -1.80305 81 78 93
-4.66741 -3.65285 -1.80434 85 84 100
-4.68666 -3.63403 -1.80562 91 89 103
-4.69429 -3.61746 -1.80432 112 110 123
-4.70479 -3.60324 -1.80432 110 108 119
-4.95219 -3.20227 -1.79708 75 80 99
-4.96138 -3.18718 -1.79707 75 82 100
-4.99442 -3.177 -1.8048 77 84 102
-5.01303 -3.168 -1.80866 77 84 103
-4.99837 -3.1372 -1.79899 72 79 101
-5.01066 -3.11329 -1.79833 72 81 98
-5.01799 -3.09698 -1.79769 75 82 100
-5.06193 -3.10402 -1.81186 74 82 101
-5.07246 -3.0788 -1.81057 76 85 102
-5.05244 -3.04525 -1.79896 72 80 98
-5.05953 -3.02881 -1.79831 73 79 98
-5.401 -2.64814 -1.81458 74 82 95
-5.4142 -2.62381 -1.81521 73 80 98
-5.4164 -2.60454 -1.8133 73 80 96
-5.43395 -2.59262 -1.8171 76 83 99
-5.88384 -1.9498 -1.81549 70 79 95
-5.90712 -1.93763 -1.82164 76 85 100
-6.14611 -1.60896 -1.82348 69 81 97
-6.16507 -1.59348 -1.82828 78 90 106
-6.48774 -1.15924 -1.83324 72 83 100
-6.84229 -0.573983 -1.82231 71 83 105
-6.83958 -0.486638 -1.80426 77 89 115
-7.08124 -0.27856 -1.83031 79 93 116
-2.40657 -6.0565 -1.65211 140 130 120
-2.74927 -6.08474 -1.74573 138 125 113
-3.16275 -5.70866 -1.78714 124 121 126
-3.18336 -5.70618 -1.78944 123 121 124
-3.46768 -5.29881 -1.7917 114 98 118
-3.49762 -5.31114 -1.80009 112 98 117
-3.72688 -4.92733 -1.79315 88 86 110
-3.74156 -4.9163 -1.79314 84 84 110
-4.08548 -4.36814 -1.78737 84 85 104
-4.11104 -4.36981 -1.7937 94 95 115
-4.11997 -4.35322 -1.79179 94 95 115
-4.44855 -3.89605 -1.79865 105 104 117
-4.4702 -3.87976 -1.80058 105 102 114
-4.47873 -3.86375 -1.79928 104 101 114
-4.49283 -3.85278 -1.80056 96 94 108
-4.51572 -3.83749 -1.80313 99 97 111
-4.51985 -3.81759 -1.7999 98 95 112
-4.52958 -3.8027 -1.79925 104 102 116
-5.06818 -3.01336 -1.7983 79 86 104
-5.08633 -2.99307 -1.80023 76 84 100
-5.08519 -2.97164 -1.79636 70 79 96
-5.1228 -2.97366 -1.80796 74 83 100
-5.14242 -2.95402 -1.81053 75 82 100
-5.44005 -2.56488 -1.81519 75 82 98
-5.44032 -2.54477 -1.81266 73 80 96
-5.45086 -2.52946 -1.81392 75 82 98
-5.46306 -2.5149 -1.81582 74 81 97
-5.90455 -1.90656 -1.81795 74 83 100
-5.91152 -1.88884 -1.81856 71 80 97
-5.92744 -1.87403 -1.82225 74 83 98
-6.16243 -1.56219 -1.82528 71 83 99
-6.483 -1.13751 -1.83092 72 83 101
-6.84515 -0.552702 -1.82287 68 81 105
-6.8354 -0.460488 -1.8022 81 93 119
-6.836 -0.4434 -1.80218 77 89 113
-7.05632 -0.255396 -1.82325 82 97 120
-2.38458 -6.05216 -1.64886 143 131 122
-2.71784 -6.08735 -1.74295 137 123 112
-3.1418 -5.73272 -1.79063 125 120 126
-3.43164 -5.33074 -1.79412 104 94 114
-3.44652 -5.31897 -1.79351 107 94 112
-3.67695 -4.96867 -1.79441 94 94 120
-3.68852 -4.95312 -1.79256 92 92 119
-3.70654 -4.9469 -1.7944 91 91 117
-4.03084 -4.4273 -1.7893 99 98 114
-4.04005 -4.41091 -1.78739 100 99 115
-4.06305 -4.41005 -1.79245 87 86 102
-4.07596 -4.39781 -1.79245 81 80 98
-4.37857 -3.98744 -1.80127 106 104 118
-4.38615 -3.97036 -1.79933 106 105 119
-4.40325 -3.96237 -1.80191 107 105 119
-4.41277 -3.93472 -1.79803 107 105 119
-4.42703 -3.92402 -1.79931 105 103 117
-4.43157 -3.90427 -1.79608 105 104 119
-5.14921 -2.93732 -1.80988 73 81 98
-5.16898 -2.92827 -1.81439 73 82 99
-5.17371 -2.89978 -1.81116 73 82 99
-5.1836 -2.88489 -1.8118 73 81 99
-5.19015 -2.86808 -1.81115 71 80 98
-5.19667 -2.85125 -1.8105 74 81 100
-5.47738 -2.49099 -1.81708 76 82 97
-5.47912 -2.47163 -1.81517 74 80 96
-5.49116 -2.45691 -1.81707 78 86 99
-5.92273 -1.84239 -1.81794 75 84 101
-6.16832 -1.54334 -1.82588 74 86 102
-6.18341 -1.52672 -1.82948 73 82 97
-6.48935 -1.10731 -1.8315 76 89 108
-6.4788 -1.08466 -1.82745 69 82 101
-6.84797 -0.531403 -1.82342 75 87 111
-6.80287 -0.506696 -1.81003 73 85 109
-6.85525 -0.427856 -1.80894 79 91 115
-6.8115 -0.398616 -1.79264 75 87 111
-7.06779 -0.233731 -1.82651 75 87 111
-2.35739 -6.06372 -1.64942 138 128 119
-2.69457 -6.08247 -1.73905 137 124 113
-3.09965 -5.73556 -1.78543 125 120 126
-3.122 -5.73674 -1.7889 125 119 126
-3.4177 -5.34409 -1.79533 103 94 115
-3.64783 -4.97546 -1.79073 92 89 116
-3.98352 -4.46799 -1.78869 99 98 114
-4.00159 -4.46173 -1.79122 99 100 115
-4.01217 -4.44684 -1.78994 101 100 116
-4.29615 -4.05491 -1.79616 104 103 119
-4.31609 -4.05 -1.80002 102 101 115
-4.33429 -4.03055 -1.80001 103 102 116
-4.34474 -4.01621 -1.79936 104 101 118
-4.35514 -4.00185 -1.7987 107 105 119
-5.22567 -2.83663 -1.81694 75 82 98
-5.22547 -2.81601 -1.81371 80 87 106
-5.23842 -2.80274 -1.81564 75 82 101
-5.24741 -2.77683 -1.81434 74 82 101
-5.25028 -2.75803 -1.81241 75 84 101
-5.49135 -2.4267 -1.81327 75 85 97
-5.51198 -2.41569 -1.81833 73 81 94
-5.50474 -2.39252 -1.81326 74 81 97
-5.93674 -1.82688 -1.82102 74 85 101
-5.93438 -1.80618 -1.81855 76 84 103
-5.94465 -1.78945 -1.8204 76 84 103
-6.18601 -1.49676 -1.82827 68 80 95
-6.18614 -1.47649 -1.82707 75 85 101
-6.49267 -1.06622 -1.83092 69 80 101
-7.06033 -0.200293 -1.82433 88 100 122
-2.33726 -6.06467 -1.6478 137 127 119
-2.65238 -6.08314 -1.73461 138 125 116
-2.67275 -6.08106 -1.73627 137 124 115
-3.37538 -5.36583 -1.79415 101 99 120
-3.38941 -5.3526 -1.79294 104 96 119
-3.60733 -5.01379 -1.79322 84 83 114
-3.62018 -5 -1.79198 84 84 112
-3.64042 -4.99719 -1.79505 91 88 117
-3.93944 -4.51246 -1.78999 103 102 115
-3.94778 -4.49485 -1.78744 101 100 116
-3.96218 -4.48443 -1.78807 98 97 112
-4.22965 -4.12509 -1.7962 99 98 112
-4.23913 -4.10972 -1.7949 96 95 110
-4.26707 -4.11321 -1.80263 96 95 110
-4.27491 -4.08326 -1.79746 105 104 119
-4.29224 -4.07579 -1.80003 104 103 118
-5.26309 -2.74463 -1.81434 77 85 101
-5.26345 -2.71417 -1.80982 74 80 97
-5.27278 -2.69891 -1.81046 78 85 101
-5.28711 -2.68625 -1.81303 76 81 99
-5.28798 -2.66652 -1.81045 76 83 101
-5.51678 -2.36756 -1.81389 76 83 99
-5.53903 -2.35705 -1.81959 74 81 97
-5.54727 -2.34054 -1.82022 75 83 96
-5.94858 -1.76066 -1.81916 77 86 102
-6.19734 -1.45882 -1.82947 68 79 97
-6.50057 -1.03624 -1.83208 76 87 107
-6.5011 -1.01552 -1.8315 79 90 109
-6.81583 -0.475484 -1.81338 77 89 111
-6.81266 -0.453888 -1.81226 68 80 102
-6.85308 -0.384678 -1.80753 80 92 116
-7.0793 -0.178744 -1.82977 84 96 118
-2.31358 -6.05459 -1.64292 137 128 121
-2.62178 -6.08701 -1.73239 136 123 114
-3.05779 -5.76144 -1.78661 126 124 127
-3.07846 -5.75936 -1.78892 123 121 126
-3.34715 -5.39216 -1.79657 92 100 116
-3.3545 -5.36754 -1.79116 97 101 120
-3.58652 -5.03282 -1.79446 88 86 116
-3.90215 -4.53746 -1.7881 76 76 96
-3.91912 -4.53012 -1.79 86 86 105
-4.18396 -4.16637 -1.79493 99 98 116
-4.19751 -4.15522 -1.79557 104 101 118
-4.21625 -4.14948 -1.79879 91 91 103
-5.30131 -2.64303 -1.81109 74 83 98
-5.27511 -2.60952 -1.79819 74 83 98
-5.29593 -2.60017 -1.80334 75 82 98
-5.33768 -2.59104 -1.81494 73 80 98
-5.52921 -2.31307 -1.81134 72 79 92
-5.56019 -2.29588 -1.81894 76 84 98
-5.54369 -2.26927 -1.8107 72 80 94
-5.96236 -1.74493 -1.82224 75 84 101
-5.96518 -1.72588 -1.82162 78 87 102
-6.20517 -1.43009 -1.83007 69 80 100
-6.19578 -1.40772 -1.82587 67 80 100
-6.48833 -0.992715 -1.82687 74 86 108
-6.81706 -0.432768 -1.81337 76 88 110
-6.85719 -0.367792 -1.80887 74 86 108
-6.84495 -0.34116 -1.8041 82 94 118
-7.06943 -0.156326 -1.82705 84 99 122
-2.2959 -6.06269 -1.64347 136 128 121
-2.60004 -6.08533 -1.72961 132 120 111
-3.03882 -5.76688 -1.78546 124 122 125
-3.28355 -5.37701 -1.78219 91 96 111
-3.31778 -5.39863 -1.79358 71 76 91
-3.55428 -5.05063 -1.79325 94 91 120
-3.56521 -5.03381 -1.79078 93 90 119
-3.85129 -4.57367 -1.78623 96 95 111
-3.87662 -4.56221 -1.78875 78 76 96
-3.89241 -4.55351 -1.79001 74 73 91
-4.12928 -4.22358 -1.79561 101 100 116
-4.13783 -4.20709 -1.79367 103 105 120
-4.15537 -4.20025 -1.79624 82 84 99
-4.16384 -4.18369 -1.7943 97 96 112
-5.33989 -2.57211 -1.813 75 83 96
-5.34711 -2.5557 -1.813 75 83 96
-5.35824 -2.53104 -1.81299 73 80 98
-5.56573 -2.25839 -1.8164 76 84 96
-5.57189 -2.23097 -1.81513 75 83 96
-5.96699 -1.69648 -1.81977 77 86 101
-5.9733 -1.67848 -1.82039 78 88 100
-6.20306 -1.38911 -1.82707 69 80 100
-6.20657 -1.36966 -1.82707 76 87 105
-6.4906 -0.972328 -1.82686 71 83 105
-6.84705 -0.324144 -1.80475 74 89 112
-7.06929 -0.123115 -1.82705 75 90 113
-2.26394 -6.05918 -1.63968 137 129 125
-2.57767 -6.08177 -1.72627 131 121 111
-3.01655 -5.78871 -1.78837 127 121 125
-3.28262 -5.41306 -1.7918 105 112 128
-3.51195 -5.07017 -1.79081 96 92 119
-3.52708 -5.05984 -1.7908 96 91 121
-3.83144 -4.60548 -1.79005 93 92 107
-3.83782 -4.58517 -1.78624 96 94 108
-4.08384 -4.26503 -1.79499 111 115 127
-4.09639 -4.25284 -1.79498 99 99 112
-4.10635 -4.23782 -1.79369 91 91 103
-5.36875 -2.51622 -1.81428 71 80 95
-5.37579 -2.49971 -1.81427 78 88 100
-5.3879 -2.48562 -1.8162 73 81 94
-5.39187 -2.45753 -1.81362 75 81 97
-5.59386 -2.21987 -1.82083 74 80 96
-5.5911 -2.19898 -1.81766 73 80 96
-5.59874 -2.17215 -1.81702 75 83 99
-5.97407 -1.65888 -1.81915 74 86 100
-5.99199 -1.63411 -1.82284 74 84 101
-6.22703 -1.3436 -1.83187 73 84 102
-6.49997 -0.942572 -1.8286 72 84 108
-6.49262 -0.920761 -1.82571 73 85 108
-6.66266 -0.607055 -1.80993 74 86 108
-6.65628 -0.589701 -1.80712 74 87 109
-6.81628 -0.400612 -1.81282 74 86 110
-6.8167 -0.379247 -1.81282 84 96 120
-6.86035 -0.307797 -1.80948 87 102 126
-6.84737 -0.289855 -1.80472 71 85 111
-7.06306 -0.100866 -1.82542 75 87 109
-2.54985 -6.09243 -1.72629 137 127 115
-2.97602 -5.79403 -1.78434 127 122 122
-2.99668 -5.79227 -1.78664 124 119 122
-3.25513 -5.42247 -1.79001 132 135 153
-3.49778 -5.08204 -1.79143 96 92 119
-3.78342 -4.64527 -1.79008 99 98 112
-3.79589 -4.63247 -1.78943 98 96 110
-3.80833 -4.61963 -1.78879 86 83 100
-4.01227 -4.31677 -1.79116 85 85 103
-4.04047 -4.30876 -1.79566 83 82 100
-4.05064 -4.29389 -1.79436 82 81 99
-4.06329 -4.28181 -1.79436 104 105 123
-5.40731 -2.44494 -1.81684 73 79 95
-5.40898 -2.42592 -1.8149 74 81 97
-5.42295 -2.40251 -1.81619 71 79 92
-5.61528 -2.15875 -1.82082 70 79 94
-5.63002 -2.14459 -1.82398 72 81 96
-5.99262 -1.61448 -1.82161 75 87 103
-5.99318 -1.59485 -1.82038 77 86 103
-6.21919 -1.32173 -1.82827 72 83 101
-6.23369 -1.30451 -1.83186 64 75 94
-6.66191 -0.565264 -1.80848 71 83 107
-6.63676 -0.54613 -1.79869 74 89 112
-6.79406 -0.356753 -1.80612 76 88 112
-6.84973 -0.264229 -1.80536 78 93 116
-7.06829 -0.0788269 -1.82705 80 92 114
-2.52685 -6.08688 -1.72239 137 127 115
-2.96105 -5.80785 -1.78609 127 123 124
-3.22826 -5.45142 -1.79363 131 134 147
-3.24734 -5.44692 -1.79542 133 139 155
-3.43798 -5.10794 -1.78777 96 92 119
-3.46334 -5.11396 -1.79392 98 93 124
-3.47557 -5.09897 -1.79206 100 95 125
-3.74526 -4.66884 -1.78819 96 94 109
-3.76248 -4.66215 -1.79009 96 94 108
-3.98129 -4.36098 -1.79505 92 92 111
-3.99043 -4.34484 -1.79311 89 88 110
-3.99951 -4.32868 -1.79117 87 85 106
-4.45953 -3.62103 -1.78755 88 86 100
-4.48437 -3.60804 -1.79151 95 93 105
-4.49045 -3.59091 -1.78952 113 111 122
-4.50814 -3.58332 -1.79281 112 110 121
-4.50828 -3.56137 -1.78819 109 107 120
-4.53733 -3.55157 -1.79412 110 108 121
-4.5373 -3.52961 -1.78949 111 107 120
-4.56375 -3.5288 -1.79674 111 107 121
-4.56017 -3.49291 -1.78816 109 106 117
-4.5658 -3.47563 -1.78617 117 111 123
-4.57436 -3.46066 -1.7855 112 106 118
-4.58673 -3.43758 -1.78418 106 104 118
-4.59664 -3.42369 -1.78417 106 106 118
-4.60652 -3.40976 -1.78416 110 106 120
-4.65097 -3.42193 -1.79933 108 105 116
-4.67522 -3.40755 -1.80329 102 100 113
-4.66385 -3.37763 -1.79404 80 78 92
-4.68116 -3.36909 -1.79733 85 83 97
-4.69762 -3.34888 -1.79799 103 102 116
-4.71489 -3.34016 -1.80128 99 97 110
-4.72297 -3.32475 -1.80061 100 98 111
-4.73616 -3.30213 -1.79995 81 80 94
-4.74258 -3.28556 -1.79862 90 90 102
-4.75047 -3.27007 -1.79795 86 88 101
-4.77422 -3.25487 -1.80191 79 82 99
-4.76187 -3.22533 -1.79266 74 81 99
-4.78665 -3.22154 -1.79925 76 81 100
-4.80678 -3.21442 -1.80387 77 80 97
-4.81475 -3.18825 -1.80122 77 82 101
-4.82076 -3.1715 -1.79989 77 83 97
-4.83611 -3.16101 -1.80253 74 81 100
-4.8485 -3.13787 -1.80186 71 79 98
-4.85747 -3.1231 -1.80186 77 84 102
-4.86639 -3.10831 -1.80185 76 83 101
-5.43652 -2.38894 -1.81876 72 79 94
-5.43454 -2.36832 -1.81553 73 81 97
-5.44481 -2.34321 -1.81553 72 79 95
-5.58411 -2.09771 -1.80434 74 81 98
-5.59869 -2.08357 -1.8075 73 79 95
-5.60433 -2.0661 -1.8075 73 80 96
-5.99369 -1.57523 -1.81915 76 85 101
-6.22585 -1.27254 -1.82766 76 87 106
-6.63763 -0.529642 -1.79867 71 87 110
-6.80825 -0.325393 -1.81002 77 89 113
-6.85534 -0.247348 -1.80738 81 94 117
-7.0581 -0.0565701 -1.82433 72 84 108
-2.50591 -6.08664 -1.72017 140 129 117
-2.93204 -5.81546 -1.78436 127 121 123
-3.20432 -5.46721 -1.79424 126 128 142
-3.42569 -5.12282 -1.78963 98 94 119
-3.71543 -4.68806 -1.78694 85 82 102
-3.7269 -4.67397 -1.78567 96 94 109
-3.93074 -4.39631 -1.7925 86 84 103
-3.94981 -4.39185 -1.79571 92 91 107
-3.9603 -4.37723 -1.79442 93 92 110
-4.37511 -3.75177 -1.79355 86 85 101
-4.36761 -3.72241 -1.78497 89 88 104
-4.37984 -3.7105 -1.78562 95 94 109
-4.41349 -3.70551 -1.79353 86 88 104
-4.41138 -3.68114 -1.78758 84 86 100
-4.41633 -3.66294 -1.78494 79 78 93
-4.4341 -3.64418 -1.78559 93 90 106
-4.45044 -3.63566 -1.78822 92 90 103
-4.88645 -3.09014 -1.80448 74 83 100
-4.88892 -3.07118 -1.80184 68 77 94
-4.90564 -3.06133 -1.80513 71 79 98
-4.90641 -3.04134 -1.80183 68 76 96
-4.9214 -3.01988 -1.80248 70 81 99
-4.92199 -2.99989 -1.79917 74 80 102
-4.94338 -2.99279 -1.80445 70 77 96
-4.94205 -2.9613 -1.7985 75 82 100
-4.96015 -2.95208 -1.80246 72 80 98
-4.96693 -2.93595 -1.80179 72 80 99
-5.45477 -2.32796 -1.81681 72 81 94
-5.45948 -2.3104 -1.81617 74 85 97
-5.4763 -2.29809 -1.82003 71 80 95
-5.60993 -2.04862 -1.8075 76 84 97
-5.62576 -2.02489 -1.81003 72 81 98
-6.00023 -1.54727 -1.81914 83 92 107
-6.00608 -1.5291 -1.81976 77 87 104
-6.24581 -1.25632 -1.83306 68 79 99
-6.66907 -0.507608 -1.80981 71 83 108
-6.81801 -0.304436 -1.81281 72 86 111
-6.84967 -0.229907 -1.80533 86 98 120
-7.069 -0.0234761 -1.82759 72 87 110
-2.47611 -6.09155 -1.71851 137 125 113
-2.90022 -5.83932 -1.7867 128 123 123
-2.91297 -5.82045 -1.78321 127 121 123
-3.1643 -5.47246 -1.78946 124 125 138
-3.17057 -5.44482 -1.78285 124 125 137
-3.39279 -5.15745 -1.79334 104 94 119
-3.40029 -5.13454 -1.78841 102 94 118
-3.66649 -4.72649 -1.78697 80 80 103
-3.67587 -4.70951 -1.78443 74 75 96
-3.69313 -4.70309 -1.78632 87 86 103
-3.88468 -4.43684 -1.79253 100 97 116
-3.89536 -4.4224 -1.79123 102 101 119
-3.91444 -4.41811 -1.79444 83 82 101
-4.29684 -3.84292 -1.7936 100 97 113
-4.30386 -3.82618 -1.79161 87 84 101
-4.30423 -3.79153 -1.78368 104 102 116
-4.32505 -3.78745 -1.7883 102 100 114
-4.33606 -3.77445 -1.78829 111 110 124
-4.36697 -3.76742 -1.79488 89 91 106
-4.98632 -2.91704 -1.80442 70 78 97
-4.98648 -2.89701 -1.80112 70 77 96
-5.00447 -2.8875 -1.80507 73 82 99
-4.99962 -2.86461 -1.79979 70 78 97
-5.02852 -2.85108 -1.80638 74 82 101
-5.0186 -2.8254 -1.79912 75 82 100
-5.48101 -2.27053 -1.81809 72 81 95
-5.48902 -2.25437 -1.81873 74 84 95
-5.48828 -2.23452 -1.81615 76 85 95
-5.62586 -2.00544 -1.80812 73 82 99
-5.63664 -1.98975 -1.81002 72 80 99
-6.00822 -1.50994 -1.81914 69 80 98
-6.01629 -1.48238 -1.81975 71 83 101
-6.23208 -1.23344 -1.82766 70 81 101
-6.24447 -1.2055 -1.83006 69 80 98
-6.66796 -0.490853 -1.80909 76 88 111
-6.64441 -0.472212 -1.8 71 83 105
-6.8277 -0.283415 -1.81561 68 82 108
-6.8555 -0.204393 -1.80733 82 94 116
-6.84217 -0.186701 -1.80257 78 90 112
-7.06822 -0.00132288 -1.8276 75 90 113
-2.45326 -6.08571 -1.71461 140 128 114
-3.14704 -5.48 -1.78887 123 125 138
-3.37734 -5.16734 -1.79335 106 96 120
-3.63006 -4.75207 -1.78636 87 85 108
-3.64291 -4.73974 -1.78572 83 81 105
-3.85376 -4.46841 -1.79384 100 99 115
-3.86337 -4.45258 -1.79189 100 99 115
-4.19896 -3.91516 -1.78507 104 101 118
-4.23144 -3.91062 -1.79232 106 104 118
-4.23328 -3.88883 -1.78769 106 104 118
-4.24463 -3.87613 -1.78769 107 105 119
-4.26142 -3.86857 -1.79032 98 96 110
-4.27871 -3.84936 -1.79031 108 106 120
-5.04298 -2.81936 -1.80571 72 81 98
-5.04711 -2.79159 -1.80241 66 75 92
-5.05995 -2.77889 -1.80438 70 78 97
-5.06449 -2.76158 -1.80306 73 80 99
-5.07822 -2.73921 -1.80371 71 80 98
-5.08595 -2.72366 -1.8037 72 81 100
-5.49615 -2.2084 -1.8155 73 82 97
-5.49523 -2.18858 -1.81292 72 81 96
-5.51001 -2.17519 -1.81614 72 81 96
-6.02194 -1.46412 -1.82037 83 95 115
-6.24364 -1.1852 -1.82886 67 76 93
-6.64576 -0.447431 -1.79997 76 88 112
-6.63512 -0.430045 -1.79577 78 90 112
-6.81816 -0.261667 -1.81281 78 90 112
-6.84943 -0.16982 -1.80526 77 89 111
-2.43241 -6.0852 -1.71239 141 127 114
-2.85277 -5.85313 -1.7844 131 125 127
-2.87347 -5.85184 -1.78671 127 121 123
-3.1056 -5.5028 -1.78889 130 128 139
-3.12294 -5.4954 -1.78948 126 123 137
-3.33334 -5.18364 -1.79029 106 97 126
-3.34495 -5.16737 -1.78782 105 96 123
-3.59122 -4.77426 -1.78448 86 84 108
-3.61939 -4.76742 -1.78827 87 85 107
-3.82727 -4.49112 -1.79385 100 97 114
-3.83463 -4.47241 -1.79062 95 94 110
-4.1507 -3.9753 -1.78708 105 105 117
-4.17036 -3.97083 -1.79103 107 107 119
-4.18409 -3.94813 -1.78904 105 103 117
-4.19425 -3.93428 -1.78838 106 104 118
-5.08533 -2.70361 -1.8004 72 83 103
-5.09792 -2.69069 -1.80237 73 81 100
-5.11468 -2.66989 -1.80435 75 82 98
-5.11886 -2.65246 -1.80302 72 83 97
-5.5106 -2.14616 -1.81291 73 82 97
-5.55863 -2.14594 -1.82838 66 72 88
-5.67891 -1.93594 -1.81825 71 83 99
-5.68527 -1.90872 -1.81761 71 83 99
-6.03124 -1.44676 -1.82221 71 79 100
-6.03348 -1.41771 -1.82098 73 81 100
-6.25028 -1.16627 -1.83006 63 71 92
-6.21735 -1.13015 -1.81806 71 82 103
-6.63936 -0.413822 -1.79714 79 91 115
-6.81467 -0.229471 -1.8117 75 87 109
-6.84747 -0.144004 -1.80456 76 88 110
-2.41222 -6.08643 -1.71073 140 126 114
-2.83595 -5.86309 -1.78499 130 125 129
-3.09181 -5.51688 -1.7907 125 125 133
-3.31588 -5.19005 -1.78907 108 99 128
-3.57399 -4.8109 -1.79083 77 74 101
-3.57714 -4.78488 -1.78448 80 77 104
-3.78133 -4.53194 -1.79452 100 103 118
-3.7889 -4.51331 -1.79129 84 86 101
-3.81159 -4.51398 -1.79644 81 80 96
-4.08448 -4.04156 -1.78646 104 101 119
-4.10024 -4.03341 -1.78843 108 107 121
-4.11202 -4.02116 -1.78843 105 104 118
-4.1198 -4.00484 -1.78644 103 101 115
-4.1404 -3.98902 -1.78775 105 103 116
-5.12965 -2.63851 -1.80434 72 81 96
-5.14283 -2.61576 -1.80499 75 83 98
-5.15856 -2.60428 -1.80829 75 84 99
-5.15241 -2.58163 -1.803 73 80 97
-5.52584 -2.11352 -1.81419 73 82 97
-5.53161 -2.09646 -1.81419 70 79 94
-5.54058 -2.07083 -1.81419 76 83 99
-5.70477 -1.8957 -1.82268 69 81 97
-5.70804 -1.87728 -1.82204 69 81 97
-6.03709 -1.39893 -1.82098 69 79 97
-6.04251 -1.38057 -1.82159 71 84 103
-6.26133 -1.11782 -1.83126 81 89 107
-6.64543 -0.397701 -1.79922 77 89 111
-6.81071 -0.207987 -1.81058 74 87 107
-6.84333 -0.126734 -1.80318 75 90 111
-2.38185 -6.08904 -1.70851 138 126 114
-2.8068 -5.87004 -1.78327 128 126 129
-3.06225 -5.52187 -1.78771 124 124 131
-3.27652 -5.21404 -1.78909 105 96 123
-3.29787 -5.21434 -1.79278 105 95 123
-3.54019 -4.84034 -1.79212 84 86 112
-3.5434 -4.79826 -1.78133 82 82 108
-3.74501 -4.5567 -1.79325 75 76 93
-3.7527 -4.53815 -1.79002 100 102 115
-4.03982 -4.08121 -1.78517 102 101 117
-4.05567 -4.07325 -1.78714 95 94 108
-4.0715 -4.06522 -1.78911 101 100 114
-5.16702 -2.55959 -1.80432 77 85 103
-5.17755 -2.54541 -1.80563 75 84 101
-5.17959 -2.52701 -1.80365 76 83 100
-5.17989 -2.50779 -1.801 74 81 97
-5.54977 -2.05507 -1.81547 76 85 100
-5.55183 -2.03659 -1.81418 72 81 96
-5.71485 -1.86002 -1.82267 68 80 96
-5.72265 -1.83321 -1.82267 72 81 98
-6.04415 -1.36134 -1.82097 74 85 105
-6.24334 -1.09461 -1.82466 73 84 104
-6.24028 -1.07404 -1.82286 68 80 104
-6.64455 -0.372775 -1.79849 66 78 101
-6.64301 -0.356124 -1.79777 65 77 101
-6.81435 -0.186708 -1.8117 81 94 113
-6.84853 -0.109711 -1.8052 73 86 108
-2.35983 -6.08464 -1.70517 140 128 116
-2.79065 -5.88162 -1.78444 127 123 123
-3.02744 -5.53619 -1.78653 133 132 139
-3.04135 -5.52229 -1.78472 127 126 135
-3.24618 -5.23464 -1.78973 109 99 124
-3.25901 -5.22024 -1.78787 106 98 122
-3.52124 -4.87523 -1.79784 81 86 108
-3.53238 -4.86012 -1.79593 83 87 112
-3.69151 -4.5875 -1.79006 99 99 117
-3.7085 -4.58114 -1.79198 87 86 102
-3.73493 -4.57223 -1.7952 70 71 90
-3.98003 -4.14225 -1.78586 98 97 113
-3.9999 -4.12583 -1.78651 97 96 112
-4.01841 -4.1208 -1.78981 101 100 116
-4.02014 -4.09784 -1.78452 101 100 116
-5.19756 -2.4872 -1.80364 74 84 96
-5.20959 -2.47368 -1.80561 73 82 97
-5.20628 -2.45281 -1.80165 74 79 98
-5.22714 -2.43361 -1.8056 76 81 100
-5.5676 -2.0135 -1.81675 72 80 97
-5.57485 -1.99695 -1.8174 72 81 96
-5.71306 -1.81078 -1.8176 71 80 97
-5.72871 -1.79627 -1.8214 74 83 100
-6.04968 -1.3331 -1.82097 73 84 102
-6.05119 -1.31385 -1.82036 73 84 102
-6.63769 -0.339261 -1.79566 69 81 103
-6.82011 -0.15474 -1.81337 78 91 110
-6.84817 -0.0839469 -1.80517 84 96 118
-2.34155 -6.09106 -1.70518 143 130 117
-2.75301 -5.89229 -1.78272 127 121 121
-2.77372 -5.89139 -1.78503 128 119 120
-3.00304 -5.55102 -1.78715 145 140 147
-3.21663 -5.23879 -1.78605 111 101 128
-3.49282 -4.88141 -1.79405 86 83 111
-3.66539 -4.61066 -1.79072 85 86 103
-3.67677 -4.59683 -1.78942 98 99 117
-3.94468 -4.17896 -1.78655 102 101 115
-3.9544 -4.16443 -1.78522 99 96 113
-3.97168 -4.15823 -1.78785 95 92 109
-5.23903 -2.41994 -1.80758 77 83 99
-5.22694 -2.39512 -1.80032 74 80 97
-5.25617 -2.37962 -1.80757 75 82 98
-5.60647 -1.96025 -1.82384 73 82 99
-5.57083 -1.9283 -1.809 73 82 97
-5.73259 -1.76828 -1.82013 69 78 95
-5.73182 -1.7487 -1.81822 71 79 98
-6.07116 -1.29869 -1.82589 68 79 99
-6.26512 -1.04799 -1.82945 75 87 111
-6.26004 -1.02709 -1.82705 75 86 106
-6.64216 -0.314684 -1.79703 74 86 108
-6.82167 -0.133362 -1.81393 74 86 108
-6.86072 -0.0669849 -1.8099 76 89 111
-2.31063 -6.09148 -1.7024 141 127 116
-2.98641 -5.55971 -1.78716 140 137 146
-3.1898 -5.26567 -1.78914 110 101 128
-3.20185 -5.24976 -1.78667 111 101 128
-3.46394 -4.90196 -1.79407 85 82 110
-3.47734 -4.89014 -1.79342 87 82 112
-3.63407 -4.64206 -1.79268 99 98 113
-3.64224 -4.62373 -1.78944 86 86 101
-3.89364 -4.21122 -1.78262 100 99 115
-3.91351 -4.20811 -1.78657 103 100 117
-3.92333 -4.19367 -1.78524 104 102 116
-5.25761 -2.36112 -1.80559 72 78 94
-5.26932 -2.34726 -1.80756 74 80 96
-5.26892 -2.32797 -1.80492 77 83 99
-5.57247 -1.90982 -1.80771 75 84 99
-5.58296 -1.89446 -1.80964 72 81 96
-5.71462 -1.72427 -1.81062 75 84 101
-5.72361 -1.69797 -1.81125 72 80 99
-6.06526 -1.26791 -1.8222 77 88 106
-6.06469 -1.24823 -1.82097 71 83 99
-6.253 -1.00594 -1.82406 70 82 104
-6.6423 -0.298148 -1.79701 74 86 110
-6.64428 -0.2817 -1.79769 68 82 106
-6.81356 -0.111854 -1.8117 82 94 116
-6.85635 -0.0497137 -1.80852 76 91 113
-6.85754 -0.032523 -1.80918 67 82 105
-2.28872 -6.08681 -1.69906 140 128 114
-2.71339 -5.92427 -1.7868 128 122 122
-2.72749 -5.90763 -1.78389 127 122 121
-2.95649 -5.58375 -1.78958 85 83 93
-2.96892 -5.56664 -1.78657 133 130 139
-3.16477 -5.27781 -1.78854 109 101 129
-3.42726 -4.92736 -1.79409 88 85 112
-3.4418 -4.91724 -1.79408 89 86 112
-3.59918 -4.6686 -1.7927 103 103 115
-3.61256 -4.64198 -1.78817 102 100 114
-3.8522 -4.25422 -1.78396 106 105 122
-3.86469 -4.24279 -1.78395 110 109 125
-3.88582 -4.24126 -1.78857 101 99 117
-5.27378 -2.30136 -1.80293 74 82 95
-5.28533 -2.28739 -1.80491 75 84 97
-5.28644 -2.26887 -1.80292 72 81 95
-5.59099 -1.86855 -1.80964 73 82 99
-5.59244 -1.85003 -1.80835 72 81 98
-5.73899 -1.68322 -1.81505 75 84 99
-5.7598 -1.66994 -1.82075 75 84 101
-6.06033 -1.22778 -1.8185 71 84 101
-6.2719 -0.978732 -1.82885 76 88 110
-6.25528 -0.956208 -1.82285 80 92 116
-6.64472 -0.256877 -1.79766 74 87 104
-6.8512 -0.00666701 -1.80712 75 88 112
-2.26924 -6.08935 -1.69796 140 130 118
