-14.7122 -17.4954 -0.989975 74 82 79
-15.0617 -17.6912 -1.00985 75 69 44
-14.8908 -17.323 -0.98917 59 53 58
-20.82 -12.8763 -1.07894 171 110 79
-20.9138 -12.8448 -1.08236 184 124 87
-20.8903 -12.7409 -1.07848 183 124 80
-20.6922 -12.3996 -1.06027 173 123 83
-20.6788 -12.3043 -1.05713 188 136 96
-21.4235 -12.6592 -1.10073 156 112 68
-21.6851 -12.6779 -1.11325 170 126 78
-21.5636 -12.5168 -1.10345 147 105 60
-21.7937 -12.5603 -1.11523 153 116 67
-22.0319 -12.5612 -1.12627 165 115 74
-21.9974 -12.3606 -1.11958 147 104 63
-32.5043 -11.5174 -1.44731 165 140 120
-32.6297 -11.4473 -1.452 53 26 32
-32.7174 -11.3634 -1.45475 77 57 66
-32.8375 -11.2327 -1.45828 73 61 64
-5.88226 -14.5829 -0.61472 77 81 84
-5.9992 -14.6162 -0.618606 83 94 87
-7.09217 -15.725 -0.694883 111 110 106
-7.90821 -16.1408 -0.732774 124 85 86
-7.9167 -16.0304 -0.727705 122 83 84
-8.63896 -16.475 -0.765739 135 141 155
-11.8666 -18.4722 -0.942361 145 143 145
-12.0431 -18.4326 -0.945628 152 154 159
-12.1908 -18.41 -0.94891 145 139 147
-12.262 -18.3941 -0.950288 120 119 130
-12.3697 -18.3706 -0.952392 139 134 140
-12.4276 -18.3341 -0.952504 134 134 144
-12.6122 -18.3006 -0.956515 104 103 115
-12.7003 -18.3079 -0.959477 130 122 133
-12.7626 -18.2769 -0.960012 117 112 116
-12.9475 -18.2402 -0.964027 87 86 86
-13.1029 -18.2203 -0.967948 96 91 85
-13.3011 -18.1981 -0.973125 84 89 85
-22.2213 -12.5781 -1.13551 165 120 79
-22.3156 -12.4488 -1.13665 142 103 67
-22.415 -12.3673 -1.13923 134 101 60
-22.5124 -12.33 -1.14287 173 136 92
-22.5904 -12.2816 -1.14534 166 119 77
-22.9369 -12.3319 -1.16283 179 126 79
-23.1453 -12.3515 -1.17314 153 114 80
-23.1726 -12.2735 -1.17255 165 129 99
-23.383 -12.2455 -1.18179 203 170 129
-23.6151 -12.2739 -1.19347 160 120 87
-34.0669 -10.0691 -1.49901 87 72 77
-34.1645 -9.98184 -1.50245 132 112 102
-34.2773 -9.84035 -1.50589 138 126 128
-48.9002 -2.28827 -1.81708 95 114 146
-7.08037 -15.9674 -0.706398 67 55 63
-24.0107 -12.3852 -1.21489 138 106 72
-23.9474 -12.2581 -1.2089 251 225 172
-24.1891 -12.2396 -1.21995 170 123 78
-24.3905 -12.2465 -1.22973 156 107 73
-24.6815 -12.2968 -1.2448 152 107 68
-24.8009 -12.2119 -1.24855 169 118 75
-24.9386 -12.1834 -1.25452 176 125 78
-25.2146 -12.2213 -1.26864 147 109 58
-20.9887 -7.06977 -0.959765 120 100 92
-20.9853 -6.99586 -0.958429 148 123 121
-20.9799 -6.92141 -0.956986 125 108 119
-21.0436 -6.83333 -0.958829 179 170 158
-21.142 -6.79246 -0.963215 252 243 215
-21.5009 -6.83383 -0.982117 125 99 89
-34.5999 -9.40762 -1.51569 134 124 132
-34.6823 -9.31358 -1.51846 135 123 133
-34.827 -9.17734 -1.52363 134 123 132
-34.9455 -9.09176 -1.52822 135 125 137
-35.0194 -8.99403 -1.5306 128 127 136
-35.1103 -8.90037 -1.53385 128 125 134
-35.1974 -8.74661 -1.53623 132 122 133
-32.198 -7.51682 -1.38192 137 129 133
-32.2244 -7.41666 -1.38218 137 128 131
-6.56299 -16.1976 -0.707361 83 92 95
-25.343 -12.1375 -1.27292 160 130 75
-25.5206 -12.1251 -1.28123 132 102 52
-25.7472 -12.1347 -1.29239 151 120 72
-25.965 -12.1387 -1.30302 144 110 69
-26.2256 -12.1115 -1.31503 136 108 80
-26.4658 -12.1226 -1.32693 122 104 76
-26.7153 -12.1364 -1.33937 122 105 78
-22.3394 -6.90876 -1.02597 135 122 129
-22.2666 -6.81021 -1.02082 137 124 131
-35.28 -8.64997 -1.53909 132 126 132
-35.341 -8.54771 -1.5409 73 60 69
-35.4615 -8.40066 -1.54501 126 118 115
-35.8136 -8.07061 -1.55832 153 143 142
-35.8787 -7.96729 -1.56042 150 140 142
-35.9884 -7.8735 -1.56473 140 134 138
-26.966 -12.0984 -1.35074 127 105 94
-27.229 -12.1147 -1.36392 103 85 74
-27.4869 -12.1271 -1.37678 95 79 63
-27.7714 -12.0976 -1.39007 93 76 65
-28.0135 -12.0994 -1.40198 102 87 76
-28.2633 -12.1029 -1.41431 93 74 64
-28.4545 -12.0799 -1.42326 93 77 64
-28.5801 -11.9755 -1.42734 114 98 75
-36.1115 -7.78203 -1.56971 129 122 128
-36.2035 -7.6239 -1.57258 76 64 67
-36.283 -7.52203 -1.57544 108 98 99
-36.8154 -7.51273 -1.60066 150 148 151
-37.1702 -7.40352 -1.61654 123 116 119
-28.6462 -11.8983 -1.42909 180 164 145
-28.6623 -11.8002 -1.42798 185 169 148
-28.7444 -11.6767 -1.42962 171 156 143
-28.8652 -11.621 -1.43455 178 158 137
-28.9118 -11.535 -1.43524 177 159 140
-29.0337 -11.4261 -1.43922 155 139 124
-29.0927 -11.3446 -1.44065 148 132 124
-29.2092 -11.2851 -1.44537 137 128 124
-29.2567 -11.1986 -1.44617 138 131 125
-29.3475 -11.0758 -1.44845 129 120 112
-29.4896 -11.0244 -1.45465 125 117 111
-37.797 -7.40591 -1.64638 122 116 120
-37.7996 -7.28342 -1.64549 119 109 118
-36.8509 -6.91988 -1.59729 94 83 96
-36.9638 -6.82126 -1.60189 133 122 120
-36.992 -6.70659 -1.60235 82 76 81
-37.12 -6.60976 -1.60772 110 104 114
-37.2088 -6.44511 -1.61069 113 110 112
-37.3715 -6.35278 -1.6178 137 135 136
-37.5418 -6.26081 -1.62529 129 127 130
-6.6341 -12.3073 -0.629567 76 82 100
-6.73012 -12.3513 -0.634646 126 138 148
-6.96144 -12.4618 -0.647236 111 121 133
-6.93333 -12.3179 -0.638761 100 106 112
-7.13913 -12.4657 -0.652683 117 119 133
-29.5887 -10.9563 -1.45841 136 125 121
-29.7328 -10.8514 -1.46377 129 116 109
-29.8109 -10.7745 -1.46637 139 126 121
-29.9208 -10.7086 -1.47077 97 83 81
-30.0152 -10.5838 -1.47337 94 80 80
-30.1039 -10.5095 -1.47661 129 112 111
-30.2 -10.4373 -1.48027 174 159 141
-30.2866 -10.3614 -1.4834 254 242 210
-27.2353 -7.68184 -1.28768 129 124 130
-27.2008 -7.58039 -1.28455 131 124 132
-38.188 -6.18458 -1.65563 129 126 133
-39.0473 -6.19892 -1.69687 131 129 135
-40.0193 -6.22546 -1.7436 131 131 133
-6.21327 -12.4228 -0.624254 121 87 89
-6.26884 -12.4399 -0.626675 98 79 80
-6.39392 -12.4513 -0.630662 131 143 156
-6.38353 -12.3337 -0.624002 104 107 121
-6.48211 -12.4356 -0.632236 128 135 147
-6.5636 -12.3579 -0.630292 129 135 151
-6.67997 -12.4905 -0.640706 130 139 154
-7.49621 -13.0172 -0.692524 128 132 143
-7.54798 -13.0152 -0.69398 109 118 131
-7.60079 -13.0148 -0.695558 136 133 144
-7.68105 -13.0146 -0.697974 124 131 145
-7.73502 -13.0153 -0.699673 134 133 149
-7.79307 -13.0228 -0.701857 123 128 142
-7.86869 -13.0128 -0.703669 99 101 113
-7.93001 -13.0249 -0.706216 126 131 142
-4.85947 -7.62934 -0.430392 113 111 124
-4.88369 -7.61649 -0.430538 139 138 146
-4.91098 -7.60866 -0.431115 87 86 100
-4.94244 -7.60752 -0.432267 148 142 150
-8.72009 -13.3498 -0.748381 146 150 156
-9.52697 -13.4374 -0.780293 139 132 127
-9.68219 -13.4373 -0.785754 95 89 83
-9.81223 -13.4442 -0.790738 58 60 59
-10.1042 -13.4519 -0.801673 68 76 69
-10.2508 -13.4313 -0.806048 60 71 63
-10.5615 -13.4509 -0.818563 83 83 67
-10.8245 -13.4868 -0.830222 85 76 69
-11.1437 -13.4997 -0.843108 96 98 83
-11.3071 -13.4857 -0.848824 70 80 70
-11.4512 -13.4892 -0.854668 80 80 72
-11.6222 -13.3951 -0.85713 112 112 108
-11.8896 -13.4949 -0.872419 88 89 72
-12.0685 -13.4881 -0.879351 87 89 48
-12.8219 -13.4753 -0.910032 98 93 46
-12.9583 -13.4938 -0.916588 113 106 64
-13.3998 -13.4907 -0.935342 86 69 61
-40.7038 -6.13642 -1.77578 134 130 134
-40.8582 -6.02873 -1.78251 136 132 132
-40.9429 -5.77893 -1.78509 130 126 124
-6.17158 -12.485 -0.626564 124 82 85
-6.38734 -12.5859 -0.637815 131 126 131
-7.06953 -12.9021 -0.67388 100 108 124
-7.32449 -13.2855 -0.701732 140 143 156
-7.39335 -13.0703 -0.692285 126 131 134
-4.83238 -7.66473 -0.431546 133 134 143
-9.25743 -14.0036 -0.799498 134 127 130
-14.0134 -13.8999 -0.979368 111 77 72
-14.0674 -13.8676 -0.98036 131 94 86
-14.3108 -14.0235 -0.99759 121 74 68
-14.4354 -14.0155 -1.0027 97 72 67
-14.826 -14.3109 -1.03229 85 61 57
-14.8672 -14.262 -1.03207 86 52 54
-14.9247 -14.1843 -1.03136 125 73 65
-14.9568 -14.1269 -1.03042 130 77 71
-15.074 -14.0625 -1.03301 196 115 90
-15.2511 -14.097 -1.04237 196 116 93
-15.1749 -13.9382 -1.03245 197 115 94
-14.9222 -13.6176 -1.00799 195 113 93
-14.9853 -13.5479 -1.00801 191 114 94
-15.2701 -13.7227 -1.02804 192 114 96
-15.2339 -13.6043 -1.02164 188 112 88
-15.2702 -13.5092 -1.01948 188 117 92
-15.3251 -13.4736 -1.02059 186 110 90
-15.3934 -13.4497 -1.0228 139 76 55
-15.2581 -13.2465 -1.00852 159 109 98
-15.2804 -13.1412 -1.00539 190 124 106
-15.2725 -13.0518 -1.00154 189 121 97
-15.3428 -13.0303 -1.00399 194 119 101
-15.4698 -13.0155 -1.00934 208 155 114
-15.5767 -13.024 -1.01471 190 122 80
-15.6838 -13.032 -1.02007 210 132 94
-15.8068 -13.011 -1.02506 197 119 86
-15.9174 -13.0202 -1.03067 204 125 94
-16.025 -13.0263 -1.03603 201 120 97
-16.1329 -13.0319 -1.04139 199 121 101
-16.2737 -13.0217 -1.04772 200 122 102
-16.3851 -13.0284 -1.05333 199 122 102
-16.4998 -13.0371 -1.05918 196 120 99
-16.6273 -13.0131 -1.06442 199 123 100
-16.7189 -13.0019 -1.06845 197 118 101
-16.2359 -12.5411 -1.0281 199 119 97
-16.3412 -12.5018 -1.03176 197 122 97
-16.2784 -12.3731 -1.02403 198 117 95
-16.5903 -12.5317 -1.04504 197 115 94
-31.4035 -9.33599 -1.52444 83 73 79
-31.4739 -9.24987 -1.52684 126 111 108
-31.6092 -9.18232 -1.53284 108 98 95
-31.6839 -9.04289 -1.5347 131 128 136
-31.8918 -8.61841 -1.53972 129 120 133
-31.993 -8.53842 -1.54392 131 122 131
-5.9821 -12.9033 -0.644757 140 139 144
-6.04947 -12.8926 -0.645835 136 139 144
-6.08837 -12.8725 -0.645712 135 139 148
-6.19744 -13.0065 -0.655883 107 99 110
-6.31806 -13.1087 -0.66459 119 85 85
-6.36434 -13.1022 -0.665437 123 84 84
-6.41402 -13.1028 -0.666768 124 82 83
-14.3407 -15.5299 -1.0642 103 102 58
-14.3064 -15.3957 -1.05683 98 96 52
-14.3779 -15.329 -1.05684 104 100 60
-14.6997 -15.1479 -1.06252 98 97 59
-14.7894 -15.0994 -1.06423 99 91 59
-15.022 -15.245 -1.08049 118 113 71
-14.6685 -14.6967 -1.04176 96 78 61
-15.3265 -14.3909 -1.05783 126 61 49
-17.3667 -13.0402 -1.10146 193 112 89
-17.5067 -13.0188 -1.10756 180 111 86
-17.636 -13.031 -1.11438 145 92 58
-17.7576 -13.0365 -1.1206 156 113 67
-17.9126 -13.0229 -1.12778 179 126 82
-18.0347 -13.0269 -1.134 177 120 83
-18.1698 -13.0397 -1.14119 163 101 71
-18.3142 -13.015 -1.14753 184 129 89
-18.458 -13.0319 -1.15533 175 127 87
-32.1401 -8.41612 -1.54992 140 130 131
-32.2698 -8.34223 -1.55571 146 136 135
-32.4787 -8.28782 -1.56585 150 141 137
-32.8326 -8.26866 -1.58394 148 138 137
-32.8374 -8.10599 -1.5822 144 136 133
-32.8289 -7.99496 -1.58046 136 127 124
-32.8297 -7.88636 -1.57926 106 96 98
-32.2223 -7.47428 -1.54301 134 129 130
-41.2928 -4.31492 -1.79446 83 93 104
-41.3495 -4.12403 -1.79638 84 93 108
-41.3952 -3.99736 -1.7981 86 95 111
-41.4435 -3.67381 -1.79922 89 101 116
-5.63751 -13.1006 -0.647465 78 78 73
-5.69082 -13.115 -0.64952 71 69 66
-5.75955 -13.1076 -0.650717 102 91 96
-5.80927 -13.1123 -0.652167 62 51 51
-5.85749 -13.1132 -0.653375 115 100 99
-5.90578 -13.1139 -0.654583 112 103 103
-5.97873 -13.1145 -0.656387 123 122 127
-6.00394 -13.0618 -0.654084 137 136 142
-14.1014 -16.5161 -1.09914 63 61 47
-14.182 -16.5073 -1.10194 81 73 71
-14.3653 -16.462 -1.10718 66 72 59
-14.5256 -16.4404 -1.11268 79 80 60
-14.7713 -16.4618 -1.12361 88 92 58
-14.6989 -16.2774 -1.11237 111 113 83
-14.4593 -15.9079 -1.08597 101 107 66
-14.3849 -15.6764 -1.07254 93 95 48
-15.1184 -15.6832 -1.10358 102 98 53
-18.5922 -13.041 -1.1624 175 114 81
-18.7267 -13.0495 -1.16947 169 114 86
-18.944 -13.0711 -1.18115 154 105 64
-19.0201 -13.0369 -1.18385 193 140 101
-19.0666 -12.982 -1.18437 168 125 85
-19.2107 -12.9498 -1.19059 155 125 71
-19.4352 -13.0147 -1.20422 154 118 63
-19.4983 -12.9696 -1.20595 157 110 63
-19.6993 -12.9719 -1.2163 152 104 63
-19.3499 -12.6535 -1.18794 166 122 80
-19.5653 -12.7088 -1.20084 180 132 85
-19.6927 -12.7053 -1.20731 180 130 85
-19.661 -12.5546 -1.20079 179 134 93
-19.936 -12.6446 -1.21794 183 139 98
-19.8016 -12.4722 -1.20548 190 138 101
-19.9047 -12.408 -1.20879 165 123 81
-20.0035 -12.3837 -1.2132 174 134 93
-32.8287 -7.72315 -1.57731 137 131 137
-32.6143 -7.45754 -1.56322 148 142 140
-33.0279 -7.3888 -1.58397 121 116 120
-33.1124 -7.29888 -1.58743 136 131 137
-33.1987 -7.20891 -1.591 137 131 139
-33.2554 -7.11222 -1.59297 146 138 144
-33.3424 -6.96704 -1.59601 98 86 96
-5.31751 -13.1244 -0.641578 47 57 58
-5.36517 -13.1271 -0.642784 50 54 59
-5.43574 -13.127 -0.644343 73 77 78
-5.48063 -13.1218 -0.645065 51 57 55
-5.52331 -13.1109 -0.645424 82 80 72
-5.59556 -13.1137 -0.647227 126 114 100
-12.4075 -16.977 -1.05707 134 125 129
-12.5834 -16.942 -1.06169 103 102 110
-12.7618 -16.9084 -1.06656 97 98 82
-12.8985 -16.8723 -1.06986 93 96 85
-12.9878 -16.8266 -1.07095 62 62 62
-13.0688 -16.8244 -1.07387 67 66 61
-13.2128 -16.7954 -1.0779 69 69 59
-13.3105 -16.7591 -1.07985 75 73 81
-13.4411 -16.7108 -1.08255 64 65 65
-13.6064 -16.6515 -1.08608 71 66 63
-13.7994 -16.6245 -1.09229 77 85 73
-13.9425 -16.5879 -1.0962 98 106 93
-20.3106 -12.4882 -1.23253 168 137 86
-20.28 -12.3387 -1.22626 183 151 92
-20.4743 -12.3706 -1.23746 162 119 76
-20.507 -12.3035 -1.23714 174 126 87
-20.6061 -12.2763 -1.24155 190 142 101
-20.9008 -12.3211 -1.25846 156 116 74
-21.0552 -12.3246 -1.26675 160 128 74
-21.2338 -12.3413 -1.27675 168 137 83
-21.3994 -12.3046 -1.28443 153 122 76
-21.4526 -12.2466 -1.28557 143 104 62
-21.5402 -12.2081 -1.28913 146 104 62
-33.4082 -6.87162 -1.59851 109 103 113
-33.4972 -6.78059 -1.60229 140 138 144
-33.5768 -6.63249 -1.60501 148 143 149
-33.675 -6.54229 -1.60932 139 137 138
-33.8141 -6.45937 -1.61586 139 134 138
-33.9453 -6.31907 -1.62144 141 135 137
-6.92044 -12.3512 -0.694768 79 83 94
-11.2698 -17.249 -1.03139 143 148 154
-11.4337 -17.2085 -1.03479 140 137 146
-11.5011 -17.1949 -1.03638 84 81 92
-11.5761 -17.1927 -1.03881 146 137 146
-11.6348 -17.1653 -1.03942 133 132 142
-11.7303 -17.1345 -1.04112 149 142 149
-11.81 -17.138 -1.04404 127 125 132
-11.873 -17.1163 -1.04514 154 145 152
-11.9753 -17.0941 -1.04756 86 86 96
-12.1002 -17.0478 -1.04965 135 134 140
-12.2769 -17.0174 -1.05438 126 120 123
-21.6763 -12.152 -1.29475 171 128 93
-21.8159 -12.1417 -1.30196 160 124 93
-21.9749 -12.1413 -1.3105 170 130 97
-22.1498 -12.1486 -1.32013 155 120 83
-22.3404 -12.1182 -1.32952 174 136 93
-22.5175 -12.1242 -1.33928 169 123 82
-22.7124 -12.1387 -1.35025 181 132 96
-22.9319 -12.1191 -1.36159 147 108 69
-34.0269 -6.22397 -1.62491 136 131 135
-34.5168 -6.20161 -1.65044 136 132 134
-35.2425 -6.21769 -1.68871 136 133 136
-6.4679 -12.4674 -0.687706 122 124 141
-6.54742 -12.4805 -0.690788 127 136 151
-6.57936 -12.4482 -0.689886 102 105 123
-6.6185 -12.43 -0.690015 125 132 143
-6.62621 -12.3515 -0.685766 118 132 145
-6.6788 -12.3124 -0.685114 132 136 149
-6.94896 -12.4949 -0.703781 100 111 121
-7.20055 -12.7703 -0.727223 128 125 132
-7.65534 -13.0185 -0.755677 125 130 143
-7.70833 -13.0175 -0.757355 74 79 93
-7.75637 -13.0077 -0.758388 135 139 151
-7.83798 -13.0081 -0.761087 104 110 124
-7.89832 -13.0184 -0.763667 138 139 151
-11.1165 -17.3047 -1.02921 132 132 144
-8.73259 -13.4098 -0.813653 143 142 147
-8.8421 -13.3978 -0.816884 123 114 124
-9.66171 -13.4426 -0.849263 137 133 132
-10.2384 -13.4456 -0.871608 83 84 78
-11.301 -13.503 -0.917467 63 65 52
-11.4352 -13.494 -0.922648 119 118 115
-11.6712 -13.4754 -0.931703 90 87 83
-13.073 -13.7581 -1.00637 109 94 58
-13.3771 -13.481 -1.00737 121 107 73
-13.9169 -13.7271 -1.04338 128 88 85
-15.0106 -13.5762 -1.08849 190 114 91
-15.2451 -13.2399 -1.08566 126 80 76
-15.2718 -13.1385 -1.08272 179 114 96
-15.2682 -13.0533 -1.07901 195 123 99
-15.3311 -13.0251 -1.08097 192 116 99
-15.4555 -13.0075 -1.0864 213 161 125
-15.5702 -13.0222 -1.09274 189 126 86
-15.6715 -13.0249 -1.09793 218 142 104
-15.7857 -12.996 -1.10246 198 119 90
-15.5866 -12.7505 -1.08251 206 124 103
-16.2432 -12.5484 -1.10799 195 113 97
-16.2459 -12.4298 -1.1035 197 116 95
-16.2111 -12.3234 -1.0976 194 117 95
-23.1152 -12.1245 -1.37171 126 84 53
-23.2951 -12.1271 -1.38159 142 98 68
-23.5173 -12.1038 -1.39305 161 124 84
-23.7296 -12.1203 -1.40512 181 149 108
-23.8908 -12.1094 -1.41367 227 184 144
-24.1352 -12.0922 -1.42659 225 186 155
-24.3307 -12.0959 -1.43744 247 206 171
-24.4051 -12.0383 -1.44004 243 200 165
-24.4454 -11.9636 -1.44033 230 193 157
-21.0588 -7.17063 -1.14028 181 139 122
-21.0785 -7.10395 -1.1402 187 162 144
-20.9862 -6.96308 -1.13221 133 104 97
-20.9919 -6.89226 -1.13128 118 103 113
-35.9824 -6.17349 -1.72719 133 131 136
-36.7503 -6.18634 -1.76769 135 133 133
-37.3376 -6.1646 -1.79843 137 132 130
-37.3437 -5.98525 -1.79734 135 129 125
-37.3615 -5.86798 -1.79741 143 134 129
-5.96412 -12.4059 -0.669833 124 83 90
-6.01406 -12.4131 -0.671635 123 87 87
-6.0496 -12.3895 -0.671247 122 85 88
-6.10566 -12.409 -0.673949 124 86 87
-6.1805 -12.4171 -0.676515 124 84 85
-6.24304 -12.4486 -0.68012 121 91 95
-6.33919 -12.5478 -0.688618 95 81 81
-6.4142 -12.5528 -0.691055 131 129 138
-6.46344 -12.5547 -0.6926 113 123 136
-8.61815 -16.5157 -0.911943 124 134 146
-7.04901 -12.9169 -0.730832 134 144 156
-7.17157 -13.0501 -0.742165 80 85 103
-7.41293 -13.0126 -0.747563 104 114 124
-7.45487 -12.9934 -0.747823 131 135 149
-7.5144 -13.0053 -0.750401 128 132 148
-7.57605 -13.0205 -0.753237 77 83 99
-9.52728 -14.2118 -0.885148 131 125 136
-14.6082 -14.8225 -1.12488 107 94 67
-14.5069 -14.5374 -1.10727 114 100 62
-14.6294 -14.5247 -1.11231 93 63 59
-14.5569 -14.2738 -1.09766 109 66 61
-15.0553 -14.6283 -1.13673 92 69 64
-14.8314 -14.3201 -1.11252 97 76 71
-14.9817 -14.3765 -1.12208 83 50 52
-14.9576 -14.2197 -1.11398 128 75 68
-14.9493 -14.1236 -1.10936 131 75 70
-15.5395 -14.5935 -1.15798 121 57 47
-14.9697 -13.8379 -1.09783 192 110 89
-15.1236 -13.8942 -1.10765 192 114 93
-15.2442 -13.9186 -1.1145 193 112 91
-15.2581 -13.7154 -1.10643 190 116 91
-15.2409 -13.6146 -1.1013 191 115 92
-15.2712 -13.5141 -1.09848 190 117 97
-15.3277 -13.4798 -1.09979 187 111 93
-15.3932 -13.4531 -1.10188 187 122 106
-16.0245 -13.0274 -1.1158 199 117 95
-16.1296 -13.0303 -1.12124 197 117 94
-16.2678 -13.0173 -1.12771 196 118 98
-16.3779 -13.0225 -1.13354 195 118 97
-16.4711 -13.0136 -1.13796 191 112 95
-16.627 -13.0117 -1.14585 192 115 99
-16.6843 -12.9733 -1.14729 195 114 96
-17.2316 -13.0177 -1.17733 194 118 95
-17.372 -13.0395 -1.18548 191 110 89
-17.5156 -13.0201 -1.19222 177 110 83
-17.6341 -13.0236 -1.19857 133 84 51
-24.565 -11.88 -1.44475 219 184 150
-24.6264 -11.8152 -1.4465 227 193 161
-24.6751 -11.744 -1.4474 232 197 165
-24.7741 -11.6493 -1.45049 214 180 150
-24.8439 -11.5878 -1.45284 206 172 144
-24.8793 -11.5099 -1.45289 186 152 125
-24.963 -11.407 -1.455 154 131 117
-25.0395 -11.3478 -1.45785 136 123 112
-25.0705 -11.2677 -1.45765 149 134 124
-25.1921 -11.2282 -1.46354 127 113 112
-25.3056 -11.1371 -1.46772 129 122 115
-25.3432 -11.0594 -1.46801 133 125 119
-25.4408 -11.0077 -1.47231 124 118 116
-21.0637 -6.84315 -1.13461 176 167 150
-21.5476 -6.81573 -1.16242 140 126 129
-37.2586 -5.73221 -1.79101 130 123 123
-5.99663 -12.8369 -0.695993 139 141 145
-6.04929 -12.8478 -0.698052 133 138 145
-4.81498 -7.62597 -0.473568 127 132 144
-4.82349 -7.58772 -0.471415 80 83 97
-4.84957 -7.57831 -0.471878 134 134 146
-4.87458 -7.56712 -0.472187 139 143 155
-4.9167 -7.55692 -0.473261 139 140 145
-9.50749 -14.2777 -0.887974 142 142 154
-13.9935 -15.832 -1.14509 77 80 64
-14.1662 -15.7797 -1.15002 89 84 65
-14.2495 -15.7743 -1.15339 116 108 87
-14.2607 -15.6885 -1.1498 91 96 60
-14.378 -15.6707 -1.15407 101 103 61
-14.254 -15.3421 -1.13311 103 103 62
-14.8406 -15.4876 -1.16603 114 101 69
-14.8124 -15.3622 -1.15897 100 92 56
-14.7629 -15.2156 -1.14997 109 98 71
-14.7001 -15.0565 -1.13981 93 83 45
-17.7754 -13.0431 -1.20673 182 133 92
-17.91 -13.0138 -1.21269 183 126 84
-18.0469 -13.0281 -1.22046 172 120 80
-18.1857 -13.0428 -1.22836 155 101 71
-18.3355 -13.0212 -1.23548 154 101 62
-18.4651 -13.0273 -1.24261 172 129 80
-18.5933 -13.0316 -1.24961 169 127 85
-18.6153 -12.961 -1.24823 155 107 69
-18.8296 -12.9803 -1.26038 162 114 70
-18.9501 -12.9768 -1.26674 173 120 86
-18.891 -12.8501 -1.25903 150 112 76
-18.9175 -12.7392 -1.25648 143 128 60
-18.9035 -12.6446 -1.25239 168 134 88
-19.0536 -12.6596 -1.26107 159 117 75
-19.1072 -12.5669 -1.26071 177 134 91
-19.1608 -12.517 -1.26191 191 141 96
-19.2025 -12.4593 -1.2622 195 146 104
-19.2726 -12.4198 -1.26469 165 121 86
-19.2695 -12.2908 -1.26008 175 136 92
-25.5226 -10.9014 -1.47443 137 132 128
-25.5942 -10.8378 -1.47703 135 131 130
-25.6658 -10.7738 -1.47963 133 126 130
-25.7778 -10.6791 -1.48381 134 126 134
-25.8581 -10.618 -1.48702 132 128 133
-25.9568 -10.5641 -1.49145 130 127 130
-26.048 -10.5067 -1.49539 126 124 128
-26.1535 -10.407 -1.49921 129 126 133
-26.2241 -10.3404 -1.50181 131 128 135
-26.2777 -10.2669 -1.50333 131 130 136
-22.265 -6.89149 -1.2058 131 126 132
-22.2582 -6.77499 -1.20341 132 126 131
-37.3782 -4.49604 -1.78944 93 97 109
-37.429 -4.38301 -1.79153 86 93 105
-37.4484 -4.20665 -1.7916 81 90 105
-37.4586 -4.0888 -1.79157 84 92 110
-5.8249 -12.8246 -0.690732 119 117 118
-6.19197 -13.0541 -0.714019 129 132 141
-12.299 -16.293 -1.09855 80 68 60
-12.444 -16.2756 -1.10334 104 94 89
-12.5306 -16.2319 -1.10451 87 82 85
-12.5989 -16.2168 -1.10645 79 74 71
-12.6782 -16.2156 -1.10956 83 76 71
-12.7504 -16.2047 -1.11189 70 62 62
-12.8491 -16.1751 -1.11434 71 66 66
-12.9164 -16.1572 -1.11616 76 70 63
-12.9725 -16.1249 -1.11682 62 58 55
-13.1309 -16.0659 -1.12032 62 72 68
-13.312 -16.0331 -1.12614 74 84 76
-13.4529 -16.0009 -1.13043 70 77 67
-13.6126 -15.9389 -1.13406 65 60 59
-13.6941 -15.9346 -1.1373 81 78 71
-13.9138 -15.9396 -1.14686 53 54 49
-19.4571 -12.3257 -1.2716 167 133 85
-19.5321 -12.2882 -1.27448 161 127 90
-19.5991 -12.2029 -1.27528 149 113 77
-19.7383 -12.2047 -1.28306 180 140 102
-19.7944 -12.1544 -1.28452 174 135 94
-19.9512 -12.1227 -1.29217 180 138 97
-20.0977 -12.1264 -1.30047 171 132 90
-20.2495 -12.1323 -1.30915 172 127 88
-20.4256 -12.1516 -1.31964 179 133 93
-20.5935 -12.1216 -1.32807 158 119 81
-20.7598 -12.1327 -1.33779 167 122 87
-26.3639 -10.1583 -1.50593 132 129 136
-26.4319 -10.0899 -1.50841 131 128 135
-26.5072 -10.0239 -1.51138 132 129 138
-26.5886 -9.91244 -1.51374 132 129 137
-26.6598 -9.84427 -1.51647 127 124 134
-26.7476 -9.78194 -1.52029 131 128 137
-26.8072 -9.70891 -1.52229 136 131 135
-26.9211 -9.60758 -1.52684 88 80 90
-27.0234 -9.54911 -1.53164 101 89 95
-37.4764 -3.97176 -1.79196 79 87 102
-37.4779 -3.85302 -1.7915 91 100 114
-37.5186 -3.67871 -1.79285 99 105 121
-37.5252 -3.56048 -1.79271 82 94 113
-6.22128 -13.5011 -0.741081 136 136 138
-11.1719 -16.5927 -1.07203 138 135 146
-11.2398 -16.5831 -1.07397 136 139 150
-11.327 -16.5458 -1.07513 139 137 145
-11.3971 -16.5388 -1.07733 111 112 123
-11.4752 -16.5431 -1.08043 150 146 153
-11.5477 -16.4832 -1.07991 106 109 118
-11.6316 -16.495 -1.08366 152 145 154
-11.6928 -16.4737 -1.08483 144 143 150
-11.8399 -16.4106 -1.08703 123 121 127
-11.9761 -16.3857 -1.09092 133 128 132
-12.1417 -16.3458 -1.09518 128 125 130
-20.9109 -12.1339 -1.34635 178 138 105
-21.1072 -12.1163 -1.35684 131 102 69
-21.2709 -12.1224 -1.3663 138 104 70
-21.4626 -12.1433 -1.37783 143 106 64
-21.6475 -12.1147 -1.38742 166 121 81
-21.8242 -12.1245 -1.39779 148 104 78
-21.9767 -12.1198 -1.40636 154 125 99
-22.1608 -12.1315 -1.41724 205 168 141
-27.0674 -9.46959 -1.53266 135 117 102
-27.2161 -9.37866 -1.53953 181 150 130
-6.36361 -13.9354 -0.770448 123 124 128
-10.7508 -16.737 -1.06492 126 133 143
-10.9061 -16.694 -1.06801 141 146 154
-22.3503 -12.0997 -1.42709 240 200 164
-22.4735 -12.076 -1.43346 139 100 63
-22.5545 -12.0291 -1.43673 209 176 138
-22.6454 -11.9418 -1.43936 224 188 154
-22.6997 -11.8801 -1.44069 231 195 167
-22.7555 -11.8192 -1.44216 224 189 162
-22.8368 -11.7259 -1.44414 223 186 154
-22.8887 -11.6625 -1.44534 221 186 154
-22.9564 -11.6071 -1.44771 209 172 141
-23.0294 -11.554 -1.45047 201 165 140
-23.1364 -11.4723 -1.45439 208 171 144
-23.1858 -11.4069 -1.45547 214 177 150
-23.244 -11.3457 -1.45719 210 174 144
-23.3 -11.2381 -1.45749 188 160 127
-23.3145 -11.1557 -1.45612 168 142 113
-28.0303 -8.35342 -1.569 101 83 80
-28.1066 -8.23262 -1.57149 124 110 101
-28.1811 -8.15883 -1.57471 158 148 143
-27.1322 -7.76136 -1.50652 141 135 131
-27.1134 -7.66417 -1.5039 135 128 134
-27.1809 -7.54552 -1.50602 130 124 133
-10.258 -16.8716 -1.05549 131 133 148
-23.41 -11.1117 -1.46055 166 141 118
-23.5317 -11.0347 -1.46564 174 152 130
-23.5853 -10.9702 -1.4671 165 139 123
-23.6551 -10.9131 -1.46973 171 147 134
-23.7508 -10.8225 -1.47301 173 151 139
-23.853 -10.7793 -1.47796 167 146 136
-23.9533 -10.7348 -1.48279 171 151 142
-24.0664 -10.6953 -1.48852 169 150 142
-24.1357 -10.591 -1.48999 166 147 139
-24.2157 -10.536 -1.49339 158 139 138
-21.0461 -7.1551 -1.22484 97 68 58
-20.9939 -7.06433 -1.21984 197 176 159
-20.9995 -6.95676 -1.21807 137 106 104
-21.0091 -6.88717 -1.21734 118 102 109
-21.0697 -6.83417 -1.22009 189 177 160
-28.5203 -7.82348 -1.58953 136 131 137
-28.5861 -7.74541 -1.59226 139 136 137
-28.679 -7.62613 -1.59597 150 143 146
-28.7559 -7.55027 -1.59943 132 124 122
-28.8421 -7.47652 -1.6035 125 119 125
-6.2224 -14.7099 -0.812875 64 65 51
-6.19549 -14.516 -0.800634 97 90 65
-24.2845 -10.4759 -1.49602 164 144 145
-24.3566 -10.3719 -1.49775 161 149 142
-24.4214 -10.3095 -1.50012 151 138 132
-24.4915 -10.2491 -1.50288 144 132 130
-24.57 -10.1468 -1.50513 132 122 131
-24.6046 -10.0713 -1.50544 132 124 129
-24.6483 -9.99945 -1.50639 129 123 131
-24.7232 -9.94001 -1.50954 134 126 131
-24.8116 -9.84061 -1.51256 135 128 137
-24.875 -9.77595 -1.51493 131 125 135
-24.942 -9.71242 -1.51757 129 126 137
-21.6332 -6.82997 -1.25496 152 141 136
-28.9224 -7.35241 -1.60648 109 106 111
-28.9946 -7.27421 -1.6097 115 115 119
-29.0493 -7.19129 -1.61183 118 117 122
-29.1269 -7.1138 -1.61541 101 90 98
-29.1863 -6.98301 -1.61717 92 87 91
-29.244 -6.90004 -1.61954 149 143 152
-29.3209 -6.8213 -1.62313 145 140 147
-6.13998 -14.9692 -0.826427 57 69 51
-6.08623 -14.7008 -0.809033 76 84 71
-25.0574 -9.62222 -1.52253 131 127 134
-25.139 -9.56349 -1.52619 130 127 136
-25.1905 -9.49309 -1.5278 130 128 139
-25.2828 -9.3926 -1.5312 130 127 136
-25.3563 -9.32983 -1.53436 132 130 135
-25.4203 -9.26327 -1.53686 132 130 132
-25.4672 -9.19031 -1.53821 148 142 148
-25.5225 -9.07513 -1.53916 91 83 97
-25.5445 -8.99309 -1.53882 126 107 108
-25.5416 -8.90248 -1.53681 158 132 114
-22.2692 -6.87735 -1.29539 153 146 140
-22.2604 -6.76038 -1.29271 145 136 134
-29.3944 -6.69284 -1.62586 136 130 136
-29.4669 -6.61231 -1.62921 134 130 136
-29.5352 -6.53051 -1.63231 138 132 142
-29.6211 -6.40352 -1.63589 132 129 136
-29.7337 -6.33043 -1.64179 135 130 136
-29.8207 -6.25137 -1.64611 136 131 137
-36.2501 -2.26854 -1.81212 90 107 137
-5.9923 -14.9332 -0.820783 52 61 39
-6.41351 -15.3812 -0.857712 81 89 74
-6.90306 -16.0891 -0.912035 102 99 73
-6.96088 -16.0172 -0.909184 111 98 78
-7.04234 -16.0712 -0.91446 122 99 75
-25.6221 -8.79584 -1.53957 169 138 117
-30.1882 -6.23008 -1.66796 133 131 134
-30.7627 -6.19847 -1.7021 131 129 130
-31.3395 -6.21313 -1.73698 133 131 132
-6.56221 -16.2556 -0.913769 95 107 76
-26.4789 -7.85661 -1.5751 105 89 88
-31.9304 -6.2269 -1.77271 137 131 132
-32.4806 -6.17616 -1.80527 140 133 133
-32.6535 -6.10309 -1.81495 141 135 130
-32.7049 -6.00657 -1.81709 140 131 127
-7.67869 -17.4163 -1.01053 77 59 36
-8.9256 -13.2826 -0.932191 145 142 153
-9.33089 -13.3978 -0.955508 133 131 144
-9.50434 -13.4276 -0.964429 132 131 137
-9.63485 -13.4377 -0.970484 133 131 139
-9.78232 -13.4252 -0.975957 134 130 137
-9.91493 -13.4344 -0.982157 145 139 147
-10.0797 -13.4415 -0.989644 134 134 136
-10.2333 -13.4309 -0.995695 136 124 129
-10.377 -13.4489 -1.00305 133 120 122
-10.534 -13.4383 -1.00939 129 119 121
-10.6777 -13.452 -1.0166 127 116 122
-11.4303 -13.4876 -1.05308 114 110 110
-12.1909 -13.4814 -1.089 87 85 64
-12.6255 -13.4982 -1.11122 105 101 75
-13.0282 -13.8063 -1.14734 91 85 54
-12.7866 -13.4614 -1.11729 109 97 71
-12.8948 -13.493 -1.12436 99 87 60
-12.989 -13.4662 -1.12768 87 74 56
-13.0661 -13.4635 -1.13144 134 114 105
-13.1462 -13.4632 -1.13548 95 80 64
-13.2263 -13.4626 -1.13953 113 99 80
-13.3319 -13.4452 -1.144 116 98 76
-13.4291 -13.4608 -1.14978 105 92 57
-13.5166 -13.4659 -1.15454 105 96 62
-13.6326 -13.4566 -1.16002 107 74 60
-14.0577 -13.797 -1.19917 103 64 56
-14.5828 -13.9241 -1.23292 129 85 77
-14.6616 -13.9134 -1.23654 130 77 71
-14.8256 -13.9399 -1.24648 117 59 49
-14.9205 -13.9432 -1.25168 191 117 93
-14.9518 -13.8859 -1.25055 189 113 92
-14.9798 -13.7821 -1.24698 192 117 95
-14.7124 -13.4483 -1.2165 169 100 77
-14.9853 -13.6159 -1.23925 190 118 94
-15.1072 -13.5998 -1.24503 179 123 85
-15.0738 -13.4845 -1.23771 178 123 85
-15.0531 -13.3816 -1.23169 192 122 98
-15.0898 -13.2887 -1.22927 192 118 97
-15.1038 -13.218 -1.2267 192 122 102
-15.1086 -13.1394 -1.22327 116 66 60
-15.122 -13.0688 -1.2207 158 101 87
-15.172 -12.989 -1.21972 181 115 89
-15.1817 -12.9158 -1.21686 182 117 87
-15.2153 -12.8634 -1.21631 130 74 47
-15.2642 -12.7833 -1.21533 193 132 95
-15.3141 -12.7448 -1.21636 184 117 81
-15.3639 -12.7061 -1.21739 197 127 93
-15.4442 -12.6522 -1.21943 193 115 95
-15.5061 -12.6231 -1.22161 197 116 98
-15.6157 -12.633 -1.22826 192 113 98
-15.7348 -12.6498 -1.23577 193 116 98
-15.888 -12.6526 -1.24457 192 116 95
-15.9999 -12.6617 -1.25136 192 115 96
-16.0777 -12.6429 -1.25499 195 118 100
-16.1394 -12.5702 -1.2553 193 115 95
-16.1748 -12.5175 -1.25504 195 118 98
-16.2179 -12.4708 -1.2555 195 118 100
-16.293 -12.4083 -1.25711 197 118 103
-16.4291 -12.4327 -1.26606 187 116 96
-16.556 -12.4491 -1.27415 190 125 103
-16.6275 -12.4227 -1.2772 191 133 108
-16.7265 -12.376 -1.28097 153 102 75
-16.8108 -12.3584 -1.28517 163 113 84
-16.8839 -12.332 -1.28837 183 137 97
-16.9409 -12.253 -1.2884 153 114 67
-16.972 -12.1955 -1.28785 144 105 65
-16.9997 -12.1356 -1.28702 141 107 64
-17.119 -12.1013 -1.29266 164 133 90
-27.8583 -8.1225 -1.6658 122 108 104
-27.856 -8.02735 -1.66404 134 132 135
-27.1295 -7.72677 -1.61353 136 134 140
-27.1086 -7.62923 -1.61061 135 134 140
-27.7265 -7.66216 -1.64985 137 134 141
-27.8459 -7.60133 -1.65637 135 130 137
-32.7731 -5.85969 -1.81971 131 123 120
-32.6944 -5.73967 -1.8138 119 115 116
-6.289 -12.306 -0.775644 98 93 89
-6.4337 -12.3582 -0.783684 120 115 121
-6.43417 -12.2639 -0.777644 128 132 139
-6.48123 -12.2151 -0.776053 136 134 147
-6.53514 -12.2274 -0.77864 124 134 145
-6.63396 -12.3263 -0.788273 80 84 98
-6.69027 -12.3416 -0.791148 123 122 133
-6.80324 -12.4169 -0.799766 115 118 131
-6.88709 -12.3896 -0.800917 125 130 142
-7.36635 -12.9469 -0.852813 118 128 140
-7.44196 -12.9411 -0.855106 135 133 150
-7.50608 -12.9619 -0.858702 136 142 157
-7.58019 -12.9998 -0.863736 80 83 99
-7.63101 -12.9958 -0.865319 138 142 153
-7.70724 -12.9885 -0.867613 86 88 104
-7.76019 -12.9875 -0.869484 138 139 152
-7.8222 -13.0017 -0.87265 143 146 161
-7.89572 -12.9882 -0.874513 142 143 157
-4.87888 -7.59706 -0.532523 126 131 143
-8.74427 -13.5505 -0.941239 122 130 141
-4.9092 -7.59438 -0.533695 84 89 104
-8.77856 -13.5119 -0.940238 132 131 146
-4.94164 -7.59498 -0.535201 135 138 148
-8.88822 -13.4528 -0.940959 120 117 127
-9.18942 -13.4124 -0.950614 138 135 146
-13.1268 -14.9536 -1.2132 71 70 71
-13.1873 -14.9295 -1.2148 58 59 57
-13.2372 -14.8932 -1.21525 81 84 71
-13.3512 -14.8824 -1.22015 78 82 67
-13.4799 -14.8411 -1.22421 79 81 59
-13.547 -14.823 -1.22653 103 106 79
-13.6386 -14.7851 -1.22899 92 84 58
-13.7003 -14.7604 -1.23073 104 101 68
-14.5928 -14.2415 -1.24926 98 56 46
-14.6688 -14.1832 -1.25028 123 97 83
-14.6811 -14.1071 -1.24714 81 54 54
-17.2503 -12.1148 -1.30104 167 129 92
-17.3786 -12.1253 -1.30913 160 123 84
-17.5039 -12.1329 -1.31694 151 113 75
-17.6418 -12.1077 -1.32417 160 120 85
-17.7773 -12.1205 -1.33284 148 112 80
-17.895 -12.1202 -1.33993 150 117 80
-18.045 -12.1001 -1.34816 136 99 56
-18.1813 -12.1106 -1.35684 153 109 68
-18.3161 -12.1192 -1.36537 129 85 50
-18.4751 -12.1015 -1.37433 130 85 52
-27.8515 -7.50926 -1.65527 136 133 142
-27.8529 -7.36943 -1.65312 137 133 143
-27.85 -7.27546 -1.65149 137 131 142
-27.8332 -7.17809 -1.64896 139 134 141
-27.3433 -6.91533 -1.61409 142 138 142
-27.4203 -6.84344 -1.6179 145 138 145
-27.4234 -6.75307 -1.61679 147 140 143
-27.4533 -6.66931 -1.61749 154 144 147
-27.5069 -6.5455 -1.61909 145 141 142
-32.8812 -4.92455 -1.8179 86 90 100
-32.9153 -4.82403 -1.81918 86 90 99
-32.9407 -4.66928 -1.81948 84 88 98
-32.9543 -4.56566 -1.81955 83 88 99
-6.01508 -12.3705 -0.771208 118 79 82
-6.04304 -12.3307 -0.76948 124 83 84
-6.13957 -12.4369 -0.779399 126 88 87
-6.19237 -12.449 -0.781841 125 86 87
-6.2649 -12.4514 -0.784274 119 87 88
-6.23892 -12.2998 -0.773632 97 86 88
-6.43094 -12.449 -0.789436 80 82 86
-7.14092 -12.9616 -0.845918 93 93 107
-7.276 -12.972 -0.851229 85 88 102
-7.33403 -12.9832 -0.853962 135 140 153
-4.83385 -7.65541 -0.534701 125 131 146
-4.84789 -7.62561 -0.533197 74 77 92
-11.8971 -15.317 -1.17676 135 131 132
-12.0341 -15.2985 -1.18182 136 130 135
-12.1756 -15.2351 -1.18457 118 112 116
-12.2324 -15.2099 -1.18573 119 114 118
-12.3065 -15.2065 -1.18891 107 102 108
-12.3934 -15.1695 -1.19078 86 86 91
-12.4552 -15.1498 -1.19252 78 80 82
-12.5233 -15.1376 -1.19498 51 51 58
-12.6164 -15.1071 -1.19758 100 103 96
-12.687 -15.0973 -1.20033 67 72 68
-12.8694 -15.1257 -1.21042 79 75 72
-12.9707 -15.0075 -1.20872 73 70 61
-13.0247 -14.9765 -1.2096 112 110 108
-18.6104 -12.1084 -1.38286 215 174 138
-18.7492 -12.1168 -1.39167 223 186 150
-18.8883 -12.1243 -1.40049 242 207 169
-19.0466 -12.1014 -1.40931 245 205 167
-19.1996 -12.1158 -1.41928 251 210 174
-19.341 -12.1219 -1.42825 250 214 183
-19.4764 -12.081 -1.43505 213 180 152
-19.5929 -12.0696 -1.44186 194 164 140
-19.6536 -12.023 -1.44391 194 164 138
-19.7278 -11.9423 -1.44553 227 193 163
-19.7985 -11.9013 -1.44845 229 193 161
-19.828 -11.8354 -1.44791 221 182 151
-19.8779 -11.7816 -1.4491 231 192 160
-27.5887 -6.47367 -1.62329 144 138 145
-27.6451 -6.39554 -1.6258 142 136 145
-27.7383 -6.27978 -1.63012 132 127 133
-27.8097 -6.20436 -1.63367 134 129 136
-28.2182 -6.20236 -1.6596 133 130 139
-32.9637 -4.46147 -1.81936 76 83 99
-32.9914 -4.30694 -1.81991 87 93 109
-32.9604 -4.19758 -1.8173 79 86 102
-32.9904 -4.09612 -1.81846 94 101 119
-6.06174 -12.7293 -0.796097 123 119 129
-5.99811 -12.4863 -0.778265 111 80 90
-10.9106 -15.6249 -1.1525 137 139 152
-11.0495 -15.5667 -1.15481 138 139 144
-11.2043 -15.5301 -1.15913 129 127 140
-11.3255 -15.4965 -1.16232 135 132 141
-11.4757 -15.4508 -1.16607 140 138 149
-11.5934 -15.4102 -1.16882 139 135 142
-11.7375 -15.354 -1.17185 144 141 144
-19.9598 -11.7046 -1.45144 216 181 153
-20.023 -11.6584 -1.45378 214 179 155
-20.0759 -11.6058 -1.45526 141 116 110
-20.1795 -11.5405 -1.45947 198 166 145
-20.2563 -11.5012 -1.46297 204 170 143
-20.3261 -11.4576 -1.46589 188 159 131
-20.3842 -11.3652 -1.46635 196 170 149
-20.4502 -11.3189 -1.46899 168 145 131
-20.5109 -11.2695 -1.47119 143 121 107
-20.5523 -11.2092 -1.4718 154 133 119
-20.6058 -11.1137 -1.47198 158 134 119
-20.666 -11.0634 -1.47418 163 140 125
-20.7156 -11.0073 -1.47552 178 154 141
-20.7927 -10.9241 -1.47772 182 159 143
-20.8437 -10.8683 -1.4792 183 161 140
-20.9034 -10.8169 -1.4814 182 159 139
-28.7089 -6.16834 -1.69032 132 131 137
-29.2039 -6.17855 -1.72195 132 131 136
-29.7559 -6.19745 -1.75734 134 131 134
-5.76145 -12.7987 -0.791825 121 112 102
-5.82454 -12.8363 -0.796135 116 113 111
-5.89938 -12.8447 -0.798853 129 128 136
-5.85379 -12.6336 -0.783608 139 139 141
-5.96552 -12.7799 -0.796545 137 138 138
-6.02984 -12.7638 -0.797394 135 137 141
-10.3169 -15.7879 -1.13836 135 141 150
-10.4305 -15.7494 -1.14053 145 143 156
-10.5851 -15.7188 -1.14485 132 132 144
-10.6413 -15.6978 -1.14586 137 141 153
-10.7894 -15.6553 -1.14932 129 128 144
-20.9833 -10.7343 -1.48389 177 155 142
-21.0622 -10.6923 -1.48768 173 151 138
-21.1143 -10.6363 -1.4893 174 153 139
-21.1806 -10.5873 -1.49208 174 154 138
-21.2489 -10.4976 -1.49371 174 151 143
-21.3095 -10.4453 -1.49606 173 148 143
-21.361 -10.3882 -1.49768 172 149 140
-21.4519 -10.3088 -1.50118 172 152 141
-21.5371 -10.2675 -1.50555 175 155 144
-21.6062 -10.2181 -1.50861 175 153 142
-21.6874 -10.1328 -1.51139 173 150 142
-21.7345 -10.0725 -1.51273 171 151 142
-30.2809 -6.20735 -1.79091 137 132 133
-30.4421 -6.09117 -1.79977 132 125 122
-30.4857 -6.00054 -1.80151 132 123 120
-30.5212 -5.90818 -1.80274 135 126 124
-30.5283 -5.76066 -1.8015 130 123 120
-5.62691 -12.982 -0.800194 135 121 98
-5.67532 -12.9854 -0.801771 115 107 71
-5.70994 -12.9555 -0.800759 117 110 78
-5.73207 -12.8398 -0.793699 116 103 81
-9.54522 -15.6846 -1.10254 133 136 151
-21.8067 -10.0237 -1.51609 168 150 140
-21.8934 -9.98123 -1.5206 166 147 137
-21.9556 -9.8858 -1.52194 165 146 138
-22.0074 -9.82687 -1.52371 161 142 134
-22.0428 -9.76041 -1.52419 161 143 138
-22.1369 -9.67853 -1.52812 161 144 137
-22.1937 -9.62118 -1.53033 160 141 135
-22.2576 -9.56673 -1.53311 161 141 137
-22.34 -9.47859 -1.53618 157 138 133
-22.3963 -9.42029 -1.53839 163 144 140
-30.5788 -5.67092 -1.80376 119 113 113
-5.30594 -12.9962 -0.792484 98 101 74
-5.35178 -12.9952 -0.793628 87 95 67
-5.421 -12.9934 -0.795337 86 95 64
-5.46988 -12.9994 -0.797057 90 98 71
-5.51514 -12.9959 -0.798058 82 91 63
-5.5816 -12.9859 -0.799192 99 94 69
-4.86316 -7.64718 -0.55927 83 81 97
-4.88729 -7.6343 -0.559444 136 136 149
-4.91978 -7.63487 -0.561 132 137 152
-4.95232 -7.6353 -0.562556 113 115 127
-22.4507 -9.36095 -1.54045 162 143 137
-22.5286 -9.26994 -1.54323 160 140 135
-22.5641 -9.20241 -1.54386 159 140 134
-22.6123 -9.13999 -1.54549 160 143 136
-22.6548 -9.07513 -1.54668 160 143 137
-22.7187 -8.97748 -1.54846 157 142 139
-22.7533 -8.90924 -1.54908 156 142 141
-22.8081 -8.84883 -1.55129 152 139 136
-22.8821 -8.7545 -1.55393 155 137 133
-22.9273 -8.68992 -1.55541 156 143 135
-20.9914 -7.09971 -1.3855 115 86 74
-20.9505 -7.01292 -1.38078 208 176 151
-20.9768 -6.91254 -1.38039 129 112 112
-21.0278 -6.85677 -1.38274 162 147 142
-30.6813 -4.99574 -1.80347 88 87 92
-30.771 -4.91123 -1.80845 86 87 93
-30.7539 -4.80963 -1.80644 84 90 101
-30.7872 -4.66644 -1.80727 78 84 100
-5.26016 -12.9971 -0.79134 91 96 70
-4.89598 -7.7812 -0.570683 138 133 147
-10.1964 -13.391 -1.07672 140 135 139
-10.3473 -13.4184 -1.08551 143 137 143
-10.508 -13.4125 -1.09276 138 133 136
-11.0722 -13.4401 -1.12175 104 93 99
-11.1577 -13.4599 -1.12715 133 122 126
-11.2316 -13.4219 -1.12854 79 75 71
-11.2945 -13.4132 -1.13117 68 63 65
-11.383 -13.4349 -1.13688 107 104 108
-11.4449 -13.424 -1.13935 78 79 74
-11.5433 -13.4134 -1.14367 89 89 81
-11.6053 -13.4019 -1.14615 84 81 72
-11.6868 -13.4128 -1.15093 82 86 80
-11.8144 -13.4337 -1.15864 85 89 82
-12.0959 -13.6716 -1.18682 74 78 72
-12.314 -13.4507 -1.1855 96 94 81
-13.9987 -13.8152 -1.2964 124 88 66
-14.0653 -13.7956 -1.29904 84 56 34
-14.1276 -13.7714 -1.30122 88 45 30
-14.2172 -13.7306 -1.304 174 125 94
-14.2824 -13.7086 -1.30649 175 126 86
-14.3403 -13.6794 -1.3082 189 135 110
-14.4257 -13.6761 -1.31284 198 146 122
-14.5036 -13.6225 -1.3144 157 99 63
-14.5527 -13.5842 -1.31519 196 135 93
-14.6047 -13.5485 -1.31629 193 136 97
-14.6339 -13.4492 -1.31276 168 110 74
-14.6503 -13.3808 -1.31017 179 124 89
-14.7061 -13.3487 -1.31173 165 112 71
-14.8035 -13.3121 -1.31544 159 117 69
-14.8755 -13.2941 -1.3187 187 137 92
-14.9045 -13.2372 -1.31749 194 134 93
-14.9183 -13.167 -1.31474 204 140 106
-14.9659 -13.0855 -1.31337 191 127 92
-14.9746 -13.0114 -1.31016 166 117 91
-14.9995 -12.9517 -1.30865 146 98 76
-15.0398 -12.8647 -1.30666 173 122 93
-15.0475 -12.7907 -1.30345 189 138 107
-15.0868 -12.7439 -1.30348 135 90 64
-15.1535 -12.6798 -1.30427 160 113 74
-15.1695 -12.6135 -1.30198 200 142 107
-15.2051 -12.5637 -1.3017 185 124 86
-15.2895 -12.5142 -1.30434 198 133 100
-15.3232 -12.4628 -1.3039 197 132 104
-15.3723 -12.4239 -1.305 202 140 102
-15.4554 -12.4124 -1.3095 207 147 106
-15.5207 -12.3464 -1.31029 191 127 98
-15.6054 -12.3352 -1.31493 190 132 99
-15.6948 -12.3274 -1.32004 189 135 109
-15.7645 -12.2638 -1.3213 167 115 93
-15.8367 -12.2416 -1.32471 157 108 88
-15.9279 -12.2337 -1.32998 170 124 95
-16.0051 -12.1749 -1.332 173 126 93
-16.0996 -12.1685 -1.33758 159 115 82
-16.1449 -12.1243 -1.33837 152 110 79
-16.2028 -12.0895 -1.3404 153 109 77
-16.342 -12.0755 -1.34844 148 102 72
-16.4608 -12.0849 -1.35632 139 92 63
-16.567 -12.0842 -1.36298 156 109 76
-16.6972 -12.0605 -1.37009 163 123 84
-16.8215 -12.0714 -1.37844 187 144 107
-23.0095 -8.63922 -1.55979 169 147 132
-23.0845 -8.54426 -1.56257 166 140 125
-23.1309 -8.47951 -1.5642 186 159 144
-23.179 -8.41524 -1.56598 178 159 140
-23.2269 -8.35074 -1.56776 89 70 68
-23.2839 -8.24821 -1.56924 105 91 96
-23.3577 -8.19249 -1.57304 143 119 104
-23.4125 -8.1298 -1.57539 183 151 126
-21.1203 -6.81428 -1.38827 240 226 207
-21.482 -6.8579 -1.41428 210 189 165
-21.6063 -6.78633 -1.42139 159 144 132
-8.99214 -13.3997 -1.02324 111 108 125
-9.03224 -13.3705 -1.02309 128 128 141
-9.30239 -13.3696 -1.0348 133 135 142
-9.47021 -13.3911 -1.04358 133 131 142
-9.59378 -13.3914 -1.04913 144 140 150
-9.74685 -13.387 -1.05576 140 137 145
-9.88525 -13.4043 -1.06316 150 140 151
-10.0536 -13.4161 -1.07163 144 137 144
-12.7267 -14.3028 -1.25564 92 89 78
-12.8063 -14.2584 -1.25718 73 66 53
-12.8715 -14.2425 -1.25966 107 96 83
-12.9326 -14.2219 -1.26168 99 94 74
-13.0759 -14.1581 -1.26555 112 105 104
-13.1383 -14.1381 -1.26773 108 98 88
-13.2022 -14.1193 -1.27005 118 108 91
-13.2976 -14.0899 -1.27345 106 99 90
-13.3533 -14.0617 -1.27485 110 98 96
-13.4158 -14.0405 -1.27703 113 99 95
-13.5016 -13.9996 -1.27935 113 100 89
-13.5681 -13.9821 -1.28198 114 102 95
-13.6347 -13.9644 -1.28462 109 94 88
-13.7013 -13.9463 -1.28725 103 84 77
-13.7744 -13.891 -1.28819 107 89 82
-13.8452 -13.8766 -1.29129 110 89 70
-13.9146 -13.8604 -1.29423 96 71 48
-16.9363 -12.0746 -1.38586 243 204 170
-17.0817 -12.0587 -1.39436 232 198 171
-17.223 -12.0789 -1.40425 230 196 167
-17.3368 -12.0789 -1.41153 230 197 166
-17.4655 -12.0885 -1.42018 239 203 172
-17.6233 -12.0767 -1.42977 234 193 161
-17.7146 -12.0588 -1.43488 231 192 161
-17.7598 -12.0092 -1.43568 227 190 157
-17.8452 -11.946 -1.43849 245 205 173
-17.8901 -11.8958 -1.43929 245 208 176
-17.9614 -11.8631 -1.44256 243 207 175
-18.0329 -11.7899 -1.44413 230 195 164
-18.1042 -11.7564 -1.4474 231 196 164
-18.1586 -11.7118 -1.44912 227 191 159
-18.2297 -11.6777 -1.45239 227 191 159
-18.2971 -11.6009 -1.45366 240 206 174
-18.3613 -11.5618 -1.45631 245 211 182
-23.4911 -8.03396 -1.57861 205 171 139
-22.2006 -6.89833 -1.465 106 87 89
-22.2137 -6.82638 -1.46447 111 94 92
-22.2771 -6.73176 -1.46697 118 107 107
-6.27503 -12.0767 -0.82877 112 111 118
-6.37602 -12.1838 -0.839694 128 136 140
-6.54065 -12.3658 -0.857995 106 108 119
-6.49264 -12.1796 -0.843529 92 98 101
-6.64686 -12.3843 -0.863071 129 133 140
-6.60899 -12.2194 -0.850452 116 117 122
-6.67495 -12.2069 -0.851981 105 112 113
-6.84337 -12.3399 -0.867215 130 133 141
-7.3791 -12.8537 -0.921979 122 120 134
-7.48216 -12.944 -0.931982 129 132 145
-7.54358 -12.9593 -0.935368 81 86 98
-7.60119 -12.9674 -0.93814 139 139 154
-7.67529 -12.9567 -0.940286 105 111 123
-7.73016 -12.9591 -0.942596 135 139 150
-7.7861 -12.963 -0.94506 131 139 150
-7.86755 -12.9633 -0.948285 132 135 149
-8.70187 -13.4986 -1.01738 130 131 142
-8.73697 -13.4618 -1.01647 104 101 113
-8.82637 -13.4635 -1.02031 89 96 113
-8.89917 -13.4849 -1.02478 101 94 110
-11.2977 -14.7639 -1.21262 133 130 137
-11.4504 -14.727 -1.21756 115 112 120
-11.4909 -14.5916 -1.21127 141 139 148
-11.6193 -14.6628 -1.22175 135 128 135
-11.701 -14.626 -1.22345 124 119 122
-11.7709 -14.6211 -1.22654 146 137 140
-11.8246 -14.5956 -1.22763 129 124 130
-11.9074 -14.5592 -1.22948 139 129 128
-18.4187 -11.5183 -1.45835 221 187 161
-18.5109 -11.4561 -1.46192 171 139 116
-18.5731 -11.415 -1.46442 171 139 123
-18.6148 -11.3612 -1.46507 171 140 124
-18.6878 -11.2863 -1.46696 162 136 118
-18.7411 -11.2392 -1.46869 161 138 120
-18.8012 -11.196 -1.47103 166 138 124
-18.8406 -11.1403 -1.47153 180 155 137
-18.9178 -11.0671 -1.47387 185 163 145
-18.962 -11.014 -1.47484 184 158 142
-19.0147 -10.9657 -1.47657 185 164 147
-19.0965 -10.8943 -1.47937 176 157 140
-19.1644 -10.8543 -1.48249 167 147 137
-19.2098 -10.8013 -1.48361 160 140 133
-19.2735 -10.7189 -1.48488 150 132 127
-19.3429 -10.679 -1.48815 145 130 127
-19.4053 -10.6348 -1.49081 140 127 125
-24.0172 -7.1798 -1.59716 83 68 69
-24.1457 -7.1363 -1.60529 117 105 103
-24.2413 -7.04114 -1.6101 124 108 106
-6.33309 -12.2863 -0.845237 92 93 83
-7.10323 -12.9175 -0.915995 78 76 80
-7.23134 -12.9157 -0.920602 83 91 102
-7.2576 -12.8692 -0.918448 134 136 147
-7.35404 -12.9499 -0.927527 114 123 132
-8.33318 -13.557 -1.00615 89 94 109
-10.5 -15.022 -1.19239 136 139 148
-10.6377 -14.9718 -1.19532 138 135 150
-10.7798 -14.9269 -1.19887 127 124 139
-10.8962 -14.8942 -1.20211 141 139 147
-11.0417 -14.8516 -1.20613 140 138 149
-11.1569 -14.8153 -1.20922 137 137 150
-19.457 -10.5846 -1.49254 142 127 124
-19.5374 -10.5104 -1.49535 141 125 125
-19.5959 -10.4634 -1.4977 139 122 124
-19.6455 -10.4114 -1.49928 136 122 129
-19.7623 -10.3554 -1.50533 139 125 131
-19.7886 -10.2908 -1.5049 138 126 129
-19.8431 -10.2408 -1.50694 141 129 132
-19.9382 -10.1722 -1.51114 139 129 129
-19.9586 -10.1044 -1.51026 167 158 152
-20.0197 -10.0572 -1.51292 169 158 150
-20.0664 -10.0026 -1.51434 172 157 153
-20.125 -9.91458 -1.51546 164 150 144
-20.191 -9.86914 -1.51858 151 138 134
-24.2854 -6.97174 -1.61188 117 103 103
-24.3293 -6.90214 -1.61366 118 107 105
-24.3845 -6.83557 -1.6163 120 111 109
-24.452 -6.73092 -1.61909 118 112 114
-24.5183 -6.66684 -1.6226 113 108 107
-24.5882 -6.60344 -1.6264 118 113 113
-24.6451 -6.49487 -1.62847 143 138 140
-31.1202 -2.24189 -1.81374 91 107 139
-5.92156 -12.4567 -0.84329 134 134 142
-5.95479 -12.428 -0.842363 110 87 98
-6.49069 -12.951 -0.89665 130 90 91
-6.52963 -12.9296 -0.896493 95 75 76
-6.52971 -12.8294 -0.889567 89 93 85
-10.0523 -15.1637 -1.18205 142 134 146
-10.2413 -15.0929 -1.1856 125 131 145
-10.3034 -15.0845 -1.18776 130 130 142
-10.3825 -15.05 -1.18899 123 127 139
-20.2462 -9.81816 -1.52078 154 143 141
-20.3076 -9.73087 -1.52221 152 138 135
-20.3372 -9.66732 -1.52224 147 135 131
-20.4009 -9.61985 -1.52521 147 132 136
-20.4597 -9.53079 -1.52649 154 138 139
-20.5013 -9.47262 -1.52761 163 146 146
-20.5537 -9.41926 -1.52965 166 147 143
-20.606 -9.36565 -1.5317 171 152 149
-20.6836 -9.2844 -1.53466 165 147 141
-20.7119 -9.21965 -1.53471 164 150 139
-20.7636 -9.16529 -1.53675 166 150 136
-20.8204 -9.07413 -1.53802 167 149 144
-24.6934 -6.42511 -1.63069 134 127 134
-24.7686 -6.36211 -1.63492 138 131 138
-24.8514 -6.25923 -1.63901 136 131 135
-24.9261 -6.19527 -1.64325 137 132 137
-25.2713 -6.19776 -1.66769 133 132 138
-5.7108 -12.6088 -0.847332 114 104 104
-5.73468 -12.5046 -0.8407 127 129 133
-5.72529 -12.38 -0.831616 136 137 141
-5.81469 -12.4772 -0.841307 136 137 139
-5.91045 -12.5343 -0.848372 135 139 140
-6.25126 -12.9644 -0.889603 129 88 94
-6.31906 -12.9522 -0.890974 128 86 89
-6.3195 -12.8503 -0.883893 127 85 87
-6.42357 -12.9659 -0.895432 129 87 88
-9.23507 -15.1631 -1.14833 131 133 147
-20.8736 -9.02003 -1.54022 165 147 143
-20.9083 -8.95781 -1.54088 170 152 146
-20.9311 -8.85182 -1.53938 172 150 143
-20.9745 -8.79322 -1.54081 164 143 134
-21.0215 -8.73596 -1.54255 165 142 127
-21.0646 -8.67697 -1.54398 168 142 128
-21.1524 -8.5975 -1.54803 181 151 136
-21.2173 -8.5469 -1.55131 194 163 148
-21.2784 -8.49449 -1.55428 192 161 142
-25.6439 -6.20473 -1.69416 135 132 139
-26.0516 -6.17459 -1.7225 133 130 133
-26.4732 -6.18771 -1.75258 139 134 132
-5.64501 -12.8349 -0.861361 107 97 78
-5.65906 -12.7032 -0.85242 99 82 72
-5.70599 -12.7045 -0.853954 116 102 93
-21.3545 -8.4091 -1.55741 198 168 144
-21.4134 -8.35525 -1.56023 195 168 146
-21.4592 -8.29608 -1.56197 183 160 140
-21.5215 -8.20444 -1.56401 167 147 129
-21.5743 -8.14758 -1.56637 167 144 131
-21.6457 -8.09745 -1.57027 165 142 133
-21.7164 -8.0081 -1.57309 166 146 137
-21.7706 -7.951 -1.5756 164 147 135
-26.9048 -6.20049 -1.78338 140 135 131
-27.092 -6.10994 -1.79527 137 130 124
-27.1511 -6.03403 -1.79835 136 126 121
-27.1787 -5.95093 -1.79913 128 118 115
-5.48821 -12.9632 -0.865858 97 109 71
-5.55593 -12.9569 -0.86738 83 87 58
-5.60339 -12.9586 -0.868913 97 87 68
-5.59627 -12.8297 -0.85952 120 105 86
-21.8153 -7.89023 -1.57734 159 139 136
-21.8729 -7.83397 -1.58016 96 82 91
-21.9182 -7.73445 -1.58098 127 107 103
-21.9792 -7.6789 -1.58411 163 129 109
-22.0081 -7.61197 -1.58461 179 146 115
-22.0712 -7.51811 -1.58697 187 146 125
-22.0939 -7.44895 -1.58702 151 127 108
-21.2838 -7.10246 -1.51914 197 163 144
-21.3068 -6.99927 -1.51841 117 99 100
-21.3089 -6.92634 -1.51691 170 152 147
