-10.0888 3.69571 -1.91076 83 86 102
-10.0763 3.72324 -1.9108 82 87 102
-10.0907 3.76235 -1.91718 80 87 103
-10.0667 3.80129 -1.91598 81 87 104
-10.07 3.83585 -1.91982 82 85 102
-10.0392 3.85538 -1.91564 86 88 105
-10.022 3.89724 -1.91612 90 93 110
-10.0071 3.92376 -1.91574 78 82 99
-10.001 3.9543 -1.91747 79 83 97
-8.8164 6.07266 -1.95298 95 98 113
-8.796 6.11559 -1.95557 95 98 113
-8.77293 6.13675 -1.95475 95 98 113
-8.74378 6.15286 -1.95225 94 97 112
-8.72813 6.18008 -1.95355 91 94 109
-8.70112 6.21772 -1.95444 92 95 112
-8.68523 6.24485 -1.95574 92 95 112
-8.65883 6.26309 -1.95408 91 97 113
-8.63586 6.30426 -1.95625 91 97 113
-7.93761 7.76007 -1.99271 90 94 106
-7.90982 7.77817 -1.99192 91 94 106
-7.89089 7.80655 -1.99398 90 94 106
-7.37374 8.90344 -2.02338 94 91 104
-7.35378 8.93574 -2.02654 94 90 105
-7.28981 8.93392 -2.01913 93 92 106
-6.76236 9.99912 -2.04024 85 79 90
-6.72139 10.0012 -2.0369 92 86 96
-6.67856 9.99977 -2.0328 90 84 94
-5.25637 10.2843 -1.84109 116 115 121
-5.22324 10.297 -1.84109 112 112 121
-4.72777 11.0197 -1.83678 112 111 116
-4.20482 11.6343 -1.8191 116 115 121
-12.1156 0.387122 -1.88625 88 98 120
-11.4893 1.26498 -1.88342 97 109 125
-11.4864 1.29704 -1.88387 88 99 115
-11.4815 1.32882 -1.88392 89 96 115
-10.89 2.128 -1.88034 86 95 110
-10.879 2.17288 -1.88041 90 92 106
-10.9609 2.22327 -1.89954 123 113 110
-10.8883 2.2384 -1.88578 143 126 108
-10.2135 3.4857 -1.91718 84 87 102
-10.1727 3.50202 -1.91046 80 85 97
-10.1681 3.53271 -1.91219 83 90 102
-10.1777 3.58542 -1.91859 82 88 104
-10.18 3.61916 -1.92201 86 89 106
-10.1245 3.62899 -1.91192 84 85 103
-8.62705 6.33763 -1.95966 93 94 112
-8.59452 6.3505 -1.95631 92 95 112
-8.56372 6.38501 -1.95636 89 95 109
-8.55308 6.417 -1.95935 90 96 110
-8.52771 6.436 -1.95811 89 95 109
-8.51394 6.46534 -1.96025 88 94 108
-8.48695 6.50341 -1.96157 88 94 108
-7.85066 7.83491 -1.99321 90 92 105
-7.82519 7.8557 -1.99324 90 92 107
-7.80344 7.8809 -1.99448 89 92 107
-7.78032 7.90455 -1.99532 90 91 109
-7.27735 8.9774 -2.02503 94 91 108
-7.23846 8.98185 -2.02152 95 91 106
-6.63673 9.99985 -2.02908 89 86 99
-6.58201 10.0135 -2.0265 86 83 98
-6.53655 10.0063 -2.02128 87 85 99
-5.18724 10.3024 -1.83969 120 118 129
-4.69957 11.0534 -1.84082 117 117 119
-4.65855 11.0476 -1.8378 117 115 118
-12.1256 0.269461 -1.88679 88 100 116
-12.118 0.302966 -1.88574 92 103 122
-11.4973 1.1527 -1.88168 94 101 120
-11.4986 1.18521 -1.8829 97 105 123
-11.4901 1.21655 -1.88218 90 98 116
-10.9185 1.99229 -1.87931 87 90 106
-10.9056 2.0211 -1.87814 87 93 110
-10.899 2.06686 -1.87903 88 96 113
-10.9012 2.09888 -1.8811 90 99 115
-10.247 3.27248 -1.90632 74 80 96
-10.2359 3.30048 -1.90636 84 85 103
-10.2158 3.34102 -1.90558 88 89 107
-10.2154 3.37311 -1.90816 85 87 102
-10.2386 3.41438 -1.91622 86 87 105
-10.227 3.44236 -1.91627 89 86 105
-8.45846 6.51954 -1.95948 90 92 107
-8.4458 6.55006 -1.96205 91 92 110
-8.40975 6.57993 -1.96083 90 91 109
-8.39255 6.60638 -1.96213 89 94 109
-8.38523 6.64213 -1.96639 90 93 108
-8.34311 6.66631 -1.96347 91 94 109
-7.73968 7.93236 -1.99455 90 92 105
-7.71886 7.95885 -1.9962 92 92 106
-7.69176 7.97772 -1.99582 91 91 107
-7.65695 8.01271 -1.99708 90 92 107
-7.20605 9.02659 -2.02547 95 91 107
-7.16712 9.03075 -2.02196 96 92 106
-7.14969 9.06753 -2.0263 96 92 107
-6.49954 10.0145 -2.01943 85 82 93
-6.44029 10.0187 -2.01497 87 85 98
-5.13363 10.3102 -1.8376 120 117 127
-5.1032 10.33 -1.83902 118 117 122
-4.61149 11.0829 -1.84118 117 116 121
-12.1114 0.185045 -1.88331 91 102 122
-12.1158 0.218756 -1.88448 82 93 111
-11.5096 1.07332 -1.88194 89 97 116
-11.5073 1.10539 -1.88238 91 98 117
-10.9422 1.88712 -1.87914 92 94 109
-10.9324 1.93222 -1.87921 106 105 119
-10.9313 1.96343 -1.88048 95 95 108
-10.3277 3.10963 -1.90985 90 93 110
-10.3213 3.15524 -1.91203 91 92 110
-10.3179 3.18608 -1.91376 90 93 110
-10.3071 3.2143 -1.91381 82 88 104
-10.28 3.25252 -1.91134 78 86 99
-8.32135 6.68857 -1.9635 91 94 109
-8.31504 6.72561 -1.96819 90 93 108
-8.28463 6.73966 -1.96567 90 93 110
-8.25762 6.7782 -1.96741 87 93 109
-8.23968 6.8043 -1.96871 88 94 108
-8.22304 6.83173 -1.97043 89 93 110
-7.63582 8.039 -1.99873 91 90 106
-7.60603 8.05455 -1.99753 92 91 105
-7.56961 8.08765 -1.99839 93 92 108
-7.12034 9.08622 -2.02632 92 88 105
-7.0713 9.10587 -2.02439 95 91 106
-7.04605 9.13093 -2.02598 97 93 107
-6.39508 10.0109 -2.00976 82 81 97
-6.35632 10.0152 -2.00716 85 85 97
-5.07133 10.346 -1.83973 123 122 127
-5.02037 10.3606 -1.83904 118 116 121
-4.56642 11.0636 -1.83581 120 119 124
-4.52904 11.0686 -1.8348 117 116 122
-11.5099 1.0088 -1.88028 87 95 116
-11.5293 1.0431 -1.88501 88 96 117
-11.3187 1.25012 -1.8784 86 97 115
-11.3099 1.30329 -1.87804 95 102 120
-10.9571 1.7803 -1.87735 149 127 113
-10.9498 1.82583 -1.87783 130 119 110
-10.9374 1.85482 -1.87666 89 90 94
-10.3625 2.91506 -1.90239 81 86 105
-10.3562 2.94462 -1.90328 82 88 104
-10.3609 2.97787 -1.9067 84 90 106
-10.3331 3.01598 -1.90381 81 87 101
-10.3153 3.0417 -1.90217 79 85 99
-10.3419 3.08264 -1.91065 79 84 101
-8.18029 6.85491 -1.96752 89 91 107
-8.16068 6.87944 -1.96839 91 93 108
-8.14374 6.90668 -1.97011 90 91 107
-8.11582 6.94471 -1.97185 92 91 107
-8.09727 6.97046 -1.97314 91 90 106
-7.54575 8.11065 -1.99923 89 91 106
-7.517 8.12742 -1.99843 88 90 105
-7.48497 8.16633 -2.00092 91 90 106
-7.01859 9.15262 -2.02678 95 91 106
-6.98185 9.19165 -2.02956 96 92 107
-6.29369 10.0116 -2.00121 88 88 99
-6.25504 10.0155 -1.9986 93 93 106
-6.21373 10.014 -1.99488 91 89 102
-4.98699 10.3726 -1.83905 115 115 119
-4.95159 10.379 -1.838 117 116 121
-4.49972 11.0999 -1.83851 118 117 123
-11.5384 0.898682 -1.88321 98 107 124
-11.5328 0.930425 -1.88288 88 99 116
-11.5349 0.96291 -1.8841 95 103 122
-11.3377 1.17993 -1.88016 82 90 109
-11.3351 1.2158 -1.8805 88 96 117
-10.992 1.67708 -1.88002 108 100 106
-10.9659 1.71934 -1.87644 143 125 109
-10.9635 1.75017 -1.8773 151 129 115
-10.4086 2.74104 -1.89959 89 95 112
-10.4104 2.77297 -1.90217 85 92 109
-10.4095 2.81976 -1.90519 83 91 106
-10.3904 2.84528 -1.90312 84 91 107
-10.3918 2.87728 -1.9057 80 89 106
-9.3819 4.49914 -1.92332 90 96 113
-9.36862 4.52536 -1.92379 91 97 113
-9.36036 4.55443 -1.92558 90 96 112
-9.33461 4.59031 -1.92476 91 97 111
-9.31427 4.61254 -1.92349 88 95 111
-9.3057 4.64152 -1.92527 88 95 111
-9.29303 4.68497 -1.92796 88 93 113
-9.25395 4.69616 -1.92186 90 96 114
-9.25009 4.728 -1.92496 90 97 113
-9.23026 4.76731 -1.9259 90 96 110
-9.20776 4.78811 -1.92418 90 96 112
-9.20687 4.82197 -1.92816 89 94 113
-9.19088 4.84672 -1.92819 88 95 111
-9.15711 4.87762 -1.92562 89 99 111
-9.15088 4.9084 -1.92828 88 98 110
-9.14617 4.94023 -1.93138 89 98 111
-9.10059 4.96352 -1.92575 89 96 112
-9.10716 5.00262 -1.93191 89 95 111
-9.07585 5.0176 -1.92801 89 97 113
-9.06275 5.06154 -1.93113 92 95 112
-9.03296 5.07734 -1.92766 90 96 112
-9.0243 5.10692 -1.92988 89 96 112
-9.01878 5.13866 -1.93298 91 97 113
-8.97587 5.163 -1.92822 90 98 111
-8.9685 5.19359 -1.93088 91 97 111
-8.95294 5.21872 -1.93135 90 98 111
-8.92265 5.25138 -1.93009 87 95 108
-8.07181 6.98918 -1.97232 92 91 107
-8.04209 7.02552 -1.97364 90 90 105
-8.01513 7.04264 -1.97239 90 94 106
-7.99621 7.06814 -1.97369 87 92 105
-7.97318 7.08935 -1.97372 88 91 106
-7.45964 8.18755 -2.00135 92 91 107
-7.43424 8.2087 -2.00178 92 91 109
-7.41233 8.23445 -2.00343 91 90 106
-6.94276 9.19488 -2.02605 95 91 106
-6.9161 9.21793 -2.02724 98 91 107
-6.15757 10.0219 -1.99154 92 92 102
-6.11289 10.013 -1.98633 86 89 98
-4.90117 10.3949 -1.83767 116 114 120
-4.4448 11.11 -1.83751 112 111 118
-4.40678 11.1127 -1.83617 119 120 125
-11.5546 0.819466 -1.88464 95 105 123
-11.5375 0.850266 -1.88196 88 97 113
-11.3423 1.09017 -1.87911 93 100 120
-11.3441 1.14447 -1.88051 91 98 117
-10.9712 1.61118 -1.87302 87 91 107
-10.9653 1.64133 -1.87307 92 96 112
-10.4117 2.57055 -1.8888 138 138 148
-10.4046 2.59956 -1.88926 102 103 117
-10.3898 2.67286 -1.89106 89 97 113
-10.4274 2.71537 -1.90166 87 93 107
-9.61801 3.89912 -1.90496 83 85 100
-9.60843 3.92676 -1.90587 82 85 101
-9.60663 3.97407 -1.91031 84 83 99
-9.58102 3.99411 -1.90728 91 94 109
-9.58515 4.02848 -1.9117 90 95 108
-9.57752 4.07331 -1.91482 87 90 107
-9.54992 4.09226 -1.91136 83 88 106
-9.55713 4.12847 -1.91665 88 91 108
-9.5468 4.15603 -1.91756 93 95 111
-9.53154 4.19732 -1.91894 98 101 116
-9.50884 4.21861 -1.91679 95 101 115
-9.50858 4.25142 -1.92033 96 99 114
-9.48421 4.28809 -1.91951 96 99 116
-9.47334 4.31549 -1.92042 96 98 113
-9.45894 4.34105 -1.92046 98 99 117
-9.44275 4.38206 -1.92183 95 99 116
-9.42642 4.4066 -1.92143 92 95 112
-9.41174 4.43201 -1.92147 93 96 113
-9.40022 4.47569 -1.92416 93 96 115
-8.91011 5.27859 -1.93144 88 96 109
-8.9135 5.3169 -1.93717 90 98 111
-8.88118 5.34821 -1.93547 90 97 113
-8.8508 5.36299 -1.932 89 97 110
-8.84422 5.39457 -1.9351 89 96 109
-8.84069 5.42844 -1.93907 92 96 112
-8.80474 5.45705 -1.9365 91 96 110
-8.79305 5.48518 -1.93828 89 95 109
-8.75769 5.49602 -1.93349 89 95 111
-8.7309 5.53109 -1.93354 90 96 112
-8.73611 5.57187 -1.94015 90 96 112
-8.71465 5.59286 -1.9393 90 96 112
-8.67808 5.62069 -1.93673 92 95 112
-8.67197 5.6533 -1.94026 94 95 113
-8.65028 5.67406 -1.93942 92 94 112
-7.93489 7.11675 -1.97249 90 89 107
-7.92237 7.1492 -1.9759 92 91 107
-7.89643 7.16732 -1.97508 91 90 106
-7.37262 8.26359 -2.00347 90 91 106
-7.34813 8.28606 -2.0043 92 91 107
-7.32241 8.30688 -2.00473 91 93 108
-6.882 9.26158 -2.03119 96 90 106
-6.84184 9.26272 -2.02729 93 91 105
-6.81287 9.28216 -2.0277 84 83 98
-6.07614 10.0198 -1.98447 89 89 100
-6.03073 10.0087 -1.97888 93 93 105
-4.8677 10.4066 -1.83767 121 118 125
-4.82964 10.4052 -1.83521 118 117 123
-4.36877 11.1154 -1.83483 121 120 126
-11.5702 0.740078 -1.88607 92 103 121
-11.5638 0.787952 -1.88576 88 99 117
-11.3604 1.01971 -1.88087 86 94 117
-11.3485 1.05469 -1.87947 94 102 124
-11.0137 1.47794 -1.87645 151 146 153
-11.0101 1.50851 -1.87691 140 138 143
-10.9987 1.53787 -1.87574 128 128 138
-10.4369 2.50032 -1.88952 134 131 140
-10.4207 2.52674 -1.88788 133 131 136
-9.73499 3.61791 -1.90103 87 93 109
-9.71347 3.65584 -1.90022 74 80 94
-9.71006 3.68601 -1.90245 77 80 97
-9.68873 3.70833 -1.9003 89 90 108
-9.67748 3.75078 -1.90211 84 87 104
-9.66484 3.77693 -1.90215 81 85 102
-9.65924 3.80628 -1.90394 80 86 102
-9.66237 3.83968 -1.90792 87 90 107
-9.62571 3.87064 -1.90361 82 83 101
-8.62727 5.71223 -1.94079 91 97 111
-8.59619 5.72565 -1.93731 92 96 111
-8.57277 5.74495 -1.93603 92 96 111
-8.56458 5.77624 -1.93912 92 98 112
-8.54255 5.8153 -1.94093 93 96 111
-8.52193 5.83683 -1.94052 91 97 111
-8.51032 5.86563 -1.94274 91 97 111
-8.47574 5.89466 -1.94104 92 98 112
-8.46543 5.92462 -1.9437 91 96 113
-8.44596 5.94714 -1.94373 95 98 113
-7.88027 7.2188 -1.98105 90 94 106
-7.85018 7.23243 -1.97896 89 93 105
-7.81614 7.24161 -1.9756 90 92 105
-7.78506 7.27693 -1.97691 90 92 107
-7.76526 7.30187 -1.9782 90 92 107
-7.28351 8.33719 -2.00518 90 92 107
-7.2576 8.35782 -2.00561 93 92 108
-7.23278 8.37997 -2.00644 92 91 107
-6.77629 9.32208 -2.03087 82 81 94
-6.74512 9.33795 -2.03049 76 75 92
-5.9757 10.0175 -1.97592 96 96 106
-5.93306 10.0114 -1.97144 96 96 106
-5.89136 10.0069 -1.96734 92 92 104
-4.78042 10.4242 -1.83558 118 117 125
-4.32422 11.1608 -1.84023 115 113 117
-11.5743 0.675883 -1.88557 92 101 118
-11.583 0.708754 -1.88796 89 99 116
-11.3794 0.931204 -1.88263 86 97 115
-11.3659 0.966121 -1.88088 87 99 118
-11.026 1.37107 -1.87506 94 102 120
-11.0053 1.39916 -1.87186 90 95 115
-11.0213 1.43251 -1.87637 107 104 119
-10.4718 2.29407 -1.88414 140 122 102
-10.4639 2.338 -1.88506 143 126 122
-10.467 2.36959 -1.88763 103 97 98
-10.4644 2.39973 -1.88894 93 95 108
-10.4919 2.438 -1.897 78 84 103
-10.5454 2.49916 -1.91184 149 146 158
-9.81313 3.36863 -1.89411 88 89 107
-9.81799 3.40168 -1.89808 85 87 102
-9.82997 3.45321 -1.90515 84 85 103
-9.78581 3.46658 -1.89731 81 80 98
-9.78129 3.49602 -1.8991 84 85 103
-9.77846 3.52623 -1.90133 88 89 107
-9.7807 3.57421 -1.90621 87 90 107
-9.75249 3.59383 -1.90231 82 85 103
-8.40806 5.97331 -1.94115 95 97 112
-8.40338 6.00817 -1.94556 95 98 113
-8.37472 6.02296 -1.94296 95 98 115
-8.36683 6.05529 -1.9465 96 99 116
-8.3241 6.07717 -1.9426 95 97 112
-8.31005 6.10435 -1.94438 94 96 111
-8.29886 6.13406 -1.94704 94 96 111
-7.74021 7.3209 -1.97781 88 91 106
-7.72283 7.34866 -1.97995 92 91 107
-7.68733 7.37919 -1.97999 92 91 105
-7.66077 7.3965 -1.97916 93 95 108
-7.19124 8.40669 -2.00607 95 93 107
-7.1719 8.43662 -2.00895 93 91 105
-7.14228 8.45214 -2.00815 91 89 104
-6.71392 9.35372 -2.03012 72 72 84
-6.67575 9.35756 -2.027 79 78 88
-6.6376 9.39526 -2.02977 131 130 139
-5.83649 10.0149 -1.96438 95 96 107
-5.7916 10.0029 -1.95879 94 97 106
-4.74748 10.4374 -1.83594 121 120 126
-4.70884 10.4337 -1.83312 119 117 120
-4.27857 11.1366 -1.83417 119 117 122
-4.2459 11.1578 -1.8362 118 118 121
-11.5718 0.563056 -1.88305 84 95 113
-11.5848 0.596019 -1.88622 94 102 122
-11.5811 0.644103 -1.8863 89 99 117
-11.3821 0.841289 -1.88159 97 108 124
-11.3753 0.894788 -1.88123 92 100 119
-11.0322 1.29448 -1.87372 88 95 113
-11.0157 1.32324 -1.87133 93 98 117
-10.5275 2.24659 -1.89291 144 125 111
-10.4855 2.26684 -1.88536 140 122 107
-9.87718 3.17708 -1.89075 87 90 105
-9.87548 3.20724 -1.89298 86 89 104
-9.89774 3.26183 -1.90223 83 90 106
-9.85753 3.27751 -1.89527 75 81 97
-9.85547 3.30771 -1.8975 82 85 102
-9.84262 3.34914 -1.89844 89 92 107
-8.27201 6.16962 -1.94797 92 97 111
-8.25031 6.19026 -1.94756 91 98 111
-8.22855 6.21082 -1.94714 92 98 112
-8.20275 6.2474 -1.94851 93 96 111
-8.18517 6.27173 -1.94941 95 97 112
-8.15884 6.28815 -1.94769 90 93 108
-8.13263 6.32445 -1.94905 91 93 108
-7.64817 7.43001 -1.983 89 91 106
-7.60215 7.44831 -1.97965 90 94 106
-7.58677 7.47874 -1.98264 90 94 106
-7.56747 7.50467 -1.98436 91 90 105
-7.10378 8.48325 -2.009 94 92 106
-7.08073 8.50818 -2.01065 95 93 107
-7.04759 8.51856 -2.00863 94 92 106
-6.61112 9.41918 -2.03136 122 125 134
-6.58552 9.44474 -2.03334 136 137 143
-5.75511 10.0086 -1.95693 95 97 106
-5.69711 10.0088 -1.95247 95 95 105
-4.67961 10.4579 -1.8356 117 115 119
-4.18612 11.1495 -1.83217 119 117 122
-11.5919 0.531992 -1.8865 90 101 120
-11.3986 0.770396 -1.88334 93 101 122
-11.3875 0.805644 -1.88194 89 100 120
-11.0308 1.18617 -1.86989 91 99 117
-11.036 1.23308 -1.8724 87 99 115
-11.0332 1.26365 -1.87286 89 99 118
-10.5439 2.09738 -1.88804 88 93 112
-10.5331 2.14065 -1.88811 95 99 111
-10.5293 2.17038 -1.889 88 96 106
-10.571 2.21116 -1.90001 78 74 85
-9.96423 3.03973 -1.89752 79 86 102
-9.95201 3.06609 -1.89712 77 84 100
-9.903 3.0793 -1.88798 84 91 107
-9.90773 3.12682 -1.89286 79 86 100
-9.88976 3.15098 -1.89115 84 90 104
-8.11477 6.3486 -1.94995 92 95 110
-8.10254 6.378 -1.95261 91 94 109
-8.08024 6.39809 -1.9522 94 96 111
-8.05628 6.43677 -1.95444 93 95 110
-8.03096 6.45401 -1.95315 94 96 111
-8.01407 6.47925 -1.95449 92 95 112
-7.53876 7.5435 -1.98694 92 91 106
-7.50427 7.55127 -1.98357 93 92 108
-7.4884 7.58153 -1.98656 91 90 106
-7.02438 8.54335 -2.01028 94 92 106
-6.98321 8.57071 -2.01032 94 90 105
-6.9598 8.59533 -2.01197 93 89 104
-6.54587 9.4804 -2.03572 140 143 145
-6.51521 9.49725 -2.03573 137 135 136
-5.65903 10.0105 -1.94986 94 94 104
-5.62099 10.0121 -1.94726 96 94 105
-4.62703 10.4669 -1.83421 115 113 118
-4.58968 10.4665 -1.8321 117 115 118
-4.16162 11.2009 -1.83958 118 116 121
-4.11735 11.1799 -1.8342 114 111 118
-11.5839 0.419005 -1.8832 85 96 114
-11.5837 0.451141 -1.88364 91 102 123
-11.5795 0.48309 -1.8833 93 104 124
-11.3902 0.67983 -1.88055 87 98 118
-11.4038 0.734696 -1.8837 90 98 120
-11.0456 1.12617 -1.87101 85 92 109
-11.0489 1.15744 -1.87268 92 99 117
-10.5446 1.9302 -1.87935 96 95 109
-10.5376 1.95904 -1.87939 97 98 114
-10.5733 2.01239 -1.88959 88 91 108
-10.5604 2.04004 -1.88837 90 96 114
-10.5836 2.07588 -1.89516 96 101 120
-10.0004 2.83899 -1.88935 80 87 103
-10.0018 2.86975 -1.89201 82 89 105
-9.99562 2.8981 -1.89293 84 87 104
-9.98476 2.93998 -1.89387 79 86 102
-9.97837 2.9683 -1.89479 81 88 104
-9.96451 2.99408 -1.89395 78 85 101
-7.97563 6.50418 -1.95234 93 93 111
-7.95855 6.52928 -1.95369 90 93 110
-7.94556 6.55842 -1.95634 88 94 109
-7.9082 6.58433 -1.95463 90 93 109
-7.89497 6.61339 -1.95729 90 93 109
-7.45427 7.61402 -1.98745 89 91 104
-7.42953 7.63357 -1.98747 91 90 104
-7.39246 7.63783 -1.98326 92 91 105
-7.37374 7.66482 -1.9854 92 94 109
-6.93194 8.6134 -2.01199 95 91 106
-6.88827 8.63707 -2.0112 95 91 106
-6.47593 9.49859 -2.03222 143 141 148
-6.42552 9.51493 -2.03029 116 109 120
-5.57979 10.0064 -1.94316 97 95 105
-5.52447 10.0111 -1.93982 94 91 100
-4.55839 10.4848 -1.83351 123 120 127
-4.06828 11.2109 -1.83724 121 120 126
-11.5768 0.338459 -1.88073 87 100 119
-11.5905 0.371085 -1.8839 92 105 125
-11.4116 0.6091 -1.88336 91 99 120
-11.4068 0.644838 -1.883 91 102 120
-11.0714 1.02106 -1.87327 86 97 117
-11.0713 1.05189 -1.87413 93 101 121
-11.0399 1.07936 -1.8685 82 93 113
-10.5466 1.82486 -1.87455 127 117 108
-10.559 1.90294 -1.88099 85 85 98
-10.0504 2.71896 -1.8909 87 94 110
-10.0261 2.74156 -1.88745 83 90 106
-10.0445 2.77757 -1.89405 85 93 108
-10.0213 2.81544 -1.89193 83 90 106
-7.87749 6.6383 -1.95863 89 93 108
-7.8544 6.65765 -1.95822 91 92 110
-7.82349 6.69 -1.9587 93 95 110
-7.80573 6.71474 -1.96004 92 95 110
-7.77834 6.72967 -1.95831 90 93 108
-7.34162 7.69988 -1.98713 92 92 108
-7.31659 7.71908 -1.98715 91 93 106
-7.28669 7.73206 -1.98548 91 93 106
-6.86566 8.66309 -2.01326 94 92 106
-6.84079 8.68578 -2.0145 93 91 105
-6.79681 8.70901 -2.01372 94 92 106
-6.39663 9.53485 -2.03109 121 115 123
-6.36581 9.55124 -2.0311 101 96 104
-6.33771 9.57271 -2.03229 79 73 84
-5.48577 10.0104 -1.93684 95 89 101
-5.44479 10.0042 -1.93274 96 95 104
-4.50517 10.4913 -1.83176 111 108 115
-4.47258 10.5055 -1.83247 117 115 122
-11.5806 0.306503 -1.88106 88 101 118
-11.4092 0.555002 -1.88231 78 89 111
-11.0847 0.945319 -1.87395 86 97 117
-11.0789 0.975593 -1.8736 89 100 120
-10.58 1.72596 -1.87691 142 123 108
-10.5757 1.75527 -1.87738 149 128 112
-10.5703 1.79942 -1.87829 154 128 110
-10.0704 2.54511 -1.88277 130 127 135
-10.0634 2.57296 -1.88325 141 140 149
-10.0208 2.63495 -1.87855 82 90 109
-10.0564 2.67575 -1.88909 84 91 109
-7.75249 6.7673 -1.96055 90 93 108
-7.73443 6.79187 -1.96189 90 93 108
-7.71089 6.81075 -1.96148 90 93 107
-7.68191 6.84531 -1.96284 89 92 107
-7.26496 7.78067 -1.99102 91 93 106
-7.24325 7.80429 -1.99231 91 93 106
-7.21671 7.82164 -1.99191 90 94 105
-6.76754 8.72493 -2.01333 93 91 105
-6.74136 8.7457 -2.01416 94 92 106
-6.70987 8.75814 -2.01296 94 92 106
-6.29075 9.59526 -2.03193 80 72 82
-6.25884 9.6096 -2.03155 80 78 93
-5.39197 10.0136 -1.93052 94 95 102
-5.35113 10.007 -1.92641 97 98 102
-4.43584 10.5065 -1.83072 117 115 121
-11.576 0.194175 -1.87893 87 98 118
-11.5843 0.226419 -1.88093 86 97 117
-11.5905 0.258674 -1.88254 87 98 118
-11.42 0.483556 -1.88336 78 89 111
-11.3999 0.518585 -1.88021 90 101 123
-11.0895 0.868785 -1.87301 89 99 120
-11.0865 0.91467 -1.8735 93 104 124
-10.5797 1.62075 -1.87211 94 99 119
-10.6557 1.67966 -1.89073 103 93 104
-10.6457 1.70812 -1.88993 136 122 117
-10.0927 2.38784 -1.87685 93 97 110
-10.12 2.425 -1.8852 79 84 100
-10.0897 2.49094 -1.88312 132 129 141
-10.0717 2.51563 -1.88098 130 127 136
-9.205 4.08196 -1.91759 98 97 111
-9.1779 4.17939 -1.92315 98 102 114
-9.17766 4.21145 -1.92681 98 101 116
-9.1482 4.22775 -1.92277 95 98 115
-9.1223 4.26178 -1.92147 97 99 117
-9.10809 4.28628 -1.92151 96 98 115
-9.1074 4.31831 -1.92517 95 98 115
-9.08448 4.35402 -1.92477 96 97 115
-9.07507 4.38128 -1.92617 96 99 116
-9.06047 4.40564 -1.9262 93 98 112
-9.04918 4.4319 -1.92714 93 97 114
-9.0409 4.47614 -1.93083 92 98 112
-9.02097 4.49743 -1.9295 94 96 111
-9.00768 4.52262 -1.92999 92 97 112
-8.97382 4.55185 -1.92687 90 98 111
-8.98205 4.58995 -1.93325 91 99 112
-8.94515 4.60091 -1.9274 90 96 110
-8.93922 4.647 -1.93198 89 96 112
-8.92545 4.67197 -1.93247 88 95 111
-8.92154 4.70307 -1.93568 90 96 112
-8.89853 4.7389 -1.93573 91 94 111
-8.87622 4.75856 -1.93395 92 95 112
-8.86045 4.78232 -1.93399 93 95 113
-8.84625 4.80708 -1.93447 93 96 113
-8.82273 4.84257 -1.93453 89 95 111
-8.81321 4.87042 -1.93637 89 97 110
-8.79221 4.89078 -1.93505 89 96 112
-8.76344 4.9228 -1.93374 90 97 113
-8.75038 4.94838 -1.93468 88 95 111
-8.74372 4.97827 -1.93743 89 95 111
-8.72101 5.01439 -1.93794 92 95 112
-8.70764 5.03988 -1.93888 91 94 111
-8.6926 5.06423 -1.93937 91 95 112
-8.66946 5.083 -1.93759 90 96 112
-8.63499 5.11099 -1.93492 90 96 112
-8.62927 5.14187 -1.93812 91 97 113
-8.61546 5.16713 -1.93906 89 98 113
-8.59817 5.20724 -1.94138 90 97 113
-8.5652 5.21877 -1.93688 90 96 112
-7.64623 6.85123 -1.95847 89 92 107
-7.63182 6.87981 -1.96113 91 93 108
-7.61598 6.90694 -1.96335 89 92 107
-7.5641 6.91671 -1.95725 89 92 107
-7.1731 7.84207 -1.98983 91 93 108
-7.15468 7.87013 -1.99239 90 92 107
-7.13264 7.89346 -1.99368 91 93 108
-7.10004 7.90262 -1.99116 92 94 109
-6.67185 8.79069 -2.01462 94 92 106
-6.64337 8.80787 -2.01464 93 91 105
-6.22232 9.61515 -2.02921 81 77 92
-6.17697 9.64064 -2.02963 95 90 106
-5.31266 10.0057 -1.92343 98 98 102
-5.25845 10.0108 -1.92046 98 97 102
-4.38721 10.5275 -1.83179 120 117 124
-4.34594 10.5132 -1.82721 120 117 124
-11.3995 0.392904 -1.87882 89 100 120
-11.4112 0.429259 -1.88127 91 102 122
-11.1003 0.808125 -1.87373 90 101 119
-11.1047 0.839277 -1.8754 88 98 117
-10.6106 1.56615 -1.87623 132 128 143
-10.1208 2.29186 -1.87669 139 118 97
-10.109 2.31832 -1.87586 138 119 103
-10.1084 2.34774 -1.87766 130 118 111
-10.2166 2.48165 -1.90972 119 118 135
-9.35628 3.71745 -1.90935 85 92 106
-9.34495 3.75855 -1.91123 80 86 100
-9.32 3.77785 -1.90809 90 96 112
-9.31082 3.80462 -1.90904 82 84 104
-9.31032 3.83561 -1.91224 83 84 104
-9.28962 3.87232 -1.91185 89 89 108
-9.29234 3.90506 -1.91596 87 87 106
-9.28797 3.9344 -1.91827 92 98 111
-9.24768 3.96137 -1.91289 82 84 101
-9.25351 3.99593 -1.91791 79 81 99
-9.22799 4.01461 -1.91478 85 88 105
-9.21513 4.05538 -1.91665 90 92 107
-9.21033 4.11665 -1.92261 100 99 115
-9.20517 4.14597 -1.92491 96 98 113
-8.55744 5.24846 -1.93963 93 97 113
-8.53028 5.28148 -1.93923 90 96 112
-8.516 5.30651 -1.94017 89 95 111
-8.50007 5.33034 -1.94065 87 93 109
-8.48874 5.35763 -1.94249 90 96 112
-8.46265 5.39149 -1.94255 89 96 112
-8.43093 5.4034 -1.9385 90 96 112
-8.42087 5.43173 -1.94079 93 96 113
-8.39905 5.46885 -1.9422 93 96 112
-8.39181 5.49954 -1.94541 92 96 113
-8.36145 5.51223 -1.94181 89 95 111
-8.34227 5.55156 -1.94413 89 95 111
-8.31486 5.56643 -1.94144 89 97 110
-7.55727 6.95377 -1.96254 88 91 106
-7.54241 6.98219 -1.96519 88 91 106
-7.49691 6.99867 -1.96128 89 91 106
-7.48184 7.02697 -1.96394 89 91 106
-7.06425 7.93344 -1.99205 92 91 107
-7.04655 7.96284 -1.99503 92 91 107
-6.61379 8.8233 -2.01425 95 92 106
-6.57744 8.85879 -2.01673 94 90 105
-6.14761 9.65984 -2.03043 88 86 99
-6.12084 9.6842 -2.0324 87 86 101
-5.21932 10.0074 -1.91711 97 96 101
-5.17878 10.0002 -1.91301 100 99 104
-4.3149 10.5326 -1.82898 110 109 113
-11.423 0.321875 -1.88232 87 100 117
-11.4015 0.357089 -1.87882 88 101 120
-11.1158 0.732398 -1.87522 88 96 115
-11.1036 0.777616 -1.87368 87 96 114
-10.6354 1.46537 -1.87733 153 143 156
-10.6338 1.4951 -1.87822 145 142 149
-10.6225 1.52323 -1.877 142 139 146
-10.1745 2.17268 -1.88087 89 91 107
-10.1781 2.2031 -1.88353 112 99 99
-10.1269 2.21982 -1.87352 146 128 115
-10.1398 2.25256 -1.87837 137 119 105
-9.45734 3.48602 -1.90719 88 90 105
-9.44734 3.51229 -1.90768 83 84 102
-9.44617 3.54246 -1.91044 84 85 103
-9.43395 3.58301 -1.91186 83 85 102
-9.40409 3.60045 -1.90737 78 84 100
-9.39904 3.629 -1.90922 88 92 109
-9.38107 3.66696 -1.90928 87 92 106
-9.37932 3.69713 -1.91203 82 88 102
-8.31175 5.60066 -1.946 91 97 111
-8.28728 5.61783 -1.94422 91 97 111
-8.25845 5.64955 -1.94381 90 97 113
-8.24741 5.6776 -1.94611 90 97 113
-8.23177 5.70194 -1.94705 90 96 112
-8.20404 5.73463 -1.94709 89 95 109
-8.19118 5.76136 -1.94894 88 94 108
-8.16631 5.77803 -1.94715 91 97 113
-7.46667 7.05525 -1.9666 91 93 108
-7.41838 7.06833 -1.96181 88 90 105
-7.41069 7.10529 -1.9671 90 92 107
-7.38623 7.12312 -1.96668 89 91 106
-7.01498 7.97324 -1.99293 92 91 107
-6.98338 8.01005 -1.99551 93 92 108
-6.95738 8.02816 -1.99553 94 93 109
-6.54467 8.86899 -2.01511 94 90 105
-6.51998 8.89248 -2.01676 95 91 105
-6.06986 9.69873 -2.03047 91 90 105
-6.04729 9.73164 -2.0344 90 87 103
-5.12549 10.0064 -1.91041 100 97 104
-5.08803 10.0061 -1.9078 98 95 102
-4.28322 10.55 -1.83039 120 119 125
-11.3977 0.267343 -1.87742 92 103 121
-11.114 0.670766 -1.8735 88 96 117
-11.115 0.701572 -1.87436 86 94 115
-10.6753 1.3967 -1.88311 92 100 118
-10.7453 1.43766 -1.89959 83 83 100
-10.1964 2.07499 -1.87983 89 96 114
-10.1796 2.10043 -1.87769 85 88 108
-10.1778 2.12941 -1.87905 90 94 113
-9.54052 3.23283 -1.90093 85 91 107
-9.5226 3.27069 -1.90054 81 87 101
-9.52954 3.3037 -1.9051 80 86 100
-9.51833 3.32941 -1.90514 78 84 98
-9.49458 3.36491 -1.90339 83 92 105
-9.51731 3.40482 -1.91203 92 95 109
-9.48066 3.41987 -1.90573 83 83 98
-9.47978 3.4651 -1.90987 93 95 110
-8.13823 5.81043 -1.9472 93 96 113
-8.11619 5.82942 -1.94632 93 96 111
-8.09855 5.85215 -1.9468 92 95 112
-8.07012 5.88424 -1.94685 93 96 111
-8.05083 5.90556 -1.94688 94 97 112
-8.03147 5.92682 -1.94691 93 95 110
-8.01348 5.94932 -1.94739 94 96 111
-7.9846 5.98102 -1.94743 94 99 111
-7.35939 7.16082 -1.96935 90 92 104
-7.3411 7.18591 -1.97113 89 91 104
-7.31388 7.20054 -1.96984 90 92 105
-7.29669 7.22701 -1.97205 93 92 106
-6.92795 8.04142 -1.99428 93 92 108
-6.88919 8.0683 -1.99431 93 92 106
-6.87306 8.10055 -1.99814 93 92 107
-6.47516 8.91417 -2.01597 94 90 104
-6.4473 8.93243 -2.0164 93 90 104
-6.41836 8.94893 -2.01641 94 89 104
-6.01584 9.74696 -2.03442 85 86 101
-5.0506 10.0057 -1.90519 99 96 105
-5.01177 10.0015 -1.90184 100 97 106
-4.22885 10.5514 -1.82793 115 114 119
-4.19706 10.5686 -1.82935 113 112 117
-11.4047 0.195818 -1.87813 89 97 118
-11.3914 0.231366 -1.87602 90 99 120
-11.1252 0.563939 -1.87372 84 95 115
-11.1226 0.594508 -1.87377 86 97 117
-11.1237 0.625305 -1.87464 89 97 118
-10.7002 1.29542 -1.88462 91 97 115
-10.705 1.32611 -1.88678 91 98 116
-10.7017 1.37064 -1.8877 90 98 117
-10.2102 1.9318 -1.8748 90 89 103
-10.1717 1.96705 -1.86832 84 90 106
-10.176 1.99719 -1.87098 85 92 108
-10.205 2.03301 -1.87933 84 90 106
-9.61688 3.06751 -1.90247 80 86 102
-9.60275 3.0921 -1.90161 81 88 104
-9.58676 3.11593 -1.90029 80 86 102
-9.57482 3.15614 -1.90126 88 95 107
-9.57496 3.18622 -1.90402 83 89 103
-9.55869 3.20991 -1.9027 81 87 103
-7.96645 6.00338 -1.94792 94 97 112
-7.94676 6.02439 -1.94794 97 100 115
-7.92471 6.06235 -1.95026 94 97 112
-7.8891 6.06873 -1.94529 95 97 112
-7.88635 6.10538 -1.95076 94 96 111
-7.85816 6.13782 -1.95126 94 96 111
-7.83098 6.15183 -1.94902 91 95 112
-7.25923 7.25244 -1.97121 92 91 107
-7.24057 7.27729 -1.97299 93 92 108
-7.21191 7.29006 -1.97126 93 92 108
-6.8379 8.10548 -1.99477 92 91 105
-6.8154 8.15612 -2.00116 93 93 105
-6.37331 8.97013 -2.01563 96 90 103
-6.34426 8.98639 -2.01564 95 90 101
-5.96552 9.76273 -2.03287 91 89 102
-5.93141 9.77251 -2.03171 90 86 100
-5.89727 9.78218 -2.03055 88 85 99
-4.95582 9.99958 -1.89774 101 99 105
-4.16464 10.5838 -1.83041 118 117 123
-11.1349 0.487687 -1.87441 89 100 120
-11.1266 0.517982 -1.87324 87 98 118
-10.6982 1.23523 -1.882 90 97 116
-10.6993 1.26531 -1.88331 94 99 118
-10.2161 1.87472 -1.87296 96 97 112
-10.198 1.90001 -1.87039 99 97 111
-9.66799 2.90788 -1.89996 79 86 102
-9.66354 2.93595 -1.90136 81 88 103
-9.65065 2.97574 -1.90188 82 88 105
-9.63497 2.9998 -1.90056 84 89 105
-9.63934 3.0312 -1.90422 82 87 103
-7.81931 6.18045 -1.95177 91 96 111
-7.79485 6.19698 -1.95043 90 95 110
-7.76902 6.23174 -1.95184 92 97 111
-7.75142 6.25485 -1.95277 92 97 109
-7.73097 6.2752 -1.9528 92 97 111
-7.17911 7.32111 -1.97217 90 92 107
-7.16261 7.3488 -1.97483 90 93 108
-7.13012 7.35673 -1.97178 89 92 107
-6.78125 8.16241 -1.99821 94 92 106
-6.75588 8.18152 -1.99866 94 91 106
-6.73152 8.20219 -1.99952 93 90 107
-6.31905 9.00936 -2.01729 94 90 105
-6.28892 9.02376 -2.0169 94 92 105
-5.86735 9.80057 -2.03134 88 87 101
-4.91996 10.0024 -1.89588 101 101 103
-4.88271 10.0014 -1.89327 99 98 103
-4.11184 10.5903 -1.82901 114 113 118
-4.07827 10.6015 -1.82937 117 116 121
-11.1393 0.426488 -1.8743 86 97 116
-11.145 0.457432 -1.87598 94 105 123
-10.7078 1.13194 -1.88057 91 99 118
-10.7208 1.16346 -1.88441 92 100 118
-10.7125 1.1923 -1.88361 88 95 111
-10.2354 1.74789 -1.87058 149 126 110
-10.2367 1.77717 -1.87237 148 126 109
-10.2341 1.80572 -1.87329 156 132 115
-9.71542 2.76191 -1.89838 83 92 105
-9.71144 2.79002 -1.89978 82 91 106
-9.68524 2.81062 -1.89575 82 86 105
-9.68401 2.85429 -1.89898 79 86 104
-9.66868 2.87853 -1.89766 80 87 103
-7.70334 6.30834 -1.95375 92 95 110
-7.67716 6.32307 -1.95196 91 94 109
-7.66476 6.35144 -1.95471 92 95 112
-7.63949 6.38707 -1.95657 92 93 111
-7.61997 6.40847 -1.95704 91 92 110
-7.09941 7.39047 -1.97357 91 93 109
-7.07411 7.40731 -1.97315 91 93 107
-7.05241 7.42865 -1.97405 92 94 107
-7.0282 7.44687 -1.97407 93 92 106
-6.68877 8.22329 -1.99828 93 92 108
-6.66319 8.24213 -1.99873 94 91 108
-6.64075 8.2658 -2.00044 95 93 107
-6.24739 9.05115 -2.01774 94 92 105
-6.21426 9.06021 -2.01612 93 91 105
-5.81522 9.81206 -2.02901 90 88 102
-5.78517 9.83021 -2.02981 90 89 102
-5.75258 9.84295 -2.02943 86 85 100
-4.82835 10.0025 -1.88993 99 98 103
-4.79122 10.0012 -1.88732 96 97 104
-4.04156 10.6012 -1.82761 117 114 121
-11.1382 0.349772 -1.87296 81 92 110
-11.1499 0.380858 -1.87585 91 102 121
-10.72 1.05886 -1.88087 93 100 118
-10.7352 1.09051 -1.88513 90 96 116
-10.2891 1.65651 -1.87784 87 89 107
-10.3271 1.69266 -1.88793 125 114 122
-10.2425 1.70583 -1.87007 135 120 112
-9.73052 2.56246 -1.88632 129 130 134
-9.73092 2.59165 -1.88863 132 133 142
-9.71079 2.61442 -1.88595 82 83 100
-9.70324 2.68474 -1.88968 85 91 105
-9.72727 2.72187 -1.89786 83 90 107
-7.59629 6.42564 -1.95616 93 96 111
-7.56247 6.45265 -1.9553 94 96 111
-7.54002 6.47103 -1.95487 94 96 111
-7.53102 6.50337 -1.95898 93 94 112
-7.50037 6.5132 -1.95582 92 94 111
-6.98862 7.46944 -1.97279 88 94 106
-6.97382 7.49982 -1.97632 90 94 106
-6.94703 7.5147 -1.97546 90 93 107
-6.60945 8.30447 -2.00386 95 92 108
-6.57089 8.30338 -1.99922 96 91 106
-6.18493 9.07599 -2.01614 95 93 107
-6.14219 9.1012 -2.01657 93 91 105
-5.70365 9.86098 -2.02867 86 86 96
-4.75547 10.0034 -1.88546 99 97 104
-3.9918 10.6185 -1.82833 118 117 122
-11.1381 0.319116 -1.8725 86 99 118
-10.7393 0.986517 -1.88285 85 93 114
-10.7279 1.02995 -1.88166 87 95 114
-10.2804 1.55365 -1.87113 132 132 141
-9.75197 2.49664 -1.88622 132 129 136
-9.73745 2.53558 -1.88583 132 131 136
-7.47017 6.54397 -1.95632 90 93 108
-7.45946 6.57481 -1.95997 91 94 109
-7.4473 6.60424 -1.96317 91 94 111
-7.41005 6.62764 -1.9614 90 93 108
-6.91306 7.54462 -1.97638 93 93 108
-6.89202 7.56709 -1.97771 91 93 106
-6.86621 7.58326 -1.97729 93 93 107
-6.55029 8.33011 -2.00178 94 90 105
-6.50495 8.34701 -1.99969 95 93 107
-6.4831 8.37192 -2.00182 94 92 106
-6.11084 9.11333 -2.01577 94 91 108
-6.08321 9.13223 -2.0166 94 92 106
-5.67504 9.88237 -2.03025 85 86 95
-5.64472 9.90012 -2.03104 78 80 86
-4.70128 10.0038 -1.88211 92 90 101
-4.66561 10.0058 -1.88025 96 96 107
-3.95811 10.6293 -1.82868 119 118 123
-3.9239 10.6381 -1.82868 119 118 123
-11.1473 0.212099 -1.87313 89 97 120
-11.1419 0.242624 -1.87237 96 104 125
-11.1422 0.273273 -1.87283 88 99 117
-10.7681 0.900003 -1.8865 94 102 121
-10.7625 0.929281 -1.88612 94 103 120
-10.7529 0.958134 -1.88491 82 88 109
-10.2955 1.45525 -1.87009 153 146 156
-10.2939 1.48383 -1.87101 146 144 149
-10.2846 1.51112 -1.87019 149 148 153
-9.78844 2.34866 -1.88372 133 120 113
-9.77754 2.40315 -1.88516 85 90 110
-9.83822 2.46417 -1.90287 78 80 93
-9.86698 2.50188 -1.91196 144 143 153
-7.38711 6.64552 -1.96097 91 94 109
-7.37068 6.67051 -1.96281 90 92 109
-7.33579 6.69639 -1.96194 90 94 109
-7.31524 6.71693 -1.96242 89 93 107
-6.83074 7.61127 -1.97777 91 90 108
-6.80482 7.62724 -1.97735 89 88 104
-6.77999 7.6447 -1.97737 93 92 108
-6.46529 8.40341 -2.00565 98 94 109
-6.41455 8.41156 -2.00145 94 92 106
-6.03925 9.15527 -2.01663 94 92 106
-6.0087 9.16879 -2.01623 93 91 105
-5.98268 9.19086 -2.01788 95 94 110
-5.59635 9.91942 -2.03067 79 77 88
-5.56906 9.94411 -2.03304 77 74 87
-4.62863 10.0039 -1.87764 97 97 105
-3.87149 10.6454 -1.82764 118 117 123
-11.1432 0.166089 -1.87184 89 99 117
-10.7707 0.825743 -1.88511 89 97 116
-10.7731 0.855769 -1.88642 91 99 118
-10.3352 1.38944 -1.87609 93 100 118
-10.3778 1.4394 -1.88752 97 95 110
-9.83501 2.21805 -1.88531 141 127 123
-9.82555 2.25844 -1.88583 141 126 107
-9.81386 2.28397 -1.88497 142 125 107
-9.8096 2.31153 -1.88592 137 117 98
-7.29463 6.7374 -1.9629 91 94 109
-7.27135 6.75491 -1.96246 94 93 107
-7.25154 6.79784 -1.96704 95 94 112
-7.22682 6.81374 -1.96616 90 89 107
-6.75106 7.68181 -1.98047 93 92 108
-6.72721 7.70069 -1.98093 93 92 108
-6.39344 8.43792 -2.00401 95 93 106
-6.36508 8.45256 -2.0036 95 91 106
-6.3387 8.47045 -2.00404 96 92 109
-5.93665 9.20996 -2.01709 90 92 107
-5.54402 9.97411 -2.03658 84 82 92
-4.57592 10.0074 -1.87503 90 91 96
-4.53841 10.0033 -1.87205 88 89 94
-3.83531 10.6463 -1.82623 113 112 117
-10.7746 0.751683 -1.88414 87 99 115
-10.7857 0.797274 -1.88759 83 94 112
-10.3292 1.28783 -1.87069 88 97 114
-10.3223 1.32989 -1.87076 89 98 113
-10.3423 1.36165 -1.87648 91 100 117
-9.85738 2.09531 -1.88241 85 91 106
-9.8636 2.1396 -1.88654 84 91 110
-9.86357 2.16822 -1.88839 83 88 109
-9.91057 2.20917 -1.90155 92 89 99
-7.20077 6.82809 -1.96482 91 93 108
-7.1741 6.86346 -1.96713 91 93 108
-7.1492 6.87909 -1.96624 91 94 109
-6.69875 7.71316 -1.97963 95 92 109
-6.6838 7.7446 -1.9836 93 90 107
-6.64529 7.76862 -1.98319 94 92 107
-6.30095 8.49966 -2.00534 94 92 106
-6.26842 8.50729 -2.00324 96 92 109
-5.90684 9.2249 -2.0171 94 93 108
-5.87253 9.23103 -2.01508 92 89 105
-5.84798 9.25623 -2.01754 83 81 95
-5.4961 9.99474 -2.0366 92 89 98
-5.46845 10.0192 -2.03896 75 72 81
-4.50285 10.0047 -1.87019 94 93 99
-4.46608 10.0023 -1.86757 94 92 99
-10.7983 0.694022 -1.88783 86 98 114
-10.7836 0.72265 -1.88536 81 93 109
-10.3484 1.23302 -1.87278 87 94 112
-10.336 1.26005 -1.87108 89 98 113
-9.85199 1.99465 -1.87502 84 87 104
-9.85305 2.03735 -1.8778 85 88 107
-9.87984 2.07236 -1.88598 90 96 110
-7.12804 6.89909 -1.96672 91 92 110
-7.09594 6.92824 -1.96721 93 92 108
-7.07587 6.94959 -1.96814 90 92 107
-7.05322 6.96788 -1.96816 92 94 107
-6.62113 7.7872 -1.98365 94 92 105
-6.59025 7.79609 -1.98147 95 93 106
-6.24385 8.52826 -2.00452 94 90 107
-6.2038 8.55369 -2.00498 93 90 107
-5.80256 9.27643 -2.01715 77 80 92
-5.43839 10.0381 -2.04015 75 73 84
-5.40522 10.0498 -2.03977 78 76 89
-4.41171 9.99936 -1.86385 93 92 97
-10.7934 0.619292 -1.88518 81 92 111
-10.7867 0.648553 -1.88439 87 97 115
-10.3639 1.13459 -1.87262 90 98 117
-10.3614 1.16297 -1.8731 92 98 118
-10.353 1.1906 -1.87227 91 97 117
-9.90152 1.87883 -1.87934 94 92 105
-9.90998 1.90905 -1.883 96 95 109
-9.86214 1.94046 -1.87403 85 87 102
-9.88555 1.97424 -1.88131 90 92 107
-8.84614 3.73493 -1.91131 78 84 98
-8.8387 3.76116 -1.91277 83 89 103
-8.82597 3.78476 -1.9128 84 89 103
-8.81232 3.82275 -1.91427 90 93 110
-8.79766 3.8454 -1.91383 80 83 98
-8.79155 3.87245 -1.91576 93 95 110
-8.77573 3.90944 -1.91675 92 94 109
-8.75566 3.92926 -1.91489 86 85 101
-8.74581 3.95444 -1.91587 77 81 96
-8.73814 3.99585 -1.91924 73 77 91
-8.71612 4.01456 -1.9169 74 79 94
-8.72135 4.04801 -1.92214 85 88 105
-8.70599 4.07035 -1.9217 75 78 95
-8.67221 4.09765 -1.91796 82 84 99
-8.68215 4.13401 -1.92462 68 71 86
-8.64622 4.14481 -1.9185 75 77 92
-8.62568 4.17937 -1.91855 98 97 113
-8.62174 4.20814 -1.92142 96 98 113
-8.62441 4.24081 -1.92618 96 99 114
-8.59838 4.27234 -1.92482 95 98 114
-8.5924 4.30017 -1.92721 95 98 113
-8.57293 4.3201 -1.92582 94 100 114
-8.56178 4.34492 -1.9268 94 99 113
-8.5436 4.38111 -1.9278 94 98 113
-8.5289 4.40386 -1.92783 92 98 114
-8.5158 4.42758 -1.92833 94 97 114
-8.49886 4.46462 -1.9298 93 96 113
-8.4839 4.48724 -1.92983 93 96 113
-8.46723 4.50878 -1.92939 92 98 112
-8.44823 4.54463 -1.93038 91 97 113
-8.42974 4.56501 -1.92947 88 95 111
-8.42428 4.59371 -1.93234 88 96 109
-8.40239 4.6119 -1.93047 90 97 110
-8.39427 4.65492 -1.93478 93 96 113
-8.37222 4.67297 -1.93292 92 93 111
-8.3566 4.69521 -1.93294 93 96 113
-8.33505 4.72957 -1.93347 91 97 113
-8.32087 4.75279 -1.93397 90 96 111
-8.30822 4.77705 -1.93494 91 97 112
-8.28306 4.80902 -1.93452 91 96 112
-8.25583 4.82329 -1.93123 92 95 112
-8.2541 4.85514 -1.93552 91 97 113
-8.2445 4.89799 -1.93983 89 96 112
-8.225 4.91762 -1.93891 86 92 110
-8.19435 4.92931 -1.93468 90 96 112
-8.18108 4.95328 -1.93565 90 96 112
-8.15829 4.98691 -1.93617 90 95 111
-8.15112 5.01537 -1.93904 90 96 112
-8.13284 5.03581 -1.93859 89 95 109
-7.02433 6.9786 -1.96591 91 93 106
-7.00418 7.02236 -1.97094 91 90 106
-6.98007 7.03893 -1.97051 91 90 106
-6.55702 7.8277 -1.98326 94 92 105
-6.53046 7.8428 -1.98284 94 93 107
-6.50714 7.86265 -1.98374 94 92 106
-6.17315 8.56435 -2.00372 92 90 105
-6.15418 8.59522 -2.00755 95 93 107
-5.7708 9.28745 -2.01635 79 77 93
-5.74248 9.30538 -2.01718 67 68 86
-5.34713 10.0462 -2.03469 88 86 97
-4.37565 9.99848 -1.86161 92 91 96
-4.33902 9.99561 -1.859 90 91 96
-10.8299 0.562132 -1.89182 84 93 114
-10.8156 0.591021 -1.88935 84 95 115
-10.3741 1.06419 -1.8725 88 100 116
-10.3701 1.10667 -1.87301 86 95 112
-9.90882 1.78175 -1.87557 147 128 113
-9.90906 1.82399 -1.8779 153 137 127
-9.91009 1.85246 -1.87975 78 78 83
-8.98155 3.459 -1.90998 88 91 106
-8.95914 3.47822 -1.90717 85 89 105
-8.96144 3.50863 -1.91099 82 88 104
-8.93861 3.54213 -1.90962 83 86 103
-8.93007 3.56767 -1.9106 83 84 102
-8.90916 3.58742 -1.90827 85 86 104
-8.893 3.62396 -1.9088 79 80 98
-8.88944 3.65193 -1.9112 101 100 116
-8.88055 3.67738 -1.91218 82 84 97
-8.87156 3.70282 -1.91315 82 86 98
-8.1159 5.07386 -1.94101 91 97 111
-8.0881 5.08723 -1.93772 92 95 112
-8.06183 5.10165 -1.93491 91 94 111
-8.05536 5.14766 -1.94063 92 98 114
-8.03979 5.17013 -1.94113 92 98 114
-8.01488 5.18548 -1.93879 90 96 110
-7.98842 5.19955 -1.93598 90 96 112
-7.97821 5.24311 -1.94076 92 95 112
-7.96078 5.26418 -1.94078 93 96 113
-7.94941 5.29001 -1.94271 93 96 113
-7.92191 5.32026 -1.94228 90 93 110
-6.96203 7.06299 -1.97234 90 90 106
-6.92064 7.08077 -1.96966 87 89 104
-6.90363 7.10621 -1.97195 92 91 107
-6.87325 7.11481 -1.96925 93 92 108
-6.47461 7.89556 -1.98596 94 90 105
-6.44894 7.91201 -1.98598 92 89 104
-6.41892 7.92188 -1.98424 94 92 106
-6.10413 8.60327 -2.00376 95 91 106
-6.07531 8.61699 -2.00335 93 89 104
-5.69513 9.32157 -2.01598 69 68 84
-5.66583 9.33753 -2.0164 90 93 105
-5.31094 10.0504 -2.03274 80 78 89
-5.27626 10.058 -2.03157 95 93 104
-4.29088 10.0107 -1.85901 94 94 102
-10.8103 0.486611 -1.88622 86 97 119
-10.7962 0.515524 -1.88375 88 99 121
-10.388 1.00847 -1.87371 88 98 115
-10.386 1.03689 -1.8742 91 101 118
-9.92337 1.72851 -1.87594 136 122 108
-9.91709 1.75534 -1.87598 142 126 111
-9.05798 3.21646 -1.9016 84 85 101
-9.05437 3.25807 -1.90496 82 84 99
-9.03964 3.28079 -1.90405 85 86 104
-9.02305 3.3027 -1.90267 80 81 101
-9.0065 3.3389 -1.90272 84 85 103
-8.99332 3.36222 -1.90228 88 92 106
-9.00138 3.39487 -1.90752 94 100 115
-8.98094 3.41502 -1.90519 85 91 106
-7.90576 5.34238 -1.94278 93 96 113
-7.8835 5.35957 -1.94138 92 95 112
-7.8542 5.38828 -1.94048 90 93 110
-7.84083 5.41267 -1.94192 92 95 112
-7.82588 5.4358 -1.9429 92 95 112
-7.79623 5.46422 -1.94199 92 95 112
-7.78704 5.49223 -1.94486 92 95 112
-7.76588 5.51023 -1.94394 89 95 111
-7.75206 5.53443 -1.94538 90 96 110
-6.8437 7.14744 -1.9711 92 94 109
-6.81446 7.15734 -1.96885 91 93 106
-6.79829 7.18408 -1.97159 91 93 106
-6.39425 7.9398 -1.9847 94 92 106
-6.35698 7.96572 -1.98517 95 92 109
-6.05888 8.65277 -2.00845 93 89 104
-6.01947 8.64757 -2.00338 92 90 104
-5.63562 9.35162 -2.01641 89 93 106
-5.59398 9.37967 -2.01807 131 133 139
-5.21692 10.0501 -2.0257 93 91 102
-5.18009 10.052 -2.02336 92 92 97
-4.25075 9.99632 -1.85416 92 91 100
-4.21604 9.99865 -1.85267 99 99 108
-10.794 0.411637 -1.88147 91 102 122
-10.8028 0.456524 -1.88407 94 102 123
-10.3993 0.938106 -1.87403 93 101 120
-10.3935 0.966138 -1.87364 89 97 116
-9.97103 1.63966 -1.88211 86 93 112
-9.97076 1.66776 -1.88351 93 94 112
-10.0162 1.70506 -1.89576 123 114 113
-9.1172 3.01164 -1.89469 77 84 100
-9.13035 3.04518 -1.90088 79 85 101
-9.1096 3.07972 -1.89951 81 87 103
-9.11525 3.11056 -1.9038 88 93 109
-9.08473 3.12703 -1.89864 89 93 108
-9.0798 3.16788 -1.90153 85 88 103
-9.0851 3.19881 -1.90582 82 83 101
-7.72492 5.56501 -1.94542 90 96 110
-7.69914 5.57897 -1.94308 92 95 110
-7.68212 5.60048 -1.94358 92 95 112
-7.65614 5.63202 -1.94409 93 96 113
-7.64188 5.65598 -1.94554 93 96 113
-7.62024 5.67346 -1.94462 90 96 112
-6.76243 7.20868 -1.97117 89 93 106
-6.75192 7.24308 -1.97618 92 91 107
-6.72483 7.25572 -1.97484 92 91 107
-6.33426 7.98673 -1.9865 94 93 107
-6.30726 8.00111 -1.98608 94 92 106
-5.97974 8.67371 -2.00426 94 92 106
-5.96103 8.70588 -2.00851 92 90 104
-5.9254 8.70714 -2.00513 92 90 104
-5.57201 9.41124 -2.02216 134 133 134
-5.1397 10.0446 -2.01905 91 92 97
-4.16499 10.0038 -1.85081 105 105 111
-10.8117 0.353115 -1.88431 94 102 121
-10.8039 0.382443 -1.8831 94 105 125
-10.4163 0.882526 -1.87612 88 99 117
-10.4068 0.910239 -1.87486 86 97 117
-9.96971 1.51326 -1.87558 147 147 152
-9.96412 1.54023 -1.87563 145 145 151
-9.94694 1.56504 -1.87296 134 136 147
-9.19799 2.88618 -1.90111 83 86 103
-9.15341 2.89808 -1.89217 81 89 102
-9.14704 2.92394 -1.89315 80 88 101
-9.14862 2.96684 -1.89746 79 86 102
-9.13658 2.99065 -1.89702 78 85 101
-7.60114 5.71122 -1.9475 90 96 111
-7.57937 5.72856 -1.94658 92 96 111
-7.55898 5.74713 -1.94613 93 96 112
-7.5371 5.76433 -1.9452 92 96 111
-7.51461 5.7992 -1.94714 92 95 112
-7.49828 5.82152 -1.94811 91 94 111
-7.47761 5.83983 -1.94766 92 94 112
-6.70474 7.27762 -1.97622 92 91 107
-6.67193 7.30647 -1.97717 92 91 109
-6.26968 8.02665 -1.98655 95 93 107
-6.24359 8.04247 -1.98656 95 91 106
-6.21953 8.06153 -1.98746 94 90 105
-5.8872 8.7363 -2.00685 92 90 104
-5.54654 9.43568 -2.02462 128 131 131
-5.51932 9.45652 -2.02626 133 137 141
-5.08715 10.0524 -2.01672 90 90 97
-5.05043 10.0538 -2.01437 92 91 96
-4.13259 10.0134 -1.85082 97 98 103
-10.8041 0.278775 -1.88166 86 98 113
-10.8077 0.323318 -1.883 89 99 116
-10.4323 0.812447 -1.87775 92 99 117
-10.4212 0.840079 -1.87605 91 100 117
-9.98485 1.44612 -1.87592 155 151 158
-9.97754 1.4728 -1.87551 148 143 148
-9.24991 2.7358 -1.89947 81 90 105
-9.23306 2.75806 -1.89762 82 91 106
-9.22823 2.79839 -1.90004 81 88 104
-9.21305 2.82118 -1.89866 81 88 104
-9.21241 2.84915 -1.90106 82 88 104
-7.44198 5.8625 -1.94533 93 96 113
-7.42683 5.88597 -1.94677 93 94 112
-7.40738 5.90539 -1.94679 93 95 110
-7.3813 5.93711 -1.94778 95 97 112
-7.36588 5.96045 -1.94923 97 99 114
-6.64818 7.32353 -1.97719 92 93 108
-6.62322 7.33896 -1.97675 93 92 106
-6.58666 7.36273 -1.97633 93 92 106
-6.18576 8.0933 -1.98968 95 91 106
-6.16354 8.11552 -1.99145 94 92 106
-5.85617 8.74588 -2.00559 94 92 106
-5.83244 8.76918 -2.00773 92 91 105
-5.47629 9.4823 -2.02751 141 141 148
-5.4505 9.5065 -2.02996 136 133 137
-5.01165 10.0496 -2.01085 91 90 95
-4.97292 10.0453 -2.00733 88 87 93
-4.09677 10.0115 -1.84858 90 90 95
-10.8135 0.249447 -1.8833 88 98 117
-10.0475 1.38669 -1.88756 91 99 120
-10.0516 1.42941 -1.89034 80 86 101
-9.26718 2.54674 -1.8874 128 128 135
-9.25604 2.58458 -1.88793 139 141 149
-9.26499 2.68489 -1.89846 83 91 106
-9.25013 2.70786 -1.89707 84 91 107
-7.34758 5.98104 -1.94972 94 98 110
-7.30865 6.00024 -1.94644 94 98 110
-7.29436 6.02478 -1.94836 92 98 112
-7.2731 6.04242 -1.94791 93 101 114
-7.24768 6.05587 -1.94603 91 98 112
-6.56158 7.37795 -1.97589 94 93 107
-6.54213 7.40101 -1.97773 91 90 106
-6.50867 7.42916 -1.97867 93 92 108
-6.13617 8.12936 -1.99103 94 92 106
-6.09291 8.14579 -1.9893 95 91 108
-5.78754 8.78584 -2.00648 91 90 104
-5.75372 8.78988 -2.00395 92 91 105
-5.41412 9.50746 -2.02712 141 138 142
-4.91914 10.0486 -2.0042 90 91 95
-4.8826 10.0494 -2.00186 87 86 95
-4.04633 10.018 -1.84709 85 88 95
-4.01224 10.0216 -1.84597 100 103 110
-10.0491 1.30295 -1.88426 91 99 118
-10.0404 1.32954 -1.8834 95 102 121
-10.0373 1.35702 -1.8839 95 100 120
-9.30298 2.46133 -1.88868 117 115 129
-9.27919 2.49526 -1.8859 130 130 133
-9.27415 2.52129 -1.88689 129 129 131
-7.22902 6.09523 -1.94986 93 96 111
-7.2089 6.11405 -1.94989 95 98 110
-7.1901 6.13421 -1.95038 94 98 110
-7.15743 6.15945 -1.94947 93 97 109
-6.48228 7.44254 -1.97778 91 93 106
-6.46367 7.467 -1.98007 92 93 106
-6.44051 7.48503 -1.98054 95 94 108
-6.06444 8.15774 -1.98844 95 92 107
-6.04493 8.18466 -1.99153 95 93 107
-5.73334 8.81986 -2.00778 92 90 104
-5.68825 8.83604 -2.00653 92 91 105
-5.36999 9.53099 -2.02796 140 139 142
-5.34708 9.56208 -2.03205 131 129 133
-4.84405 10.0446 -1.99833 93 90 99
-3.9776 10.0231 -1.84448 113 116 124
-3.94517 10.0321 -1.84448 126 129 135
-10.0453 1.23267 -1.88053 88 92 112
-10.0483 1.26099 -1.88238 87 93 111
-9.33437 2.29228 -1.88277 136 116 94
-9.3244 2.31676 -1.88233 140 115 94
-9.29491 2.37644 -1.88007 86 85 88
-9.35161 2.42087 -1.89664 83 90 108
-9.43041 2.47244 -1.9189 77 80 97
-7.1425 6.18366 -1.95139 95 97 112
-7.12078 6.20082 -1.95093 94 97 112
-7.08916 6.22713 -1.9505 92 96 112
-7.06863 6.24553 -1.95052 93 98 114
-6.4011 7.50472 -1.97921 94 93 107
-6.38331 7.53061 -1.98195 95 94 108
-6.01636 8.19645 -1.99066 96 94 108
-5.97782 8.22069 -1.99113 92 90 104
-5.6579 8.84669 -2.0057 90 92 105
-5.63628 8.87472 -2.0091 92 92 106
-5.32244 9.58954 -2.03532 127 123 127
-4.78909 10.0436 -1.99443 93 91 96
-4.75468 10.0495 -1.99326 88 86 92
-3.89258 10.0303 -1.8415 134 135 139
-9.352 2.22912 -1.8822 138 119 103
-9.3497 2.25576 -1.88365 141 122 102
-7.05203 6.26814 -1.95196 93 94 111
-7.02803 6.30268 -1.95436 93 95 110
-7.01121 6.3252 -1.95581 93 95 110
-6.98645 6.33906 -1.95441 92 95 111
-6.35884 7.54679 -1.98197 92 94 107
-6.32136 7.56931 -1.98155 92 94 107
-6.29354 7.58044 -1.9802 95 93 107
-5.95504 8.24237 -1.9929 95 92 106
-5.92438 8.25048 -1.99116 95 93 107
-5.59975 8.87296 -2.0053 92 91 105
-5.5631 8.90602 -2.00829 89 90 104
-5.28099 9.61986 -2.03779 115 111 112
-5.25066 9.63458 -2.03821 81 76 83
-4.71828 10.0498 -1.99091 90 89 95
-3.86275 10.0485 -1.84338 130 131 135
-9.37859 2.08699 -1.87821 86 92 111
-9.41059 2.12242 -1.88817 96 99 118
-9.41241 2.15014 -1.89057 93 97 114
-9.40663 2.17589 -1.89108 84 90 104
-9.41414 2.21884 -1.89587 86 80 85
-6.96295 6.35427 -1.95348 93 96 111
-6.93454 6.38418 -1.95446 93 96 108
-6.91741 6.40646 -1.9559 92 96 108
-6.9002 6.42871 -1.95734 89 95 109
-6.27106 7.5996 -1.98113 95 93 107
-6.2291 7.61519 -1.97889 95 93 107
-5.88265 8.26923 -1.99031 94 92 106
-5.85773 8.28727 -1.9912 94 92 106
-5.83272 8.30524 -1.99209 94 91 108
-5.53515 8.92154 -2.00872 90 92 104
-5.5012 8.92467 -2.00619 92 92 104
-5.21951 9.64741 -2.03822 88 80 91
-4.66415 10.05 -1.98739 91 90 96
-4.62849 10.0518 -1.98544 91 91 97
-3.82607 10.0419 -1.84039 135 136 141
-9.4074 1.99977 -1.87902 85 89 103
-9.3927 2.02312 -1.87717 86 91 107
-9.38546 2.04829 -1.87721 84 91 107
-8.40709 3.60229 -1.89481 85 84 103
-8.40529 3.62999 -1.89782 88 90 109
-8.38047 3.66001 -1.89589 90 94 111
-8.37332 3.68503 -1.89741 93 95 113
-8.35065 3.70193 -1.89446 84 86 105
-8.33407 3.73618 -1.895 81 83 100
-8.35564 3.77665 -1.90496 83 82 99
-8.34977 3.80259 -1.90698 81 82 100
-8.33951 3.84057 -1.90951 84 88 104
-8.28595 3.84038 -1.89763 83 87 103
-8.31538 3.88589 -1.91007 81 83 100
-8.31081 3.91274 -1.91258 90 91 106
-8.27638 3.93735 -1.90816 91 92 108
-8.2817 3.9699 -1.91365 90 93 110
-8.23485 3.97269 -1.90375 81 82 100
-8.21363 4.00454 -1.9033 84 86 101
-8.20024 4.02637 -1.90333 89 92 107
-8.18845 4.04914 -1.90386 78 81 96
-8.17686 4.0867 -1.90639 84 90 104
-8.16653 4.1104 -1.90741 96 103 117
-8.18264 4.15007 -1.91638 92 99 114
-8.16061 4.18166 -1.91593 99 105 117
-8.14336 4.20131 -1.91497 98 104 118
-8.13923 4.22903 -1.91797 96 99 114
-8.11528 4.24451 -1.91502 94 98 113
-8.09936 4.27989 -1.91656 96 99 114
-8.10146 4.31173 -1.92155 96 99 114
-8.03653 4.30098 -1.90619 97 100 117
-8.02682 4.34025 -1.90971 97 100 115
