-9.60912 -14.3265 0.114505 97 82 49
-9.77291 -14.4287 0.113569 119 104 66
-9.7243 -14.1646 0.114893 156 142 105
-9.63717 -13.8949 0.116341 100 82 53
-9.91135 -14.2035 0.11417 120 103 75
-10.0628 -13.9103 0.115016 82 90 69
-10.1369 -13.564 0.116297 95 106 71
-10.1774 -13.5312 0.116317 98 110 70
-9.95362 -12.85 0.119956 101 88 55
-10.3377 -12.4113 0.120596 92 94 47
-10.4139 -12.4257 0.120289 113 110 49
-14.7271 -17.4191 0.182583 133 134 72
-10.442 -12.3421 0.12054 135 131 67
-15.2129 -17.8899 0.181922 148 137 61
-10.8378 -11.7788 0.121534 159 140 74
-10.8301 -11.6608 0.122032 136 109 52
-10.9259 -11.6201 0.12187 163 138 51
-45.8275 -40.2959 0.581926 89 84 60
-45.8358 -39.6717 0.579531 86 78 69
-45.7959 -39.3872 0.578252 91 85 81
-45.6294 -37.8978 0.571803 67 62 57
-45.4309 -34.7108 0.559169 143 123 100
-45.3304 -34.4099 0.557607 131 109 98
-45.2555 -34.1305 0.556254 105 98 75
-45.295 -33.8279 0.555377 98 87 65
-45.2017 -32.9935 0.55202 126 110 86
-45.1316 -31.7671 0.547546 112 94 79
-45.0623 -30.9862 0.544611 91 81 78
-45.032 -29.7363 0.540433 95 86 85
-48.5694 -18.5375 0.532577 105 95 94
-48.6995 -18.4127 0.533146 113 103 101
-48.8317 -18.2009 0.533537 107 97 100
-48.9423 -18.0678 0.533978 112 103 107
-49.0769 -17.943 0.534585 112 103 106
-49.1905 -17.8102 0.535055 107 98 101
-49.3296 -17.5987 0.535509 115 106 107
-49.4404 -17.4639 0.535966 113 104 102
-49.5754 -17.3372 0.536588 119 110 109
-49.7162 -17.1246 0.537069 111 102 105
-49.8371 -16.9919 0.537603 105 99 103
-49.9804 -16.8662 0.538289 101 94 101
-50.1022 -16.6453 0.538657 101 96 101
-50.2256 -16.5118 0.539217 108 101 103
-50.3582 -16.3808 0.539841 101 92 95
-50.4733 -16.2436 0.54035 105 97 95
-50.6076 -16.0247 0.540822 95 89 100
-50.7275 -15.8879 0.54137 93 90 100
-50.849 -15.7512 0.541929 98 96 107
-50.9868 -15.5316 0.54244 96 94 104
-51.1418 -15.4038 0.54323 90 86 100
-51.2793 -15.2701 0.543906 106 101 108
-51.3978 -15.0427 0.544304 102 90 94
-51.5343 -14.9075 0.544981 102 90 89
-51.6531 -14.7666 0.545543 112 100 102
-51.7964 -14.5444 0.54612 111 102 103
-51.9336 -14.4075 0.546811 189 187 184
-52.0839 -14.2735 0.54759 203 196 188
-53.0185 -13.1095 0.552079 106 96 97
-53.1838 -12.8852 0.552849 113 105 103
-53.2933 -12.7349 0.55339 117 108 104
-53.4354 -12.5919 0.554148 104 96 97
-53.581 -12.449 0.554932 130 126 125
-53.6948 -12.2095 0.555385 103 84 77
-53.9739 -11.9174 0.556891 101 96 102
-54.1421 -11.6876 0.557713 94 94 96
-54.2481 -11.5326 0.558257 115 112 111
-54.4243 -11.3917 0.55926 116 106 109
-55.637 -11.372 0.566878 106 97 100
-56.9624 -11.4563 0.57534 104 94 93
-58.5263 -11.5792 0.585347 96 86 87
-60.0012 -11.675 0.59477 90 85 79
-60.9873 -10.8765 0.600412 89 87 76
-61.318 -10.737 0.602433 144 139 129
-55.9819 -8.36286 0.567099 59 69 65
-55.8743 -8.16773 0.566331 78 90 95
-55.8618 -7.89748 0.5661 160 162 169
-4.75566 -11.4647 0.0525399 76 75 62
-4.76617 -11.3873 0.0533863 63 69 52
-4.79159 -11.3491 0.0537095 55 59 50
-9.80952 -14.3871 0.113652 73 74 36
-10.1995 -13.7836 0.115156 76 88 68
-11.5274 -12.6169 0.115768 137 131 108
-7.14215 -6.45393 0.0555248 112 105 77
-7.15407 -6.42528 0.0556962 107 100 79
-7.18216 -6.4114 0.0555172 90 84 63
-7.2117 -6.39874 0.0553063 104 99 74
-68.0666 -10.9276 0.645482 72 74 67
-67.5166 -10.6223 0.641824 79 81 71
-68.1605 -10.3948 0.645772 82 90 72
-10.1547 -15.6274 0.107103 126 96 67
-10.287 -15.7274 0.106281 145 116 86
-10.4199 -15.7722 0.105696 119 91 67
-10.5538 -15.8707 0.104874 145 117 85
-7.20347 -6.57098 0.0535382 97 79 70
-7.26167 -6.38417 0.0548697 86 77 69
-5.11806 -12.0705 0.0438399 63 65 59
-5.25956 -11.7842 0.0464377 115 77 77
-5.35013 -11.8974 0.0446924 114 76 78
-5.43596 -11.9452 0.0437121 112 76 76
-5.47342 -11.9308 0.0436871 107 71 71
-5.54434 -11.9933 0.042615 108 73 73
-10.5074 -16.5757 0.101828 119 94 77
-11.4455 -15.9616 0.101856 79 85 67
-11.7097 -16.0696 0.100582 59 70 64
-11.4878 -15.6575 0.103059 68 81 55
-19.0778 -20.1615 0.177897 165 140 48
-19.5646 -20.2345 0.17757 154 128 54
-19.6909 -20.2399 0.177502 131 103 41
-19.6519 -19.8861 0.177821 136 117 38
-19.964 -20.08 0.17749 127 112 34
-20.1932 -20.1869 0.177279 109 103 19
-5.40557 -12.239 0.0405051 123 83 81
-5.74177 -12.3427 0.0376288 114 79 80
-5.75034 -12.0072 0.0413876 107 72 79
-21.4137 -21.2208 0.175712 126 122 34
-20.5008 -20.1801 0.17711 145 141 58
-20.5418 -20.0951 0.177165 120 108 22
-20.6453 -20.0088 0.17717 163 137 50
-20.7415 -19.978 0.177149 124 109 47
-20.8764 -19.9842 0.177075 123 124 82
-20.9209 -19.9025 0.177125 80 83 59
-21.0091 -19.8005 0.177151 73 75 74
-21.1167 -19.779 0.177116 72 72 73
-21.5857 -19.2336 0.177319 122 107 88
-21.6644 -19.1836 0.177323 97 84 74
-5.51689 -12.9006 0.0323658 63 63 55
-5.63241 -13.0711 0.0298474 64 56 49
-5.5765 -12.8195 0.0330116 80 59 55
-5.9484 -12.6529 0.0330328 111 74 77
-6.00648 -12.4193 0.0353704 106 74 77
-6.21782 -13.1493 0.026001 112 77 78
-6.27243 -12.8947 0.0285876 110 78 81
-6.43315 -12.9776 0.0267855 105 85 86
-6.41047 -12.8265 0.0286073 115 100 79
-6.46628 -12.8414 0.0281349 122 93 64
-6.55525 -12.9246 0.0267147 184 169 117
-6.59597 -12.8554 0.0272566 68 68 40
-13.9573 -16.9335 0.0898083 93 98 68
-14.2663 -16.8265 0.0892444 94 87 35
-14.9666 -17.5509 0.0839181 104 89 38
-4.69917 -11.4348 0.0108638 68 65 51
-4.76225 -11.44 0.0104075 80 80 58
-4.78689 -11.4 0.0108527 88 94 74
-6.44275 -13.1567 0.0247229 108 79 83
-6.8134 -12.8435 0.0261588 92 73 43
-6.80746 -12.7339 0.0274087 145 128 85
-7.03005 -12.9217 0.0240377 84 90 49
-4.00343 -7.05563 0.00164094 58 68 64
-4.02008 -7.03497 0.00190329 53 64 51
-7.26842 -12.6065 0.0260668 58 68 46
-4.05429 -7.02063 0.00180226 54 65 45
-4.06979 -6.9981 0.00211645 47 56 40
-4.09862 -7.00007 0.00171051 51 64 49
-7.3959 -12.6052 0.0252937 53 64 50
-7.45432 -12.6175 0.0247986 64 68 50
-4.14236 -7.00282 0.00109552 65 70 50
-7.50101 -12.6088 0.0246032 85 91 65
-7.8284 -12.1546 0.027355 83 64 49
-7.88367 -12.1172 0.0273793 104 75 48
-15.4126 -17.9088 0.0809428 113 97 36
-15.4995 -17.7858 0.0811674 120 114 67
-15.5976 -17.5102 0.0819654 160 152 164
-15.5694 -17.3691 0.0826413 164 154 163
-4.97103 -11.7584 0.00444204 63 70 55
-5.31218 -11.7121 0.00297576 114 75 76
-7.59545 -12.637 0.023702 83 95 70
-7.70155 -12.7296 0.0220348 57 69 56
-7.80023 -12.808 0.020567 56 61 54
-7.96647 -12.9994 0.0174525 74 83 66
-16.7665 -19.3759 0.0703629 107 90 18
-35.0019 -25.0885 0.164687 91 76 69
-34.9674 -24.8987 0.164869 76 82 78
-34.992 -24.6696 0.16502 111 102 98
-34.9638 -24.4864 0.165191 95 74 86
-35.1853 -24.4789 0.165073 119 104 107
-35.4338 -24.4068 0.164962 103 93 93
-5.1494 -12.0415 -0.00082975 63 61 48
-5.24533 -12.1704 -0.00331844 59 49 41
-5.26123 -12.1031 -0.0024268 73 56 50
-5.7652 -11.848 -0.00201558 108 77 81
-8.17669 -13.1219 0.0147848 50 56 49
-19.1055 -20.5648 0.0575423 154 130 53
-19.1404 -20.2829 0.0585425 142 123 21
-39.5036 -24.8337 0.162158 199 125 113
-39.5192 -24.5854 0.162321 110 87 81
-39.5052 -24.4057 0.162479 186 175 172
-39.4753 -24.217 0.162654 166 154 123
-39.7141 -24.1083 0.162569 112 98 97
-39.9424 -24.0769 0.16246 111 97 96
-5.55704 -12.1759 -0.00538213 114 75 76
-5.80469 -12.3779 -0.00995326 114 73 76
-5.74375 -12.1422 -0.00612463 120 81 82
-8.87933 -13.9463 0.00141629 105 92 80
-8.69375 -13.3185 0.00928951 115 94 69
-8.76254 -13.3358 0.00864723 129 104 80
-8.83153 -13.3528 0.00800472 108 86 67
-9.76169 -12.5037 0.0100408 121 94 73
-9.80005 -12.4737 0.0100513 118 97 79
-19.2909 -20.3165 0.0578853 160 142 43
-19.4047 -20.3101 0.0575155 167 145 47
-19.4399 -20.2208 0.0577504 162 140 46
-19.5244 -20.1199 0.057839 129 108 25
-19.6548 -20.1294 0.0573428 156 133 65
-19.6961 -20.0467 0.0575254 99 78 18
-19.9004 -20.0672 0.0567033 147 136 52
-20.1313 -20.1757 0.0554557 150 142 53
-20.2488 -20.1682 0.055067 146 131 46
-20.2903 -20.0214 0.0554755 137 126 34
-20.4219 -20.027 0.0549814 118 105 18
-20.3896 -19.8709 0.055706 177 157 71
-20.5786 -19.9316 0.0547881 137 115 38
-20.7721 -19.9326 0.0540651 135 123 98
-20.9636 -19.9925 0.0531375 111 110 108
-20.9733 -19.8775 0.0535445 102 100 106
-21.0281 -19.7436 0.0538393 110 103 110
-20.783 -19.3907 0.0560892 77 72 69
-45.7803 -40.3696 0.145846 105 94 67
-45.7138 -40.0572 0.146153 76 68 47
-41.2958 -35.9399 0.152123 94 87 73
-43.6634 -37.6521 0.149314 100 94 71
-43.6351 -37.3902 0.149556 112 107 74
-45.6246 -38.4882 0.147482 76 72 48
-41.7252 -34.9606 0.152666 85 83 71
-41.987 -34.9581 0.152524 75 72 67
-41.6915 -34.4907 0.153091 82 74 70
-41.9635 -34.3861 0.152994 76 68 67
-42.4847 -34.5938 0.152529 71 67 64
-42.713 -34.559 0.152434 67 64 57
-43.2586 -34.6677 0.152 87 91 77
-45.402 -36.161 0.14953 90 92 79
-43.6221 -34.5145 0.151932 81 74 67
-43.7423 -34.2772 0.15203 134 106 84
-42.7189 -33.2564 0.153476 134 110 93
-43.1344 -33.3653 0.153152 115 96 99
-43.268 -33.2533 0.153172 139 120 117
-45.2402 -34.4394 0.151017 124 113 117
-45.1944 -34.1816 0.151263 118 112 91
-45.157 -33.9317 0.151497 97 73 74
-45.1761 -33.6152 0.151715 108 72 83
-45.1425 -33.3712 0.151943 108 72 81
-45.1078 -33.1278 0.152169 113 73 83
-41.413 -30.104 0.156792 149 92 85
-45.0523 -32.5473 0.152655 149 92 83
-42.677 -29.227 0.156743 95 87 85
-44.925 -30.2599 0.154544 101 92 93
-44.931 -30.06 0.154707 98 86 87
-44.9062 -29.8405 0.154905 102 90 90
-44.9051 -29.5367 0.155122 101 89 89
-44.8881 -29.3247 0.155308 102 84 88
-44.8568 -29.1044 0.155511 105 71 81
-44.8245 -28.8845 0.155714 115 75 83
-44.8329 -28.5928 0.155913 104 58 67
-44.8 -28.3751 0.156113 181 119 112
-42.3091 -25.3301 0.160027 112 99 100
-42.3788 -25.1923 0.160099 119 109 111
-44.658 -26.27 0.157822 114 104 107
-44.6445 -26.0744 0.157991 110 101 103
-44.5853 -25.853 0.158206 113 103 105
-44.6086 -25.5873 0.158372 113 104 110
-44.5594 -25.3741 0.158577 106 98 99
-44.5458 -25.1821 0.15874 89 82 81
-44.5218 -24.8932 0.158953 78 65 55
-44.5167 -24.7079 0.159107 110 97 88
-44.462 -24.4958 0.159311 100 93 100
-44.3766 -24.2679 0.159548 105 97 97
-44.2682 -23.939 0.159843 102 95 103
-44.4142 -23.839 0.159834 97 90 98
-44.3628 -23.6328 0.160032 101 95 104
-44.4955 -23.4362 0.160072 97 90 98
-44.6015 -23.3142 0.160105 103 96 104
-44.709 -23.1928 0.160136 102 95 102
-44.8486 -22.9988 0.160168 105 99 103
-44.9606 -22.879 0.160194 106 97 99
-45.065 -22.7551 0.160229 109 98 96
-45.1745 -22.6335 0.160259 115 101 98
-45.3207 -22.4413 0.160283 125 110 103
-45.4419 -22.3248 0.160301 118 102 93
-45.5431 -22.198 0.160339 122 104 94
-45.6749 -21.9975 0.160377 117 95 84
-45.7932 -21.8784 0.160397 118 96 85
-45.8985 -21.7527 0.160431 118 99 92
-46.0465 -21.5587 0.160452 123 103 92
-46.1672 -21.4396 0.16047 122 102 91
-46.2769 -21.3148 0.160499 120 100 89
-46.4175 -21.116 0.160527 120 102 91
-46.5426 -20.9975 0.160539 121 102 95
-46.631 -20.8621 0.160589 111 93 88
-46.7537 -20.7418 0.160604 117 102 98
-46.8919 -20.5401 0.160634 120 105 95
-47.0028 -20.4137 0.160662 127 109 96
-47.1243 -20.2916 0.160678 123 103 92
-47.2863 -20.0986 0.160685 125 108 92
-44.438 -18.7196 0.163552 135 119 94
-47.5239 -19.8495 0.160723 116 99 84
-47.6674 -19.647 0.160747 130 112 101
-45.0723 -18.4088 0.163348 125 108 99
-46.4316 -18.7966 0.162183 119 106 97
-48.0161 -19.2655 0.160813 129 117 106
-46.7836 -18.5144 0.162133 121 108 102
-48.2865 -18.9366 0.160847 122 111 107
-48.3633 -18.7923 0.160904 118 109 104
-48.5174 -18.5902 0.160917 116 106 107
-48.6175 -18.4543 0.160953 116 106 107
-48.7452 -18.3284 0.160964 117 106 110
-48.931 -18.1364 0.160946 119 109 111
-49.0449 -18.0042 0.160969 117 108 109
-49.1677 -17.8749 0.160985 118 112 112
-49.2865 -17.7435 0.161005 120 111 114
-49.4136 -17.5274 0.161039 119 112 116
-49.5202 -17.3908 0.16107 108 102 106
-49.6301 -17.2551 0.161097 118 109 114
-49.7722 -17.0427 0.161117 113 104 110
-49.9228 -16.9198 0.161108 105 99 103
-50.0542 -16.7898 0.161116 108 103 107
-5.68927 -12.9674 -0.0178099 93 62 60
-5.9535 -12.351 -0.0105674 108 72 83
-9.53102 -13.4584 0.00206037 82 96 69
-10.0495 -13.5707 -0.00281799 75 90 86
-10.0971 -13.548 -0.00293355 81 86 76
-9.90121 -12.9783 0.00425188 84 96 53
-9.88726 -12.8758 0.00538507 91 95 58
-10.0482 -12.6754 0.00616256 87 88 70
-10.2047 -12.7961 0.00377732 63 65 55
-50.1961 -16.5753 0.161135 109 103 104
-50.321 -16.4419 0.161147 104 98 101
-50.436 -16.3048 0.16117 99 94 100
-50.5316 -16.1611 0.161208 99 95 104
-50.6671 -15.9422 0.161234 96 95 101
-50.7903 -15.8063 0.161249 91 88 100
-50.9284 -15.6745 0.16125 93 94 106
-51.0828 -15.4594 0.161258 89 88 102
-51.241 -15.3323 0.161242 84 82 93
-51.3665 -15.1946 0.161254 89 83 89
-51.5131 -14.9749 0.161268 112 101 99
-51.6453 -14.838 0.161275 104 93 92
-51.7809 -14.7015 0.161278 109 100 99
-51.8874 -14.5561 0.161307 97 97 102
-52.039 -14.335 0.161316 184 186 180
-50.3856 -13.7082 0.162863 204 205 192
-50.3908 -13.54 0.162974 211 205 194
-50.5321 -13.3234 0.162986 100 76 69
-50.6597 -13.1874 0.162992 189 176 161
-50.8875 -13.0766 0.162913 105 80 79
-52.9978 -13.1784 0.161366 109 103 107
-53.1272 -13.0338 0.161375 111 102 110
-53.2763 -12.8049 0.161384 104 98 102
-53.4105 -12.6602 0.161388 105 99 103
-53.5404 -12.5138 0.161396 97 96 99
-51.8332 -11.9421 0.162945 159 147 138
-51.886 -11.6973 0.163028 110 98 103
-54.1215 -11.8465 0.161393 103 99 110
-54.2597 -11.6094 0.161408 114 114 115
-54.5215 -11.4868 0.161306 119 113 112
-55.7724 -11.5685 0.160389 101 92 97
-57.1697 -11.5787 0.159369 104 98 99
-53.7186 -9.30592 0.163118 121 104 92
-55.9514 -7.80361 0.162331 157 155 143
-5.79747 -13.1122 -0.0206179 121 81 82
-5.82124 -13.0563 -0.0199492 114 75 76
-5.95034 -12.9692 -0.0195143 111 74 77
-5.95288 -12.8674 -0.0180476 108 74 73
-6.24996 -12.7851 -0.0188626 107 76 81
-6.31001 -12.7587 -0.0189025 107 80 81
-6.37504 -12.7937 -0.0198592 80 73 61
-6.47425 -12.8986 -0.0220605 97 96 76
-6.62555 -12.9553 -0.0239496 59 50 40
-6.76429 -12.7862 -0.0225478 114 109 73
-9.83197 -14.418 -0.00997823 54 69 33
-9.81485 -14.2 -0.00759113 51 65 35
-10.0336 -14.2846 -0.0100038 77 90 70
-58.6891 -11.6957 0.158241 104 96 94
-60.2646 -11.8141 0.157073 94 83 81
-61.8434 -11.9231 0.155906 110 102 97
-63.5285 -11.9388 0.154675 104 97 89
-60.6667 -11.2022 0.157131 93 90 78
-61.7615 -11.2046 0.156365 101 95 89
-60.5728 -8.74202 0.158555 87 93 88
-6.69053 -13.2418 -0.0285056 62 57 41
-8.55563 -16.6047 -0.0255506 66 49 41
-6.93996 -13.2304 -0.0301455 130 117 111
-6.84645 -12.8492 -0.0240459 90 103 59
-6.9041 -12.8146 -0.0239882 95 109 64
-7.03158 -12.9617 -0.0270185 101 123 70
-7.03677 -12.8751 -0.025835 88 99 63
-3.99826 -7.06406 -0.0275378 51 52 53
-4.01058 -7.00942 -0.0263017 47 52 43
-4.02787 -6.99054 -0.0260614 64 70 57
-7.31928 -12.6438 -0.0247768 60 68 51
-4.04315 -6.96811 -0.0257035 55 64 46
-7.39261 -12.6365 -0.0252601 43 52 37
-4.08185 -6.96232 -0.0261134 49 57 44
-7.44124 -12.6314 -0.0255755 67 75 60
-4.11258 -6.96764 -0.0266958 64 72 56
-7.49889 -12.6417 -0.026178 94 106 84
-7.5597 -12.6569 -0.0268765 86 101 75
-7.69711 -12.7568 -0.0293702 52 63 49
-7.82802 -12.1911 -0.0227366 66 39 20
-7.878 -12.1452 -0.0225464 103 76 50
-10.3752 -14.8842 -0.0185986 78 89 54
-12.2196 -13.2231 -0.0164228 139 115 26
-7.79515 -12.8332 -0.0312175 47 52 48
-7.91009 -12.9365 -0.0335758 46 48 37
-10.9162 -16.4423 -0.038547 107 81 68
-10.7479 -16.0721 -0.0335224 125 98 63
-10.8456 -16.1126 -0.0346129 112 98 54
-11.2718 -15.8861 -0.0352458 83 94 69
-11.2572 -15.5015 -0.0312076 44 70 86
-11.5768 -15.7957 -0.0365222 73 84 86
-11.9279 -15.4583 -0.0357157 86 87 52
-11.7128 -14.6449 -0.0260076 113 113 93
-8.15944 -13.2153 -0.0394536 67 77 53
-8.56038 -13.5477 -0.047333 110 93 77
-8.70658 -13.3651 -0.0461053 100 83 58
-8.73036 -13.3116 -0.0455886 83 57 39
-8.81777 -13.3571 -0.0469554 106 77 53
-11.5979 -16.0884 -0.0396531 78 97 88
-11.8829 -15.8557 -0.0393704 91 100 72
-12.0041 -15.9172 -0.0408821 71 82 51
-9.52951 -12.4234 -0.0412217 90 96 60
-12.6842 -15.7359 -0.0442196 119 116 85
-12.9203 -15.9331 -0.0479753 76 82 53
-35.0249 -25.1265 -0.0202087 138 102 91
-34.9857 -24.9332 -0.0194026 127 108 99
-34.9505 -24.7439 -0.0186271 136 126 133
-34.9775 -24.5177 -0.0180159 92 76 81
-35.0732 -24.4219 -0.0180934 125 108 98
-35.3033 -24.4193 -0.0190318 85 68 63
-39.266 -24.2728 -0.0353346 113 92 89
-39.4911 -24.242 -0.0361994 110 87 73
-39.5765 -24.1246 -0.0362051 120 101 94
-39.9012 -24.0668 -0.0374525 106 91 84
-40.3548 -24.1692 -0.039709 108 93 88
-8.63682 -13.8152 -0.0516087 70 58 48
-8.69893 -13.6778 -0.0502654 113 101 76
-9.49322 -13.4256 -0.0538757 86 95 74
-9.33784 -13.1146 -0.048376 92 104 82
-9.7772 -12.9178 -0.0499251 79 95 56
-9.79288 -12.8558 -0.049277 87 95 59
-9.80945 -12.6722 -0.0470936 105 99 66
-10.0802 -12.9452 -0.0531821 114 97 75
-10.1113 -12.9031 -0.0529489 120 93 85
-10.0472 -12.6972 -0.0497204 79 78 66
-13.4933 -16.5488 -0.0584425 76 82 55
-7.15254 -6.49248 -0.037221 124 83 66
-7.22765 -6.5222 -0.0391593 123 98 90
-7.15922 -6.41867 -0.0360644 72 67 68
-7.20918 -6.40454 -0.0367718 94 85 80
-43.5441 -37.9108 -0.0986207 85 75 77
-7.23432 -6.38776 -0.0369635 88 77 79
-43.5957 -37.7168 -0.0981019 83 74 73
-7.28315 -6.39232 -0.0379772 81 74 69
-43.6357 -37.3947 -0.0971106 116 111 83
-41.5826 -34.4084 -0.0784002 95 86 74
-41.7606 -34.3368 -0.0788325 85 76 67
-45.5614 -37.1126 -0.1036 74 67 60
-45.5185 -36.8414 -0.102465 82 74 73
-45.4822 -36.5772 -0.101382 77 72 67
-43.0183 -34.26 -0.0835452 86 83 75
-45.45 -35.9694 -0.0991453 96 87 79
-44.0243 -34.6154 -0.088759 130 107 84
-45.4315 -35.3805 -0.0970448 133 110 83
-43.5599 -33.7016 -0.0837614 130 110 104
-43.8279 -33.6909 -0.0847907 124 111 131
-45.2524 -34.5637 -0.0934933 127 121 134
-45.2514 -34.2278 -0.0923678 84 40 66
-45.2269 -33.9875 -0.091443 106 55 83
-45.1709 -33.7248 -0.0903193 109 72 86
-45.1774 -33.4007 -0.0892775 112 70 88
-45.1315 -33.1489 -0.0882367 113 72 86
-45.1087 -32.9155 -0.0873552 151 100 101
-45.1183 -32.5991 -0.0863656 148 88 82
-44.9777 -30.8148 -0.0799521 95 85 86
-44.9562 -30.594 -0.0791439 96 86 87
-44.9204 -30.3646 -0.0782502 97 85 85
-44.9326 -30.0666 -0.0773746 104 92 89
-44.9338 -29.6623 -0.0760821 102 91 89
-40.6462 -24.1717 -0.040969 104 90 86
-40.9398 -24.1737 -0.0422399 104 91 87
-41.2596 -24.1024 -0.0434405 108 95 91
-44.6227 -25.6968 -0.0627342 100 88 90
-44.6278 -25.4216 -0.0619822 107 87 95
-44.5987 -25.2206 -0.0612668 106 77 81
-44.567 -25.0192 -0.0605424 108 70 68
-44.563 -24.7426 -0.0597588 129 84 75
-43.9426 -24.2184 -0.0555306 118 96 100
-43.9334 -24.0346 -0.0549639 107 101 103
-43.9692 -23.8759 -0.0546676 102 93 100
-44.2495 -23.76 -0.0556097 106 97 102
-44.4555 -23.692 -0.0563274 103 94 99
-44.4157 -23.4928 -0.0555915 98 89 94
-44.6102 -23.3284 -0.0560292 100 91 96
-44.725 -23.2108 -0.0562131 98 89 94
-44.8448 -23.0953 -0.0564266 101 92 97
-44.9862 -22.9017 -0.0565602 109 98 102
-45.1017 -22.7832 -0.0567535 110 98 98
-45.1955 -22.6535 -0.0568199 114 100 99
-45.3014 -22.5297 -0.056959 115 100 97
-45.4565 -22.3413 -0.0571862 119 102 96
-45.5669 -22.219 -0.0573559 128 110 101
-45.6626 -22.0893 -0.0574419 118 99 92
-45.8231 -21.9021 -0.0577094 127 108 92
-45.918 -21.7713 -0.0577948 114 98 87
-46.0287 -21.6478 -0.0579749 126 108 99
-46.1657 -21.4482 -0.0581163 123 104 97
-46.3047 -21.3369 -0.0584609 129 111 102
-46.407 -21.2084 -0.058597 126 106 95
-46.5236 -21.086 -0.0588174 134 112 99
-46.6763 -20.8917 -0.0590598 125 107 95
-46.7701 -20.7583 -0.0591534 120 101 93
-9.81139 -14.4024 -0.0696474 62 78 41
-9.92241 -14.2322 -0.068388 92 108 72
-9.99561 -14.2445 -0.0692108 65 81 54
-10.1091 -13.9881 -0.0668872 86 103 92
-10.0869 -13.6411 -0.0621747 67 81 83
-10.097 -13.5666 -0.0613034 67 70 66
-13.9863 -17.0568 -0.0672376 48 52 38
-14.0896 -17.0213 -0.0677062 57 62 45
-14.1105 -16.939 -0.067068 84 98 62
-14.7517 -17.6114 -0.0786306 91 100 74
-15.0289 -17.7781 -0.0824417 114 107 66
-15.0389 -17.6779 -0.081553 122 119 45
-14.9636 -17.4768 -0.0790174 144 134 39
-15.3679 -16.5468 -0.0735528 156 131 35
-45.76 -40.4788 -0.116477 81 70 76
-45.7572 -40.0949 -0.115082 108 99 92
-45.6539 -38.2696 -0.108083 94 87 81
-45.6135 -37.9934 -0.106929 94 83 82
-46.8947 -20.6383 -0.0594247 115 99 91
-47.0383 -20.4384 -0.0596243 122 105 98
-47.1289 -20.3028 -0.0597066 121 106 99
-47.2505 -20.1802 -0.0599665 121 106 99
-47.4051 -19.9835 -0.0602376 132 114 104
-47.5092 -19.8526 -0.060402 124 106 96
-47.6315 -19.7289 -0.0606712 128 110 105
-47.7656 -19.5222 -0.0608373 117 101 93
-47.9075 -19.4054 -0.0612199 122 108 100
-48.0082 -19.2716 -0.061374 116 102 98
-48.1011 -19.1343 -0.061485 132 118 115
-48.2811 -18.9438 -0.061919 115 103 103
-48.3824 -18.8091 -0.0620826 119 111 109
-48.5058 -18.6825 -0.0623687 119 109 110
-48.6504 -18.4762 -0.062615 116 106 107
-48.7691 -18.3469 -0.0628811 113 100 107
-48.8932 -18.2191 -0.0631766 103 93 96
-49.0339 -18.0097 -0.0634113 124 112 116
-49.144 -17.8757 -0.063635 116 107 110
-49.2668 -17.7459 -0.0639294 109 103 106
-49.3779 -17.6116 -0.0641615 107 101 105
-49.5426 -17.4083 -0.0645408 108 103 107
-49.6472 -17.2707 -0.0647412 111 106 110
-49.7647 -17.1371 -0.065015 112 104 107
-49.916 -16.9272 -0.0653311 111 101 109
-50.0307 -16.7916 -0.0655925 111 106 110
-50.1659 -16.6624 -0.0659672 109 102 110
-50.3076 -16.4474 -0.0662407 112 103 111
-50.4248 -16.3111 -0.0665218 104 97 105
-50.5607 -16.1804 -0.0669057 103 100 109
-50.6695 -16.0404 -0.0671462 101 99 110
-50.8258 -15.8275 -0.0675097 96 95 104
-50.9586 -15.6939 -0.0678822 91 88 99
-51.0661 -15.5521 -0.0681218 94 91 103
-51.2185 -15.3358 -0.0684737 83 82 95
-51.3384 -15.1966 -0.0687834 108 101 109
-51.4887 -15.0658 -0.0692588 109 99 100
-51.6217 -14.8417 -0.0695169 107 95 97
-51.7539 -14.7043 -0.069899 104 93 95
-51.8664 -14.5608 -0.0701779 106 95 100
-51.9997 -14.4226 -0.0705681 102 91 98
-52.1685 -14.2056 -0.0710305 88 77 81
-52.27 -14.0575 -0.071257 177 157 149
-50.6927 -13.4636 -0.0625634 98 85 76
-50.7722 -13.2295 -0.062575 187 177 165
-51.018 -13.1229 -0.0635837 94 65 64
-50.9747 -12.9417 -0.0630607 112 103 106
-51.8709 -11.793 -0.0656076 163 147 142
-51.8138 -11.5241 -0.0649422 112 105 109
-11.5045 -22.2832 -0.105443 102 90 80
-10.266 -14.8832 -0.0800745 79 93 58
-15.3514 -17.7682 -0.084923 131 112 28
-15.8865 -18.2827 -0.0941375 118 102 35
-15.7501 -17.8394 -0.0888237 134 125 128
-15.5988 -17.4444 -0.0838502 156 145 161
-15.593 -17.3287 -0.082711 198 185 181
-52.9388 -13.175 -0.0730475 117 108 113
-53.1189 -13.0431 -0.0737032 104 95 102
-53.2482 -12.8981 -0.0740903 105 97 99
-53.3869 -12.7546 -0.0745283 124 114 112
-53.5332 -12.5237 -0.074906 98 88 81
-53.6533 -12.3745 -0.075251 101 92 83
-54.0864 -11.8508 -0.0765842 98 97 103
-54.2223 -11.7026 -0.0770201 100 99 105
-54.3543 -11.4637 -0.0773445 115 112 113
-55.1962 -11.4603 -0.0814731 105 100 102
-56.6364 -11.5737 -0.088719 107 101 103
-57.9981 -11.5675 -0.0954508 107 98 99
-59.6019 -11.6925 -0.103527 103 95 92
-53.7742 -9.33069 -0.0715615 103 87 81
-53.7866 -9.15918 -0.0713958 88 77 81
-8.60971 -16.7169 -0.091894 87 82 67
-10.5286 -15.7397 -0.0937933 81 58 45
-11.2805 -15.5375 -0.0979152 85 104 104
-11.7166 -14.7497 -0.0919831 83 86 67
-11.673 -14.6006 -0.0896733 67 76 59
-61.205 -11.8072 -0.111587 110 103 98
-11.8283 -16.145 -0.110911 59 75 94
-11.9395 -15.9315 -0.109198 72 76 60
-18.9761 -20.3699 -0.139151 145 127 31
-19.092 -20.3681 -0.140103 157 139 44
-19.2046 -20.2979 -0.140415 130 124 36
-19.2782 -20.2499 -0.140593 132 122 27
-19.5001 -20.3584 -0.143464 161 148 52
-19.5258 -20.2586 -0.142769 152 146 43
-19.4942 -20.0363 -0.140485 123 118 17
-19.5672 -19.9871 -0.140663 115 110 18
-19.8546 -20.1583 -0.144679 146 140 51
-19.9233 -20.0399 -0.144215 143 135 38
-20.0273 -20.0206 -0.14494 141 127 34
-20.1498 -20.0192 -0.145988 146 129 43
-20.3372 -19.8943 -0.146523 156 141 62
-20.3787 -19.8114 -0.146149 142 126 41
-20.4128 -19.7214 -0.145651 157 145 84
-12.9621 -16.0823 -0.121022 87 87 90
-13.3708 -16.3864 -0.128883 81 90 63
-20.3052 -19.9871 -0.14707 155 135 55
-20.6078 -19.7261 -0.147428 71 66 63
-20.6515 -19.6453 -0.147104 80 76 77
-20.9793 -19.8365 -0.151689 75 70 74
-20.722 -19.4072 -0.145665 77 72 76
-7.12673 -6.511 -0.0719453 128 86 86
-7.12156 -6.4266 -0.0701574 82 55 56
-7.13311 -6.3776 -0.0694413 84 73 74
-7.17446 -6.37574 -0.070309 89 77 77
-7.20695 -6.36568 -0.0708245 81 69 70
-13.922 -17.1795 -0.144284 78 91 74
-14.0314 -16.9353 -0.142338 63 62 60
-14.1967 -17.0291 -0.145166 39 41 28
-15.3754 -16.538 -0.151518 129 122 22
-15.5459 -16.6193 -0.154309 171 157 59
-7.1815 -6.52161 -0.0733422 134 86 91
-14.9419 -17.8205 -0.162486 110 117 88
-14.9953 -17.7158 -0.161746 62 66 29
-15.1131 -17.7442 -0.163296 93 86 36
-14.9326 -17.42 -0.157471 110 94 38
-15.3243 -17.7134 -0.165093 116 96 40
-15.3529 -17.6356 -0.16444 140 124 70
-15.7073 -17.8219 -0.170378 128 124 125
-15.6063 -17.4307 -0.164608 158 150 163
-15.6508 -17.3719 -0.164368 209 194 186
-4.74786 -11.4734 -0.109633 70 72 60
-4.80255 -11.4559 -0.109742 66 68 58
-29.9933 -25.0909 -0.278803 108 95 87
-30.1674 -25.0779 -0.280333 111 94 85
-30.371 -25.0885 -0.282336 115 104 90
-30.5688 -25.0929 -0.284238 115 104 103
-30.7985 -25.0419 -0.286023 117 102 109
-30.9892 -25.0377 -0.287801 112 97 102
-31.1925 -25.0425 -0.289775 104 92 94
-31.4355 -24.9973 -0.291759 102 93 90
-31.6379 -24.9986 -0.293709 118 101 90
-31.8376 -24.9963 -0.295607 90 71 71
-32.0861 -24.9503 -0.297663 100 84 74
-32.2832 -24.9432 -0.299511 99 80 70
-5.34813 -11.6128 -0.118946 115 75 75
-5.41351 -11.6644 -0.120846 116 76 76
-19.3794 -20.4352 -0.240604 99 88 2
-19.308 -20.2328 -0.237455 137 124 24
-19.4133 -20.2176 -0.238423 151 143 43
-32.5121 -24.9596 -0.301856 93 89 93
-32.7193 -24.9577 -0.303851 98 95 104
-32.9675 -24.9044 -0.30588 87 80 91
-33.1881 -24.9097 -0.308074 85 66 73
-33.409 -24.9138 -0.310267 101 74 73
-33.6596 -24.8571 -0.312318 130 109 111
-33.9053 -24.8764 -0.314883 97 57 66
-34.1079 -24.8625 -0.316775 156 101 98
-34.3999 -24.8303 -0.319446 146 87 83
-34.9044 -25.0313 -0.325962 135 100 93
-34.9526 -24.9011 -0.325467 96 85 99
-34.9451 -24.7314 -0.324127 93 83 102
-34.9606 -24.497 -0.322569 113 99 103
-35.1133 -24.4415 -0.323688 114 96 86
-35.3447 -24.44 -0.326 86 72 68
-4.89603 -11.9649 -0.122794 74 76 51
-5.22869 -12.1516 -0.130462 65 55 49
-5.35881 -12.0945 -0.130413 118 78 78
-5.40529 -12.1005 -0.131028 115 74 75
-5.4456 -12.0917 -0.131232 115 75 75
-5.42673 -11.945 -0.12758 114 77 76
-5.72222 -11.7685 -0.126603 108 76 81
-3.9927 -6.96248 -0.0883522 61 69 56
-4.01564 -6.95428 -0.0884975 61 69 54
-4.0438 -6.92953 -0.0881959 59 61 48
-4.06668 -6.92115 -0.0883413 61 65 59
-4.09721 -6.92669 -0.0890875 71 78 64
-20.7066 -22.5393 -0.279698 140 131 113
-19.6073 -20.2943 -0.241434 123 115 14
-19.6976 -20.1985 -0.241325 136 135 27
-19.8104 -20.1888 -0.242452 112 112 16
-19.926 -20.1814 -0.243643 99 101 21
-20.027 -20.0955 -0.243788 153 141 48
-20.0722 -20.0162 -0.243383 150 133 38
-20.2191 -20.0384 -0.245274 114 91 11
-20.3607 -19.9918 -0.246344 132 106 39
-20.6707 -20.1721 -0.251871 123 95 36
-20.4627 -19.8439 -0.245818 114 91 35
-20.5513 -19.8067 -0.2464 150 138 95
-20.6436 -19.7107 -0.246384 97 93 86
-20.6857 -19.6285 -0.245945 98 92 95
-20.8552 -19.6673 -0.248312 99 90 95
-20.8681 -19.4959 -0.246572 98 87 90
-43.0687 -29.318 -0.439454 103 94 93
-39.4579 -24.8203 -0.37077 161 92 81
-39.4771 -24.6606 -0.369869 127 90 83
-39.6257 -24.4961 -0.370314 145 133 144
-39.4516 -24.2177 -0.366609 127 110 107
-39.6065 -24.1432 -0.367717 102 91 95
-39.8604 -24.1281 -0.370265 105 96 101
-42.3168 -25.1725 -0.403003 88 88 94
-5.31968 -12.6563 -0.143361 70 70 51
-5.27913 -12.4419 -0.137859 59 60 45
-5.30237 -12.2247 -0.132928 70 55 52
-6.04415 -12.168 -0.139448 109 81 80
-6.20078 -12.3496 -0.145416 62 63 48
-6.1466 -12.1402 -0.139962 96 100 72
-21.2777 -22.6638 -0.287303 149 145 42
-43.3441 -38.5987 -0.5151 78 68 72
-45.6912 -40.4446 -0.552211 82 73 74
-45.7003 -40.0713 -0.549182 86 69 66
-45.6595 -39.7834 -0.546388 87 74 70
-43.5059 -37.6585 -0.508708 86 69 72
-45.6521 -39.1525 -0.541089 90 73 72
-45.6267 -38.8834 -0.538619 84 68 72
-45.5848 -38.6019 -0.5359 89 78 76
-44.9452 -30.808 -0.469232 100 90 91
-44.8731 -30.3475 -0.465158 98 87 91
-44.9067 -30.0639 -0.463489 96 84 86
-44.9102 -29.8633 -0.462085 99 87 87
-44.863 -29.6298 -0.459937 107 98 96
-44.8263 -29.4045 -0.457961 102 90 91
-44.8445 -29.1162 -0.456142 105 78 85
-44.7905 -28.8822 -0.453944 128 111 120
-44.7523 -28.6597 -0.451994 115 91 104
-44.7897 -28.3881 -0.450523 157 104 98
-44.6688 -26.7679 -0.438299 107 101 105
-44.6282 -26.0835 -0.433372 86 86 94
-44.5864 -25.8722 -0.431546 77 83 93
-44.5454 -25.6624 -0.429744 74 76 89
-44.5607 -25.3933 -0.428197 99 78 93
-44.5333 -25.1934 -0.426619 104 77 88
-44.4894 -24.9851 -0.424818 100 61 66
-44.5044 -24.7193 -0.423321 132 83 83
-43.8836 -24.1937 -0.413363 82 67 73
-43.8848 -24.0157 -0.412256 115 105 107
-43.9117 -23.8522 -0.411523 114 102 108
-44.2616 -23.7747 -0.414832 110 100 108
-44.3773 -23.6585 -0.41536 95 89 93
-44.4575 -23.5231 -0.415394 108 102 104
-44.5809 -23.3214 -0.41553 104 94 102
-44.7025 -23.2075 -0.416156 106 96 104
-44.776 -23.0682 -0.416114 105 94 102
-44.9311 -22.8821 -0.416719 116 106 107
-45.0427 -22.762 -0.417221 109 97 97
-45.1594 -22.6441 -0.417797 113 99 97
-45.2472 -22.5114 -0.417976 118 107 101
-45.3929 -22.3188 -0.418482 121 108 103
-45.512 -22.2011 -0.419107 122 110 103
-45.611 -22.0732 -0.419458 116 102 96
-45.7675 -21.8845 -0.420134 119 105 96
-45.8747 -21.7598 -0.42061 116 103 97
-45.9851 -21.6364 -0.421133 112 101 97
-46.1235 -21.4377 -0.421586 114 103 98
-46.2476 -21.3199 -0.422307 120 108 107
-46.3533 -21.1932 -0.42278 120 108 105
-46.4677 -21.0701 -0.423377 128 113 108
-46.6092 -20.8711 -0.423903 127 113 104
-46.7173 -20.7444 -0.424424 123 109 100
-46.8269 -20.618 -0.42497 119 109 100
-46.9737 -20.42 -0.425594 112 99 94
-47.077 -20.29 -0.426065 116 105 102
-47.2092 -20.1723 -0.426932 102 92 91
-47.3487 -19.9695 -0.42748 120 108 107
-47.4728 -19.8472 -0.428247 112 102 100
-47.5708 -19.7136 -0.428667 126 116 114
-47.6869 -19.5872 -0.429335 125 115 113
-47.8294 -19.3838 -0.429955 118 108 107
-47.9353 -19.2523 -0.430498 115 107 105
-48.0502 -19.1242 -0.431165 118 108 111
-48.1964 -18.9206 -0.431857 111 105 110
-48.3159 -18.7934 -0.432597 118 112 117
-48.4427 -18.6684 -0.433436 117 111 114
-5.60857 -12.8589 -0.151024 79 61 61
-6.02226 -12.9417 -0.157246 114 76 75
-6.0603 -12.8652 -0.155863 112 74 74
-6.09328 -12.8324 -0.155449 112 76 77
-6.26447 -12.8381 -0.157452 107 77 79
-6.25894 -12.7233 -0.154724 108 79 83
-6.51275 -12.7971 -0.159292 76 78 47
-7.81182 -12.1743 -0.161649 128 105 84
-7.87988 -12.1995 -0.163132 71 46 26
-48.585 -18.4616 -0.434103 115 109 111
-48.6922 -18.3282 -0.434693 119 113 116
-48.8234 -18.2034 -0.435605 106 96 104
-48.9544 -17.9908 -0.436147 110 104 111
-49.0791 -17.8625 -0.436984 103 98 104
-49.1885 -17.7282 -0.437624 114 109 116
-49.3144 -17.5994 -0.438484 111 106 112
-49.4541 -17.3877 -0.439172 117 111 113
-49.5773 -17.2569 -0.440008 115 109 112
-49.6869 -17.1209 -0.440669 124 117 125
-49.8397 -16.9119 -0.441554 109 103 108
-49.9824 -16.7861 -0.44266 112 107 113
-50.0869 -16.6469 -0.443271 108 103 108
-50.2226 -16.4303 -0.443958 113 108 114
-50.3566 -16.2998 -0.444964 104 99 105
-50.4807 -16.1655 -0.445845 108 104 110
-50.5988 -16.0289 -0.446653 119 113 116
-50.728 -15.8078 -0.447289 96 93 101
-50.8699 -15.6775 -0.448416 97 96 102
-50.9886 -15.5394 -0.449248 117 107 110
-51.152 -15.3268 -0.450352 84 84 92
-51.264 -15.1855 -0.451108 104 99 107
-51.3986 -15.0504 -0.452159 102 96 98
-51.5389 -14.8288 -0.452991 104 95 97
-51.6726 -14.6922 -0.454042 101 95 97
-51.8098 -14.5559 -0.455141 102 96 101
-51.9428 -14.4179 -0.456192 101 96 102
-52.09 -14.1953 -0.457144 92 93 98
-52.2124 -14.0531 -0.45807 146 143 145
-50.6114 -13.4505 -0.43702 97 88 95
-50.8546 -13.0894 -0.438655 97 78 72
-50.8906 -12.9287 -0.438525 109 102 107
-6.68788 -12.9015 -0.163714 105 99 74
-6.80535 -13.0367 -0.168183 132 123 111
-6.85417 -12.9825 -0.167517 59 64 57
-6.93394 -12.9407 -0.167508 59 62 49
-6.91489 -12.8061 -0.164212 54 58 44
-7.05135 -12.9215 -0.168482 45 53 37
-7.31367 -12.6487 -0.165575 52 60 49
-7.35743 -12.6351 -0.165826 59 64 54
-7.42182 -12.658 -0.167157 67 68 59
-7.48452 -12.6309 -0.167362 62 68 54
-7.54925 -12.6531 -0.168693 86 99 74
-7.62218 -12.6889 -0.170434 75 91 61
-7.74874 -12.7695 -0.173879 72 81 60
-7.85704 -12.8628 -0.177369 71 79 57
-52.5008 -13.6904 -0.460219 149 143 133
-52.9281 -13.1835 -0.46356 107 101 105
-53.0361 -13.034 -0.464338 107 101 106
-53.1729 -12.891 -0.465485 107 105 112
-53.3073 -12.7468 -0.466605 120 120 120
-51.5597 -12.0712 -0.443678 156 142 139
-51.5828 -11.9061 -0.443425 159 148 150
-51.5645 -11.7316 -0.442654 176 165 157
-51.5929 -11.483 -0.442252 122 113 116
-54.1387 -11.6958 -0.473272 106 103 112
-54.2957 -11.4626 -0.474488 116 114 117
-55.3119 -11.4967 -0.486736 110 107 110
-56.808 -11.623 -0.504997 112 108 112
-53.7815 -9.34053 -0.462608 115 107 103
-6.63363 -13.912 -0.186503 112 77 80
-6.94663 -13.5275 -0.181099 97 108 65
-8.23753 -13.4125 -0.194538 54 56 37
-8.3269 -13.2333 -0.191796 55 49 40
-8.44385 -13.2852 -0.19452 64 49 42
-35.0525 -25.0202 -0.476691 119 108 117
-35.1497 -24.9245 -0.477025 109 101 117
-35.0162 -24.6658 -0.472871 129 110 114
-35.0821 -24.4672 -0.471876 126 119 133
-35.2926 -24.451 -0.474437 140 130 126
-35.4837 -24.4201 -0.476616 107 95 98
-58.2702 -11.7329 -0.522813 106 101 105
-59.7815 -11.7456 -0.540993 104 98 100
-61.3482 -11.8546 -0.560077 105 100 97
-63.0967 -11.9883 -0.581416 105 100 100
-64.838 -12.0041 -0.602407 103 97 99
-60.5416 -8.76504 -0.542882 88 86 94
-55.8271 -7.90085 -0.484001 130 136 134
-58.019 -7.93382 -0.51063 85 58 44
-4.70733 -11.5182 -0.155391 107 107 57
-8.39139 -13.5271 -0.199114 118 91 79
-8.41439 -13.4706 -0.198181 135 115 97
-9.54522 -13.5195 -0.215138 86 98 76
-9.34121 -13.1352 -0.204019 83 92 70
-9.33248 -13.036 -0.201798 90 93 79
-9.91567 -13.2489 -0.215009 96 104 81
-9.76003 -12.9511 -0.206461 72 80 58
-9.82248 -12.9092 -0.206557 87 94 56
-39.5834 -24.7696 -0.533663 150 100 94
-39.6314 -24.6278 -0.533067 94 77 86
-39.581 -24.34 -0.529932 193 176 179
-39.5609 -24.1577 -0.528094 101 88 94
-39.7998 -24.1335 -0.53109 102 93 98
-42.2963 -25.1997 -0.573738 94 91 100
-42.3762 -25.0683 -0.573709 84 88 99
-66.7328 -12.1395 -0.625526 106 104 105
-68.6487 -12.2667 -0.648885 104 98 103
-4.97346 -12.0938 -0.174022 66 69 43
-5.10688 -11.7871 -0.167156 82 63 56
-5.23221 -11.9857 -0.173974 76 52 49
-5.29552 -11.9806 -0.174568 120 78 80
-5.38394 -11.9836 -0.175681 115 75 76
-5.41352 -11.951 -0.175151 116 75 76
-5.43996 -11.8608 -0.17304 115 74 75
-5.70518 -11.7677 -0.173803 109 77 80
-10.0081 -13.8672 -0.229304 111 120 120
-9.97265 -13.6362 -0.223933 76 94 105
-10.0033 -13.5447 -0.222488 53 71 97
-45.7508 -39.019 -0.749707 96 81 85
-45.6391 -38.4334 -0.742203 83 77 79
-45.632 -37.8216 -0.735766 134 116 112
-45.608 -37.5618 -0.73278 79 66 69
-45.568 -36.9348 -0.725864 87 80 87
-43.4193 -34.7419 -0.677163 90 81 86
-45.2976 -34.4262 -0.697311 119 117 133
-45.2893 -34.0859 -0.693887 143 139 156
-45.2754 -33.8543 -0.691441 78 57 79
-45.2171 -33.5909 -0.688134 106 78 89
-45.2309 -33.273 -0.685253 111 79 84
-45.1973 -33.0311 -0.682488 121 72 68
-45.1626 -32.7898 -0.679722 150 90 82
-45.1796 -32.4795 -0.676998 139 93 88
-45.0414 -30.7017 -0.65858 105 95 96
-43.2321 -29.269 -0.621891 93 82 84
-44.9532 -30.2319 -0.653111 99 88 92
-45.0312 -29.9786 -0.65185 101 92 93
-45.0193 -29.7681 -0.649783 103 93 94
-44.9715 -29.5349 -0.64705 107 97 102
-44.9594 -29.3264 -0.645016 100 83 94
-44.9536 -29.0229 -0.642258 157 141 147
-44.926 -28.8066 -0.639968 78 56 64
-44.8772 -28.5779 -0.637298 100 60 62
-44.8973 -28.2956 -0.635112 155 93 82
-44.7034 -26.2586 -0.615127 83 87 98
-44.7187 -25.9863 -0.6131 79 85 96
-44.6867 -25.7813 -0.61097 76 83 94
-44.6539 -25.5767 -0.60884 83 78 89
-44.6531 -25.2988 -0.606588 111 84 93
-44.6496 -25.1129 -0.60503 98 61 69
-44.6 -24.9019 -0.602645 145 97 93
-44.5461 -24.6895 -0.600197 131 92 93
-44.0036 -24.1195 -0.588225 117 105 116
-43.994 -23.9358 -0.586636 127 116 122
-44.1297 -23.8313 -0.587682 116 105 109
-44.4842 -23.7541 -0.592006 118 109 114
-44.4959 -23.582 -0.590828 114 105 110
-44.5972 -23.4576 -0.59127 107 100 107
-44.7473 -23.2692 -0.591939 106 95 103
-44.8584 -23.1493 -0.592571 108 98 106
-44.9639 -23.0261 -0.593108 109 100 105
-45.0978 -22.8284 -0.593523 114 105 103
-45.206 -22.706 -0.594121 111 101 102
-45.3031 -22.5778 -0.594529 106 95 94
-45.4214 -22.4599 -0.595319 113 101 100
-45.5672 -22.2666 -0.595984 110 99 97
-45.6757 -22.1431 -0.596613 117 106 102
-45.7893 -22.0217 -0.597339 123 111 105
-45.9441 -21.8314 -0.598193 115 104 99
-46.055 -21.7079 -0.598885 117 105 105
-46.153 -21.5781 -0.599355 116 106 105
-46.3005 -21.3829 -0.600113 111 100 104
-46.3939 -21.2504 -0.600518 113 105 103
-46.5178 -21.1315 -0.601463 106 97 92
-46.6251 -21.0047 -0.602121 114 105 100
-46.7739 -20.8082 -0.602942 123 114 108
-46.8968 -20.6875 -0.603886 122 111 108
-46.9772 -20.5478 -0.604099 110 98 98
-47.1314 -20.3523 -0.605044 102 93 96
-47.2678 -20.2361 -0.606241 102 96 100
-47.369 -20.1044 -0.606833 105 98 105
-47.514 -19.9033 -0.60765 114 108 110
-47.6235 -19.7744 -0.608402 112 108 106
-47.7233 -19.6411 -0.608994 112 103 106
-47.8284 -19.5097 -0.60968 124 115 118
-5.05309 -12.1309 -0.17591 67 68 54
-5.22478 -12.3414 -0.18355 70 75 61
-5.25018 -12.2403 -0.181088 58 51 41
-5.38787 -12.0952 -0.17874 114 74 74
-6.06365 -12.2403 -0.190903 108 78 78
-6.15254 -12.2794 -0.193082 92 91 73
-4.02607 -7.03397 -0.124057 65 68 59
-4.02585 -6.95655 -0.121223 57 66 50
-4.0459 -6.94296 -0.121135 56 58 53
-4.06781 -6.9328 -0.121214 56 58 51
-4.10643 -6.92701 -0.121796 80 85 64
-9.64442 -14.7682 -0.243296 83 57 55
-9.87294 -14.6704 -0.244396 51 41 36
-9.76954 -14.4149 -0.237443 92 106 66
-9.88972 -14.4496 -0.239909 83 101 63
-10.033 -14.3727 -0.24034 69 79 56
-7.10314 -6.4416 -0.145945 85 78 87
-7.11665 -6.41443 -0.145632 89 79 87
-7.14178 -6.39809 -0.14592 80 71 76
-7.15072 -6.36677 -0.145381 90 81 86
-7.17243 -6.3272 -0.144994 94 82 86
-7.21952 -6.33071 -0.146408 92 80 84
-47.9969 -19.3162 -0.61094 115 106 111
-48.116 -19.1895 -0.611879 114 104 111
-48.2254 -19.0585 -0.61266 118 110 116
-48.3381 -18.8412 -0.613 100 90 87
-48.4839 -18.7235 -0.614413 106 97 105
-48.607 -18.5966 -0.615447 115 109 113
-48.7475 -18.3884 -0.616293 108 102 108
-48.8623 -18.2573 -0.617198 113 103 110
-48.9823 -18.1278 -0.618198 108 98 107
-49.1265 -18.0066 -0.619611 113 103 112
-49.2513 -17.7904 -0.620232 107 97 106
-49.3852 -17.6643 -0.621484 113 106 113
-49.4943 -17.5289 -0.622326 117 107 116
-49.6378 -17.3178 -0.623294 121 111 119
-49.7687 -17.1889 -0.624513 111 104 111
-49.8651 -17.0478 -0.625164 113 106 113
-50.0313 -16.8425 -0.626543 113 106 113
-50.1457 -16.7065 -0.627508 114 104 113
-50.2617 -16.5706 -0.628505 113 105 113
-50.4049 -16.3557 -0.629534 112 106 113
-50.5276 -16.2209 -0.630658 117 112 118
-50.6518 -16.0861 -0.631813 113 107 110
-50.7585 -15.9452 -0.632682 117 111 111
-50.9355 -15.7382 -0.63431 97 95 101
-51.0393 -15.5954 -0.635148 101 95 101
-51.1753 -15.462 -0.636521 95 92 101
-51.2908 -15.2343 -0.637168 96 90 102
-5.27078 -12.5664 -0.190192 61 65 49
-6.22957 -12.3416 -0.195724 69 70 47
-7.79755 -12.1744 -0.213969 114 98 82
-10.1861 -15.7833 -0.272817 61 45 33
-10.5478 -15.3332 -0.268233 34 45 25
-10.5022 -15.1633 -0.263954 63 70 60
-11.6923 -14.5592 -0.26955 95 92 84
-11.7619 -14.5544 -0.270564 72 70 72
-51.4681 -15.1117 -0.639237 103 98 106
-51.5817 -14.9698 -0.640262 100 95 102
-51.747 -14.7545 -0.641761 100 95 99
-51.8577 -14.6106 -0.642755 99 91 102
-51.9796 -14.4694 -0.643936 100 94 103
-52.1358 -14.3371 -0.645686 98 94 104
-52.285 -14.1141 -0.646964 124 122 124
-50.7749 -13.3664 -0.620738 92 92 98
-52.6747 -13.6014 -0.650634 120 100 84
-50.9696 -12.9916 -0.622094 113 100 108
-53.0982 -13.0914 -0.654931 107 104 108
-53.2334 -12.9479 -0.656393 101 96 102
-53.3469 -12.7986 -0.657508 85 83 88
-53.4989 -12.6579 -0.659255 154 150 146
-51.6978 -11.9761 -0.629057 161 156 145
-51.6816 -11.8019 -0.628122 153 153 144
-51.6571 -11.6262 -0.627062 134 116 112
-51.7124 -11.3835 -0.627011 115 114 121
-54.1968 -11.7514 -0.666466 114 112 123
-5.99756 -12.913 -0.208013 112 76 74
-6.03933 -12.8458 -0.206725 112 76 75
-6.19241 -13.0765 -0.214777 112 74 74
-6.34082 -13.0268 -0.215307 110 80 81
-6.38511 -13.0167 -0.215598 108 78 76
-6.60988 -13.0202 -0.218591 83 90 58
-6.63684 -12.8235 -0.21377 97 97 65
-6.6726 -12.7962 -0.213531 131 121 109
-6.9091 -13.1127 -0.225 67 70 68
-6.85066 -12.8999 -0.218646 52 55 53
-7.04016 -13.1682 -0.228225 53 55 47
-7.09866 -13.0332 -0.225519 58 60 55
-7.04948 -12.8442 -0.219928 70 70 60
-7.34032 -12.6275 -0.218494 69 73 62
-7.38797 -12.6207 -0.219017 55 58 51
-7.4634 -12.6163 -0.220017 82 87 66
-7.51916 -12.623 -0.22101 92 97 69
-7.60726 -12.6845 -0.223885 77 87 63
-7.72903 -12.7563 -0.227531 84 96 68
-7.83354 -12.8426 -0.231287 76 83 57
-10.7346 -16.0939 -0.287193 103 74 70
-11.8743 -16.0374 -0.302692 55 75 111
-12.2912 -16.132 -0.311026 80 90 50
-11.9362 -15.4048 -0.290592 117 101 82
-54.2855 -11.5926 -0.667233 112 109 116
-53.799 -9.21511 -0.651815 97 87 85
-55.9406 -7.78427 -0.681027 162 144 129
-6.13103 -13.3217 -0.220595 111 74 74
-6.39874 -13.4189 -0.226474 111 72 76
-6.79383 -13.2388 -0.226768 81 100 51
-8.24145 -13.4339 -0.252389 71 74 53
-8.28619 -13.367 -0.251389 134 110 87
-8.28463 -13.2717 -0.248971 118 102 87
-8.29612 -13.1987 -0.247317 70 57 55
-11.1768 -16.9461 -0.311777 108 74 72
-11.9251 -16.4826 -0.31275 65 90 94
-12.7839 -16.6833 -0.329985 80 76 56
-13.2063 -16.9683 -0.342405 94 74 57
-12.9527 -16.2655 -0.324114 86 80 80
-13.3589 -16.4131 -0.333585 68 67 59
-60.6583 -8.63257 -0.756515 78 81 88
-9.59641 -18.2565 -0.320502 79 81 75
-9.37262 -13.413 -0.269919 74 82 64
-9.50419 -13.4699 -0.273502 81 95 68
-9.89549 -13.6251 -0.283873 51 78 106
-9.94902 -13.6109 -0.284451 48 71 113
-9.76293 -13.0508 -0.267902 69 74 57
-13.529 -17.279 -0.353804 118 98 85
-13.5322 -17.1166 -0.350556 81 67 65
-14.2719 -17.1677 -0.363463 59 61 50
-14.5673 -17.4181 -0.373265 67 69 61
-15.0235 -17.6895 -0.386139 49 50 40
-15.1442 -17.6097 -0.386564 86 60 63
-15.824 -17.2345 -0.390827 115 116 104
-15.6825 -16.8127 -0.380359 110 113 33
-15.4481 -16.4545 -0.369495 149 148 66
-9.46558 -14.3932 -0.29544 80 49 46
-9.84217 -14.3824 -0.301288 57 72 35
-9.86458 -13.807 -0.28771 72 88 88
-14.7558 -18.0451 -0.388836 81 84 67
-15.019 -18.2555 -0.3973 95 101 78
-15.8545 -18.8625 -0.423008 45 48 36
-15.3611 -17.697 -0.391898 86 66 65
-15.7139 -17.3837 -0.391787 223 203 194
-15.8054 -17.3222 -0.392184 137 138 146
-9.72712 -14.8999 -0.312148 82 52 50
-9.74857 -14.5825 -0.304661 107 75 72
-10.2611 -14.8072 -0.318554 52 54 49
-11.7427 -14.5277 -0.337859 66 69 65
-16.3399 -19.1425 -0.436548 68 58 59
-7.16182 -6.49027 -0.18802 102 91 99
-7.09756 -6.39127 -0.183261 92 80 87
-7.10347 -6.35741 -0.182498 92 81 85
-7.15321 -6.34352 -0.183654 94 87 82
-7.18857 -6.33631 -0.184557 92 81 83
-7.23586 -6.33957 -0.186126 97 86 93
-10.0229 -15.9001 -0.341684 77 54 43
-11.9708 -15.3439 -0.360908 103 87 70
-17.8371 -20.3353 -0.484895 106 100 100
-18.1808 -20.6021 -0.495873 123 119 123
-18.5723 -20.8531 -0.507371 148 145 146
-18.9401 -21.1379 -0.519118 154 150 157
-19.5697 -20.2023 -0.512347 144 133 32
-19.7096 -20.1581 -0.514023 133 134 41
-19.7942 -20.1195 -0.51482 136 143 57
-19.8298 -20.0307 -0.513817 90 89 14
-19.9652 -19.9805 -0.515339 121 114 32
-19.9861 -19.8771 -0.513822 118 110 27
-20.1407 -19.908 -0.517187 128 114 42
-20.2575 -19.9001 -0.519163 156 133 70
-20.3971 -19.8514 -0.520838 126 108 72
-20.4785 -19.8074 -0.521529 69 59 57
-20.5024 -19.7073 -0.520165 86 79 78
-20.6416 -19.657 -0.521839 88 79 84
-20.6922 -19.5829 -0.521451 93 85 82
-20.7136 -19.4812 -0.520035 84 71 71
-21.3846 -19.9305 -0.540507 86 65 63
-10.8326 -16.1261 -0.360157 97 75 74
-11.2805 -16.6915 -0.381315 60 57 47
-11.7904 -15.912 -0.371097 57 84 114
-11.9692 -15.9482 -0.37507 82 84 71
-12.121 -15.9966 -0.378885 90 97 71
-12.3084 -16.1428 -0.385634 77 83 55
-12.967 -16.1657 -0.398013 85 81 80
-13.2772 -16.2953 -0.40669 67 69 66
-20.6874 -22.4674 -0.574588 112 115 85
-21.5933 -22.9528 -0.599545 114 106 25
-21.4363 -22.6419 -0.590936 98 90 10
-21.7079 -22.7172 -0.597134 141 125 37
-20.4712 -21.2761 -0.548342 134 120 21
-12.8755 -16.788 -0.410841 63 56 44
-12.9475 -16.7202 -0.410541 109 96 74
-13.4664 -17.1768 -0.430501 102 86 71
-13.5783 -17.1551 -0.432022 81 71 69
-13.2927 -16.6829 -0.415899 83 78 79
-14.1285 -16.9711 -0.437923 62 69 53
-14.228 -16.9842 -0.440081 68 75 60
-15.4591 -16.5472 -0.454239 100 94 21
-15.4788 -16.4655 -0.452867 140 130 47
-14.7285 -17.9833 -0.472161 54 56 43
-15.0782 -18.2983 -0.485841 76 84 55
-15.0097 -17.8146 -0.473569 84 89 67
-15.0154 -17.6529 -0.470032 49 50 40
-15.0905 -17.6307 -0.470955 79 59 66
-15.2175 -17.669 -0.474228 84 58 61
-15.4087 -17.7809 -0.480382 93 71 70
-15.7119 -17.3545 -0.476815 216 196 191
-15.8422 -17.336 -0.478976 139 140 144
-15.8419 -17.2277 -0.476605 118 121 93
-3.99213 -7.02407 -0.177335 58 59 61
-4.00849 -6.97653 -0.175683 49 53 52
-4.02768 -6.96127 -0.175484 60 63 52
-4.04304 -6.93893 -0.174897 67 71 53
-4.08348 -6.9369 -0.175771 59 64 56
-4.1102 -6.93542 -0.17635 73 76 54
-35.0255 -24.9628 -0.893589 119 104 116
-35.0474 -24.8136 -0.891793 134 127 137
-34.9366 -24.5712 -0.885843 120 104 109
-35.069 -24.4195 -0.88636 110 104 118
-35.3019 -24.419 -0.891231 82 75 82
-5.0018 -11.6337 -0.263593 61 51 42
-5.35686 -11.6731 -0.270211 112 75 75
-17.9317 -20.3968 -0.587148 111 107 108
-18.2979 -20.6864 -0.600646 127 122 126
-19.583 -20.1663 -0.614891 123 116 28
-19.7257 -20.1247 -0.61693 144 131 52
-19.8285 -20.1047 -0.618609 85 81 11
-19.8682 -20.0201 -0.617643 99 96 17
-19.9699 -19.9356 -0.617977 107 94 18
-20.0612 -19.903 -0.619185 115 102 26
-20.1284 -19.8461 -0.619394 147 124 62
-20.5706 -19.8469 -0.628661 87 79 79
-20.5773 -19.73 -0.626401 86 74 78
-20.6157 -19.5826 -0.624207 80 68 68
-20.6516 -19.495 -0.623181 98 83 80
-39.5037 -24.6828 -0.984608 124 83 81
-39.6004 -24.5716 -0.985163 84 74 79
-39.476 -24.3234 -0.979054 169 155 163
-39.5346 -24.1042 -0.977358 105 95 103
-39.7985 -24.0953 -0.982986 107 101 103
-42.3657 -25.2055 -1.05405 112 103 108
-4.84751 -11.8271 -0.268168 71 81 52
-5.06156 -11.9954 -0.27704 81 85 62
-4.97712 -11.6763 -0.26472 67 65 46
-5.20751 -11.7749 -0.271486 113 81 76
-5.23982 -11.7502 -0.271109 114 76 75
-5.37164 -11.9087 -0.278553 110 74 72
-5.33355 -11.7183 -0.271415 110 74 74
-5.43108 -11.6948 -0.272096 114 80 78
-5.61114 -11.7577 -0.277056 111 75 77
-5.658 -11.7645 -0.278031 111 79 82
-18.6764 -20.9195 -0.613151 157 152 158
-19.0628 -21.2222 -0.627352 161 149 158
-20.4168 -21.2946 -0.655839 138 127 54
-20.9416 -21.7098 -0.675323 107 99 28
-20.5462 -19.9471 -0.630216 101 77 56
-22.2071 -20.8414 -0.683599 81 58 51
-21.4313 -19.9216 -0.648449 71 47 37
-45.7298 -40.4897 -1.35903 89 79 80
-45.7434 -40.2471 -1.35512 92 82 81
-45.7435 -39.8673 -1.34865 96 87 82
-45.6896 -39.5692 -1.34253 101 91 89
-45.6721 -39.3044 -1.3377 96 87 88
-45.6534 -39.0401 -1.33286 92 81 85
-45.6591 -38.6751 -1.32686 94 83 77
-45.5917 -38.3733 -1.32048 103 92 87
-45.5366 -38.0838 -1.31457 98 88 86
-45.5885 -37.7647 -1.3103 147 131 131
-45.5303 -37.4767 -1.30439 103 92 96
-45.4893 -37.2045 -1.29909 86 74 78
-45.5406 -36.8908 -1.29498 110 96 99
-45.4672 -36.596 -1.28871 106 93 98
-43.4023 -34.7035 -1.21684 98 87 96
-45.4102 -35.9678 -1.27741 74 71 79
-45.3825 -35.7151 -1.27278 128 130 143
-45.3928 -35.4938 -1.26943 95 92 109
-45.3376 -34.882 -1.25858 133 129 150
-45.3033 -34.6304 -1.2539 129 132 149
-45.2076 -34.3332 -1.24727 97 100 115
-45.2163 -34.006 -1.24234 147 145 163
-45.1589 -33.7419 -1.23704 92 69 87
-45.1403 -33.5083 -1.23303 100 77 94
-45.1439 -33.1831 -1.2281 108 69 88
-45.118 -32.947 -1.22393 115 64 71
-45.0717 -32.6973 -1.21914 148 88 87
-44.9086 -30.8921 -1.18864 99 91 93
-44.9453 -30.6074 -1.18525 100 91 94
-44.9113 -30.3789 -1.18118 89 80 83
-44.8913 -30.1609 -1.17758 99 90 91
-44.9298 -29.6791 -1.17145 94 88 92
-44.855 -29.4283 -1.16626 109 97 106
-44.8794 -29.2438 -1.16414 88 67 76
-44.868 -28.937 -1.15957 108 84 81
-44.8569 -28.7314 -1.15642 115 88 97
-44.818 -28.5089 -1.15246 100 56 65
-44.8477 -28.2328 -1.14927 153 93 82
