-4.73646 -2.07167 -1.7877 69 83 109
-4.72169 -2.04793 -1.77908 72 84 110
-4.74235 -2.03145 -1.78411 69 85 111
-5.04714 -1.66064 -1.79733 74 85 103
-5.04255 -1.64203 -1.79383 75 86 103
-5.30504 -1.22862 -1.78705 73 85 108
-5.54944 -0.781405 -1.76728 75 87 111
-5.71619 -0.566319 -1.77246 80 92 118
-5.80028 -0.451865 -1.77551 73 86 110
-6.02432 -0.143815 -1.7797 79 94 117
-2.22302 -5.72512 -1.78893 106 130 174
-2.38252 -5.50474 -1.79397 102 124 163
-2.61744 -5.08672 -1.77936 79 98 130
-2.63565 -5.08629 -1.78199 77 96 126
-2.90968 -4.69526 -1.78484 73 90 116
-3.16826 -4.32762 -1.78744 73 85 107
-3.42098 -3.87259 -1.77042 70 82 98
-3.43702 -3.86826 -1.77329 72 81 98
-3.59045 -3.59814 -1.76514 72 81 96
-3.60771 -3.58345 -1.76587 71 80 95
-3.61544 -3.57005 -1.7644 72 81 94
-3.62313 -3.55663 -1.76294 71 81 93
-4.50505 -2.32189 -1.77392 86 94 109
-4.51666 -2.30201 -1.77466 59 66 85
-4.52793 -2.29069 -1.77685 54 67 86
-4.5259 -2.27258 -1.7732 54 67 87
-4.7376 -2.01236 -1.7798 70 86 112
-4.74818 -2.00003 -1.78196 71 86 112
-4.75869 -1.98764 -1.78412 65 79 104
-5.04934 -1.61845 -1.79384 77 88 106
-5.06242 -1.60551 -1.79734 75 86 104
-5.29703 -1.20947 -1.78298 74 85 105
-5.3182 -1.19714 -1.78978 77 90 107
-5.56031 -0.765355 -1.77059 75 87 111
-5.72646 -0.549423 -1.77568 84 96 122
-5.72351 -0.531169 -1.7744 73 88 111
-6.03714 -0.125249 -1.78401 78 90 114
-2.20762 -5.73652 -1.79079 104 128 174
-2.36893 -5.51835 -1.79651 101 123 164
-2.45651 -5.30019 -1.77842 85 104 137
-2.48711 -5.33025 -1.79195 80 99 132
-2.60629 -5.1025 -1.78266 79 98 130
-2.89107 -4.71274 -1.78689 74 89 118
-3.14386 -4.34767 -1.78815 74 87 106
-3.14919 -4.32764 -1.78325 74 86 108
-3.39097 -3.89619 -1.76971 70 82 98
-3.41435 -3.88843 -1.7733 70 82 98
-3.55346 -3.63522 -1.76514 73 82 97
-3.57343 -3.62344 -1.76734 71 80 95
-3.57876 -3.60743 -1.76441 72 81 96
-4.5406 -2.25424 -1.77539 96 105 121
-4.54343 -2.23864 -1.77393 81 89 109
-4.54954 -2.22468 -1.77393 75 87 109
-4.76371 -1.96421 -1.78268 98 109 121
-4.77071 -1.95028 -1.7834 123 131 144
-5.05763 -1.58695 -1.79385 76 87 105
-5.06526 -1.57228 -1.79525 77 88 106
-5.32107 -1.18052 -1.78978 69 82 99
-5.55173 -0.737895 -1.76663 78 90 114
-5.8317 -0.426448 -1.78565 72 87 110
-5.83022 -0.407899 -1.78503 72 87 110
-2.18073 -5.74359 -1.79018 109 133 177
-2.33528 -5.50506 -1.78828 104 125 168
-2.44419 -5.31567 -1.78165 85 103 139
-2.59428 -5.11654 -1.78531 78 97 130
-2.85764 -4.71948 -1.78282 75 90 119
-2.87071 -4.70957 -1.78213 74 89 118
-3.11142 -4.37055 -1.78815 76 88 110
-3.12214 -4.35833 -1.78675 75 87 110
-3.35431 -3.92299 -1.76827 74 86 102
-3.3658 -3.91313 -1.76827 71 82 98
-3.38073 -3.90759 -1.77043 71 80 97
-3.50604 -3.6609 -1.75929 70 79 94
-3.52987 -3.65349 -1.76368 70 79 94
-3.54546 -3.64846 -1.76661 71 80 95
-4.55725 -2.21152 -1.77467 70 85 108
-4.56001 -2.18727 -1.77174 74 86 112
-4.56929 -2.17486 -1.77321 72 86 111
-4.77766 -1.93631 -1.78412 77 77 91
-4.77898 -1.91139 -1.78125 91 92 104
-4.78065 -1.89526 -1.77982 72 80 101
-5.06813 -1.54749 -1.79385 76 88 104
-5.32569 -1.15555 -1.78979 72 83 103
-5.58307 -0.724354 -1.77719 76 88 112
-5.71941 -0.503823 -1.77247 83 95 119
-5.82492 -0.389122 -1.78313 74 88 114
-2.16465 -5.75307 -1.79142 110 135 176
-2.32627 -5.53095 -1.79526 105 126 169
-2.56956 -5.12378 -1.784 79 98 131
-2.83257 -4.72519 -1.7801 76 91 120
-3.09754 -4.37808 -1.78746 75 87 109
-3.32967 -3.95337 -1.77115 72 84 100
-3.33893 -3.94065 -1.76972 72 84 100
-3.48281 -3.70154 -1.76442 72 81 96
-3.48978 -3.68709 -1.76222 72 81 96
-3.50043 -3.67675 -1.76222 71 80 96
-4.57519 -2.16081 -1.77321 69 85 111
-4.58272 -2.13891 -1.77248 74 87 112
-4.59523 -2.12796 -1.77541 77 88 110
-4.79261 -1.88335 -1.78269 69 83 106
-4.79191 -1.85772 -1.7791 72 84 108
-5.07388 -1.53221 -1.79456 72 83 101
-5.07956 -1.5169 -1.79526 77 88 108
-5.31558 -1.13607 -1.78503 72 83 103
-5.32559 -1.12103 -1.78776 71 82 102
-5.59003 -0.707625 -1.77918 75 87 111
-5.72386 -0.486295 -1.77376 73 88 111
-5.82902 -0.370934 -1.7844 74 87 112
-2.14852 -5.76249 -1.79266 109 134 175
-2.3066 -5.52844 -1.7921 105 128 172
-2.40073 -5.3234 -1.77844 83 102 138
-2.41724 -5.31859 -1.77908 83 103 140
-2.5498 -5.1205 -1.78004 79 98 131
-2.81853 -4.73333 -1.78011 76 91 120
-3.05973 -4.39275 -1.78396 75 87 109
-3.07571 -4.38849 -1.78606 76 88 109
-3.30246 -3.98061 -1.7726 71 83 99
-3.31921 -3.96459 -1.77188 72 84 100
-3.44347 -3.73595 -1.7637 72 81 96
-3.45795 -3.72995 -1.76589 73 82 97
-3.4675 -3.71833 -1.76516 72 81 96
-4.59255 -2.10991 -1.77175 74 89 112
-4.6049 -2.09025 -1.77322 71 84 107
-4.6156 -2.07838 -1.77541 72 83 110
-4.80553 -1.8464 -1.7827 50 62 80
-4.80176 -1.82817 -1.77911 92 99 112
-5.08215 -1.49208 -1.79386 75 88 107
-5.3281 -1.09565 -1.78708 69 81 103
-5.59802 -0.682126 -1.78116 73 87 110
-5.72259 -0.468244 -1.77312 77 89 112
-2.38217 -5.32285 -1.77587 84 104 139
-2.54068 -5.14129 -1.78533 79 97 133
-2.80715 -4.74638 -1.78215 75 90 121
-3.03894 -4.41839 -1.78747 75 87 109
-3.05192 -4.4095 -1.78747 76 88 110
-3.27458 -3.99392 -1.76973 72 84 100
-3.28402 -3.98136 -1.76829 71 82 100
-3.40255 -3.76846 -1.76224 70 82 98
-3.41345 -3.75842 -1.76224 72 81 98
-3.42797 -3.75255 -1.76443 72 81 98
-4.62289 -2.06493 -1.77615 70 84 110
-4.62336 -2.04842 -1.77396 68 84 110
-4.62522 -2.02405 -1.77103 69 85 111
-4.81528 -1.81676 -1.78271 96 98 106
-4.81772 -1.79248 -1.78055 91 96 107
-5.08953 -1.47724 -1.79527 73 85 104
-5.08785 -1.45982 -1.79317 80 93 112
-5.33064 -1.07898 -1.78709 72 85 102
-5.58053 -0.662503 -1.77457 76 88 110
-5.72761 -0.44173 -1.77442 73 86 112
-5.82034 -0.342782 -1.78124 71 86 109
-2.11874 -5.76019 -1.78897 109 133 179
-2.2842 -5.54497 -1.79464 105 129 173
-2.36765 -5.33284 -1.77717 85 105 140
-2.50988 -5.13442 -1.77874 81 99 135
-2.77404 -4.77141 -1.7842 73 90 120
-2.79082 -4.7684 -1.78623 74 91 121
-3.01294 -4.42217 -1.78328 75 87 111
-3.23923 -4.01026 -1.76614 72 84 100
-3.25767 -4.00974 -1.77045 74 86 102
-3.36012 -3.79904 -1.76005 74 83 100
-3.37351 -3.79198 -1.76151 74 83 100
-3.3905 -3.78912 -1.76517 74 83 100
-3.92512 -3.07015 -1.78024 68 77 90
-3.96901 -3.0395 -1.78696 71 78 90
-3.98774 -3.01688 -1.78771 72 79 89
-4.04581 -2.99673 -1.8019 71 78 88
-4.05143 -2.98232 -1.80041 72 79 89
-4.06898 -2.96748 -1.80265 76 81 86
-4.07741 -2.95528 -1.80265 73 77 80
-4.08582 -2.94304 -1.80265 79 80 85
-4.1047 -2.9291 -1.80563 78 79 83
-4.11153 -2.91566 -1.80489 79 82 87
-4.08564 -2.87781 -1.78771 71 75 85
-4.11911 -2.8843 -1.80041 69 75 86
-4.13927 -2.8712 -1.80414 71 73 86
-4.14591 -2.85766 -1.80339 73 73 87
-4.63405 -2.01129 -1.7725 70 84 111
-4.64967 -2.00143 -1.77689 71 85 112
-4.82071 -1.77695 -1.77984 97 104 120
-4.82714 -1.76275 -1.78056 78 89 109
-5.09376 -1.43598 -1.79317 75 86 105
-5.3313 -1.06191 -1.78641 72 84 100
-5.61353 -0.648644 -1.78579 71 85 108
-5.55842 -0.625017 -1.766 76 91 114
-5.72056 -0.423231 -1.77184 78 93 116
-5.83376 -0.325056 -1.78568 77 92 115
-2.2742 -5.56898 -1.80098 106 130 174
-2.49765 -5.1482 -1.78139 82 100 133
-2.759 -4.77769 -1.78352 75 92 122
-2.98589 -4.43805 -1.78258 76 88 112
-3.00094 -4.4325 -1.78398 78 90 114
-3.22228 -4.03813 -1.77046 72 84 100
-3.23299 -4.0272 -1.76974 73 85 101
-3.34032 -3.83366 -1.76518 71 83 99
-3.35264 -3.81319 -1.76225 70 82 98
-3.89264 -3.17818 -1.79668 72 78 90
-3.89893 -3.16414 -1.79519 71 78 88
-3.91857 -3.1515 -1.79817 71 81 93
-3.93749 -3.14822 -1.8034 69 78 93
-3.94507 -3.13526 -1.80265 70 79 94
-3.91997 -3.09484 -1.78473 69 78 93
-3.94959 -3.07142 -1.78846 70 80 92
-3.96265 -3.06314 -1.7907 69 81 93
-4.00506 -3.04978 -1.80115 71 77 89
-4.02573 -3.01859 -1.80041 67 71 82
-4.0387 -3.00998 -1.80265 71 78 88
-4.1525 -2.84411 -1.80265 70 69 83
-4.17253 -2.83075 -1.80638 73 76 86
-4.17299 -2.81282 -1.80265 75 78 86
-4.18247 -2.80132 -1.80339 74 77 85
-4.19476 -2.78242 -1.80339 75 79 89
-4.20262 -2.76978 -1.80339 74 76 88
-4.20434 -2.7529 -1.80041 75 75 89
-4.22432 -2.74862 -1.80638 74 76 88
-4.23791 -2.73054 -1.80713 75 78 84
-4.23177 -2.70842 -1.80041 82 81 88
-4.25016 -2.70288 -1.80564 74 73 83
-4.26046 -2.68261 -1.80489 76 75 82
-4.26954 -2.67076 -1.80564 78 77 84
-4.64276 -1.97336 -1.7703 70 84 110
-4.65486 -1.96194 -1.77323 68 83 106
-4.65839 -1.94687 -1.77251 87 95 117
-4.8328 -1.73975 -1.77984 71 86 109
-4.84786 -1.72871 -1.78416 73 85 108
-5.11 -1.42354 -1.79808 77 88 106
-5.09007 -1.4012 -1.78898 75 86 104
-5.3372 -1.03725 -1.78709 72 85 104
-5.33587 -1.01981 -1.78574 72 86 107
-5.55855 -0.598789 -1.76534 74 86 111
-5.72662 -0.405776 -1.77378 75 90 113
-5.82061 -0.305977 -1.78125 76 91 114
-2.25323 -5.5627 -1.79656 106 130 174
-2.34537 -5.34773 -1.77911 88 107 140
-2.48829 -5.16888 -1.78667 80 99 132
-2.73788 -4.77224 -1.77809 75 92 122
-2.97775 -4.47007 -1.79098 76 88 112
-3.19213 -4.06151 -1.77046 74 84 101
-3.19747 -4.04313 -1.76615 73 85 101
-3.31447 -3.84889 -1.76299 73 81 100
-3.33272 -3.84776 -1.76738 73 82 99
-3.78908 -3.26366 -1.78623 72 82 94
-3.79845 -3.2524 -1.78623 72 82 95
-3.80506 -3.23861 -1.78474 67 79 93
-3.8171 -3.22977 -1.78623 66 75 90
-3.83004 -3.21148 -1.78548 71 80 95
-3.86557 -3.2235 -1.79967 71 80 94
-3.87483 -3.21198 -1.79967 69 78 91
-3.88628 -3.1922 -1.79817 71 80 92
-4.27859 -2.65889 -1.80638 72 72 83
-4.28244 -2.63445 -1.80265 72 69 86
-4.29294 -2.62351 -1.80414 78 77 89
-4.29561 -2.60754 -1.80191 83 83 89
-4.29979 -2.59257 -1.80041 76 75 81
-4.3221 -2.57996 -1.80564 75 75 85
-4.32302 -2.56296 -1.80265 82 82 90
-4.33177 -2.55085 -1.8034 90 88 93
-4.67345 -1.92815 -1.77543 108 106 120
-4.67341 -1.91161 -1.77324 104 109 128
-4.84189 -1.70991 -1.77985 73 85 108
-4.85864 -1.69941 -1.78488 72 85 109
-5.09897 -1.38675 -1.79109 75 86 105
-5.10275 -1.36237 -1.79039 76 89 108
-5.34002 -1.00346 -1.78642 73 85 107
-5.57077 -0.582565 -1.7693 74 86 110
-5.7257 -0.378784 -1.77314 75 88 112
-5.79457 -0.277221 -1.77238 74 88 114
-2.23296 -5.55811 -1.79276 105 129 173
-2.32748 -5.34875 -1.77718 91 111 144
-2.46194 -5.17209 -1.78404 81 100 133
-2.72816 -4.80736 -1.78761 75 92 122
-2.94156 -4.47136 -1.78399 71 85 111
-2.95668 -4.46599 -1.78539 74 86 110
-3.15642 -4.07704 -1.76688 73 84 102
-3.17803 -4.06776 -1.76903 76 84 103
-3.27241 -3.87979 -1.76153 73 86 102
-3.28251 -3.86873 -1.7608 70 81 99
-3.29608 -3.86199 -1.76226 70 81 99
-3.71359 -3.33389 -1.78176 71 80 95
-3.72452 -3.32416 -1.7825 70 79 94
-3.72603 -3.30544 -1.77802 70 79 96
-3.75961 -3.30665 -1.78848 69 78 95
-3.76505 -3.29168 -1.78623 70 79 96
-3.77452 -3.2805 -1.78623 70 79 94
-4.34445 -2.53215 -1.80415 81 80 87
-4.34993 -2.51803 -1.8034 82 81 89
-4.34903 -2.50006 -1.79967 86 85 91
-4.37263 -2.4879 -1.80565 82 80 91
-4.38274 -2.47654 -1.80714 81 80 86
-4.68193 -1.89858 -1.77471 70 83 102
-4.68524 -1.88344 -1.77398 75 89 112
-4.89205 -1.6863 -1.79566 74 86 110
-4.8613 -1.65877 -1.78129 73 87 110
-5.12062 -1.35018 -1.79599 75 86 104
-5.34411 -0.987087 -1.78711 72 84 106
-5.56981 -0.564982 -1.76865 74 86 110
-5.72976 -0.361136 -1.77444 74 86 109
-5.80022 -0.259117 -1.77429 76 91 117
-2.20843 -5.56895 -1.7934 106 130 175
-2.31349 -5.36035 -1.77912 92 112 145
-2.43936 -5.1614 -1.77745 81 100 133
-2.69616 -4.81618 -1.7849 74 93 125
-2.71727 -4.82185 -1.79033 77 93 126
-2.91845 -4.47933 -1.7819 75 89 116
-3.13455 -4.09838 -1.76832 75 87 103
-3.15516 -4.10145 -1.77407 75 86 104
-3.246 -3.90655 -1.763 73 82 99
-3.25964 -3.89995 -1.76446 72 81 98
-3.6557 -3.40057 -1.78251 67 79 95
-3.67217 -3.38564 -1.78326 69 79 95
-3.68194 -3.37477 -1.78326 69 78 95
-3.69828 -3.37035 -1.78699 70 77 93
-3.708 -3.35939 -1.78699 72 79 95
-4.39124 -2.4642 -1.80789 81 80 86
-4.39648 -2.44995 -1.80714 78 78 86
-4.39909 -2.4253 -1.80341 77 76 86
-4.40744 -2.41288 -1.80416 81 80 85
-4.42056 -2.40318 -1.80715 84 83 88
-4.68795 -1.85967 -1.77179 70 85 110
-4.6946 -1.84587 -1.77252 65 76 100
-4.70638 -1.83407 -1.77545 54 64 85
-4.86739 -1.64437 -1.78202 72 86 112
-4.87597 -1.62241 -1.78274 74 87 113
-5.10762 -1.32999 -1.7897 73 84 102
-5.34782 -0.961973 -1.78711 72 84 106
-5.55463 -0.537319 -1.76271 76 88 111
-5.72243 -0.342723 -1.77186 76 89 108
-5.78496 -0.240209 -1.76923 77 91 117
-2.19007 -5.56956 -1.79151 106 130 176
-2.2878 -5.36611 -1.77784 90 110 145
-2.43341 -5.19066 -1.78603 82 100 136
-2.66922 -4.81761 -1.78082 77 93 126
-2.89396 -4.49937 -1.7833 77 89 115
-2.91011 -4.49577 -1.7854 73 87 113
-3.12348 -4.12273 -1.77335 75 86 104
-3.21868 -3.91959 -1.76008 75 84 101
-3.23348 -3.91457 -1.76227 71 83 99
-3.61072 -3.44883 -1.78252 70 80 93
-3.62068 -3.43816 -1.78252 71 81 94
-3.63339 -3.41947 -1.78102 70 79 93
-3.64979 -3.4153 -1.78475 70 79 94
-4.42613 -2.38031 -1.80491 81 81 93
-4.40846 -2.35328 -1.7937 80 81 95
-4.41498 -2.3399 -1.79371 78 83 92
-4.42021 -2.3171 -1.79147 76 85 101
-4.4201 -2.30012 -1.78848 58 66 85
-4.43295 -2.29022 -1.79147 61 70 87
-4.71405 -1.81225 -1.77545 100 104 115
-4.72055 -1.79834 -1.77619 88 94 105
-4.87664 -1.60614 -1.7813 73 87 113
-4.87727 -1.58988 -1.77987 75 90 114
-5.10387 -1.30374 -1.7862 72 85 102
-5.12702 -1.29274 -1.79391 74 85 103
-5.35733 -0.946567 -1.78984 72 84 106
-5.33907 -0.926138 -1.78236 73 85 107
-5.72448 -0.32494 -1.77251 76 89 109
-2.17848 -5.58979 -1.79659 107 131 175
-2.27246 -5.37403 -1.77849 94 114 151
-2.41016 -5.17808 -1.77878 81 99 135
-2.65906 -4.83362 -1.78423 75 94 126
-2.88646 -4.51737 -1.7875 74 88 114
-3.09287 -4.13156 -1.76905 77 88 105
-3.11134 -4.13179 -1.77336 76 88 104
-3.18627 -3.93855 -1.75789 73 85 101
-3.20451 -3.93808 -1.76228 72 84 100
-3.56379 -3.49505 -1.78178 70 79 96
-3.57644 -3.48723 -1.78327 71 80 97
-3.5878 -3.47802 -1.78402 71 80 95
-3.60073 -3.45946 -1.78252 69 78 93
-4.43925 -2.27675 -1.79147 64 73 90
-4.45071 -2.25737 -1.79222 61 67 89
-4.45855 -2.2447 -1.79297 70 81 101
-4.71658 -1.78047 -1.77253 92 98 114
-4.72224 -1.75794 -1.7718 90 99 116
-4.88383 -1.56726 -1.77987 74 88 114
-5.11926 -1.27403 -1.78971 73 84 104
-5.59483 -0.523492 -1.77658 71 83 107
-5.59931 -0.506334 -1.7779 73 86 112
-5.72319 -0.297967 -1.77187 76 89 113
-5.8363 -0.21439 -1.78634 73 85 111
-2.25517 -5.37656 -1.77721 96 117 154
-2.38597 -5.1861 -1.77813 82 101 134
-2.64468 -4.84119 -1.78423 77 96 128
-2.85654 -4.51373 -1.78051 74 90 116
-3.06408 -4.15696 -1.77049 71 85 108
-3.08492 -4.14669 -1.77192 75 88 107
-3.16491 -3.97208 -1.76302 73 85 101
-3.17929 -3.95375 -1.76082 72 84 100
-3.52646 -3.53018 -1.78104 73 83 95
-3.54804 -3.53202 -1.78776 70 80 92
-3.55745 -3.50957 -1.78402 71 80 95
-4.46635 -2.232 -1.79371 70 81 104
-4.46115 -2.20395 -1.78699 75 87 113
-4.47047 -2.19207 -1.78849 74 86 110
-4.48142 -2.18098 -1.79073 72 84 108
-4.73207 -1.74526 -1.774 81 93 117
-4.74362 -1.73317 -1.77693 78 89 114
-4.88432 -1.55099 -1.77844 75 89 114
-4.89185 -1.53704 -1.77988 76 91 115
-5.1225 -1.24956 -1.78902 72 84 106
-5.12186 -1.23267 -1.78762 73 84 104
-5.35728 -0.903614 -1.78781 70 82 104
-5.35183 -0.885554 -1.78509 71 83 107
-5.71945 -0.279853 -1.77059 78 92 115
-5.81901 -0.195427 -1.78064 78 90 116
-2.14834 -5.58423 -1.79153 106 130 175
-2.23194 -5.38916 -1.77851 96 116 153
-2.37128 -5.1943 -1.7788 81 100 133
-2.6344 -4.85715 -1.78763 72 91 124
-2.83462 -4.53824 -1.78402 73 88 117
-2.84985 -4.53327 -1.78541 73 88 117
-3.03959 -4.17464 -1.7705 74 86 110
-3.04978 -4.16272 -1.76906 71 86 109
-3.13841 -3.98597 -1.76083 73 86 103
-3.15555 -3.98426 -1.76449 72 85 102
-3.49248 -3.56899 -1.78254 71 81 93
-3.51407 -3.57107 -1.78926 71 81 94
-3.52624 -3.55146 -1.78702 71 81 93
-4.48739 -2.16734 -1.79073 71 86 109
-4.5 -2.14849 -1.79223 71 86 109
-4.50585 -2.13478 -1.79223 71 86 109
-4.7324 -1.71281 -1.77034 72 84 108
-4.73951 -1.69083 -1.77035 72 84 108
-4.89932 -1.52306 -1.78132 76 90 116
-4.90202 -1.49919 -1.77989 78 90 116
-5.12846 -1.21749 -1.78902 74 85 105
-5.35555 -0.869085 -1.78578 72 84 108
-5.59511 -0.479622 -1.77593 74 88 114
-5.71564 -0.261763 -1.7693 76 89 112
-5.79218 -0.176324 -1.77178 82 94 118
-2.13539 -5.60077 -1.79534 106 130 175
-2.22021 -5.40762 -1.78303 98 120 157
-2.36214 -5.21646 -1.78474 80 99 132
-2.596 -4.8345 -1.77405 75 94 126
-2.81317 -4.54884 -1.78332 72 89 116
-3.0248 -4.19402 -1.77338 73 85 109
-3.11324 -4.01469 -1.76376 74 85 103
-3.1279 -3.99658 -1.76156 74 87 104
-3.44947 -3.5977 -1.77881 72 81 96
-3.46975 -3.59866 -1.78478 71 80 95
-3.47591 -3.57233 -1.77881 71 81 94
-4.50336 -2.11697 -1.7885 70 84 110
-4.53077 -2.10529 -1.79671 70 84 111
-4.52981 -2.08826 -1.79373 70 84 110
-4.74038 -1.67493 -1.76889 71 85 111
-4.75172 -1.6627 -1.77182 72 87 112
-4.90586 -1.48402 -1.77989 77 91 117
-4.90428 -1.46718 -1.77774 77 91 117
-5.12955 -1.20101 -1.78833 74 87 106
-5.61073 -0.463311 -1.78121 75 87 112
-5.80129 -0.1582 -1.77495 81 94 119
-2.11522 -5.59572 -1.79154 107 130 173
-2.19735 -5.39387 -1.77595 95 117 154
-2.33642 -5.22073 -1.78277 82 100 136
-2.57925 -4.87463 -1.78425 77 95 127
-2.59294 -4.86559 -1.78357 79 95 128
-2.79975 -4.55693 -1.78333 74 89 118
-2.99095 -4.19734 -1.76691 74 86 110
-3.00736 -4.19493 -1.76979 73 85 109
-3.08437 -4.02516 -1.76011 73 86 103
-3.095 -4.01468 -1.75938 73 84 102
-3.42319 -3.64547 -1.78554 73 83 95
-3.43217 -3.62203 -1.78106 72 82 95
-3.45001 -3.62033 -1.78554 72 81 97
-4.5288 -2.07124 -1.79074 70 84 110
-4.53931 -2.05131 -1.79149 70 84 109
-4.55157 -2.04061 -1.79448 71 85 110
-4.75859 -1.64062 -1.77182 73 87 111
-4.91383 -1.4455 -1.77918 77 92 117
-5.12695 -1.17528 -1.78553 72 84 106
-5.14069 -1.16165 -1.78974 73 85 106
-5.61127 -0.445767 -1.78121 78 90 114
-5.58732 -0.426458 -1.77264 78 90 114
-5.72727 -0.235445 -1.77318 80 92 115
-5.82953 -0.131156 -1.78446 82 94 120
-2.09106 -5.60778 -1.79282 109 132 176
-2.18309 -5.40509 -1.77789 92 114 153
-2.31888 -5.22174 -1.7808 80 98 134
-2.55547 -4.88216 -1.7829 77 96 128
-2.77378 -4.57461 -1.78403 76 91 120
-2.78909 -4.56986 -1.78543 77 92 120
-2.96156 -4.22194 -1.76836 74 86 110
-2.98464 -4.21536 -1.77123 75 87 109
-3.07275 -4.04763 -1.76451 75 86 104
-3.3935 -3.65556 -1.78032 72 81 96
-3.40774 -3.64985 -1.78255 71 81 93
-4.55542 -2.02594 -1.79374 69 85 111
-4.55752 -2.01049 -1.79224 70 86 111
-4.76281 -1.62588 -1.77182 73 87 113
-4.75818 -1.60816 -1.76817 73 87 113
-4.92462 -1.43243 -1.78205 78 92 118
-4.91929 -1.41452 -1.77846 82 95 121
-5.1416 -1.14515 -1.78904 73 86 105
-5.75353 -0.218645 -1.78221 76 90 116
-5.83282 -0.112752 -1.78573 81 93 117
-2.07502 -5.61517 -1.79346 106 130 174
-2.30407 -5.22972 -1.78147 83 101 137
-2.5354 -4.87745 -1.77814 75 94 125
-2.75582 -4.59143 -1.78614 73 90 118
-2.94913 -4.23046 -1.76836 74 86 110
-3.04697 -4.06234 -1.76305 75 88 105
-3.05451 -4.04742 -1.76012 74 85 103
-3.35211 -3.68578 -1.77808 73 82 99
-3.36997 -3.6845 -1.78256 73 82 99
-3.37949 -3.67323 -1.78181 74 83 98
-4.57451 -1.99345 -1.79598 69 85 110
-4.57651 -1.97796 -1.79449 70 84 110
-4.58351 -1.96474 -1.79524 70 84 110
-4.77538 -1.58955 -1.77256 73 87 113
-4.77238 -1.57243 -1.76964 73 87 113
-4.95186 -1.39952 -1.78925 83 95 121
-5.14055 -1.11981 -1.78694 75 87 109
-5.56769 -0.398853 -1.76539 74 86 110
-5.70987 -0.198909 -1.76738 78 92 118
-5.83226 -0.0942751 -1.78574 79 91 115
-2.15668 -5.40839 -1.77596 92 114 153
-2.52874 -4.90167 -1.78494 78 96 127
-2.7233 -4.59733 -1.78195 74 91 121
-2.745 -4.60424 -1.78824 71 89 119
-2.91844 -4.25315 -1.76909 71 85 111
-2.93763 -4.24051 -1.76908 75 87 111
-3.01683 -4.08428 -1.76305 74 86 108
-3.02554 -4.07096 -1.76086 75 87 109
-3.32099 -3.7284 -1.78257 73 82 99
-3.33772 -3.72587 -1.7863 72 83 100
-3.3473 -3.70267 -1.78182 72 84 98
-3.81621 -2.98251 -1.77767 73 79 91
-3.83186 -2.97697 -1.78149 73 80 90
-3.84065 -2.95637 -1.77919 71 78 86
-3.85051 -2.94608 -1.77996 72 79 89
-3.85597 -2.9323 -1.77843 73 77 88
-3.85994 -2.91737 -1.77613 72 76 87
-3.87133 -2.89896 -1.77537 77 80 86
-3.88538 -2.89194 -1.77843 78 82 85
-3.89212 -2.87921 -1.77766 77 81 84
-3.90772 -2.86401 -1.77919 78 79 83
-3.9173 -2.85345 -1.77995 77 78 83
-3.92389 -2.84063 -1.77919 82 83 88
-3.9349 -2.82192 -1.77842 72 76 80
-3.9488 -2.81455 -1.78148 76 77 81
-3.95973 -2.80493 -1.78301 89 91 88
-3.96318 -2.78981 -1.78072 82 83 86
-3.97092 -2.76875 -1.77842 70 72 84
-3.99222 -2.76657 -1.78531 73 75 88
-3.99102 -2.74817 -1.78072 78 80 93
-3.99702 -2.72595 -1.77766 72 75 88
-4.00922 -2.71716 -1.77995 86 91 108
-4.02142 -2.70831 -1.78225 71 74 93
-4.03174 -2.68915 -1.78148 79 82 95
-4.0454 -2.68123 -1.78454 66 68 83
-4.04684 -2.66493 -1.78148 74 76 89
-4.05125 -2.6507 -1.77995 71 73 86
-4.57998 -1.93849 -1.79001 70 84 110
-4.58349 -1.92375 -1.78927 70 84 110
-4.77462 -1.55706 -1.76891 73 87 114
-4.79097 -1.54623 -1.77403 74 88 115
-4.93388 -1.37796 -1.78063 83 95 121
-4.92118 -1.35807 -1.77416 84 98 124
-5.15963 -1.10717 -1.79325 72 84 106
-5.15671 -1.08986 -1.79115 73 86 104
-5.56238 -0.381073 -1.76341 81 93 116
-5.73064 -0.17281 -1.77448 72 85 111
-2.0578 -5.61889 -1.79283 106 129 173
-2.14291 -5.42128 -1.77855 97 119 160
-2.28303 -5.24602 -1.78412 81 99 135
-2.51029 -4.92091 -1.78835 82 98 131
-2.90395 -4.25835 -1.76765 71 85 111
-2.99293 -4.10165 -1.76306 71 86 108
-2.99965 -4.08533 -1.7594 71 86 108
-3.29562 -3.75535 -1.78407 72 84 100
-3.30777 -3.73517 -1.78108 71 80 97
-3.71117 -3.08908 -1.77079 66 78 94
-3.7332 -3.07981 -1.77538 68 80 96
-3.7462 -3.07234 -1.77767 68 77 94
-3.75498 -3.06122 -1.77767 68 77 92
-3.76229 -3.04887 -1.77691 66 78 92
-3.76726 -3.02496 -1.77231 69 79 93
-3.78723 -3.02323 -1.77843 70 80 92
-3.78872 -3.00607 -1.77461 71 79 92
-3.80768 -2.99385 -1.77767 71 77 91
-4.06589 -2.6345 -1.78148 78 76 91
-4.06868 -2.61921 -1.77919 76 75 89
-4.07601 -2.60699 -1.77919 73 73 86
-4.08737 -2.5886 -1.77919 74 76 89
-4.09927 -2.57933 -1.78148 76 78 90
-4.10027 -2.56299 -1.77842 73 76 83
-4.11053 -2.55264 -1.77995 91 92 96
-4.1279 -2.53803 -1.78301 84 84 87
-4.13028 -2.52265 -1.78072 87 86 91
-4.13731 -2.51021 -1.78072 85 82 90
-4.60394 -1.91639 -1.79599 69 83 110
-4.60353 -1.89162 -1.79226 72 86 110
-4.61541 -1.88044 -1.79525 74 86 110
-4.78842 -1.52114 -1.77038 74 90 116
-4.79404 -1.50683 -1.77111 73 89 115
-4.9389 -1.34687 -1.77992 83 97 123
-5.16106 -1.07407 -1.79185 71 84 103
-5.55891 -0.363442 -1.7621 79 91 113
-5.72272 -0.154621 -1.77191 75 87 113
-5.82419 -0.0665105 -1.78321 73 86 112
-2.12793 -5.43054 -1.77985 99 121 162
-2.26679 -5.25036 -1.78346 82 100 136
-2.49795 -4.93312 -1.79039 81 97 130
-2.6889 -4.61672 -1.78196 75 92 122
-2.70518 -4.61393 -1.78405 75 92 122
-2.88944 -4.26349 -1.76622 72 86 112
-2.97659 -4.11766 -1.76453 71 83 107
-3.27023 -3.77009 -1.78184 71 82 100
-3.28698 -3.76782 -1.78557 72 84 100
-3.6599 -3.17648 -1.77768 68 77 94
-3.67122 -3.15775 -1.77615 70 79 96
-3.67337 -3.14071 -1.77233 71 80 97
-3.68925 -3.13598 -1.77615 71 80 97
-3.70312 -3.11957 -1.77615 67 79 95
-3.7148 -3.11103 -1.77768 68 80 96
-4.14824 -2.4915 -1.78072 77 77 90
-4.15989 -2.48191 -1.78301 82 89 105
-4.1668 -2.46936 -1.78302 69 75 91
-4.18386 -2.45433 -1.78607 75 80 99
-4.17958 -2.43506 -1.78072 73 81 100
-4.18792 -2.42339 -1.78149 70 80 104
-4.62385 -1.86777 -1.79674 65 75 101
-4.61856 -1.84934 -1.79226 52 63 80
-4.80141 -1.49306 -1.77258 72 89 115
-4.93176 -1.32041 -1.77489 85 98 124
-4.94399 -1.30759 -1.77849 82 95 121
-5.15415 -1.04761 -1.78766 73 85 109
-5.60484 -0.339893 -1.77794 71 83 105
-5.8216 -0.0480492 -1.78258 72 86 112
-2.2499 -5.25288 -1.78215 80 99 133
-2.48173 -4.93672 -1.78904 81 99 132
-2.6797 -4.63265 -1.78546 78 95 125
-2.86138 -4.29049 -1.7691 72 86 112
-2.87401 -4.28227 -1.7691 71 85 111
-2.94838 -4.12857 -1.76161 75 87 111
-2.95733 -4.11542 -1.75941 74 86 110
-3.24108 -3.79227 -1.7811 72 84 98
-3.25211 -3.78285 -1.78109 72 84 100
-3.59955 -3.24611 -1.77769 71 80 95
-3.60617 -3.23295 -1.77616 70 79 94
-3.61543 -3.2223 -1.77616 70 79 94
-3.62972 -3.20627 -1.77616 71 80 95
-3.63483 -3.19178 -1.77386 70 79 94
-3.64941 -3.18603 -1.77692 69 78 93
-4.2026 -2.41545 -1.78531 55 66 93
-4.20987 -2.39454 -1.78378 64 69 97
-4.22448 -2.38647 -1.78761 53 57 87
-4.21989 -2.36725 -1.78225 56 62 89
-4.23173 -2.34903 -1.78302 56 62 89
-4.62293 -1.82672 -1.79077 96 98 111
-4.6415 -1.81818 -1.79675 94 94 106
-4.80215 -1.46908 -1.77038 75 91 117
-4.81828 -1.45792 -1.77551 76 91 117
-4.94899 -1.29274 -1.77921 81 95 121
-5.15654 -1.03145 -1.78767 71 83 106
-5.61817 -0.32305 -1.78256 73 85 108
-5.72985 -0.136909 -1.77449 81 93 117
-5.82842 -0.0296048 -1.78512 78 93 116
-2.1032 -5.43894 -1.77986 100 119 159
-2.24017 -5.27479 -1.7881 82 101 134
-2.46704 -4.9437 -1.78904 81 97 130
-2.65698 -4.64079 -1.78407 73 91 122
-2.83794 -4.31002 -1.77055 74 88 114
-2.84872 -4.29867 -1.76911 74 88 114
-2.93494 -4.14903 -1.76527 75 87 109
-3.20062 -3.82348 -1.78036 72 83 101
-3.21776 -3.80954 -1.78035 72 84 100
-3.23342 -3.80605 -1.78334 73 85 101
-3.54895 -3.29617 -1.77617 70 79 96
-3.55697 -3.27403 -1.77234 69 80 96
-3.57301 -3.26997 -1.77617 67 79 95
-3.5824 -3.25943 -1.77616 69 81 97
-4.235 -2.33442 -1.78149 52 60 90
-4.24628 -2.32433 -1.78379 48 56 86
-4.25954 -2.30685 -1.78532 48 58 87
-4.25942 -2.29039 -1.78226 51 62 90
-4.26087 -2.27484 -1.77996 59 71 100
-4.6446 -1.80328 -1.79601 97 99 112
-4.64874 -1.78056 -1.79451 90 98 116
-4.64309 -1.76223 -1.79003 78 89 109
-4.80058 -1.4366 -1.76673 77 91 117
-4.81842 -1.42589 -1.77259 77 91 118
-4.93796 -1.26541 -1.77274 78 92 118
-4.95005 -1.25246 -1.77634 76 90 116
-5.16437 -1.01634 -1.78977 70 82 106
-5.56745 -0.302922 -1.76475 70 82 104
-5.74072 -0.119242 -1.77836 76 88 111
-2.09557 -5.47149 -1.78953 99 120 163
-2.21366 -5.27663 -1.78547 84 104 141
-2.44073 -4.94547 -1.78565 79 98 130
-2.64241 -4.6467 -1.78337 72 91 123
-2.81843 -4.32216 -1.77055 73 87 113
-2.90052 -4.15027 -1.75796 74 86 110
-2.91976 -4.1528 -1.76308 75 87 109
-3.17601 -3.83899 -1.77887 71 83 100
-3.18946 -3.83274 -1.78036 71 82 100
-3.50031 -3.33756 -1.77312 70 79 96
-3.52035 -3.32734 -1.77617 68 80 96
-3.52993 -3.31698 -1.77617 67 79 95
-3.54077 -3.30789 -1.77694 68 80 96
-4.26874 -2.26283 -1.78073 47 58 93
-4.28175 -2.24519 -1.78226 49 62 97
-4.29118 -2.23396 -1.78379 52 67 95
-4.65291 -1.75004 -1.79228 70 84 110
-4.81702 -1.40137 -1.76967 77 91 118
-4.95308 -1.2371 -1.77634 77 91 116
-5.17004 -0.99238 -1.79047 65 77 99
-5.13546 -0.969385 -1.77648 68 80 102
-5.72143 -0.0918668 -1.77192 78 90 114
-5.78592 -0.00206991 -1.77118 80 92 114
-2.07982 -5.4788 -1.79019 101 122 163
-2.19291 -5.26832 -1.78019 81 102 142
-2.42452 -4.94886 -1.78429 79 98 130
-2.61838 -4.66835 -1.78618 74 93 125
-2.62956 -4.65588 -1.78407 73 92 124
-2.80472 -4.32859 -1.76984 74 90 115
-2.87169 -4.17412 -1.75943 72 86 112
-2.8869 -4.17055 -1.76162 75 87 111
-3.14527 -3.85886 -1.77738 72 85 102
-3.16539 -3.86164 -1.78336 72 85 102
-3.45756 -3.3848 -1.77389 69 78 95
-3.4673 -3.37465 -1.77389 71 80 96
-3.48101 -3.35805 -1.77312 70 79 96
-3.49716 -3.3544 -1.77694 69 79 96
-4.30546 -2.22528 -1.78762 47 61 90
-4.31011 -2.20313 -1.78532 45 56 81
-4.31123 -2.18752 -1.78303 47 60 81
-4.31885 -2.17529 -1.7838 51 64 81
-4.65506 -1.72665 -1.79004 73 85 111
-4.66824 -1.7157 -1.79378 73 85 111
-4.66753 -1.69942 -1.79154 74 86 112
-4.81515 -1.38487 -1.76747 78 92 119
-4.82215 -1.37092 -1.76894 78 92 119
-4.96523 -1.21588 -1.77922 66 80 107
-5.17072 -0.959264 -1.78908 73 85 109
-5.6056 -0.278483 -1.77795 74 86 110
-5.70947 -0.0737359 -1.76806 80 94 117
-2.17917 -5.27946 -1.78218 79 101 140
-2.40978 -4.95565 -1.7843 81 100 133
-2.59726 -4.67949 -1.78618 75 94 126
-2.76953 -4.34364 -1.76769 73 89 115
-2.79195 -4.33658 -1.76984 71 87 113
-2.86245 -4.18705 -1.76163 74 88 114
-3.14277 -3.87987 -1.78336 71 84 103
-3.42022 -3.41736 -1.77237 71 80 95
-3.43796 -3.40499 -1.77389 68 80 96
-3.4516 -3.39891 -1.77619 67 79 95
-4.32488 -2.15396 -1.78227 53 65 87
-4.32747 -2.13918 -1.78074 53 64 86
-4.34154 -2.13019 -1.78457 56 65 83
-4.34733 -2.11701 -1.78457 53 62 81
-4.68586 -1.69033 -1.79752 71 85 110
-4.82942 -1.34893 -1.76967 79 93 119
-4.95549 -1.1973 -1.77419 73 88 114
-4.97283 -1.18549 -1.77995 65 80 103
-5.17245 -0.934595 -1.78839 71 83 105
-5.61309 -0.261245 -1.78059 76 88 112
-5.72204 -0.0560262 -1.77258 75 87 111
-2.05262 -5.47974 -1.78762 98 118 155
-2.39452 -4.98304 -1.7911 78 97 130
-2.58175 -4.68352 -1.78479 77 96 128
-2.76038 -4.358 -1.77057 74 88 115
-2.84525 -4.18738 -1.75797 72 86 112
-3.09597 -3.90237 -1.77889 74 85 103
-3.10846 -3.89493 -1.77963 71 84 103
-3.1264 -3.89494 -1.78411 72 85 104
-3.38504 -3.45217 -1.77237 70 79 95
-3.40418 -3.44136 -1.77466 69 79 91
-3.41538 -3.43274 -1.77543 72 80 93
-4.36469 -2.10128 -1.78839 47 58 78
-4.36043 -2.08317 -1.7838 47 59 82
-4.36109 -2.06751 -1.78151 44 57 76
-4.68247 -1.6649 -1.79304 71 85 111
-4.68854 -1.65118 -1.79379 71 85 111
-4.68762 -1.6349 -1.79155 69 85 111
-4.8202 -1.33048 -1.76455 80 94 120
-4.8378 -1.31937 -1.77041 79 93 119
-4.96118 -1.16652 -1.7742 66 80 106
-5.1671 -0.917085 -1.78559 73 85 109
-5.59983 -0.243152 -1.77598 76 88 112
-2.04069 -5.49957 -1.79278 103 124 160
-2.15707 -5.29342 -1.78417 84 104 141
-2.37094 -4.96895 -1.78295 79 97 132
-2.56623 -4.6875 -1.78339 78 96 128
-2.74385 -4.35935 -1.7677 73 88 116
-2.81999 -4.21711 -1.76237 73 87 113
-2.83134 -4.20745 -1.76164 73 87 113
-3.09103 -3.92032 -1.78337 74 86 102
-3.34703 -3.48381 -1.77085 71 80 95
-3.36378 -3.4705 -1.77161 71 80 95
-3.37629 -3.4634 -1.77314 68 77 92
-4.37159 -2.04843 -1.78228 49 59 85
-4.37712 -2.03515 -1.78228 57 68 90
-4.38096 -2.02106 -1.78151 62 74 95
-4.6979 -1.61457 -1.79304 70 86 112
-4.84125 -1.29632 -1.76968 80 96 122
-4.973 -1.14514 -1.77708 69 83 109
-5.16722 -0.90055 -1.7849 71 83 106
-5.17467 -0.885244 -1.787 69 81 102
-5.60533 -0.225813 -1.77796 79 91 116
-5.72135 -0.0291184 -1.77258 77 92 115
-2.02374 -5.50309 -1.79215 98 122 156
-2.14507 -5.30979 -1.78814 86 104 140
-2.35831 -4.98077 -1.78499 80 98 134
-2.54002 -4.68833 -1.7792 76 95 126
-2.71298 -4.38201 -1.76914 74 89 118
-2.7241 -4.37102 -1.7677 73 88 117
-2.80765 -4.22516 -1.76238 71 87 113
-3.05651 -3.93486 -1.77965 72 85 105
-3.06587 -3.92303 -1.77815 72 84 105
-3.32156 -3.51847 -1.77392 69 79 91
-3.32681 -3.50326 -1.77085 71 81 93
-3.33939 -3.49631 -1.77238 69 78 93
-4.39292 -2.00263 -1.78305 67 80 104
-4.40335 -1.99159 -1.78534 62 76 102
-4.71256 -1.60387 -1.79753 70 86 112
-4.69922 -1.58326 -1.79006 71 87 113
-4.83722 -1.27938 -1.76676 80 96 122
-4.9902 -1.13311 -1.78283 63 77 103
-4.96564 -1.11129 -1.77206 69 83 109
-5.60356 -0.199412 -1.77731 78 89 111
-5.71864 -0.0111642 -1.77194 76 88 112
-2.12439 -5.30118 -1.78287 86 104 140
-2.33845 -4.99756 -1.78772 78 97 130
-2.52866 -4.70055 -1.7813 76 95 125
-2.70273 -4.3946 -1.7713 73 90 118
-2.77334 -4.24032 -1.76019 74 88 115
-2.78672 -4.23398 -1.76092 74 88 115
-3.03038 -3.96129 -1.7819 74 86 108
-3.04711 -3.94667 -1.78114 72 84 106
-3.28892 -3.55629 -1.77622 72 82 94
-3.29799 -3.54532 -1.77545 71 80 95
-3.30337 -3.53015 -1.77239 71 80 95
-4.40534 -1.97666 -1.78381 62 76 102
-4.40562 -1.96097 -1.78152 59 75 101
-4.42405 -1.94538 -1.78611 54 68 95
-4.71977 -1.56646 -1.79604 73 89 115
-4.70976 -1.54716 -1.79007 73 89 115
-4.8493 -1.26665 -1.77042 80 96 122
-4.84335 -1.24926 -1.76677 80 96 122
-4.99539 -1.09392 -1.78212 67 83 107
-5.17421 -0.860269 -1.7856 76 87 102
-5.18339 -0.845185 -1.78841 76 85 100
-5.59009 -0.181486 -1.7727 77 88 110
-2.10274 -5.31667 -1.78552 84 102 138
-2.31645 -4.98667 -1.78093 80 99 132
-2.52051 -4.71946 -1.7862 77 94 124
-2.68439 -4.39244 -1.767 72 89 119
-2.76188 -4.24981 -1.76093 73 89 115
-3.00191 -3.97095 -1.77817 73 85 107
-3.01772 -3.96844 -1.78115 73 85 107
-3.26262 -3.58008 -1.77623 73 83 100
-3.26817 -3.56498 -1.77316 70 79 94
-4.41744 -1.92666 -1.78076 54 66 90
-4.43444 -1.91842 -1.78612 56 70 96
-4.4307 -1.89301 -1.78076 70 86 110
-4.71374 -1.53269 -1.79007 72 88 114
-4.72819 -1.52175 -1.79455 72 88 114
-4.84828 -1.22665 -1.76677 82 98 124
-4.97428 -1.07311 -1.77278 70 82 106
-5.14815 -0.823168 -1.77442 83 91 105
-2.08217 -5.30789 -1.78024 80 98 134
-2.30652 -5.0053 -1.78569 83 102 135
-2.49752 -4.72675 -1.78481 79 98 130
-2.66447 -4.40381 -1.767 74 91 121
-2.7636 -4.29673 -1.77703 71 88 114
-2.98298 -3.98228 -1.77743 73 86 105
-3.22546 -3.5909 -1.76935 68 80 96
-3.24865 -3.5853 -1.77393 69 81 97
-4.43914 -1.88097 -1.78229 65 81 107
-4.44246 -1.86672 -1.78153 70 86 114
-4.73092 -1.49879 -1.79306 72 87 116
-4.84942 -1.21111 -1.76604 80 97 123
-4.85229 -1.19601 -1.76605 81 98 124
-4.9804 -1.05845 -1.77422 70 83 109
-5.16404 -0.800846 -1.77932 80 84 97
-5.60483 -0.164338 -1.77798 75 87 109
-2.06582 -5.31155 -1.77959 83 101 139
-2.29299 -5.01519 -1.78705 82 101 134
-2.46632 -4.73402 -1.78202 76 95 127
-2.48435 -4.73547 -1.78552 77 96 128
-2.64106 -4.42377 -1.76917 75 92 122
-2.6541 -4.41627 -1.76916 77 92 123
-2.74722 -4.29818 -1.77411 70 87 113
-2.96268 -4.00392 -1.77967 73 85 107
-2.98266 -4.00774 -1.78564 73 85 107
-3.19877 -3.6245 -1.77241 72 84 99
-3.214 -3.62092 -1.77547 71 83 97
-3.22094 -3.60733 -1.77317 69 81 97
-4.45593 -1.85678 -1.78536 53 69 92
-4.45523 -1.83284 -1.78153 52 64 81
-4.71712 -1.47849 -1.7856 73 88 117
-4.77377 -1.48109 -1.80801 73 88 117
-4.85517 -1.1729 -1.76532 81 96 125
-4.99357 -1.03718 -1.77782 67 81 107
-4.99228 -1.02088 -1.77639 69 83 109
-5.18787 -0.787879 -1.78772 69 71 71
-5.61219 -0.138139 -1.78062 74 86 108
-2.05297 -5.32589 -1.7829 83 103 140
-2.26461 -5.01073 -1.78162 83 102 135
-2.45872 -4.7545 -1.78762 76 95 127
-2.61665 -4.42667 -1.76558 70 89 121
-2.70616 -4.28642 -1.76168 73 88 117
-2.74025 -4.31561 -1.77851 72 87 116
-2.95197 -4.01392 -1.78042 74 86 108
-3.17777 -3.65471 -1.77625 70 82 98
-3.18719 -3.64407 -1.77548 70 82 98
-4.46522 -1.82137 -1.78383 79 85 99
-4.47005 -1.80776 -1.78383 91 97 109
-4.76569 -1.45457 -1.80203 73 88 117
-4.74109 -1.43101 -1.79009 74 89 118
-4.85792 -1.15778 -1.76532 81 96 125
-4.98912 -1.00421 -1.77424 68 81 107
-5.17831 -0.769973 -1.78353 92 94 80
-5.57215 -0.119875 -1.76677 78 91 114
-2.2531 -5.02574 -1.78503 80 99 132
-2.62254 -4.47043 -1.78139 72 90 122
-2.68685 -4.29791 -1.76168 73 90 117
-2.92508 -4.03955 -1.78267 76 88 110
-2.93487 -4.02808 -1.78117 75 87 109
-3.1461 -3.67178 -1.77319 71 84 101
-3.15903 -3.6538 -1.77089 72 83 101
-3.68843 -2.95503 -1.79064 69 78 90
-3.6931 -2.93128 -1.78597 70 77 88
-3.70431 -2.92253 -1.78752 71 79 90
-3.7155 -2.91374 -1.78908 69 77 88
-3.73094 -2.90842 -1.79298 70 78 89
-3.74098 -2.88923 -1.79142 72 79 89
-3.75208 -2.88029 -1.79298 72 79 89
-3.75602 -2.86552 -1.79064 75 79 88
-3.76872 -2.84853 -1.79064 74 77 86
-3.77539 -2.83602 -1.78986 71 75 84
-3.78927 -2.8292 -1.79298 73 77 86
-3.79308 -2.80524 -1.78831 74 79 85
-3.80397 -2.79606 -1.78987 74 81 89
-3.81193 -2.78458 -1.78987 78 83 89
-3.82131 -2.77419 -1.79065 76 80 89
-3.83503 -2.75798 -1.79143 76 80 83
-3.84875 -2.75083 -1.79454 80 84 83
-3.84919 -2.73368 -1.79065 77 81 82
-3.86421 -2.71841 -1.79221 76 79 88
-3.87045 -2.70563 -1.79143 76 78 90
-3.87514 -2.69175 -1.78987 73 77 88
-3.887 -2.67416 -1.78987 71 77 89
-3.90205 -2.66777 -1.79377 71 75 87
-3.90512 -2.65275 -1.79143 70 76 90
-3.90961 -2.63879 -1.78988 70 76 90
-3.92726 -2.62525 -1.79299 73 80 91
-3.93467 -2.61335 -1.79299 75 78 93
-3.93902 -2.59933 -1.79144 78 84 98
-3.94893 -2.58037 -1.79066 76 84 95
-3.9562 -2.56839 -1.79066 72 79 97
-3.97562 -2.56465 -1.7969 69 77 99
-3.9823 -2.54347 -1.79456 38 53 85
-3.98179 -2.52628 -1.79066 76 92 126
-4.4845 -1.79007 -1.78689 94 99 112
-4.47724 -1.77157 -1.78154 85 92 108
-4.48705 -1.75995 -1.78384 70 76 100
-4.74822 -1.41753 -1.79158 73 88 117
-4.87511 -1.146 -1.77118 81 96 125
-4.9932 -0.989071 -1.77496 71 81 103
-5.18656 -0.746325 -1.78563 103 98 77
-5.56784 -0.102351 -1.76546 76 88 110
-2.03169 -5.34286 -1.78621 83 103 140
-2.23607 -5.02671 -1.78299 81 100 133
-2.43877 -4.76824 -1.78903 78 97 129
-2.60846 -4.47616 -1.78068 74 91 121
-2.66162 -4.31307 -1.76169 72 89 119
-2.67426 -4.30551 -1.76169 73 90 119
-2.88895 -4.05092 -1.7782 74 86 110
-2.90617 -4.03698 -1.77745 75 87 109
-3.12356 -3.68841 -1.77243 72 83 101
-3.12969 -3.6736 -1.76937 72 83 101
-3.60709 -3.05104 -1.78908 69 81 97
-3.6145 -3.039 -1.7883 70 79 96
-3.62525 -3.02029 -1.78674 72 81 96
-3.63669 -3.01185 -1.7883 70 79 96
-3.6384 -2.99488 -1.78441 70 79 96
-3.65532 -2.9912 -1.78908 71 80 95
-3.67281 -2.97832 -1.79142 69 78 93
-3.67994 -2.96609 -1.79064 68 78 90
-3.99963 -2.52131 -1.79612 142 159 189
-4.00981 -2.51118 -1.79768 146 163 193
-4.01926 -2.4919 -1.7969 145 162 192
-4.02779 -2.48068 -1.79768 148 167 198
-4.03476 -2.46844 -1.79768 147 166 199
-4.04091 -2.44707 -1.79535 148 167 197
-4.05398 -2.43871 -1.79847 157 174 202
-4.04522 -2.41661 -1.79067 150 169 202
-4.49442 -1.7394 -1.78384 70 84 110
-4.499 -1.72568 -1.78384 71 85 111
-4.75043 -1.39453 -1.79009 76 91 120
-4.74328 -1.37669 -1.78561 76 91 120
-4.86325 -1.11951 -1.76459 79 96 126
-4.86221 -1.10354 -1.76313 81 98 128
-4.9951 -0.965401 -1.77424 91 89 103
-5.18243 -0.729259 -1.78354 103 98 71
-2.01354 -5.34096 -1.78358 84 104 141
-2.4082 -4.77678 -1.78694 78 97 129
-2.42466 -4.77508 -1.78903 77 96 128
-2.59069 -4.49213 -1.78284 75 91 124
-2.64219 -4.32433 -1.7617 75 90 121
-2.87806 -4.0607 -1.77895 75 89 112
-3.09512 -3.70935 -1.77168 70 83 100
-3.11269 -3.70917 -1.77626 71 82 100
-3.52549 -3.1276 -1.78363 70 79 96
-3.53854 -3.12085 -1.78597 70 79 96
-3.55963 -3.12158 -1.79298 70 79 96
-3.57083 -3.10308 -1.79142 66 78 94
-3.57842 -3.09115 -1.79064 66 78 94
-3.58187 -3.07546 -1.78752 70 79 96
-3.59965 -3.06306 -1.78986 67 79 94
-4.06985 -2.40687 -1.79769 153 172 202
-4.07186 -2.39159 -1.79535 154 172 200
-4.08012 -2.38015 -1.79613 153 171 202
-4.0836 -2.36582 -1.79458 160 178 209
-4.09707 -2.34905 -1.79614 157 175 207
-4.49834 -1.70995 -1.78155 70 84 110
-4.50281 -1.6962 -1.78155 69 83 109
-4.75737 -1.36528 -1.7901 76 92 118
-4.88289 -1.09237 -1.77046 80 97 125
-4.98995 -0.948412 -1.77137 87 81 95
-4.98471 -0.931462 -1.7685 78 73 91
-5.19122 -0.713943 -1.78634 109 98 68
-5.5768 -0.0762452 -1.76876 77 89 111
-1.99596 -5.34078 -1.7816 92 112 149
-2.21314 -5.03595 -1.783 82 101 134
-2.54732 -4.47334 -1.76847 72 91 121
-2.5774 -4.49941 -1.78284 73 92 122
-2.6268 -4.32691 -1.7595 72 87 116
-2.84777 -4.08106 -1.77896 74 86 110
-2.87208 -4.07828 -1.78343 74 86 110
-3.07124 -3.72416 -1.77015 71 84 101
-3.08881 -3.7241 -1.77474 71 84 101
-3.48938 -3.17979 -1.78675 69 79 93
-3.49855 -3.16937 -1.78675 68 77 94
-3.51169 -3.16275 -1.78909 67 78 94
-3.52045 -3.14192 -1.78597 71 80 97
-4.09729 -2.33279 -1.79302 157 176 208
-4.11011 -2.32406 -1.79614 156 175 207
-4.12022 -2.30526 -1.79614 161 178 208
-4.12663 -2.2927 -1.79614 161 178 208
-4.12342 -2.27459 -1.79147 161 178 206
-4.51854 -1.67881 -1.78538 70 84 110
-4.51599 -1.66242 -1.78232 70 84 110
-4.7572 -1.34958 -1.78861 77 93 119
-4.75375 -1.32502 -1.78487 79 95 121
-4.87271 -1.07439 -1.76534 80 97 126
-5.19628 -0.698092 -1.78774 154 139 108
-5.55541 -0.0586317 -1.76151 76 88 114
-2.19946 -5.04556 -1.78436 85 104 137
-2.36934 -4.78672 -1.78415 80 96 130
-2.38657 -4.78687 -1.78695 77 95 131
-2.53324 -4.47881 -1.76776 75 92 122
-2.61232 -4.33106 -1.75804 74 89 119
-2.83774 -4.09228 -1.78046 73 85 111
-3.0294 -3.75039 -1.76787 74 85 103
-3.04475 -3.74759 -1.77092 72 83 101
-3.05676 -3.74031 -1.77169 73 84 101
-3.43823 -3.22749 -1.78441 69 81 97
-3.45396 -3.21341 -1.78519 67 78 96
-3.46324 -3.20311 -1.78519 69 80 98
-3.4725 -3.19278 -1.78519 67 79 95
-4.14608 -2.26302 -1.7977 165 180 209
-4.14115 -2.24402 -1.79225 165 180 209
-4.15057 -2.23319 -1.79381 162 179 207
-4.16156 -2.22321 -1.79615 164 180 203
-4.52204 -1.64926 -1.78309 70 84 110
-4.52543 -1.62725 -1.78156 71 85 111
-4.7677 -1.31345 -1.78936 76 93 121
-4.87317 -1.05082 -1.76388 81 96 125
-4.99549 -0.909573 -1.77138 87 83 97
-4.99929 -0.894363 -1.7721 85 82 93
-5.18562 -0.671949 -1.78285 100 85 69
-5.57165 -0.041248 -1.76745 74 87 113
-1.97116 -5.3467 -1.78095 83 105 145
-2.18704 -5.05865 -1.78709 84 103 136
-2.35138 -4.78479 -1.78066 78 97 131
-2.51458 -4.49278 -1.7692 75 92 122
-2.59725 -4.35023 -1.76171 73 90 120
-2.80981 -4.10199 -1.77748 73 87 113
-2.82476 -4.09874 -1.77971 73 88 111
-3.02025 -3.77378 -1.77323 75 86 104
-3.40054 -3.2785 -1.78753 68 79 97
-3.41263 -3.26068 -1.78597 65 76 95
-3.42206 -3.25052 -1.78597 68 79 97
-3.43664 -3.24556 -1.78909 69 81 97
-4.17765 -2.2077 -1.79927 165 183 209
-4.16921 -2.18698 -1.79226 163 179 207
-4.1817 -2.17776 -1.79538 164 179 206
-4.18951 -2.15772 -1.7946 163 178 204
-4.53138 -1.61404 -1.78233 70 86 112
-4.53728 -1.6008 -1.78309 71 87 113
-4.77093 -1.29876 -1.78936 77 93 122
-4.88464 -1.03751 -1.76754 82 97 126
-4.90518 -1.02601 -1.77486 84 99 128
-4.99203 -0.877119 -1.76851 92 89 100
-5.19981 -0.657209 -1.78775 100 91 74
-5.57087 -0.0237667 -1.76745 74 88 114
-1.95639 -5.35538 -1.78228 89 108 148
-2.16006 -5.05707 -1.78302 86 105 138
-2.50375 -4.50483 -1.77136 75 92 123
-2.60039 -4.38695 -1.77489 75 92 122
-2.79992 -4.12817 -1.7842 70 84 111
-2.99168 -3.78207 -1.76864 74 87 105
-3.00705 -3.77944 -1.7717 73 86 103
-3.36411 -3.31099 -1.78598 70 81 99
-3.37893 -3.29598 -1.78597 69 80 98
-3.38719 -3.28461 -1.7852 69 80 98
-4.18732 -2.14058 -1.79071 162 178 204
-4.19482 -2.12864 -1.79149 160 178 202
-4.21053 -2.11281 -1.79461 161 177 203
-4.54566 -1.58058 -1.78386 71 87 113
-4.541 -1.56364 -1.78004 72 86 113
-4.77792 -1.27721 -1.79011 78 93 122
-4.77745 -1.2615 -1.78862 76 91 120
-4.88537 -0.998294 -1.76535 84 99 129
-5.0099 -0.856409 -1.77427 89 85 95
-5.20098 -0.640844 -1.78776 104 94 76
-2.14627 -5.06652 -1.78438 87 107 142
-2.33723 -4.81173 -1.78766 80 99 132
-2.49039 -4.51183 -1.77137 76 92 125
-2.5615 -4.37693 -1.76392 73 90 120
-2.59103 -4.4008 -1.77782 74 91 121
-2.80593 -4.16629 -1.7984 74 88 117
-2.9647 -3.80486 -1.76942 71 84 103
-2.98768 -3.81284 -1.77783 72 85 102
-3.31514 -3.35015 -1.78286 67 80 97
-3.33236 -3.34843 -1.78754 68 79 98
-3.34862 -3.33492 -1.78832 68 79 97
-3.35323 -3.31961 -1.7852 69 80 98
-4.22122 -2.10248 -1.79695 162 178 204
-4.23024 -2.09125 -1.79851 159 174 199
-4.22614 -2.07328 -1.79383 157 172 199
-4.54677 -1.55034 -1.78081 71 86 114
-4.55075 -1.53642 -1.78081 70 87 115
-4.77872 -1.24629 -1.78788 78 93 122
-4.8894 -0.983403 -1.76609 83 98 129
-5.00436 -0.839521 -1.7714 81 73 86
-5.18446 -0.614177 -1.78076 116 107 85
-2.13051 -5.07063 -1.78371 84 104 138
-2.30502 -4.81612 -1.78417 78 97 130
-2.32074 -4.8131 -1.78557 78 97 130
-2.53832 -4.38112 -1.761 74 91 121
-2.78607 -4.16147 -1.79243 74 88 117
-2.94248 -3.82173 -1.76942 73 86 105
-2.95253 -3.81181 -1.76865 71 84 103
-3.29932 -3.37381 -1.7852 71 80 97
-3.30664 -3.36132 -1.78364 69 79 97
-4.23342 -2.05304 -1.79306 161 173 195
-4.24395 -2.04256 -1.7954 154 166 189
-4.25117 -2.03038 -1.79618 164 177 202
-4.56407 -1.51786 -1.78387 72 87 115
-4.78547 -1.22467 -1.78863 79 94 123
-4.78663 -1.20944 -1.78788 79 94 123
-4.89158 -0.968137 -1.76609 85 100 129
-5.00059 -0.822985 -1.76924 83 74 93
-5.19849 -0.599287 -1.78567 100 90 80
-2.11348 -5.07115 -1.78167 81 101 137
-2.29004 -4.8208 -1.78348 80 96 132
-2.46937 -4.55606 -1.78288 77 96 128
-2.48364 -4.55082 -1.78359 74 93 125
-2.51342 -4.39694 -1.76174 75 92 122
-2.52976 -4.39646 -1.76466 75 91 124
-2.75501 -4.18105 -1.79244 70 85 114
-2.7701 -4.17804 -1.79467 72 87 116
-2.92954 -3.84033 -1.77249 73 86 106
-3.26558 -3.40916 -1.78599 70 82 98
-3.27918 -3.40361 -1.78832 70 82 98
-3.28784 -3.39253 -1.78754 71 82 98
-4.27971 -2.0206 -1.80553 142 151 182
-4.26702 -1.9986 -1.79696 35 45 81
-4.26914 -1.98392 -1.79541 21 33 71
-4.56443 -1.50271 -1.78234 73 88 117
-4.57528 -1.49103 -1.78541 72 87 117
-4.7949 -1.19607 -1.79013 78 95 125
-4.8952 -0.945223 -1.76609 86 101 129
-5.00594 -0.80802 -1.77069 77 71 84
-5.18459 -0.581325 -1.78007 93 85 75
-2.44232 -4.53428 -1.77066 77 96 128
-2.73804 -4.18079 -1.78871 71 85 112
-2.90815 -3.85849 -1.77326 73 86 105
-2.91516 -3.84412 -1.77019 73 86 105
-3.23145 -3.44411 -1.78677 72 81 98
-3.23784 -3.4304 -1.78443 71 82 97
-3.25267 -3.42636 -1.78755 69 81 97
-4.27286 -1.97004 -1.79463 31 45 83
-4.28794 -1.95355 -1.79775 50 60 86
-4.2949 -1.94118 -1.79853 47 57 76
-4.57611 -1.4683 -1.78311 73 88 117
-4.79598 -1.18082 -1.78938 78 95 125
-4.88994 -0.928574 -1.76317 85 99 129
-4.89194 -0.913298 -1.76317 86 97 129
-5.03641 -0.789126 -1.78147 88 86 91
-2.09286 -5.08687 -1.7844 80 100 137
-2.26818 -4.83031 -1.78348 78 96 132
-2.43673 -4.57656 -1.78433 77 96 128
-2.47477 -4.40283 -1.75662 74 91 121
-2.4953 -4.41076 -1.76321 75 92 122
-2.72007 -4.19394 -1.78946 71 88 114
-2.87326 -3.8699 -1.76868 74 85 103
-2.89184 -3.87239 -1.77403 74 87 104
-3.18976 -3.47026 -1.78288 69 81 97
-3.20226 -3.46365 -1.78443 71 81 97
-3.21233 -3.45419 -1.78443 75 84 101
-4.29014 -1.92334 -1.79386 47 58 75
-4.30335 -1.9059 -1.7962 47 58 76
-4.3018 -1.88964 -1.79308 48 57 72
-4.57454 -1.45258 -1.78082 74 89 118
-4.58526 -1.44078 -1.78388 74 89 120
-4.80241 -1.15908 -1.79013 77 94 124
-4.79616 -1.14202 -1.7864 77 94 124
-4.9012 -0.899323 -1.76611 86 97 127
-5.00855 -0.76871 -1.76998 82 69 85
-2.07767 -5.09257 -1.7844 79 98 140
-2.25317 -4.83487 -1.78279 79 98 131
-2.42239 -4.58164 -1.78361 77 96 128
-2.70266 -4.22209 -1.79544 75 91 117
-2.71416 -4.21285 -1.79469 72 89 115
-2.86093 -3.87652 -1.76791 76 87 106
-3.16632 -3.49647 -1.78444 72 84 101
-3.18083 -3.48105 -1.78366 70 81 99
-4.31191 -1.87872 -1.79542 46 56 68
-4.3199 -1.85886 -1.79542 42 53 71
-4.59112 -1.41969 -1.78389 73 89 119
-4.80786 -1.12943 -1.79014 77 94 124
-4.89533 -0.874747 -1.76245 88 101 127
-5.03767 -0.757428 -1.78076 89 63 82
-2.06184 -5.09645 -1.78373 81 100 140
-2.24243 -4.84974 -1.78629 79 98 131
-2.40258 -4.5748 -1.77787 78 97 129
-2.48191 -4.44952 -1.77419 73 92 122
-2.68933 -4.22806 -1.7947 76 90 117
-2.8362 -3.90287 -1.77098 75 88 108
-2.84759 -3.89481 -1.77098 74 87 106
-3.14469 -3.51362 -1.78366 70 81 99
-3.15492 -3.50436 -1.78366 71 82 100
-4.33162 -1.84858 -1.79854 39 52 71
-4.31973 -1.82786 -1.79075 60 72 94
-4.60704 -1.40941 -1.78924 73 90 120
-4.5876 -1.38829 -1.7793 73 90 120
-4.80505 -1.10543 -1.78716 79 95 127
-4.90999 -0.86164 -1.76758 86 100 127
-5.01822 -0.7305 -1.77214 100 79 77
-2.21973 -4.85728 -1.7856 81 99 135
-2.3813 -4.56449 -1.77068 77 96 128
-2.46517 -4.46652 -1.77713 75 94 126
-2.66932 -4.23773 -1.79396 72 89 115
-2.82785 -3.91552 -1.77328 74 86 110
-3.11283 -3.5515 -1.78678 71 83 99
-3.11737 -3.5352 -1.78289 71 82 100
-3.12885 -3.52745 -1.78366 69 80 98
-3.69753 -2.72493 -1.79304 75 82 92
-3.7096 -2.71706 -1.79544 74 81 91
-4.33305 -1.81828 -1.79465 51 59 78
-4.33739 -1.79684 -1.7931 66 75 87
-4.34895 -1.78641 -1.79622 91 91 95
-4.5946 -1.37528 -1.78083 74 91 121
-4.60723 -1.35622 -1.7839 76 91 122
-4.7968 -1.08803 -1.78268 78 95 125
-4.80655 -1.0749 -1.78567 78 95 125
-4.90261 -0.844748 -1.76392 90 103 130
-5.02329 -0.715397 -1.77358 91 84 72
-2.03616 -5.09771 -1.78102 83 101 137
-2.20676 -4.86687 -1.787 80 98 136
-2.35905 -4.57095 -1.76925 80 99 131
-2.43968 -4.48187 -1.77787 76 95 127
-2.45038 -4.47005 -1.77567 75 94 126
-2.64523 -4.25426 -1.79471 72 88 115
-2.65683 -4.2452 -1.79396 73 90 117
-2.7907 -3.92302 -1.76717 74 86 110
-2.8093 -3.91269 -1.76793 74 86 110
-3.10359 -3.56206 -1.78756 72 84 100
-3.5738 -2.9048 -1.79624 71 79 90
-3.5905 -2.90109 -1.80104 71 77 89
-3.58744 -2.88093 -1.79464 72 78 90
-3.60267 -2.87595 -1.79864 73 80 90
-3.61392 -2.8585 -1.79784 71 78 88
-3.62486 -2.84992 -1.79944 71 78 88
-3.62722 -2.83439 -1.79624 75 79 88
-3.63683 -2.81569 -1.79464 74 78 89
-3.64191 -2.80244 -1.79304 72 76 85
-3.6628 -2.80165 -1.80024 74 79 85
-3.67512 -2.78505 -1.80024 77 82 88
-3.68298 -2.77395 -1.80024 76 81 87
-3.67919 -2.75388 -1.79384 76 81 87
-3.69425 -2.74833 -1.79784 73 80 90
-3.729 -2.71461 -1.80184 75 79 90
-3.74236 -2.69877 -1.80264 75 79 90
-3.73962 -2.67984 -1.79704 73 80 88
-3.75012 -2.67067 -1.79864 72 79 87
-3.76207 -2.66254 -1.80105 73 80 90
-3.76925 -2.64223 -1.79864 75 79 91
-3.77668 -2.6308 -1.79865 75 77 90
-3.78705 -2.62147 -1.80025 74 76 91
-3.79551 -2.60213 -1.79865 73 79 95
-3.81183 -2.5969 -1.80345 74 84 106
-3.81759 -2.58429 -1.80265 47 60 89
-3.82433 -2.56379 -1.80025 127 146 176
-3.82848 -2.55011 -1.79865 143 162 193
-3.82802 -2.53334 -1.79465 140 159 189
-3.85029 -2.53194 -1.80265 142 161 191
-3.85981 -2.51336 -1.80185 145 160 195
-3.87599 -2.50768 -1.80665 148 167 199
-3.87072 -2.48785 -1.80025 147 166 198
-4.34523 -1.76945 -1.79232 70 69 77
-4.3646 -1.75438 -1.79778 45 52 68
-4.61061 -1.34208 -1.7839 76 91 122
-4.81806 -1.06214 -1.78941 79 96 126
