-40.6456 15.5045 1.53379 105 106 64
-39.626 15.7319 1.5069 83 83 81
-39.1348 15.8784 1.49451 62 67 71
-38.7913 15.8728 1.48449 76 79 81
-38.1413 15.7338 1.46392 64 64 66
-37.5249 15.6723 1.44534 59 60 65
-36.6888 15.5748 1.41999 70 70 69
-36.2985 15.6001 1.40912 94 81 75
-36.0097 15.6022 1.40087 115 101 89
-36.0015 15.73 1.40236 112 107 79
-36.0783 15.8971 1.40682 116 108 87
-35.9586 16.0404 1.40537 88 80 68
-27.8671 16.223 1.18347 86 92 116
-27.2862 16.5506 1.17354 102 95 86
-27.2938 16.671 1.17583 84 81 74
-26.8192 16.48 1.15994 82 79 73
-26.6986 16.5727 1.15838 85 85 71
-27.3719 17.1303 1.18592 104 102 90
-25.7958 16.2041 1.12812 97 95 82
-25.6236 16.2559 1.12453 70 71 59
-26.6375 17.167 1.16733 67 68 63
-25.131 16.3098 1.11264 75 76 71
-24.3288 17.3597 1.1117 103 104 104
-23.6195 16.9907 1.08676 71 76 63
-23.5112 17.0194 1.0846 78 86 69
-24.0248 17.5276 1.10732 67 77 58
-23.659 17.8152 1.10388 65 73 59
-23.0206 18.3398 1.09887 73 77 62
-23.5537 19.093 1.1272 78 72 72
-22.3282 18.985 1.09583 71 75 54
-22.2942 19.0752 1.09695 62 65 56
-22.356 19.5608 1.10879 72 70 72
-22.2601 19.7202 1.11002 65 62 72
-21.8284 19.4983 1.09525 78 76 76
-21.6894 19.6132 1.09458 74 74 74
-10.5558 11.3419 0.55174 80 83 64
-10.5028 11.351 0.551097 76 79 64
-10.4522 11.3991 0.55122 74 81 65
-10.4004 11.4092 0.550624 74 79 64
-10.3649 11.4395 0.550654 76 77 69
-8.91163 14.926 0.601236 80 83 64
-8.77705 14.7813 0.596654 80 83 62
-9.04395 15.4209 0.613177 83 88 66
-8.97096 15.8332 0.621099 80 88 67
-8.9024 15.884 0.62143 80 84 70
-8.74979 16.4925 0.632828 80 80 71
-8.64568 16.4034 0.629823 79 80 72
-8.65912 16.5724 0.633604 87 95 86
-8.6356 16.6614 0.635282 84 90 77
-8.47808 16.8082 0.636858 84 82 70
-8.40106 16.8497 0.636991 78 78 70
-8.21409 16.5597 0.628829 77 78 69
-8.23802 17.142 0.641763 83 85 71
-35.8567 17.1981 1.41884 98 98 92
-35.9659 17.389 1.42469 78 70 67
-35.9291 17.5756 1.42639 126 115 97
-36.0009 17.7498 1.43098 97 85 68
-36.0188 17.8972 1.43366 103 90 84
-9.66904 15.3587 0.619139 74 83 66
-9.5727 15.3563 0.617942 71 80 62
-9.50643 15.3509 0.617045 75 84 64
-9.48951 15.4367 0.618637 75 83 62
-9.46745 15.5726 0.621223 82 86 69
-9.20113 15.1884 0.610079 75 79 64
-9.10924 15.6719 0.619217 78 86 65
-9.08631 15.8127 0.621942 76 85 66
-9.06772 15.9018 0.623625 73 80 60
-9.25131 16.8729 0.646313 82 87 69
-9.02055 16.8698 0.643782 83 84 66
-8.9015 18.5808 0.679618 77 79 65
-10.1759 16.1546 0.641738 75 84 67
-9.59359 17.4451 0.662233 81 88 70
-9.48275 17.7154 0.66682 83 84 67
-5.44857 11.4046 0.393033 75 77 65
-5.38864 11.3563 0.391958 79 80 72
-5.35479 11.377 0.392056 76 79 68
-6.5082 15.748 0.531032 84 92 71
-6.44315 15.8032 0.531609 86 86 81
-11.0906 15.9609 0.649197 84 89 66
-11.0447 16.0566 0.650543 74 77 57
-10.9882 16.0788 0.650268 79 86 70
-10.9006 16.0495 0.648555 74 80 65
-10.8724 16.5314 0.658036 85 93 71
-10.8396 16.6562 0.660193 77 81 64
-10.598 16.3589 0.651097 79 83 65
-10.4952 16.2998 0.648616 80 87 68
-10.4066 16.3242 0.64804 81 95 71
-10.2919 16.2414 0.644937 68 77 59
-10.0598 16.9446 0.656862 84 88 66
-9.58748 21.4631 0.749288 86 92 75
-6.64838 15.8294 0.533552 74 75 71
-9.22714 22.9724 0.779454 87 90 76
-6.51391 16.5443 0.545983 89 88 81
-11.7882 15.7717 0.654691 92 100 76
-11.5316 15.4955 0.64573 89 95 74
-11.5094 15.6222 0.647946 72 70 55
-11.4134 15.5842 0.645898 78 81 65
-11.3995 15.6714 0.647449 94 98 80
-11.3355 15.736 0.647887 74 73 68
-11.282 15.7626 0.64771 82 81 77
-11.2594 15.8379 0.648924 66 66 58
-11.253 15.995 0.651999 89 92 69
-11.1934 16.0129 0.651581 78 82 62
-11.1615 16.7796 0.66674 78 85 68
-11.1302 16.8487 0.667757 86 95 76
-7.5023 15.9622 0.542477 80 83 71
-7.35661 16.1165 0.544171 80 87 69
-6.95743 16.1409 0.5416 80 85 66
-6.93177 16.2324 0.543112 89 91 78
-6.93393 16.405 0.546339 84 85 74
-16.8977 11.1178 0.660306 76 79 67
-16.844 11.1539 0.659776 68 68 66
-16.8228 11.2504 0.660747 80 77 84
-15.3954 11.4216 0.636135 66 68 57
-15.3338 11.4457 0.635359 77 81 67
-15.2712 11.5053 0.635116 67 72 50
-15.2634 11.5733 0.636026 72 75 54
-12.8062 15.5258 0.664272 96 92 95
-12.7565 15.562 0.664243 75 69 79
-12.3551 16.2246 0.671409 84 86 72
-12.1977 16.27 0.670134 82 90 66
-7.60393 15.705 0.538581 75 79 62
-7.69414 16.0734 0.546055 85 93 76
-7.80645 16.579 0.556229 79 83 70
-20.413 10.6987 0.725845 95 91 82
-20.3246 10.7281 0.724363 100 97 88
-10.4758 11.2887 0.493117 80 82 71
-14.3987 15.5561 0.688942 76 80 68
-10.4079 11.3149 0.492651 68 72 58
-14.2936 15.5316 0.686848 69 73 59
-14.158 15.4697 0.6836 73 79 65
-10.3425 11.3815 0.492857 78 80 68
-14.0124 16.1596 0.694173 74 78 61
-13.5877 15.7252 0.679623 83 86 67
-13.7745 16.4396 0.695897 88 91 76
-13.7425 16.5059 0.696685 93 93 92
-13.3132 16.0981 0.682613 84 83 81
-13.6995 17.1146 0.707711 86 99 65
-13.1148 16.6989 0.691319 75 75 65
-13.4164 17.9507 0.720007 72 77 61
-8.7746 14.6252 0.529609 79 84 64
-8.82877 14.8463 0.534027 84 88 64
-8.81489 15.6701 0.548496 81 88 70
-8.68541 15.6562 0.547056 75 79 65
-8.5784 15.6226 0.545482 74 81 66
-8.50563 15.5968 0.544361 90 94 79
-8.32569 16.1392 0.552542 80 84 67
-8.35402 16.3446 0.556502 79 83 67
-8.13918 15.9912 0.548257 84 87 67
-8.11075 16.1357 0.550642 78 78 68
-8.17835 16.4388 0.55672 87 91 77
-8.01452 16.1954 0.550918 87 91 77
-7.99309 16.3621 0.55378 79 83 68
-8.02198 16.5811 0.558015 79 84 65
-57.2618 7.76506 1.54818 85 88 79
-15.6352 16.2721 0.721532 70 71 58
-15.3931 16.6237 0.724044 76 79 68
-14.5035 16.0368 0.699397 73 74 68
-14.5028 18.095 0.738161 93 107 72
-13.9111 17.6386 0.720857 80 80 69
-13.714 17.6576 0.718426 92 94 88
-13.7019 18.0616 0.726139 66 71 66
-9.64267 15.2813 0.549675 77 83 69
-9.50366 15.3153 0.54887 71 79 58
-9.33679 15.1211 0.543817 80 90 70
-9.40669 15.4276 0.54987 74 79 63
-9.2886 15.3224 0.546865 76 79 67
-9.09769 15.4937 0.548029 77 73 60
-9.08857 15.5987 0.549797 82 80 67
-9.01237 15.632 0.549666 66 70 56
-8.94824 15.6278 0.548987 75 78 67
-9.01778 15.896 0.5544 76 83 67
-8.9391 16.6638 0.567394 86 89 72
-8.77421 16.4448 0.561985 80 82 68
-8.67269 16.4293 0.560808 85 88 78
-8.61364 16.4381 0.560446 81 87 75
-8.56927 16.4795 0.560804 80 85 73
-57.2435 8.03115 1.54889 94 97 86
-57.0236 8.17822 1.54434 78 82 74
-56.8546 8.33167 1.54103 77 86 80
-56.8017 8.50197 1.54054 73 79 78
-56.6162 8.74031 1.53726 79 86 78
-54.239 8.53526 1.48037 73 83 76
-54.0594 8.67633 1.47681 75 85 77
-54.1826 8.9525 1.48104 74 83 78
-52.0718 8.92352 1.43132 71 77 77
-51.7571 9.11333 1.4249 72 81 80
-54.4974 9.78079 1.49258 71 80 79
-50.9288 9.44729 1.40722 75 76 77
-49.1715 9.34653 1.36556 69 73 79
-50.8515 9.83618 1.40752 80 91 81
-49.0769 9.63994 1.36496 80 90 81
-48.8991 9.83751 1.36192 85 92 84
-46.598 9.6589 1.30722 76 82 74
-46.5473 9.87105 1.30728 81 84 66
-46.1642 9.93516 1.29875 99 103 70
-46.2509 10.1025 1.30177 107 106 75
-30.5957 11.3184 0.95299 83 82 79
-25.3799 11.2736 0.838 91 87 81
-25.6417 11.4897 0.845973 91 83 80
-25.1359 11.3887 0.833975 78 79 79
-25.191 11.5076 0.836455 93 83 92
-25.5061 11.7536 0.845921 74 65 73
-18.5973 15.0827 0.752201 83 76 83
-18.7249 15.291 0.757829 77 73 71
-17.7821 15.5615 0.745405 68 63 70
-17.3088 15.6014 0.737825 77 77 69
-16.9202 15.3206 0.726389 82 78 75
-17.2473 15.7397 0.73909 77 72 71
-17.053 15.6965 0.735025 64 61 64
-16.913 15.7556 0.733639 57 57 60
-16.8233 15.7648 0.732271 76 76 78
-16.6711 15.7594 0.729602 77 76 78
-16.5901 15.7762 0.728522 69 68 74
-16.5702 15.8558 0.729562 61 59 61
-16.4958 15.9291 0.729588 63 64 58
-16.3044 15.8292 0.724655 72 73 68
-16.5435 16.1827 0.734795 73 75 67
-16.3501 16.1306 0.730678 69 67 57
-16.398 16.2846 0.734171 67 68 57
-16.3215 16.3057 0.733282 71 74 63
-16.1657 16.4998 0.734172 82 84 70
-16.1757 16.6164 0.73641 76 79 69
-16.1695 16.7685 0.73903 69 71 60
-15.9949 16.7853 0.736524 81 83 70
-15.8715 16.8048 0.734906 77 80 71
-15.7996 16.8295 0.734207 72 73 65
-15.4138 18.1653 0.75292 85 93 69
-15.5495 18.4591 0.760484 91 94 73
-15.6589 18.783 0.768231 90 91 91
-14.849 19.5868 0.771993 64 67 65
-10.1109 15.6003 0.559989 75 79 64
-10.0002 15.5775 0.558456 79 85 73
-9.94651 15.598 0.55826 66 74 63
-9.70501 15.2793 0.550272 70 76 63
-9.89222 15.9141 0.563199 70 78 57
-8.55924 18.8197 0.603371 82 88 70
-8.56938 19.1133 0.608855 80 84 66
-53.8118 9.82533 1.47674 73 75 75
-51.0204 11.5854 1.42168 116 112 72
-45.6858 10.8578 1.29337 87 93 77
-45.0494 10.9938 1.27953 106 102 92
-43.5079 10.7474 1.24227 77 77 53
-45.7026 11.5294 1.2982 126 119 79
-45.6248 11.6579 1.29727 108 106 69
-45.0428 11.6519 1.28382 89 90 68
-45.1717 11.9078 1.28857 87 91 72
-40.6144 10.9361 1.17691 86 89 68
-40.0073 11.0953 1.16413 89 83 69
-40.296 11.6435 1.17482 75 73 77
-35.4336 11.2516 1.06109 105 92 101
-35.7309 11.4697 1.06961 84 78 83
-35.3398 11.7569 1.06318 104 99 85
-30.3762 11.497 0.949778 95 97 96
-30.4857 11.6466 0.95362 77 75 82
-21.8499 15.0874 0.813367 73 78 71
-21.7473 15.1615 0.812457 54 61 66
-21.2109 15.5584 0.808051 65 69 51
-21.1156 15.5851 0.806646 72 77 55
-18.6188 15.5404 0.759914 81 77 75
-18.8689 16.9557 0.787565 72 72 63
-18.2085 16.9508 0.776098 60 59 61
-11.0549 15.9955 0.576776 79 82 61
-10.9258 15.9545 0.57468 76 81 61
-10.8562 15.954 0.573921 77 81 66
-10.8296 16.4371 0.581887 78 81 71
-10.7602 16.4978 0.5822 67 76 56
-58.3913 13.4925 1.60465 75 82 70
-51.1121 11.9372 1.42601 78 86 71
-52.3433 12.6569 1.45915 88 86 81
-51.6571 13.8387 1.45132 86 90 70
-24.966 14.757 0.870727 92 97 69
-24.9271 14.8365 0.870975 101 101 78
-24.7836 14.9016 0.868924 94 88 70
-25.2577 16.1735 0.895508 75 81 67
-25.1051 16.1801 0.89257 70 78 63
-24.616 16.0094 0.880528 67 74 66
-24.448 16.0019 0.877105 74 83 66
-24.3263 16.0255 0.875032 74 80 66
-24.3307 16.1366 0.876671 66 65 69
-22.7353 15.9982 0.843653 103 113 127
-22.4859 15.9168 0.837669 105 112 120
-22.4127 15.9664 0.836989 105 106 110
-22.3396 16.0681 0.837089 81 88 72
-15.3043 11.4096 0.56434 72 78 63
-15.2296 11.4589 0.563813 80 89 71
-15.2127 11.5192 0.564333 77 85 65
-22.1518 17.5475 0.855998 73 81 60
-22.1416 17.6516 0.857432 74 76 66
-21.9894 17.6354 0.854382 81 80 79
-22.0007 17.8148 0.857411 76 70 74
-21.9514 17.8863 0.857638 75 71 68
-20.4949 17.0021 0.817156 71 67 67
-19.7157 17.6586 0.814037 73 73 64
-18.5203 18.981 0.816568 75 79 65
-11.5715 15.5355 0.574842 77 78 63
-11.4469 15.5072 0.57295 81 79 67
-11.4019 15.6548 0.574898 76 79 74
-11.2733 15.6185 0.572844 74 72 66
-11.2491 15.6903 0.573777 76 75 64
-11.2673 15.8298 0.576319 81 77 68
-11.2479 15.9666 0.578407 70 67 63
-11.1621 15.942 0.577046 73 72 66
-11.215 16.1414 0.580993 82 86 70
-11.4428 17.0508 0.598892 87 96 79
-11.0849 16.631 0.587909 73 79 66
-10.9458 16.5154 0.584455 75 78 70
-10.9646 16.9767 0.592568 70 74 60
-6.85808 15.6539 0.463834 80 83 69
-6.73509 15.4706 0.460405 81 85 72
-6.72199 15.5897 0.462073 70 71 65
-6.65282 15.6308 0.462269 74 76 70
-6.72739 16.1693 0.470632 75 76 70
-6.67572 16.4418 0.474354 97 103 72
-6.44253 15.9188 0.465298 92 102 68
-6.39157 15.9353 0.465255 94 102 74
-57.3238 16.2517 1.59877 94 88 88
-50.8938 15.1493 1.44346 94 88 90
-50.9032 15.4081 1.44567 75 72 79
-50.789 15.5433 1.44412 78 75 86
-50.1128 15.4996 1.42839 75 73 84
-49.6411 15.6009 1.41848 86 74 84
-49.1771 15.6174 1.40807 99 88 94
-47.9009 15.7701 1.38042 91 86 83
-46.5273 15.4637 1.34682 82 78 68
-45.6527 15.5548 1.32787 79 74 70
-45.4886 15.8099 1.32636 82 82 88
-43.7111 15.5507 1.2842 85 85 84
-43.2398 15.5276 1.27343 93 91 92
-42.9281 15.5611 1.26676 94 95 90
-39.8833 15.6097 1.19944 62 64 63
-39.7556 15.6989 1.19747 89 87 90
-39.3377 15.6681 1.18793 83 82 87
-39.0182 15.6754 1.18095 75 75 77
-38.8824 15.8271 1.17945 78 78 76
-38.6552 15.87 1.17487 86 87 87
-37.6313 15.5699 1.14939 78 80 81
-37.4083 15.6763 1.14556 71 75 74
-36.5035 15.5473 1.12445 95 95 87
-36.2157 15.6174 1.11889 124 113 104
-36.0699 15.8155 1.11776 89 90 80
-28.5496 15.7638 0.957078 120 119 127
-28.3759 15.8345 0.954362 97 98 100
-28.1514 15.817 0.949505 91 88 85
-29.4306 16.81 0.988341 102 107 78
-29.0083 16.7357 0.978729 83 86 67
-29.0299 16.8683 0.980861 83 86 65
-28.8993 16.9083 0.978701 83 86 67
-26.312 15.9818 0.914064 79 78 72
-26.2878 16.0775 0.914841 97 98 83
-26.701 16.4567 0.928204 88 85 78
-26.5672 16.54 0.926633 82 85 76
-26.1506 16.3797 0.916124 81 84 77
-26.0249 16.409 0.914007 75 80 70
-25.6146 16.3028 0.904379 73 79 69
-16.8366 11.0661 0.584594 72 80 65
-16.7961 11.1113 0.584473 72 77 63
-16.7557 11.1935 0.584804 73 68 76
-26.0825 17.5381 0.93074 73 70 73
-25.3913 17.5677 0.917675 77 82 75
-23.6687 17.1939 0.879083 75 83 66
-23.9206 17.5011 0.88843 68 75 60
-23.693 17.7239 0.88745 66 76 59
-23.4945 17.7382 0.883929 79 89 67
-23.3942 17.7728 0.882569 68 75 57
-22.4231 19.1266 0.885987 70 69 58
-22.3858 19.2145 0.88674 91 89 76
-22.5427 19.4803 0.893854 80 77 75
-22.8388 19.9396 0.906608 61 59 64
-22.4592 19.7133 0.896178 69 66 74
-21.0133 18.7803 0.855351 72 72 62
-13.0003 15.7718 0.595676 85 82 83
-12.4408 16.2236 0.596273 75 77 68
-12.6699 16.8403 0.609085 72 73 68
-12.5916 16.8397 0.608165 67 70 58
-7.54349 15.8632 0.471191 75 82 64
-7.44546 15.9853 0.472331 80 89 66
-7.37465 15.9547 0.471433 80 86 67
-7.37341 16.1028 0.473578 81 84 68
-7.22731 15.9507 0.470447 81 84 68
-7.04982 16.9253 0.483649 79 79 72
-6.89805 16.9219 0.482717 88 93 60
-58.278 16.7229 1.62409 79 77 82
-46.3482 17.0825 1.3569 88 86 81
-39.8569 17.3922 1.21656 85 85 73
-40.2934 18.1084 1.23353 77 77 76
-38.4953 18.2793 1.19656 77 74 81
-35.9271 17.1526 1.12903 72 72 70
-35.9581 17.304 1.13138 107 108 100
-35.9367 17.4297 1.13232 85 85 75
-35.946 17.6397 1.13488 104 105 89
-35.998 17.804 1.13785 77 76 64
-36.0122 17.9495 1.1398 79 81 72
-36.038 18.1711 1.14289 79 76 69
-36.3424 18.8248 1.15693 97 97 87
-20.3575 10.6677 0.639884 84 82 74
-20.2448 10.683 0.638075 90 86 81
-24.2316 20.4342 0.939521 69 74 51
-10.4478 11.3385 0.434074 72 74 62
-10.3924 11.3441 0.433575 77 79 66
-14.1029 15.3929 0.603734 76 78 65
-10.3646 11.3837 0.433781 80 82 70
-14.079 15.5133 0.605278 67 69 63
-14.2141 16.5131 0.62259 82 88 66
-14.219 16.6278 0.624456 72 80 59
-13.638 15.9855 0.607003 86 94 71
-13.7573 16.2991 0.613461 83 94 69
-13.4439 15.9948 0.604721 81 84 64
-13.883 16.6818 0.621103 79 80 77
-13.3869 16.1844 0.607034 90 87 88
-13.7971 17.2401 0.628992 79 87 63
-13.762 17.3069 0.629645 79 85 65
-13.1279 16.7056 0.612283 77 78 69
-13.0918 16.7674 0.612855 75 78 70
-13.1403 16.9501 0.616408 86 88 75
-13.5558 17.7218 0.633928 80 77 68
-12.7676 17.2191 0.616465 70 69 58
-7.8953 15.856 0.473423 77 81 69
-7.79556 15.8304 0.472384 78 86 65
-7.7295 15.8142 0.471709 79 86 68
-7.66059 15.7904 0.470907 84 88 71
-7.61984 15.906 0.472311 86 95 74
-25.3814 11.2864 0.735359 95 90 87
-37.6748 19.1734 1.18914 86 84 72
-37.6066 19.2838 1.18897 95 91 86
-36.3245 18.9575 1.1581 91 88 80
-36.5798 19.2395 1.1668 83 80 74
-35.9475 19.0365 1.15111 84 83 78
-35.9894 19.2732 1.15482 97 99 85
-35.6966 19.7533 1.15453 150 147 157
-16.8347 14.9945 0.635807 71 73 61
-16.8965 15.6372 0.645789 88 91 82
-16.5845 15.6676 0.641769 74 75 79
-16.5299 15.8109 0.643064 77 78 72
-16.4517 15.8797 0.642961 79 80 75
-16.4779 16.0085 0.645203 67 68 62
-16.3678 15.9936 0.643444 60 65 55
-16.3596 16.1375 0.645441 84 88 67
-16.2632 16.1365 0.644085 78 79 66
-16.0466 16.1065 0.640646 69 71 66
-16.0503 16.2647 0.643045 75 77 65
-16.1361 16.4639 0.647182 79 82 68
-15.0912 15.5502 0.619301 75 82 66
-15.0587 15.7133 0.621314 73 76 69
-14.9333 15.8211 0.621262 73 76 65
-15.2623 16.307 0.633028 74 73 68
-14.975 16.23 0.628046 75 77 64
-14.7949 16.1199 0.623983 78 80 68
-14.6708 18.1391 0.6541 75 78 65
-14.2141 17.6957 0.6414 77 84 58
-9.20839 15.1194 0.472663 81 85 60
-9.14377 15.4089 0.476178 85 86 57
-9.05605 15.3592 0.474804 96 96 72
-9.03065 15.4906 0.476444 79 77 64
-9.00716 15.5669 0.477331 85 88 73
-8.9314 15.5395 0.476371 79 86 70
-8.77574 15.6615 0.476915 79 84 69
-8.64204 15.5746 0.474701 72 74 61
-8.50158 15.6642 0.474936 80 85 66
-8.5261 16.6713 0.489449 84 90 75
-8.32968 16.4384 0.484755 84 86 75
-8.26154 16.5694 0.486164 79 81 72
-57.2138 8.64812 1.33194 87 89 78
-56.4497 8.79534 1.31748 77 82 78
-56.2613 8.94215 1.31436 75 81 77
-50.9416 9.35713 1.2116 75 77 78
-50.7935 9.49008 1.2093 79 80 81
-30.5704 11.3325 0.831209 86 84 78
-30.6664 11.6362 0.835399 85 85 86
-30.438 11.6515 0.831277 89 88 94
-25.1338 11.3995 0.731911 60 60 63
-18.3999 15.0069 0.659321 74 74 64
-18.1155 15.4293 0.660744 68 70 53
-18.033 15.5002 0.660489 74 73 61
-18.0477 15.6127 0.662254 77 75 69
-18.0968 15.7583 0.664988 83 80 80
-18.0726 15.8357 0.6657 58 55 61
-17.8299 16.2107 0.667395 86 88 81
-17.8605 16.344 0.669721 91 91 80
-17.8872 16.5263 0.672694 93 98 85
-16.8563 15.696 0.646053 88 90 82
-16.9 15.8403 0.648742 53 55 52
-16.5366 16.5362 0.65376 65 68 59
-16.2181 16.6609 0.651238 73 80 63
-16.459 17.2019 0.662615 76 79 72
-15.9304 16.8693 0.650483 74 76 63
-16.437 17.8491 0.672121 76 78 66
-16.1312 18.1193 0.67225 69 70 57
-9.81974 15.6044 0.484265 73 77 65
-9.77268 15.6367 0.484325 69 76 61
-9.60865 15.4548 0.480495 74 81 64
-9.35964 15.2861 0.476173 79 84 61
-9.4063 15.6111 0.481042 87 87 61
-9.35646 16.7197 0.496145 81 86 72
-9.01373 16.482 0.490251 85 94 75
-8.99839 17.0742 0.498531 74 77 65
-8.83355 16.8568 0.494261 74 78 63
-8.6563 16.6776 0.490454 80 84 70
-8.60949 16.7157 0.490667 82 86 71
-56.512 9.16121 1.32019 71 77 75
-55.2958 9.21976 1.29651 73 79 79
-54.6124 9.27482 1.28331 75 79 80
-54.6708 9.45776 1.28524 73 79 79
-54.5816 9.70085 1.28456 69 74 70
-54.5913 9.87562 1.28553 73 76 75
-50.7317 9.71972 1.20916 67 74 76
-52.6138 10.2592 1.24854 73 80 78
-49.4658 10.0204 1.18584 74 73 66
-52.904 10.9086 1.25736 77 85 75
-52.7372 11.2958 1.25605 73 77 77
-50.3803 11.0994 1.20911 74 76 71
-45.8218 10.9491 1.11974 79 80 80
-45.079 10.9115 1.10514 74 72 75
-45.096 11.062 1.10631 98 98 94
-45.5261 11.5413 1.11738 81 83 77
-45.154 11.7386 1.11134 77 83 73
-40.4554 10.9377 1.01604 88 91 74
-40.528 11.2908 1.01962 94 94 82
-40.1753 11.6532 1.01516 96 95 100
-35.4159 11.2805 0.921983 102 95 99
-35.3423 11.673 0.923357 86 82 82
-35.4292 11.823 0.926073 89 83 83
-24.552 14.4112 0.751975 72 75 62
-21.7916 15.2029 0.715153 60 66 71
-21.7413 15.2659 0.715109 101 111 123
-21.8026 15.413 0.717898 108 115 125
-21.9172 15.6016 0.722063 103 106 111
-21.811 15.6742 0.721257 67 68 63
-21.1449 15.6159 0.709906 62 73 59
-21.145 15.7179 0.711194 67 79 65
-21.3921 16.2788 0.722226 72 79 64
-20.4054 16.931 0.715549 71 74 60
-19.5948 17.5503 0.711933 70 71 63
-18.3249 16.5912 0.679949 68 69 62
-10.7586 14.7635 0.480983 73 71 65
-10.6518 14.701 0.479194 72 68 69
-10.5794 14.742 0.479092 79 81 71
-10.5632 14.8203 0.479988 74 81 62
-10.5582 14.9173 0.481236 90 93 75
-10.5327 14.9822 0.481876 80 81 65
-10.7974 15.682 0.493562 70 73 62
-10.6537 15.5584 0.490653 80 85 66
-10.7186 15.8339 0.494922 87 91 71
-10.4063 15.4263 0.486744 87 92 72
-10.3314 15.4122 0.485912 76 81 66
-10.2801 15.493 0.486571 76 82 68
-10.2174 15.499 0.486121 69 72 61
-10.1428 15.484 0.485289 78 85 69
-10.0942 15.5138 0.485287 62 66 49
-10.3044 16.1749 0.496056 85 94 75
-10.2791 16.2505 0.496881 72 79 65
-9.79029 15.9673 0.489025 74 80 57
-9.68592 16.3283 0.493197 85 87 58
-9.44082 16.7566 0.497299 77 83 71
-9.25757 17.1335 0.501248 82 85 66
-57.6456 12.1008 1.35584 87 91 89
-52.6753 11.4514 1.25563 76 77 80
-50.9396 11.6368 1.22283 100 101 97
-51.0109 11.8185 1.22518 75 76 79
-50.4309 11.8432 1.21405 83 85 82
-51.6903 12.9886 1.24486 79 80 75
-51.4092 13.2522 1.24094 72 79 71
-51.4099 13.6743 1.24346 85 89 76
-28.3361 15.6641 0.830516 130 129 139
-28.3767 15.8589 0.833261 104 102 106
-28.2578 16.0183 0.832881 90 96 75
-27.6532 16.0538 0.822854 86 91 75
-26.2762 15.3206 0.791333 79 84 67
-26.8157 15.9307 0.807193 86 92 75
-26.9641 16.1364 0.811977 105 107 83
-26.9275 16.2828 0.812972 85 86 72
-26.0094 15.8074 0.792132 97 98 81
-26.0713 15.9575 0.79485 95 96 80
-26.5361 16.3707 0.807323 77 77 65
-26.3243 16.4015 0.804105 79 82 73
-26.1086 16.3719 0.800142 64 67 60
-26.0646 16.4552 0.800348 76 79 70
-25.5401 16.2714 0.789476 71 74 64
-25.2565 16.1904 0.783811 70 72 67
-24.5314 15.806 0.767298 73 78 71
-24.543 15.9753 0.769457 69 73 70
-24.0848 15.7656 0.759419 75 82 74
-24.0852 15.8725 0.760674 81 83 78
-24.2698 16.1095 0.766504 68 66 72
-24.4258 16.3829 0.772303 74 72 77
-23.6109 16.3932 0.759108 66 68 63
-23.9678 17.5546 0.779126 61 67 57
-23.2361 17.1533 0.762451 59 71 59
-15.3389 11.4252 0.491181 68 80 68
-15.282 11.4528 0.490756 73 86 69
-15.2744 11.5209 0.491362 74 87 70
-22.6743 17.0971 0.752841 79 92 78
-23.363 17.7638 0.772178 71 78 64
-22.9692 18.0755 0.770026 71 80 63
-22.1423 17.5525 0.750392 72 81 62
-22.3293 17.9387 0.758338 80 78 83
-22.1877 17.9893 0.756832 83 80 77
-22.4396 18.3233 0.765113 84 87 73
-10.7701 16.8741 0.509463 78 86 63
-5.41488 11.3796 0.293772 79 85 70
-5.37348 11.3798 0.293636 76 79 66
-5.31631 11.3921 0.293534 77 79 65
-51.5431 13.8805 1.24725 93 97 80
-50.8033 15.4499 1.243 89 84 91
-50.5994 15.5562 1.23981 76 68 79
-49.9711 15.5256 1.22763 83 79 88
-49.4882 15.6215 1.2191 106 96 105
-48.8042 15.5642 1.20571 84 79 83
-47.8497 15.575 1.18766 84 82 87
-46.909 15.4985 1.16931 98 94 95
-45.705 15.6348 1.14754 106 100 95
-45.3124 15.6518 1.14026 72 69 78
-45.4164 15.8453 1.14363 75 73 84
-43.0806 15.5244 1.09736 77 76 74
-39.6932 15.5811 1.03463 83 81 88
-39.6192 15.6915 1.03415 85 82 91
-39.366 15.7275 1.02976 80 77 83
-39.4759 15.9139 1.03332 81 85 86
-39.7309 16.2336 1.04068 73 75 74
-38.0623 15.6628 1.00516 68 74 74
-37.4856 15.5509 0.993604 71 77 75
-37.3233 15.6826 0.991742 73 78 72
-36.3698 15.5293 0.972946 94 94 86
-36.1133 15.6121 0.968976 114 108 104
-28.479 16.0344 0.836876 76 75 63
-29.6524 16.9708 0.867051 91 99 77
-28.4132 16.4012 0.839641 82 90 73
-16.8409 11.0889 0.507008 67 73 66
-16.7828 11.1585 0.506919 70 69 74
-26.2737 18.2335 0.824648 56 59 56
-22.6596 18.6328 0.772583 70 78 65
-23.3256 19.773 0.797968 65 70 55
-22.1868 19.0494 0.771033 71 73 66
-12.5155 16.539 0.520416 76 77 69
-12.3862 16.4621 0.518207 73 72 67
-12.3559 16.5302 0.518814 65 63 66
-12.1582 16.4048 0.515348 79 82 72
-11.4922 16.6958 0.513217 83 88 73
-57.2249 16.5019 1.3726 71 67 72
-56.5318 16.9591 1.36227 79 74 81
-47.9411 17.004 1.1997 73 73 70
-49.0019 17.5622 1.22378 93 93 88
-46.3492 17.1474 1.17093 94 90 85
-40.641 17.7988 1.07072 73 75 65
-38.522 16.9784 1.02488 88 92 78
-40.5304 18.047 1.07088 81 78 70
-40.113 18.0766 1.06356 91 90 86
-35.8962 17.1791 0.979183 83 87 73
-38.8613 18.9521 1.04901 86 87 73
-35.9626 17.6908 0.985204 89 89 79
-38.8998 19.3441 1.05343 91 92 84
-36.0513 18.013 0.989869 86 85 76
-36.2942 18.3493 0.997448 85 80 71
-36.1844 18.4319 0.996299 94 91 82
-36.085 18.5196 0.995393 79 78 74
-36.0335 18.703 0.996294 79 81 69
-20.3369 10.6659 0.550453 83 85 71
-36.0721 18.8654 0.998582 92 93 79
-20.2943 10.7604 0.55064 101 105 90
-35.9339 19.0735 0.998221 85 89 75
-35.9615 19.3025 1.00102 82 84 83
-35.5731 19.727 0.99857 127 120 129
-14.2736 15.2318 0.521572 68 69 63
-14.2249 15.2727 0.521549 79 83 69
-14.1967 15.3378 0.522039 76 78 64
-14.1055 15.3773 0.521561 76 80 65
-14.046 15.4053 0.521279 76 81 62
-14.0408 15.6492 0.524209 69 71 60
-13.8162 15.8302 0.524131 93 97 73
-13.7507 15.8508 0.523719 78 83 62
-13.726 15.9231 0.524365 70 74 57
-13.6451 15.9755 0.524204 89 96 71
-13.627 16.0571 0.525041 68 73 51
-13.661 16.3671 0.529274 77 76 66
-13.7002 16.5272 0.531681 83 81 82
-13.3426 16.1604 0.523509 78 75 79
-13.2432 16.1344 0.522198 78 73 77
-13.6971 17.1358 0.539371 78 81 67
-13.253 16.8046 0.530841 73 72 67
-13.1634 16.7918 0.529816 73 74 69
-13.4577 17.3786 0.540184 92 99 84
-13.0157 16.8655 0.529359 77 83 68
-13.0132 16.9763 0.530767 78 82 68
-12.9737 17.0346 0.53115 60 65 55
-12.6311 17.5299 0.534462 70 72 60
-44.1438 21.12 1.16414 90 93 79
-43.5855 21.176 1.15463 92 93 77
-37.3751 19.7216 1.03008 84 90 76
-17.0496 15.367 0.554046 78 78 71
-16.9147 15.3328 0.552098 83 87 73
-16.8543 15.419 0.552371 69 75 61
-16.9453 15.6073 0.555537 70 73 62
-16.8361 15.5972 0.554168 67 71 58
-16.6815 15.5896 0.552316 73 78 64
-16.7395 15.7476 0.554773 81 87 78
-16.562 15.6662 0.551827 72 75 69
-16.4358 15.6851 0.550617 69 70 64
-16.4466 15.796 0.552012 84 85 80
-16.3658 15.8119 0.551284 86 87 81
-16.2464 15.7869 0.549656 74 80 68
-16.108 15.7905 0.548155 71 77 63
-15.9455 15.7175 0.545498 76 82 68
-16.011 15.888 0.548209 74 81 65
-15.9554 15.9794 0.548666 73 75 68
-15.7977 15.9091 0.546105 68 69 64
-16.0172 16.2518 0.552542 75 77 71
-15.9661 16.4551 0.554387 75 82 64
-14.2952 17.0324 0.543963 79 84 66
-14.5629 18.2016 0.561385 83 86 69
-30.4443 11.4274 0.701693 89 85 82
-30.3945 11.5137 0.701506 94 93 89
-25.543 11.3598 0.629591 78 81 69
-25.3442 11.4053 0.627063 103 104 86
-25.3075 11.4807 0.627085 73 73 66
-18.2659 14.9525 0.563961 76 82 68
-17.9784 15.8132 0.569844 64 59 66
-17.9525 15.8891 0.570375 68 68 66
-17.8579 15.9496 0.56994 74 75 68
-16.3865 16.8168 0.563247 71 75 60
-15.9747 16.6759 0.557101 74 78 63
-16.7655 17.7385 0.578303 75 79 65
-14.5643 20.1417 0.58647 85 85 74
-57.1404 9.4574 1.10213 71 75 73
-57.0547 9.62325 1.10137 76 82 79
-49.3073 10.085 0.982459 87 82 79
-46.7947 10.7582 0.946397 91 91 92
-40.3193 11.0601 0.848372 80 89 71
-40.3201 11.193 0.849049 84 89 73
-39.9942 11.2972 0.844616 77 73 71
-40.1772 11.6166 0.849043 70 65 71
-35.3519 11.4116 0.774895 97 92 99
-35.2932 11.6303 0.775254 87 83 83
-22.1717 15.9557 0.622904 68 69 64
-22.0051 15.9324 0.620546 84 89 78
-21.9022 16.0091 0.62 70 78 62
-21.6584 16.0273 0.617087 57 69 53
-21.258 15.8662 0.61042 60 72 60
-21.4834 16.2542 0.617166 64 70 55
-20.4266 16.9592 0.611463 78 80 66
-20.3517 17.0546 0.61158 69 76 57
-18.511 16.6818 0.585687 72 72 64
-17.1411 18.4009 0.590259 77 80 69
-15.3814 21.5199 0.612053 71 77 63
-56.7821 9.84575 1.0979 82 87 80
-56.9229 10.0512 1.10084 82 83 82
-56.8533 10.3997 1.10102 92 72 83
-56.9448 10.8701 1.10422 95 83 88
-56.956 11.3271 1.10616 100 88 89
-55.6809 11.6921 1.08783 84 88 85
-54.8575 11.6913 1.07506 80 77 78
-50.0663 10.967 0.997851 80 80 78
-50.4607 11.2994 1.00537 80 81 77
-50.809 11.5435 1.0118 73 72 76
-46.5799 10.9331 0.943861 66 61 68
-46.7093 11.1156 0.946668 106 107 108
-45.1924 11.2574 0.923977 80 83 76
-45.4571 11.6218 0.929743 79 83 76
-45.1236 11.7552 0.925271 82 83 75
-28.0404 15.9365 0.700773 83 89 75
-27.7823 15.8962 0.696887 77 83 69
-27.7486 15.9896 0.697219 84 88 74
-26.367 15.263 0.672106 74 78 63
-26.7687 15.6728 0.681118 86 89 76
-26.2212 15.4447 0.671688 83 86 75
-26.3056 15.6064 0.67424 78 83 68
-26.8122 16.0904 0.685343 90 98 75
-26.218 15.8259 0.674977 77 79 65
-26.0664 15.8396 0.673051 77 80 63
-26.583 16.3386 0.684442 81 84 68
-26.2747 16.2514 0.679518 82 84 71
-26.2712 16.3616 0.680456 71 71 67
-26.2373 16.4521 0.680814 74 76 73
-26.0607 16.5041 0.67893 72 75 68
-24.8851 15.8289 0.657125 80 80 72
-24.8776 15.932 0.657964 73 75 68
-24.3379 15.7268 0.648926 65 70 64
-24.319 15.8206 0.649539 66 69 66
-24.2799 15.9009 0.649765 59 62 59
-24.1385 15.9633 0.648488 58 59 58
-24.1643 16.089 0.650001 67 63 71
-24.2629 16.2669 0.652964 69 66 71
-23.9115 16.5054 0.650646 64 72 61
-23.3905 16.2863 0.641794 55 62 63
-23.1379 16.207 0.637764 108 117 133
-22.8396 16.0917 0.632799 101 110 122
-23.6306 16.8469 0.650326 107 108 111
-23.0166 16.4922 0.638982 61 62 60
-23.6032 17.442 0.65584 59 68 53
-23.5749 17.8198 0.659267 65 72 57
-22.1893 17.372 0.637393 69 78 61
-22.0848 17.3967 0.636351 67 78 60
-22.3596 17.7396 0.643294 71 78 62
-22.2481 17.7594 0.642122 80 80 79
-22.1619 17.8567 0.642081 82 77 80
-51.8212 12.7889 1.03296 90 91 87
-51.7307 13.1041 1.03302 86 87 82
-51.0047 13.669 1.02458 83 84 79
-51.0063 13.9219 1.02585 76 84 72
-51.6093 15.2065 1.04155 88 85 91
-50.9413 15.2605 1.0317 81 79 87
-50.7533 15.3731 1.02944 98 96 105
-45.3968 15.3215 0.948293 74 72 75
-45.4156 15.4838 0.949512 120 107 107
-45.2324 15.5749 0.947296 73 67 70
-45.3119 15.8372 0.95004 74 73 79
-42.9774 15.6668 0.914168 97 100 91
-40.6404 15.7853 0.880257 96 94 97
-39.8721 15.618 0.867836 77 73 80
-39.5303 15.6198 0.862805 97 92 99
-39.072 15.6409 0.856204 77 80 83
-38.8544 15.6894 0.853323 64 70 70
-38.6957 15.7616 0.851469 71 75 72
-38.7518 15.9243 0.853375 69 75 73
-37.5758 15.6266 0.834165 70 72 69
-37.449 15.7071 0.832854 75 76 71
-38.5364 16.5292 0.854349 90 84 81
-36.1826 15.6157 0.813772 118 112 107
-35.9737 16.1156 0.814263 75 76 63
-35.9474 16.9064 0.819627 74 72 76
-22.6687 18.5248 0.655285 59 64 53
-22.8031 18.8199 0.660038 72 76 64
-22.2414 18.9816 0.654968 70 74 60
-22.9935 19.7869 0.672652 60 63 58
-22.2301 19.3969 0.659324 71 65 69
-57.2992 15.2113 1.12844 83 84 79
-50.6736 15.5188 1.029 95 92 101
-50.4302 15.6972 1.02629 90 91 96
-49.4968 15.5662 1.01145 75 69 79
-49.153 15.6215 1.00655 70 69 77
-48.5421 15.669 0.997605 70 69 76
-45.3326 16.0013 0.951321 94 92 91
-45.3245 16.1554 0.95212 99 95 92
-45.2828 16.3759 0.952839 81 81 78
-45.2654 16.6852 0.954464 80 78 75
-45.281 16.8497 0.95571 102 100 98
-45.2303 17.0684 0.956328 96 96 96
-38.4394 16.9783 0.856071 89 88 80
-40.4078 18.8551 0.89794 67 65 71
-39.8563 19.1156 0.891958 76 76 70
-38.7898 18.9557 0.875541 98 99 82
-35.9976 17.8192 0.82719 89 89 82
-35.9543 18.1431 0.829069 80 84 71
-37.0953 19.1009 0.852643 92 92 84
-36.1094 18.716 0.835732 77 77 69
-36.2605 18.9394 0.839617 76 80 74
-36.6885 19.3879 0.849194 59 66 59
-36.59 19.4788 0.848538 73 78 71
-36.0289 19.3121 0.839349 76 81 73
-10.4074 11.352 0.315249 66 70 59
-10.3634 11.3714 0.315136 71 75 65
-10.3152 11.4222 0.315193 73 80 64
-6.76183 15.6691 0.328084 88 94 81
-6.63938 15.5597 0.326924 86 95 76
-6.40262 15.9325 0.328778 83 91 69
-6.29594 15.8621 0.327955 100 106 79
-6.29528 16.0342 0.329163 93 94 81
-43.6065 19.1001 0.945917 75 76 68
-43.3742 20.695 0.954028 91 88 79
-42.2081 20.5227 0.936078 77 81 66
-43.146 21.3242 0.955481 84 82 73
-42.9442 21.6358 0.954995 73 77 68
-39.4899 20.1476 0.894599 74 82 61
-36.0042 20.1661 0.845989 95 94 88
-35.9728 20.2942 0.846616 68 69 64
-35.7224 20.2936 0.843151 81 87 77
-26.4462 23.1473 0.750229 73 62 71
-26.0482 23.2916 0.747068 63 62 60
-7.71914 15.9102 0.333029 87 89 75
-7.61776 15.878 0.33245 82 94 72
-7.55959 15.8797 0.332255 85 93 72
-7.42304 15.6844 0.33043 87 91 74
-7.37753 15.7881 0.330989 77 76 61
-7.32927 15.8132 0.330994 79 78 66
-7.26368 15.7934 0.330631 80 82 67
-7.26889 15.9581 0.331787 78 83 61
-7.1724 15.9325 0.331284 82 86 66
-6.71141 16.6914 0.335073 86 94 72
-8.71945 15.8495 0.336351 76 80 63
-8.52159 15.6902 0.33451 85 88 74
-8.42668 15.6812 0.334087 79 79 67
-8.36076 15.6694 0.333755 75 77 66
-7.8013 15.9652 0.333701 77 81 66
-7.0302 16.8412 0.337138 91 95 78
-6.96685 17.095 0.338712 87 96 77
-10.2968 15.3445 0.339582 65 63 64
-10.1945 15.4501 0.339817 102 97 91
-10.1601 15.5042 0.340016 80 79 66
-10.0375 15.576 0.339952 75 80 73
-9.98082 15.5915 0.339809 66 74 61
-9.78881 15.5377 0.338638 72 76 61
-9.58998 15.4089 0.336949 75 83 60
-9.7629 15.9059 0.340946 77 85 69
-9.55525 16.1921 0.341975 83 87 70
-9.21001 15.6456 0.336939 85 89 72
-9.08663 15.587 0.336052 83 84 66
-9.07183 15.6814 0.33662 82 83 67
-8.94418 15.7376 0.336486 70 73 63
-8.87283 15.9758 0.337796 80 83 71
-8.94753 16.4642 0.341373 84 87 76
-8.73901 16.8468 0.343164 79 84 64
-8.60076 16.6806 0.341515 80 84 67
-8.57978 16.777 0.342091 75 82 64
-8.45198 16.7018 0.341108 80 83 68
-8.41605 16.9127 0.342411 75 74 71
-8.29808 16.7845 0.341104 78 81 70
-16.8551 11.0922 0.351756 74 77 70
-16.7629 11.1374 0.351382 76 79 72
-16.7594 11.2095 0.351699 73 75 68
-15.3122 11.4706 0.34391 66 72 62
-15.2582 11.5007 0.343729 73 80 72
-10.8872 15.5426 0.343501 75 81 67
-10.5782 15.2069 0.339958 80 82 69
-10.5223 15.2244 0.339817 83 85 74
-10.4082 15.4205 0.340567 69 69 58
-10.2822 15.4872 0.340443 71 65 66
-9.75729 16.0174 0.341655 77 81 64
-9.38023 16.7566 0.345033 70 73 62
-9.32847 16.7859 0.345023 79 81 70
-8.58092 17.6843 0.348287 80 83 66
-5.51748 11.393 0.207563 76 81 65
-5.48009 11.4048 0.207533 92 102 82
-5.42399 11.4212 0.20749 78 87 66
-5.39489 11.4551 0.207472 84 88 71
-7.84562 19.3796 0.357505 77 82 61
-12.0656 16.3738 0.35422 75 76 69
-11.8772 16.3699 0.353314 71 67 73
-11.8104 16.4955 0.353794 68 68 70
-11.7351 16.4934 0.353431 68 68 65
-11.6501 16.5327 0.353293 76 80 65
-11.2564 16.0218 0.348239 75 81 68
-10.8425 16.8084 0.351453 68 74 66
-10.5978 17.7251 0.356414 76 83 65
-10.1493 17.01 0.349831 79 86 68
-20.3954 10.6929 0.373406 85 87 80
-20.2866 10.7502 0.372908 86 87 85
-14.3036 15.6105 0.360796 70 73 61
-14.2218 15.6131 0.360377 74 76 62
-14.233 15.7278 0.361109 77 79 65
-14.1894 15.9303 0.362076 75 77 68
-13.6325 15.6978 0.357805 64 71 58
-13.7267 15.9207 0.35962 68 77 61
-13.7475 16.2099 0.361463 73 85 61
-13.5156 16.0144 0.359105 75 86 62
-13.5855 16.2648 0.360974 62 68 54
-13.2164 15.9887 0.35744 77 75 78
-13.2549 16.1466 0.35859 80 75 81
-13.2253 16.2675 0.359182 78 75 71
-13.1967 16.8359 0.362522 75 74 72
-13.1164 16.8922 0.362481 95 99 86
-13.0258 16.8771 0.361946 82 86 71
-13.0496 17.1418 0.363699 84 89 67
-12.5473 16.5818 0.357808 79 83 60
-12.4472 16.5478 0.357117 77 78 60
-12.3318 16.4903 0.356206 89 89 71
-12.2831 16.5874 0.356587 79 79 67
-11.7538 17.5483 0.360256 71 72 67
-11.2369 17.9551 0.360623 79 86 68
-18.077 14.8784 0.378119 72 78 59
-16.9373 15.5973 0.375267 65 67 71
-16.8351 15.5941 0.374662 83 87 97
-16.7691 15.6759 0.374739 61 59 73
-16.6419 15.6462 0.373849 72 73 81
-16.6114 15.7145 0.374051 77 77 86
-16.4179 15.7641 0.373235 69 66 70
-16.2915 15.7322 0.372344 67 67 69
-16.1269 15.659 0.371011 62 64 62
-16.1138 15.7945 0.3717 74 77 67
-16.1015 15.8821 0.372121 71 76 68
-15.9922 15.8657 0.37142 67 69 64
-15.8975 15.9144 0.371175 71 72 66
-14.4511 17.5195 0.372929 78 73 79
-12.6045 17.6084 0.364518 66 67 65
-25.3997 11.4295 0.410834 94 93 73
-18.5752 15.1253 0.382395 77 80 61
-18.3637 16.7497 0.389748 97 94 101
-17.1108 17.3429 0.385963 70 74 65
-16.804 17.116 0.382983 72 79 68
-16.6649 17.1253 0.382276 69 74 65
-16.7714 17.354 0.384162 71 77 65
-16.3441 16.9842 0.379714 70 77 61
-16.4579 17.2219 0.381694 72 78 64
-16.0098 16.8751 0.377274 70 76 62
-15.7906 16.7313 0.375259 74 77 63
-15.7855 16.833 0.375818 70 72 61
-15.6464 17.5519 0.379275 75 79 65
-14.5628 18.2015 0.377631 87 91 76
-14.579 18.5296 0.379721 70 69 65
-35.4247 11.4437 0.482731 72 71 76
-35.418 11.561 0.483036 74 70 83
-35.3334 11.6517 0.482693 78 75 84
-30.4534 11.4332 0.446704 80 77 82
-30.3477 11.4973 0.446157 81 76 85
-24.1784 15.618 0.419993 76 81 76
-23.8103 15.4711 0.416928 73 79 71
-24.0074 15.7125 0.419312 60 71 59
-23.6821 15.75 0.417384 77 78 70
-23.1466 16.1068 0.415628 59 65 68
-22.957 16.0729 0.414258 105 114 130
-21.9896 15.7127 0.406406 73 76 77
-21.9218 15.7643 0.406226 65 70 64
-21.9617 15.8986 0.407125 68 78 65
-21.9616 16.0548 0.407889 77 86 72
-21.4327 15.8492 0.403571 71 80 70
-21.3069 15.9042 0.403062 63 71 60
-21.4668 16.1357 0.405198 63 73 60
-20.3508 17.0541 0.403061 68 70 64
-19.5452 17.6818 0.401637 65 63 73
-18.5345 16.8102 0.391066 59 56 66
-17.1701 18.6134 0.393573 73 76 65
-17.0796 18.6268 0.393165 75 79 64
-46.8166 10.6359 0.564715 88 95 105
-46.7237 10.7647 0.564335 75 79 89
-46.6289 10.9678 0.564142 78 78 88
-46.7682 11.153 0.565641 113 117 126
-45.195 11.2787 0.554263 92 91 99
-40.44 11.2415 0.518949 81 92 86
-40.1668 11.3613 0.517275 72 74 71
-40.3852 11.5589 0.519433 83 83 84
-28.1221 14.9175 0.443264 86 87 83
-28.5379 15.6592 0.449136 69 74 78
-28.1518 15.7198 0.446783 109 107 106
-28.0016 15.745 0.445873 79 78 75
-27.5174 15.6267 0.442123 96 99 78
-27.6697 15.8305 0.444008 84 88 74
-27.8157 16.0324 0.445844 71 77 67
-27.8224 16.151 0.446393 67 71 64
-27.2258 15.9557 0.441575 75 81 72
-27.1934 16.0487 0.441758 81 85 74
-27.1878 16.1586 0.442194 72 78 66
-27.5672 16.5686 0.446507 65 70 63
-26.4862 15.9976 0.436839 71 73 67
-26.0071 15.8027 0.43281 85 88 81
-26.2573 16.1297 0.435912 79 81 71
-26.5285 16.5318 0.439479 64 69 65
-26.1117 16.3708 0.43602 65 68 61
-25.539 16.2685 0.431813 70 72 67
-25.4207 16.2998 0.43118 69 71 66
-24.4411 16.8928 0.4276 73 81 72
-23.524 16.6029 0.420385 103 111 120
-23.3872 16.6642 0.419817 104 105 107
-23.2225 17.1458 0.421111 66 73 65
-23.8146 18.3068 0.430527 69 75 65
-22.8363 17.8536 0.422221 68 80 60
-22.185 17.4816 0.416357 69 80 63
-22.3112 17.7005 0.418233 63 67 56
-22.3706 17.8647 0.419427 81 76 80
-22.3598 18.0276 0.420196 75 73 67
-22.0949 18.972 0.423485 61 59 61
-21.8999 18.9738 0.422343 69 69 67
-10.5226 11.3847 0.211525 73 76 65
-10.4491 11.405 0.211482 73 77 63
-10.425 11.4494 0.211478 72 78 66
-16.8112 21.7719 0.410604 71 78 60
-57.177 9.50418 0.639931 92 91 88
-57.1204 9.67493 0.639857 81 86 82
-56.9315 9.91205 0.638945 71 75 76
-56.9832 10.9165 0.641513 99 100 103
-55.622 11.448 0.632502 89 93 104
-55.2864 11.8203 0.630865 82 89 106
-50.5192 11.3413 0.59408 81 90 106
-45.5432 11.6654 0.557848 76 79 87
-45.2184 11.801 0.555806 87 89 91
-39.6965 15.7 0.527266 78 78 78
-39.2665 15.7333 0.524314 72 76 76
-38.7769 15.6683 0.520593 67 73 71
-38.9091 15.8629 0.522202 71 76 72
-37.4314 15.7093 0.511159 79 81 78
-36.0425 16.7589 0.505177 74 73 78
-28.5001 17.7023 0.457665 70 75 70
-26.263 17.4492 0.441915 77 78 73
-26.2605 17.6832 0.442977 77 83 70
-23.5232 19.2675 0.433592 65 69 54
-21.8833 19.6309 0.425731 61 62 67
-21.7119 19.653 0.424854 105 104 117
-5.50551 11.351 0.155783 73 77 63
-5.47115 11.3702 0.155732 76 80 65
-5.40562 11.3604 0.155812 79 88 67
-5.37741 11.3962 0.155692 73 85 63
-61.6028 15.3077 0.686573 94 96 110
-59.7693 15.2327 0.672742 77 80 90
-57.3993 15.2741 0.655272 79 82 88
-51.9353 13.9537 0.611282 65 72 80
-51.7873 14.169 0.610778 68 75 80
-51.2952 14.2002 0.607221 72 81 79
-52.23 15.2478 0.617015 80 73 86
-51.6029 15.232 0.612349 66 64 78
-50.939 15.2861 0.607632 71 73 86
-50.8383 15.4257 0.607289 73 73 85
-50.7257 15.5611 0.606849 82 81 92
-50.5824 15.7715 0.60642 69 69 79
-49.546 15.6064 0.59834 85 78 85
-49.1251 15.6362 0.595344 78 77 78
-48.3686 15.6342 0.589818 74 73 81
-45.5776 15.5599 0.569245 71 65 67
-45.2958 15.6163 0.567368 73 73 76
-45.3507 15.87 0.568569 70 71 76
-45.373 16.0348 0.569245 83 83 84
-45.3403 16.1799 0.569463 109 108 106
-45.2515 16.3828 0.569478 84 80 86
-43.022 15.6996 0.551172 81 79 83
-44.9328 16.5771 0.567793 78 73 80
-45.2139 16.8424 0.570678 109 105 108
-45.301 17.1143 0.572203 79 76 81
-40.9679 16.0755 0.537637 77 72 76
-39.1674 16.1127 0.524902 69 73 72
-38.9689 16.2384 0.523937 75 79 73
-38.5085 17.0209 0.523466 97 94 89
-38.474 17.1468 0.523676 111 107 98
-36.0327 17.2285 0.50688 68 67 62
-38.9316 19.0392 0.533954 77 78 74
-38.7318 19.0863 0.532745 81 82 76
-36.0713 18.5637 0.512338 71 73 69
-36.0719 18.705 0.512899 79 80 75
-36.3039 18.9724 0.515555 78 78 79
-36.6622 19.3834 0.519666 93 97 93
-35.963 19.142 0.513908 80 82 79
-35.7429 20.0238 0.51603 66 65 61
-6.76752 15.6785 0.209663 77 80 74
-6.71735 15.696 0.209621 74 77 69
-6.45731 15.6726 0.209381 81 85 68
-6.39773 15.7429 0.209345 75 77 64
-6.36181 15.8029 0.209325 74 77 60
-6.31375 15.8267 0.209285 78 81 62
-43.2851 18.6536 0.56307 99 95 92
-43.4369 19.0396 0.565514 83 82 80
-43.4237 19.595 0.567432 88 82 86
-43.4009 19.7458 0.567819 88 84 83
-40.4081 19.0964 0.544454 59 58 57
-43.1819 20.6164 0.569533 73 72 67
-39.6427 19.248 0.539697 69 69 66
-42.9965 21.4295 0.571344 87 91 78
-39.7377 19.9825 0.543187 88 89 86
-41.8969 21.2691 0.563122 92 92 91
-39.645 20.2421 0.543556 62 63 60
-26.2959 23.164 0.470474 71 65 75
-27.4365 24.3738 0.483606 73 70 78
-26.1275 23.3749 0.4706 58 56 62
-7.84841 15.855 0.210658 79 81 69
-7.73889 15.8051 0.210554 78 82 68
-7.59956 15.9689 0.210471 78 86 65
-7.57302 16.0502 0.210465 79 91 67
-7.49296 15.9978 0.210381 78 88 64
-7.33211 15.9612 0.210232 79 82 64
-6.99304 15.9077 0.209915 76 75 70
-6.83669 15.7134 0.209734 74 76 71
-16.9515 11.1609 0.215754 65 69 55
-16.8538 11.1658 0.215694 72 73 63
-15.4158 11.4438 0.214911 67 68 63
-15.3579 11.5077 0.214907 67 75 60
-10.3189 14.8831 0.212482 87 93 79
-10.3171 14.9867 0.212508 75 78 67
-10.3353 15.1246 0.212561 85 89 75
-10.2775 15.1914 0.212537 76 79 67
-10.2759 15.2988 0.212564 80 87 71
-9.8988 15.4352 0.212294 71 78 62
-9.86018 15.4816 0.212273 76 83 67
-9.78635 15.465 0.212206 78 86 68
-9.26274 15.6148 0.211813 80 86 69
-9.0691 15.665 0.211664 78 80 75
-9.0369 15.7254 0.211651 77 80 73
-9.01061 15.7983 0.211645 79 83 74
-8.51569 15.7977 0.211222 78 77 73
-8.42944 15.8084 0.211155 73 75 66
-8.43198 15.9474 0.21119 78 77 68
-7.79599 16.086 0.210669 74 78 64
-7.75973 16.1436 0.21065 78 80 66
-6.90853 16.8236 0.210046 88 96 76
-16.8294 11.26 0.215729 69 70 69
-10.36 15.5525 0.212702 81 89 68
-10.4801 15.8708 0.212887 68 70 64
-10.2309 15.6152 0.212616 68 67 65
-9.73424 16.2081 0.212363 73 81 66
-9.61187 16.1003 0.21223 74 83 65
-9.41435 16.8105 0.212251 78 81 73
-9.28626 16.6835 0.212107 65 65 63
-9.04341 16.3167 0.211806 73 70 71
-9.25127 16.8836 0.212124 73 68 71
-9.15451 16.887 0.212046 76 74 74
-9.00116 16.7004 0.211866 75 74 71
-8.71388 16.7054 0.211618 76 77 69
-8.59589 16.6549 0.211507 80 82 73
-8.5684 17.4034 0.21166 78 82 68
-7.43225 17.975 0.210779 77 86 67
-20.4788 10.7385 0.217658 79 80 74
-20.3711 10.7575 0.217604 69 69 69
-38.7434 33.9271 0.600982 77 72 82
-37.0649 33.8738 0.590743 67 65 78
-10.4186 11.3791 0.149113 74 74 64
-10.3845 11.411 0.14908 73 73 60
-12.5536 16.2979 0.214677 59 64 59
-12.195 16.385 0.214417 78 82 71
-11.9818 16.2335 0.214207 69 78 58
-11.9707 16.3289 0.214225 79 91 64
-11.9733 16.4461 0.21426 72 77 57
-10.1225 17.5441 0.213036 72 73 67
-8.80878 17.5793 0.211911 76 76 67
-8.77392 17.7288 0.21192 79 80 74
-8.34412 18.3955 0.211696 81 83 68
-14.786 15.7648 0.216199 70 72 67
-14.7302 15.8512 0.216193 69 70 65
-14.6705 15.8828 0.216158 72 71 66
-14.5207 15.8072 0.216018 76 75 67
-14.3237 15.7238 0.215847 73 70 60
-14.1268 15.5878 0.215652 76 76 62
-14.2192 15.801 0.215792 69 71 58
-14.0749 16.0872 0.215778 70 79 62
-13.9175 16.0457 0.21565 80 84 62
-13.7204 15.9002 0.21545 76 79 60
-13.6979 15.9755 0.215456 74 83 63
-13.47 15.8381 0.215242 68 75 54
-13.8678 16.4592 0.215746 74 77 57
-13.7703 16.44 0.215663 73 75 61
-13.5075 16.2024 0.215383 82 87 76
-13.4998 16.3527 0.21543 79 79 77
-13.4524 16.3975 0.215406 76 74 75
-13.3797 16.4085 0.215351 74 75 69
-13.1351 16.4569 0.215178 71 79 57
-13.1269 16.7222 0.215256 91 96 76
-13.0689 16.753 0.215218 77 83 65
-13.0188 16.8511 0.215214 71 77 67
-12.5107 16.3466 0.214656 86 87 82
-12.5354 16.4939 0.214719 65 63 58
-12.4849 16.5882 0.214712 68 71 60
-12.4334 17.3261 0.21489 69 68 64
-12.3781 17.3612 0.214854 73 72 66
-12.2677 17.3103 0.214748 69 72 62
-12.2146 17.3483 0.214714 83 91 67
-12.1053 17.3576 0.214633 75 84 64
-12.0986 17.4697 0.214658 86 93 77
-12.0028 17.4392 0.214569 65 68 62
-11.3136 17.6105 0.214054 74 78 63
-10.922 17.9693 0.213822 81 87 75
-10.7742 18.0362 0.213718 74 83 62
-10.2442 17.6439 0.213167 72 71 67
-7.89299 19.4875 0.211531 85 90 74
-25.6118 11.3833 0.220989 97 97 95
-25.4577 11.4041 0.220912 109 109 105
-18.3392 14.6736 0.218279 79 77 78
-18.3937 15.0527 0.218478 77 80 63
-17.9688 14.9628 0.218145 74 76 62
-17.0739 15.4754 0.217738 80 80 89
-16.9532 15.4549 0.217643 94 93 101
-16.7362 15.5824 0.21754 71 75 95
-16.5931 15.5854 0.217446 81 88 107
-16.5867 15.7773 0.21751 53 52 63
-16.3464 15.6782 0.217306 81 77 74
-16.3723 15.8048 0.21737 70 68 66
-16.0848 16.4151 0.217384 71 72 70
-15.8851 16.5591 0.21729 75 77 64
-15.9048 16.6875 0.217347 69 72 61
-15.7845 16.7096 0.217271 72 75 64
-15.8267 16.8654 0.217355 69 71 67
-13.8577 17.2222 0.215983 68 75 61
-11.1274 18.5571 0.214154 74 83 62
-9.70214 19.2937 0.213108 80 83 71
-30.5514 11.4595 0.223778 93 90 89
-30.4161 11.5123 0.223736 83 84 78
-24.3584 15.201 0.222396 72 74 62
-22.9901 15.8206 0.221839 69 76 68
-22.7896 15.7788 0.221688 73 79 77
-22.6421 15.8264 0.221622 107 120 130
-22.024 15.9338 0.221268 72 81 73
-21.9241 15.961 0.221213 77 88 71
-21.8637 16.0703 0.22123 68 72 62
-21.773 16.104 0.221183 63 66 59
-21.5272 16.0147 0.220978 67 69 64
-21.4492 16.1086 0.220976 58 63 56
-21.4662 16.2268 0.221037 65 67 66
-21.0056 16.6938 0.220933 85 88 79
-20.4824 16.9937 0.220708 83 85 69
-20.3938 17.0234 0.220657 77 76 64
-18.6175 16.7699 0.219332 117 116 120
-18.488 16.7505 0.219232 77 77 89
-17.8609 17.4683 0.219056 65 70 65
-18.2858 18.0283 0.219567 62 60 62
-17.7286 17.8302 0.219091 76 79 68
-17.2182 17.4437 0.218585 71 74 67
-17.1599 17.4908 0.218557 68 70 71
-16.8523 17.4277 0.218313 69 74 63
-14.4849 18.196 0.216773 85 97 73
-35.4689 11.5593 0.226495 69 66 75
-28.3369 15.0225 0.224713 86 86 84
-27.9076 15.1703 0.224541 74 76 80
-27.8591 15.2537 0.224555 55 58 62
-27.9693 15.429 0.224714 119 122 131
-28.0215 15.628 0.224861 99 98 104
-27.832 15.7425 0.224803 81 86 79
-27.2932 15.8131 0.224515 74 75 68
-26.3533 15.3503 0.223696 79 82 74
-26.2256 15.4345 0.22367 63 71 56
-26.0931 15.4609 0.223599 71 77 66
-26.0894 15.5673 0.223649 59 62 56
-25.9391 15.6358 0.2236 70 75 68
-24.2931 15.2623 0.222384 69 70 62
-24.28 15.4104 0.222457 71 73 66
-24.2589 15.5015 0.222487 68 71 60
-24.2523 15.6027 0.22253 71 75 64
-23.9949 15.5853 0.222367 61 63 64
-16.8971 11.0714 0.134035 58 63 55
-23.9516 15.661 0.222374 64 70 60
-16.881 11.1343 0.133952 63 70 56
-24.2641 15.984 0.222726 67 76 60
-16.798 11.1493 0.134154 72 79 70
-23.8154 16.8053 0.222835 102 110 121
-23.3302 16.5523 0.2224 97 101 104
-23.3452 16.7271 0.222498 59 64 59
-23.2044 16.7297 0.222405 63 72 65
-15.3726 11.4304 0.137458 63 65 59
-15.31 11.4904 0.137492 59 62 57
-22.5009 17.559 0.222308 68 75 59
-22.5601 17.7213 0.222415 63 67 52
-22.3343 17.9308 0.222354 81 79 78
-22.3591 18.2405 0.222505 62 66 50
-19.5414 18.1702 0.220525 90 93 112
-19.4735 18.2176 0.220492 52 55 74
-18.3188 18.2351 0.219672 73 78 69
-7.6634 15.8008 0.137596 77 81 63
-7.60843 15.81 0.1376 75 78 62
-7.52191 15.8123 0.137656 77 81 67
-7.48614 15.8693 0.137465 79 87 64
-7.44204 15.9058 0.137356 83 88 65
-7.38543 15.9105 0.137374 80 85 62
-7.00669 15.9814 0.137335 76 74 75
-6.87854 15.8639 0.137856 77 78 73
-6.41704 16.0058 0.137528 86 94 71
-6.32466 15.8949 0.137992 87 91 76
-6.25561 15.94 0.137847 82 81 81
-6.21792 15.9979 0.137636 83 81 82
-45.5202 11.1065 0.231405 70 67 84
-45.2384 11.2561 0.231387 84 91 109
-45.4514 11.4587 0.23165 80 83 97
-45.3352 11.5764 0.231676 78 79 95
-40.4988 11.3657 0.229001 69 76 83
-40.4517 11.5523 0.229125 69 72 81
-28.2281 15.8628 0.225109 68 70 67
-27.9538 15.9853 0.225014 73 83 66
-27.7574 15.9812 0.22489 72 77 65
-27.9855 17.0512 0.225587 75 78 71
-27.8504 17.0831 0.225517 77 78 74
-27.6432 17.1263 0.225418 73 74 69
-27.5066 17.1554 0.225345 69 71 59
-25.4582 16.9839 0.223976 62 67 63
-25.3697 17.0355 0.223941 63 73 65
-23.9828 19.0867 0.223965 83 85 79
-22.1002 19.077 0.222668 74 74 78
-21.6481 19.5081 0.222525 90 85 98
-10.3887 15.137 0.137064 75 76 71
-10.2485 15.1759 0.137126 82 91 70
-10.2797 15.4514 0.136137 70 74 59
-9.37911 15.5714 0.136829 75 84 61
-13.9831 23.2557 0.217793 76 84 62
-9.06903 15.8263 0.136257 69 68 66
-8.99814 15.8098 0.136388 71 71 71
-8.95514 15.9129 0.136065 80 79 76
-8.53996 15.8867 0.136554 91 94 85
-8.44349 15.8757 0.136686 83 85 69
-8.401 15.9166 0.136572 72 73 60
-8.00891 16.2747 0.135569 78 78 67
-7.94736 16.3455 0.135355 78 83 63
-7.0976 16.81 0.134126 65 70 52
-6.8565 16.3733 0.135921 77 83 67
-6.87658 16.7758 0.134363 86 93 70
-6.70908 16.4546 0.135672 91 96 74
-6.73929 16.8088 0.134298 87 95 72
-56.9684 10.8595 0.237047 75 79 92
-55.5243 11.3759 0.236737 87 99 112
-55.302 11.5065 0.236726 76 82 100
-50.3823 11.1862 0.233957 81 94 111
-50.6765 11.4982 0.234369 86 93 109
-50.4858 11.6168 0.23436 81 82 101
-46.8224 11.1299 0.232103 67 74 84
-44.914 15.061 0.234006 89 78 82
-44.6572 15.2014 0.233977 83 81 90
-44.6631 15.3568 0.234083 85 85 97
-44.503 15.4531 0.234058 90 87 98
-43.8602 15.4499 0.233719 89 83 93
-43.5669 15.494 0.233585 83 80 87
-43.6634 15.6807 0.23376 77 75 80
-41.9337 15.2587 0.232544 77 77 79
-41.2966 15.1631 0.232128 74 74 74
-40.8376 15.1315 0.231851 74 74 72
-40.383 15.0987 0.231577 90 89 90
-39.1088 15.0867 0.230872 66 68 68
-38.7089 15.132 0.230691 76 74 79
-38.7122 15.2705 0.230779 77 76 84
