-33.283 -15.1234 -0.357868 115 89 98
-31.7997 -12.4581 -0.321186 136 119 94
-55.811 -14.9346 -0.491128 83 79 78
-56.0362 -14.7127 -0.493146 93 86 94
-54.7354 -13.3649 -0.474193 224 158 154
-55.6221 -13.305 -0.484536 218 148 150
-56.4148 -13.3083 -0.493958 229 163 149
-57.2469 -13.3158 -0.503868 248 188 161
-58.0835 -13.319 -0.513827 245 172 161
-58.9941 -13.2365 -0.524442 195 125 140
-60.2179 -13.3136 -0.539199 160 93 115
-52.6507 -7.70393 -0.43787 123 113 106
-8.20767 -13.3905 -0.185612 87 63 43
-8.24729 -13.315 -0.184502 141 121 84
-9.94747 -12.3595 -0.189679 55 60 27
-13.7864 -7.76458 -0.190463 50 54 46
-13.8012 -7.71663 -0.190223 74 77 71
-35.707 -13.2845 -0.382667 146 88 73
-35.6952 -13.0898 -0.381492 163 107 91
-36.2449 -13.1628 -0.389948 108 82 74
-36.6504 -13.1804 -0.396012 107 89 73
-61.3569 -13.3644 -0.552891 177 108 130
-62.3908 -13.2828 -0.565013 176 109 137
-63.4358 -13.2979 -0.577525 195 120 136
-64.5753 -13.3261 -0.591201 183 108 124
-55.6957 -7.52711 -0.474388 132 137 135
-57.6839 -7.61261 -0.498533 92 85 80
-7.17311 -14.8291 -0.205211 69 66 59
-7.22143 -14.8127 -0.205364 66 62 56
-7.28784 -14.7742 -0.20521 89 91 80
-7.59006 -14.8703 -0.210768 90 90 81
-7.56753 -14.7093 -0.206882 90 88 78
-7.59148 -14.6433 -0.205672 56 51 52
-13.8559 -7.69116 -0.191149 83 83 84
-42.8828 -15.1929 -0.497744 115 94 77
-38.4083 -13.339 -0.422725 96 83 71
-41.7449 -13.4795 -0.472889 74 49 51
-41.731 -13.331 -0.47203 131 112 81
-40.5215 -12.7357 -0.451368 76 54 46
-40.5586 -12.608 -0.451378 243 224 238
-40.5283 -12.4597 -0.4503 103 81 89
-62.5949 -7.76388 -0.558092 108 98 87
-67.6003 -7.95635 -0.618908 84 81 69
-55.8103 -0.832159 -0.471777 135 140 150
-55.724 -0.655579 -0.470758 114 124 142
-55.689 -0.47999 -0.47037 152 160 189
-55.6778 -0.217233 -0.470274 153 161 188
-7.53017 -15.0427 -0.214001 84 81 66
-7.53378 -14.9317 -0.211528 85 90 70
-7.9345 -15.0354 -0.21845 72 65 55
-8.04033 -15.1267 -0.221735 58 57 46
-8.12459 -15.1163 -0.222491 86 89 69
-8.18888 -15.1251 -0.223454 78 70 60
-9.8365 -14.1072 -0.223318 63 52 23
-12.083 -13.2399 -0.24194 80 49 50
-12.453 -13.1491 -0.24669 123 77 76
-44.8344 -12.865 -0.516544 72 52 52
-37.6353 -6.94242 -0.387668 134 99 98
-3.51654 -7.43313 -0.124388 72 74 70
-3.50743 -7.35172 -0.121178 69 65 61
-3.53801 -7.32908 -0.120845 80 76 61
-3.55941 -7.31695 -0.120762 70 70 61
-3.58659 -7.31745 -0.121256 75 71 62
-3.62365 -7.30896 -0.121582 60 60 47
-3.6619 -7.33273 -0.123145 62 58 47
-8.15402 -11.8938 -0.205197 108 98 28
-10.6704 -14.9793 -0.253497 52 47 20
-8.50249 -11.6953 -0.206331 114 102 75
-8.61061 -11.7697 -0.209924 63 54 26
-8.88181 -11.6828 -0.212609 83 60 32
-11.6973 -15.0128 -0.269749 112 122 48
-12.0055 -14.1417 -0.257671 74 64 48
-12.0321 -13.8634 -0.252794 76 66 58
-12.3128 -14.0588 -0.261193 47 47 48
-12.2266 -13.8711 -0.256198 58 55 50
-12.4844 -13.9919 -0.262841 76 66 54
-12.5839 -13.9727 -0.264164 76 60 53
-12.5604 -13.8591 -0.261647 80 57 54
-12.3965 -13.4622 -0.251453 82 48 49
-12.6047 -13.6069 -0.257733 98 52 56
-12.6398 -13.5604 -0.257491 131 80 78
-12.7611 -13.5646 -0.259673 123 78 75
-13.0461 -13.4042 -0.2618 50 46 40
-13.0333 -13.3076 -0.25984 48 49 41
-13.0755 -13.2268 -0.259141 99 94 91
-13.0672 -13.1362 -0.257383 41 37 30
-13.067 -13.0543 -0.255928 83 80 68
-13.1641 -13.0302 -0.257252 87 85 68
-13.2466 -13.0317 -0.258782 57 61 39
-13.3391 -13.0426 -0.260665 88 94 68
-13.4303 -13.0517 -0.262498 49 56 39
-13.5409 -13.0379 -0.264278 54 54 46
-47.347 -13.4247 -0.556562 113 82 82
-47.3766 -13.2729 -0.556424 94 64 69
-50.057 -12.846 -0.595338 222 193 172
-5.45205 -13.3058 -0.20457 59 70 61
-5.46722 -13.2244 -0.202545 70 78 61
-5.53021 -13.2636 -0.20428 74 81 65
-5.58883 -13.2312 -0.204043 71 83 63
-5.65227 -13.2698 -0.205777 69 81 59
-5.64353 -13.1328 -0.202018 62 69 54
-5.70162 -13.1582 -0.203347 66 74 50
-5.81405 -13.2538 -0.20716 76 78 65
-5.80551 -13.1205 -0.203516 62 70 58
-8.22966 -12.7176 -0.226291 141 104 56
-8.54222 -12.5981 -0.228394 158 153 32
-8.63811 -12.5307 -0.228343 98 77 15
-8.58781 -12.3737 -0.223778 104 91 55
-8.81075 -12.207 -0.223568 59 53 34
-8.77546 -11.9213 -0.216294 122 120 46
-8.87977 -11.7942 -0.215151 103 106 33
-8.99928 -11.764 -0.216549 133 118 85
-9.70439 -11.8016 -0.23015 45 55 33
-9.78226 -11.8227 -0.232067 75 87 64
-13.8674 -14.5773 -0.297569 118 76 77
-13.9959 -14.6229 -0.300665 118 77 73
-14.6632 -13.7434 -0.297257 148 113 87
-14.7519 -13.7416 -0.298889 133 109 86
-14.8146 -13.7149 -0.299611 72 73 65
-14.7217 -13.5001 -0.29421 79 91 78
-14.9561 -13.5475 -0.299449 48 50 44
-14.8608 -13.3337 -0.294047 52 54 48
-14.8632 -13.2527 -0.292746 46 47 41
-14.9292 -13.2291 -0.29362 38 41 33
-14.9682 -13.1394 -0.292873 52 57 38
-16.9996 -7.03412 -0.256928 146 109 76
-17.0005 -6.9725 -0.256386 127 103 60
-47.6661 -7.55519 -0.543703 81 62 63
-6.17635 -13.6954 -0.22306 65 72 54
-10.4569 -17.7368 -0.309093 126 71 39
-10.5388 -17.7512 -0.310462 119 64 28
-8.21636 -13.2801 -0.239863 130 116 97
-8.21354 -13.1833 -0.237438 91 79 56
-8.16525 -13.0134 -0.232525 83 72 45
-8.24777 -13.0115 -0.23374 144 117 61
-8.30684 -13.0167 -0.234786 165 140 82
-8.32558 -12.9574 -0.233633 115 86 23
-8.42113 -12.8866 -0.233407 84 56 4
-8.56357 -13.0202 -0.238907 133 98 41
-8.61884 -13.0174 -0.239722 157 131 44
-8.65844 -12.9459 -0.238624 161 141 41
-8.71366 -12.9426 -0.239439 120 113 16
-11.3703 -16.8653 -0.302763 127 121 19
-9.67501 -12.3805 -0.242664 94 98 24
-9.6164 -12.2259 -0.238099 83 85 15
-9.86395 -12.4657 -0.248001 55 60 31
-9.92297 -12.4215 -0.248064 83 97 63
-10.0266 -12.3945 -0.249351 82 89 55
-9.87982 -12.0944 -0.239923 59 68 49
-10.1253 -12.1275 -0.245209 72 81 63
-10.332 -12.3008 -0.252914 78 83 67
-10.1955 -11.8714 -0.240897 64 56 44
-14.1437 -14.6415 -0.303608 119 87 84
-14.8461 -14.225 -0.308954 83 75 65
-15.9544 -13.3265 -0.315087 77 86 73
-16.4067 -13.6224 -0.328716 78 84 71
-16.4609 -13.5815 -0.329137 43 46 38
-10.2385 -17.9338 -0.310644 111 65 38
-10.2646 -17.85 -0.309133 131 83 60
-10.3459 -17.799 -0.309032 128 81 63
-9.47227 -13.2711 -0.259783 74 63 40
-16.1403 -15.3859 -0.352975 104 86 74
-16.2002 -15.2994 -0.352583 130 96 72
-17.5245 -14.3318 -0.36205 53 56 47
-17.6102 -14.3113 -0.363434 72 79 68
-16.6779 -13.4593 -0.331512 77 83 68
-17.3677 -13.9333 -0.352687 68 74 59
-17.1068 -13.5905 -0.342123 46 51 41
-17.2547 -13.6218 -0.345582 53 63 36
-17.1463 -13.4488 -0.340739 124 130 101
-17.2668 -13.4142 -0.342627 75 57 58
-17.3883 -13.4229 -0.345226 114 78 83
-17.6063 -13.5057 -0.350914 120 79 81
-17.95 -13.6836 -0.360601 119 79 78
-17.6891 -13.2657 -0.34899 123 90 91
-17.6916 -13.1817 -0.347792 83 73 65
-17.8823 -13.1955 -0.35191 72 76 65
-17.8811 -13.1087 -0.350611 85 88 75
-17.9439 -13.0695 -0.351338 56 59 45
-18.0964 -13.0524 -0.354241 76 79 69
-18.2287 -13.0626 -0.357146 79 75 70
-18.3466 -13.0617 -0.359595 135 128 125
-18.5106 -12.5798 -0.356209 41 45 43
-13.824 -7.79657 -0.249309 46 45 54
-13.7605 -7.7045 -0.246421 54 53 64
-13.803 -7.67223 -0.247073 58 59 63
-57.7849 -7.67251 -0.700502 83 72 72
-7.24605 -14.6972 -0.262381 83 87 65
-7.59198 -14.6546 -0.265741 64 61 54
-7.55204 -14.408 -0.258856 81 70 66
-7.5864 -14.3655 -0.258222 67 65 50
-7.63344 -14.3476 -0.258397 56 64 41
-8.00373 -14.78 -0.274477 65 61 42
-8.054 -14.7643 -0.274769 146 122 100
-8.10047 -14.7415 -0.27483 110 92 65
-9.95395 -14.285 -0.291821 61 55 26
-9.87818 -14.0336 -0.284591 125 98 54
-9.90084 -13.9737 -0.283556 88 76 50
-10.3141 -13.8222 -0.287068 96 97 22
-19.4756 -13.7821 -0.393546 42 40 46
-19.5574 -13.7035 -0.394122 44 45 37
-19.4917 -13.5666 -0.390799 59 63 60
-19.5563 -13.5217 -0.391527 83 81 76
-67.7366 -7.80222 -0.855117 90 82 80
-7.47906 -15.0636 -0.274875 73 77 56
-7.51154 -15.0121 -0.273951 90 94 72
-7.67852 -15.1747 -0.28031 91 102 74
-7.72356 -15.1477 -0.280196 63 72 48
-7.7211 -15.0259 -0.277017 81 97 58
-7.96828 -14.8238 -0.275111 67 76 44
-11.2946 -14.0743 -0.310282 44 50 27
-12.0026 -13.9165 -0.31997 59 50 47
-11.9492 -13.7671 -0.315696 114 103 105
-12.2994 -13.9543 -0.326479 87 85 83
-12.0143 -13.5423 -0.312076 73 68 65
-12.1207 -13.5784 -0.314922 76 66 56
-12.0827 -13.4087 -0.31053 67 50 44
-12.2583 -13.1467 -0.308436 123 76 72
-12.4224 -13.1184 -0.311117 119 75 76
-13.0345 -13.3912 -0.329165 51 49 37
-13.0103 -13.2833 -0.326454 37 38 32
-13.0551 -13.2055 -0.325769 84 86 76
-13.0382 -13.1066 -0.323406 90 96 75
-13.0504 -13.0378 -0.322259 66 68 53
-13.1546 -13.0207 -0.324064 87 88 72
-13.24 -13.0248 -0.325928 82 92 62
-13.3227 -13.0258 -0.327677 66 69 52
-13.4127 -13.0333 -0.329716 46 46 36
-13.5276 -13.0236 -0.331926 48 47 41
-20.2249 -7.79477 -0.34052 73 59 16
-20.1813 -7.70558 -0.338712 114 95 50
-9.27885 -21.1326 -0.372324 59 64 51
-12.9305 -21.4901 -0.422601 126 94 32
-12.3322 -14.0799 -0.329827 68 60 62
-12.8443 -14.1743 -0.341799 81 57 53
-12.8036 -14.041 -0.338163 74 45 43
-8.78719 -7.54759 -0.215653 57 63 61
-8.79806 -7.50999 -0.215067 51 56 53
-8.82349 -7.46143 -0.214628 63 73 61
-8.85818 -7.44465 -0.21523 44 50 40
-21.5136 -14.7388 -0.449949 80 83 72
-22.0757 -14.7752 -0.462374 60 62 59
-22.2223 -14.774 -0.465486 70 75 73
-22.2212 -14.6735 -0.46409 78 80 74
-22.7828 -14.9453 -0.479819 62 68 65
-21.7607 -14.1243 -0.446757 58 61 53
-23.117 -14.9094 -0.486501 75 80 74
-23.0566 -14.6164 -0.481278 46 43 36
-23.1791 -14.5935 -0.483633 56 45 52
-23.1226 -14.457 -0.480616 60 50 48
-23.338 -14.4916 -0.485758 120 109 85
-22.3269 -13.7145 -0.4536 66 54 51
-22.3639 -13.6415 -0.453471 73 56 67
-22.4074 -13.5725 -0.453545 75 54 67
-22.0646 -13.1288 -0.440361 106 87 83
-22.8015 -13.4746 -0.460962 115 98 88
-22.6677 -13.2519 -0.455206 125 106 95
-22.6842 -13.1668 -0.45452 89 82 69
-22.0424 -12.6997 -0.43452 106 96 87
-22.8616 -13.0805 -0.457405 95 89 78
-22.2316 -12.2605 -0.433415 46 51 56
-13.1021 -24.1306 -0.482752 65 48 24
-12.7956 -15.1779 -0.362658 64 63 48
-12.8578 -15.1566 -0.363363 57 56 47
-13.5951 -14.6864 -0.367475 76 36 34
-13.7226 -14.4154 -0.364335 117 73 74
-13.9857 -14.6031 -0.373552 117 76 74
-13.9899 -14.4715 -0.370899 110 81 77
-14.7251 -14.0982 -0.378559 99 86 76
-14.7829 -14.0662 -0.379151 111 88 74
-14.6806 -13.6668 -0.369112 124 101 80
-14.7425 -13.5968 -0.369065 73 78 67
-14.6903 -13.4642 -0.365372 83 88 72
-14.7141 -13.4023 -0.36469 73 75 62
-14.8276 -13.4224 -0.367542 61 62 54
-14.8869 -13.3505 -0.367438 57 62 55
-15.0855 -13.4455 -0.373592 70 72 59
-14.9911 -13.2776 -0.368335 73 75 63
-15.4436 -13.5527 -0.383466 62 66 54
-15.3546 -13.3899 -0.378441 64 65 59
-15.9765 -13.2506 -0.389722 90 93 83
-23.4549 -15.0255 -0.495342 69 78 75
-16.9587 -7.01703 -0.322574 156 112 75
-16.9743 -6.96165 -0.322417 123 89 55
-13.5477 -24.5048 -0.496444 74 53 31
-13.5836 -24.3892 -0.49433 68 41 35
-13.7333 -24.3907 -0.496198 103 59 44
-10.2203 -17.8829 -0.384156 115 76 47
-10.2451 -17.7975 -0.382367 119 78 49
-10.3508 -17.79 -0.383697 112 70 44
-14.4271 -15.6913 -0.405209 81 50 48
-16.1361 -15.2202 -0.43065 137 101 79
-16.199 -15.185 -0.431302 151 112 83
-16.4474 -13.4289 -0.4036 65 73 58
-17.0749 -13.6806 -0.422423 70 71 67
-17.2133 -13.6604 -0.42522 57 62 55
-17.2224 -13.5807 -0.42402 67 77 45
-17.3332 -13.5813 -0.426586 113 117 90
-17.5884 -13.65 -0.433672 82 53 63
-17.335 -13.3663 -0.422851 110 74 81
-17.2367 -13.205 -0.417768 125 84 80
-17.5792 -13.3386 -0.428042 121 79 83
-17.4832 -13.18 -0.423074 118 79 83
-17.653 -13.2228 -0.427787 111 82 83
-17.6728 -13.1521 -0.427051 80 76 71
-17.8495 -13.0696 -0.429809 80 82 68
-25.5211 -13.5214 -0.522323 96 92 84
-26.0529 -13.5452 -0.534648 99 93 78
-26.7439 -13.537 -0.5503 83 80 60
-27.3104 -13.6118 -0.564101 103 97 102
-27.5433 -13.5675 -0.568948 89 84 79
-11.267 -25.4672 -0.492812 44 53 43
-15.431 -16.4297 -0.440732 124 81 75
-17.6231 -14.5319 -0.450231 73 79 67
-17.5477 -14.2413 -0.443252 66 73 55
-17.5853 -14.1816 -0.443037 69 75 60
-17.8622 -13.1644 -0.431704 69 75 61
-17.9477 -13.0563 -0.431913 69 78 57
-18.1021 -13.04 -0.435292 73 77 65
-18.2265 -13.0441 -0.438325 105 102 95
-18.3511 -13.0476 -0.441357 72 69 65
-18.4353 -12.5121 -0.434681 48 50 49
-30.0382 -16.3539 -0.657274 101 100 92
-30.3862 -16.3599 -0.665164 99 97 79
-29.7804 -15.9121 -0.646281 68 58 47
-29.652 -15.6056 -0.639851 101 98 89
-30.1015 -15.544 -0.649345 103 92 81
-30.0872 -15.4176 -0.647601 95 86 76
-29.8669 -15.0103 -0.638026 100 97 82
-27.7677 -13.571 -0.57415 90 92 75
-28.5894 -13.7541 -0.595059 82 78 80
-29.0379 -13.5816 -0.60362 104 85 73
-19.4375 -13.7321 -0.478597 65 67 56
-19.6843 -13.7695 -0.485109 54 59 54
-19.5464 -13.5823 -0.47875 45 49 42
-19.5553 -13.4985 -0.47761 70 73 61
-19.6755 -13.4463 -0.479658 62 64 58
-30.8472 -14.6684 -0.656882 70 67 61
-31.357 -14.4932 -0.666871 121 83 81
-31.4487 -14.4165 -0.668223 97 66 65
-30.5703 -13.8963 -0.642478 97 70 82
-30.4802 -13.7402 -0.638804 103 67 71
-30.5291 -13.5902 -0.63843 131 73 72
-30.6784 -13.5422 -0.641456 143 79 67
-30.5335 -13.3639 -0.63631 190 114 90
-30.5567 -13.2034 -0.635276 97 51 41
-30.6173 -13.1163 -0.635866 152 139 126
-30.8852 -13.1174 -0.642191 102 84 44
-31.4685 -12.6741 -0.651843 86 59 28
-31.524 -12.582 -0.652332 99 98 98
-31.5087 -12.4617 -0.650891 136 136 132
-20.1691 -7.76114 -0.41758 115 98 66
-20.1645 -7.68725 -0.416728 146 123 81
-3.53825 -7.33498 -0.175827 64 74 46
-3.5597 -7.32288 -0.175731 67 75 52
-3.59673 -7.31462 -0.176112 67 77 52
-3.62555 -7.3187 -0.17688 73 84 57
-11.3445 -20.5557 -0.467607 138 122 78
-11.4456 -20.589 -0.469867 94 72 39
-11.5653 -20.6552 -0.473227 108 72 59
-11.9436 -20.4293 -0.472952 126 79 52
-12.1692 -20.6724 -0.482328 100 59 31
-12.3038 -20.7555 -0.486383 125 85 47
-12.4791 -20.6841 -0.487199 141 119 33
-21.9662 -14.6678 -0.554697 41 43 39
-22.1194 -14.671 -0.558489 47 48 44
-22.1946 -14.6217 -0.559554 55 55 51
-22.3632 -14.6333 -0.563869 74 79 75
-21.759 -14.092 -0.540634 56 57 43
-21.1513 -13.1886 -0.511857 64 62 76
-22.4579 -13.7633 -0.552969 65 47 64
-22.5224 -13.7065 -0.553746 73 51 62
-22.6482 -13.6868 -0.556611 74 56 59
-22.5283 -13.3755 -0.549056 115 97 93
-22.6296 -13.3406 -0.55111 122 102 92
-22.6724 -13.2232 -0.550494 65 56 59
-22.6732 -13.1292 -0.549183 71 68 68
-22.0261 -12.6623 -0.526171 101 95 86
-22.8889 -13.0645 -0.553755 73 70 63
-33.7738 -14.1635 -0.720239 119 99 60
-34.096 -13.305 -0.720026 154 142 103
-35.3218 -13.2149 -0.748551 133 104 56
-3.4879 -7.43644 -0.179294 63 72 53
-3.49309 -7.38601 -0.177178 64 76 56
-3.51753 -7.34885 -0.176021 74 84 62
-3.65857 -7.33174 -0.178129 61 70 46
-8.05157 -11.7572 -0.314439 158 119 61
-8.76114 -7.5491 -0.261692 75 78 74
-8.781 -7.51945 -0.261534 48 50 39
-8.81552 -7.4788 -0.261541 37 43 43
-8.82298 -7.43861 -0.260725 40 45 38
-8.87897 -7.43985 -0.262545 66 68 64
-22.9828 -14.7852 -0.581428 69 73 59
-23.1326 -14.7801 -0.585048 59 69 60
-23.088 -14.5998 -0.581184 62 56 58
-23.1735 -14.5531 -0.5826 70 64 72
-23.5352 -14.526 -0.591173 48 46 56
-36.0789 -13.3707 -0.768037 197 145 116
-36.0786 -13.2422 -0.766957 167 110 93
-36.2936 -13.1281 -0.771158 114 86 75
-36.9499 -13.2358 -0.787854 116 88 68
-37.9966 -13.4781 -0.815064 136 103 76
-38.3093 -13.387 -0.821858 153 118 99
-38.2606 -13.1014 -0.818432 118 91 51
-7.77276 -12.3519 -0.327309 66 55 14
-8.18716 -11.8414 -0.319854 103 72 23
-8.39756 -12.0746 -0.331428 174 146 95
-8.57414 -12.1731 -0.338187 81 65 28
-8.63064 -12.1337 -0.338189 103 77 52
-8.44474 -11.7858 -0.323657 114 85 59
-8.42146 -11.6749 -0.319806 135 102 57
-8.61034 -11.827 -0.328485 102 88 26
-8.81323 -12.0349 -0.33917 136 114 39
-24.8986 -13.5011 -0.611176 100 101 85
-25.2163 -13.5211 -0.619617 104 95 80
-25.6258 -13.5358 -0.630406 98 96 84
-25.8124 -13.5316 -0.635192 94 91 81
-26.1038 -13.529 -0.642707 107 95 78
-39.1405 -13.5411 -0.84318 120 89 65
-38.4855 -12.9768 -0.82289 125 90 65
-38.6104 -12.8844 -0.825214 123 94 87
-38.7672 -12.8021 -0.828403 126 92 80
-39.9635 -13.06 -0.859433 114 73 55
-39.9172 -12.8372 -0.856629 157 134 126
-40.3045 -12.823 -0.865967 226 201 173
-40.4046 -12.7156 -0.867633 126 86 71
-41.3649 -12.8054 -0.891709 167 135 99
-40.5109 -12.401 -0.867969 118 84 74
-7.75841 -12.4148 -0.329012 98 87 41
-8.34296 -12.5754 -0.345721 134 106 23
-8.56018 -12.2339 -0.339739 108 92 39
-8.93733 -12.1296 -0.344739 134 113 27
-9.13862 -12.2891 -0.353938 144 119 23
-9.15994 -12.2384 -0.352906 151 134 32
-9.21288 -12.2312 -0.353876 128 117 8
-9.363 -12.3556 -0.360928 98 91 12
-9.31304 -12.1683 -0.354256 93 103 30
-9.35521 -12.1461 -0.354559 105 103 51
-9.47427 -12.2257 -0.359609 55 50 43
-9.45236 -12.0787 -0.354791 84 80 69
-9.62184 -12.2224 -0.362883 48 50 38
-9.62159 -12.1438 -0.360589 86 79 63
-9.68583 -12.1489 -0.362228 87 88 57
-9.73971 -12.101 -0.362084 75 78 53
-9.97847 -12.3264 -0.374182 39 47 28
-9.9344 -12.1925 -0.369293 67 66 53
-10.0159 -12.1778 -0.370781 59 67 45
-10.0195 -12.105 -0.368785 78 87 56
-9.89049 -11.8696 -0.359 84 95 59
-27.6272 -13.5615 -0.682927 100 91 77
-27.8503 -13.5633 -0.688819 100 89 91
-28.0376 -13.5464 -0.693551 85 76 67
-28.407 -13.6158 -0.704147 81 70 65
-28.8889 -13.6806 -0.717646 84 73 62
-28.8567 -13.5552 -0.715295 100 86 77
-43.3184 -12.9671 -0.94067 123 98 76
-43.8548 -12.9037 -0.953368 102 87 84
-44.1625 -12.8441 -0.960526 128 121 109
-44.3782 -12.7563 -0.965247 114 95 71
-45.1398 -12.7462 -0.983894 128 102 77
-36.4135 -7.13214 -0.735708 139 116 110
-36.5909 -6.98829 -0.739508 148 117 120
-37.6019 -6.93796 -0.764711 197 168 155
-5.38913 -13.1742 -0.31486 68 77 55
-5.58182 -13.2433 -0.319894 68 79 63
-5.70309 -13.2475 -0.321741 64 73 52
-8.01975 -12.985 -0.352148 151 127 54
-8.21703 -12.9924 -0.356234 155 139 60
-8.28685 -12.9699 -0.356902 133 120 13
-8.34365 -12.9717 -0.358092 156 129 32
-8.40586 -12.9817 -0.359654 164 130 29
-8.45009 -12.9628 -0.359954 176 134 28
-8.54359 -12.9761 -0.362254 144 110 21
-8.57353 -12.8466 -0.358852 126 105 57
-10.3126 -12.2715 -0.380518 77 79 62
-10.391 -12.2889 -0.3829 54 55 41
-13.808 -7.73447 -0.374989 44 42 56
-13.7566 -7.6493 -0.371806 37 42 46
-13.8198 -7.62885 -0.37353 83 80 88
-30.0818 -15.4737 -0.771367 94 86 70
-30.0529 -15.3403 -0.768902 82 78 68
-30.5584 -15.2987 -0.781561 96 93 78
-30.9247 -14.4092 -0.780304 104 78 72
-31.1729 -14.3473 -0.786143 120 87 80
-31.3169 -14.2952 -0.789369 79 58 59
-30.4963 -13.8055 -0.761816 71 42 57
-30.4689 -13.6212 -0.758943 126 71 69
-30.5199 -13.5297 -0.759265 120 65 62
-30.6418 -13.4694 -0.761852 200 131 112
-30.5256 -13.3047 -0.756888 196 119 99
-30.5504 -13.1452 -0.755758 128 109 100
-30.6771 -13.0862 -0.75852 137 116 92
-30.9546 -13.0904 -0.766044 113 101 57
-45.594 -12.7206 -0.994918 114 94 66
-46.8373 -12.9105 -1.02678 114 100 63
-47.203 -12.7728 -1.03491 116 103 70
-47.965 -12.8183 -1.05402 117 102 73
-47.8575 -12.6287 -1.05021 99 86 75
-48.1896 -12.555 -1.05798 114 103 96
-48.8371 -12.4789 -1.07353 131 100 74
-49.2177 -12.4121 -1.08258 142 110 77
-5.62809 -13.6036 -0.332947 69 81 59
-5.55266 -13.2896 -0.321082 66 74 59
-5.66891 -13.2811 -0.32241 62 74 52
-5.93388 -13.5122 -0.334118 64 72 49
-5.96474 -13.4686 -0.333079 58 61 49
-5.9743 -13.3753 -0.330039 54 55 48
-6.10751 -13.572 -0.338714 51 55 44
-31.8945 -13.3117 -0.793785 144 123 78
-31.4493 -12.6092 -0.774279 103 84 69
-31.5232 -12.5246 -0.775414 117 116 123
-50.1038 -12.4692 -1.1049 131 108 65
-51.0046 -12.4393 -1.12707 134 108 71
-51.4597 -12.3796 -1.13805 137 104 74
-52.1072 -12.363 -1.15407 149 113 87
-53.9856 -12.5417 -1.20177 142 108 83
-54.481 -12.477 -1.21377 144 110 87
-11.8383 -13.9535 -0.464884 58 61 41
-12.0894 -13.9435 -0.470695 56 59 44
-12.0544 -13.8151 -0.466253 72 73 59
-12.0051 -13.6276 -0.459805 69 76 62
-12.4281 -13.5531 -0.468319 86 50 52
-13.0171 -13.3052 -0.476791 80 81 78
-13.0164 -13.2218 -0.474576 28 29 33
-13.0345 -13.1169 -0.472284 36 37 31
-13.0245 -13.0253 -0.469623 71 71 66
-13.0855 -13.0062 -0.470748 42 47 39
-13.1867 -12.9863 -0.472909 40 45 16
-13.2831 -13.0017 -0.475889 78 82 50
-13.3628 -12.9998 -0.477979 59 65 34
-13.4511 -13.006 -0.480514 91 92 74
-13.5514 -12.9823 -0.482602 89 77 61
-35.4318 -13.1858 -0.888752 150 98 74
-35.3334 -13.0235 -0.884488 171 107 81
-36.1053 -13.1796 -0.907189 128 81 60
-36.2207 -13.0292 -0.908911 147 113 86
-36.2963 -12.9282 -0.910053 138 98 66
-55.3056 -12.4838 -1.23437 137 110 84
-56.1229 -12.4838 -1.25477 123 100 72
-57.6897 -12.5484 -1.29419 112 92 67
-58.4891 -12.5305 -1.31408 117 102 76
-59.1405 -12.4763 -1.33011 117 104 70
-60.1086 -12.3856 -1.35387 111 101 68
-47.5616 -7.70745 -1.0186 88 73 72
-47.5925 -7.55915 -1.01885 138 129 127
-55.1689 -0.878334 -1.0817 166 192 213
-7.00991 -14.4821 -0.383338 59 64 49
-7.08169 -14.5187 -0.385711 66 70 55
-7.16996 -14.5894 -0.389494 57 69 44
-7.45122 -15.0035 -0.407879 60 69 50
-7.38262 -14.6257 -0.394164 55 66 48
-7.54312 -14.7802 -0.401946 58 64 48
-7.66579 -14.9129 -0.408398 64 64 47
-7.61561 -14.6967 -0.400391 76 71 60
-7.81166 -14.8004 -0.407138 57 52 49
-7.83369 -14.7304 -0.405212 57 59 48
-7.90848 -14.7633 -0.407587 52 59 43
-7.93283 -14.6422 -0.404025 102 99 69
-12.5137 -14.5345 -0.497617 62 67 50
-12.4304 -13.944 -0.479115 52 49 41
-12.8374 -14.1849 -0.4959 69 44 38
-13.2061 -14.1055 -0.503073 125 77 73
-14.191 -13.2286 -0.506252 156 125 100
-14.5484 -13.4827 -0.522446 69 60 43
-14.712 -13.2581 -0.521383 67 67 62
-37.7812 -13.3236 -0.954669 144 102 77
-37.5011 -13.0271 -0.944187 159 120 87
-37.8149 -13.0035 -0.952653 145 103 62
-38.1139 -12.9729 -0.960655 161 122 83
-38.4484 -12.8854 -0.969123 144 105 75
-38.6984 -12.8344 -0.975615 144 106 77
-38.842 -12.7471 -0.978851 170 124 91
-39.8313 -12.9334 -1.00796 155 117 94
-61.0168 -12.3736 -1.37656 114 98 80
-61.9861 -12.3682 -1.40084 99 89 89
-52.5649 -7.7606 -1.14516 89 80 83
-55.6702 -7.5962 -1.22318 99 99 100
-55.0209 -0.707098 -1.07827 175 191 219
-54.9821 -0.53795 -1.07747 174 186 210
-54.9768 -0.369311 -1.07748 178 193 219
-54.9831 -0.116433 -1.07784 176 190 219
-8.06026 -12.0688 -0.382889 91 55 4
-8.11406 -12.0284 -0.382725 176 141 90
-8.14109 -11.9886 -0.381988 93 59 21
-8.26465 -11.9725 -0.384298 102 68 22
-8.22743 -11.8381 -0.37887 141 105 56
-8.23561 -11.7717 -0.376817 105 78 35
-8.32054 -11.7003 -0.376411 130 94 57
-8.43199 -11.7828 -0.381848 134 98 48
-8.833 -11.8025 -0.392243 162 137 27
-13.6113 -14.7293 -0.530283 82 41 41
-13.557 -14.5781 -0.524803 124 76 72
-13.7346 -14.543 -0.528385 124 77 73
-13.9183 -14.6492 -0.535965 121 77 74
-13.9033 -14.542 -0.532712 122 79 75
-13.885 -14.4322 -0.52931 121 77 73
-14.7277 -13.5238 -0.528395 63 66 46
-14.778 -13.4861 -0.528854 59 64 41
-14.9207 -13.5335 -0.533989 87 90 77
-15.1091 -13.4093 -0.536181 80 81 68
-15.0789 -13.2985 -0.532631 68 69 60
-16.1288 -13.5379 -0.568216 85 87 82
-15.9727 -13.1943 -0.555622 31 36 30
-16.0194 -13.1497 -0.555934 55 60 54
-16.0957 -13.0046 -0.554775 90 99 70
-17.0513 -7.07627 -0.474472 136 91 47
-17.0027 -6.99385 -0.471661 103 70 22
-39.9499 -12.7646 -1.0098 209 181 152
-40.2785 -12.7306 -1.01868 176 129 100
-40.43 -12.6393 -1.02215 122 98 63
-40.4596 -12.44 -1.02132 147 97 61
-40.4632 -12.3025 -1.02031 157 117 83
-42.1636 -12.6747 -1.07088 118 84 58
-42.2335 -12.4794 -1.07128 115 91 69
-42.6303 -12.4514 -1.08219 108 93 69
-36.634 -7.23128 -0.87787 94 92 93
-57.6734 -7.5938 -1.27388 101 91 92
-62.598 -7.8448 -1.39943 75 69 78
-3.49517 -7.46065 -0.219609 59 63 47
-3.515 -7.41256 -0.217699 63 68 54
-3.5318 -7.3896 -0.216956 64 66 55
-3.54848 -7.36661 -0.216214 61 63 50
-3.58565 -7.35839 -0.216634 64 65 51
-3.61294 -7.35885 -0.217268 67 73 56
-3.63941 -7.35739 -0.217797 64 73 53
-3.68507 -7.36677 -0.219276 63 68 54
-11.2203 -16.6534 -0.53106 157 125 63
-8.41287 -12.3159 -0.399441 150 104 59
-8.51168 -12.0954 -0.39427 126 99 58
-8.80616 -12.2371 -0.406051 143 103 49
-8.7368 -12.0191 -0.397082 110 84 35
-8.85973 -12.1125 -0.403178 108 84 39
-9.01602 -12.2505 -0.411578 139 121 52
-8.8813 -11.9458 -0.398164 121 94 17
-9.30186 -12.3621 -0.422292 137 118 16
-9.33033 -12.3206 -0.421639 83 74 0
-9.37789 -12.2648 -0.420984 105 110 43
-9.34219 -12.1387 -0.415969 63 66 37
-9.51908 -12.0977 -0.419112 46 53 31
-9.69102 -12.2419 -0.428173 72 71 48
-9.87977 -12.2089 -0.431976 50 50 30
-10.0987 -12.1329 -0.435294 75 79 53
-10.1448 -12.0738 -0.43464 90 96 63
-15.6458 -14.8369 -0.586612 121 92 71
-16.3502 -13.5963 -0.575951 66 67 62
-17.0907 -13.7315 -0.600606 67 78 55
-17.4184 -13.9091 -0.614286 91 100 66
-17.394 -13.7566 -0.610068 111 121 79
-17.5065 -13.7583 -0.613426 67 79 45
-17.4423 -13.6196 -0.608393 114 122 85
-17.3844 -13.4433 -0.60269 84 70 45
-17.5737 -13.5042 -0.609688 114 85 74
-17.4699 -13.3372 -0.602872 121 93 83
-17.3574 -13.1221 -0.594718 118 82 76
-17.2467 -12.9532 -0.587679 130 93 92
-17.2419 -12.8658 -0.585616 72 54 49
-17.4298 -12.9234 -0.59254 48 51 40
-17.6241 -12.9418 -0.598795 61 65 50
-17.5129 -12.7755 -0.59183 42 46 35
-17.6759 -12.8117 -0.597567 68 70 62
-17.7707 -12.7548 -0.599217 70 70 61
-18.2516 -13.018 -0.619513 159 150 144
-17.5504 -12.43 -0.585583 45 45 42
-18.3884 -12.5206 -0.613304 74 79 69
-18.43 -12.4655 -0.613471 75 82 74
-13.7044 -7.6788 -0.434206 82 81 79
-13.7416 -7.64389 -0.434879 37 41 49
-43.1828 -12.4659 -1.09782 112 99 66
-44.0663 -12.5711 -1.12345 113 97 69
-44.6783 -12.5185 -1.14025 123 107 65
-45.6544 -12.6374 -1.16861 119 109 58
-45.7758 -12.5166 -1.17116 107 99 51
-46.2097 -12.4017 -1.18255 117 109 59
-46.7228 -12.3823 -1.1969 117 109 64
-36.653 -7.05598 -0.877499 96 80 81
-36.6153 -6.9297 -0.875788 102 99 95
-37.6045 -6.99415 -0.904519 255 251 222
-67.6295 -7.72288 -1.52673 107 99 111
-10.2874 -17.7774 -0.548267 132 95 70
-10.3684 -17.7264 -0.548118 115 79 54
-8.21218 -13.0859 -0.421547 134 109 70
-8.13722 -12.8737 -0.412498 154 136 50
-8.28884 -12.9839 -0.419657 102 73 8
-8.34789 -12.989 -0.421143 174 140 50
-8.40705 -12.9938 -0.422628 163 121 49
-8.44703 -12.9681 -0.422632 176 131 40
-8.51265 -12.9377 -0.423044 188 150 47
-8.59802 -12.982 -0.426504 145 98 21
-9.94254 -12.4454 -0.441183 50 52 25
-9.91023 -12.3254 -0.436497 68 67 44
-10.032 -12.322 -0.439557 62 59 34
-10.0427 -12.2181 -0.436515 54 63 41
-10.113 -12.2274 -0.438662 74 79 58
-16.684 -15.6879 -0.636428 147 109 89
-17.9359 -14.6042 -0.645423 64 67 60
-18.8445 -13.2253 -0.642056 67 70 64
-19.4053 -13.5332 -0.665772 81 84 73
-19.3406 -13.3982 -0.660962 70 73 64
-19.5734 -13.4711 -0.669673 74 73 69
-19.7474 -13.1431 -0.668338 85 84 80
-13.7979 -7.61948 -0.436459 81 80 86
-47.4816 -12.4239 -1.21865 113 97 72
-47.7072 -12.3232 -1.22434 113 97 71
-48.587 -12.3065 -1.24911 137 115 78
-49.1828 -12.2932 -1.26591 138 116 70
-49.94 -12.3159 -1.28754 128 111 55
-50.7696 -12.2669 -1.31075 117 104 50
-5.41437 -13.0804 -0.369225 70 81 65
-5.48074 -13.0127 -0.367659 58 70 58
-10.1907 -17.8645 -0.549297 105 68 49
-10.2265 -17.7984 -0.547818 115 76 58
-10.8434 -18.2952 -0.575267 103 70 32
-8.18688 -13.2748 -0.427634 103 87 14
-8.21433 -13.1808 -0.424918 105 76 40
-8.80074 -7.55694 -0.341528 64 72 59
-8.7846 -7.49565 -0.339034 72 72 72
-8.79677 -7.45943 -0.338368 38 37 42
-8.85369 -7.43831 -0.339817 37 36 32
-19.884 -13.1457 -0.672667 78 73 69
-20.0141 -13.1431 -0.676699 70 70 70
-20.1643 -13.153 -0.681623 57 54 54
-20.3237 -13.1228 -0.686026 77 75 68
-20.4762 -13.132 -0.691024 69 75 65
-20.6641 -13.163 -0.697584 78 79 73
-20.8377 -13.1378 -0.702582 43 42 38
-20.9977 -13.1484 -0.707879 43 44 48
-21.1326 -13.1422 -0.712062 61 60 72
-21.3086 -13.1146 -0.717135 70 67 71
-21.3139 -12.9354 -0.713909 62 44 42
-21.423 -12.6842 -0.712709 129 109 101
-21.3108 -12.5277 -0.70619 121 102 92
-21.4547 -12.4782 -0.709927 69 60 50
-20.101 -7.77283 -0.590076 98 76 39
-20.0891 -7.69621 -0.588682 118 100 53
-51.4115 -12.2512 -1.32889 125 110 69
-52.3806 -12.3083 -1.35681 117 101 58
-53.2277 -12.2429 -1.38048 132 112 75
-54.0951 -12.2635 -1.40532 126 104 76
-55.0197 -12.2914 -1.43185 117 95 73
-55.9451 -12.3136 -1.45838 119 97 76
-47.5401 -7.60624 -1.19331 114 105 114
-5.41363 -13.2589 -0.376062 64 72 57
-5.53679 -13.2701 -0.378358 65 77 64
-5.67704 -13.3209 -0.382465 63 77 53
-5.74014 -13.3574 -0.38485 64 74 52
-5.97425 -13.6251 -0.398751 65 73 60
-5.95382 -13.4601 -0.392166 61 69 55
-10.6692 -19.5812 -0.613727 107 103 56
-10.788 -19.5829 -0.615875 110 115 35
-10.8448 -19.5427 -0.615582 130 123 44
-10.9273 -19.5497 -0.617292 90 58 34
-11.4774 -19.2541 -0.61791 100 69 32
-11.6057 -19.2663 -0.620728 108 86 40
-11.6623 -19.2254 -0.620511 118 95 25
-10.9937 -14.0983 -0.521506 63 67 37
-11.604 -13.7534 -0.526357 64 67 44
-11.8398 -13.9488 -0.538797 64 68 43
-11.5084 -13.4676 -0.514849 56 62 50
-11.9551 -13.8661 -0.539306 69 74 65
-12.3544 -13.7194 -0.545695 69 50 47
-12.5001 -13.711 -0.549502 75 41 39
-13.0102 -13.3727 -0.553868 46 38 21
-12.9791 -13.2578 -0.549596 56 56 52
-13.0115 -13.2089 -0.549113 42 37 34
-13.0378 -13.1128 -0.547063 38 32 33
-13.0247 -13.0184 -0.543944 81 77 69
-13.0943 -13.0077 -0.545685 125 119 90
-13.1999 -12.9918 -0.548329 59 59 25
-13.2909 -13.0014 -0.551305 94 89 66
-13.375 -13.0036 -0.553869 54 55 31
-13.4707 -13.0165 -0.557092 99 97 70
-21.5254 -13.1569 -0.724886 92 80 72
-22.5875 -13.6193 -0.767737 75 60 51
-22.5838 -13.4732 -0.764861 82 67 64
-21.6428 -12.4985 -0.716416 127 120 84
-22.1059 -12.6765 -0.734723 119 116 78
-21.8043 -12.3666 -0.719283 71 68 62
-56.9196 -12.247 -1.48579 137 112 95
-57.5257 -12.1884 -1.50278 134 112 98
-57.78 -12.0529 -1.50929 144 127 114
-58.1015 -11.8346 -1.51727 158 140 135
-58.3472 -11.694 -1.52355 165 146 133
-52.5645 -7.64742 -1.33854 103 98 107
-7.70781 -14.6 -0.465546 64 60 49
-7.75836 -14.5872 -0.466042 59 62 49
-10.9763 -14.2125 -0.524794 89 87 46
-12.1941 -13.9706 -0.549038 69 72 63
-12.3795 -14.0527 -0.556619 47 49 38
-12.2913 -13.864 -0.548396 55 57 46
-12.3287 -13.82 -0.548076 44 41 32
-12.4724 -13.766 -0.550397 80 53 43
-12.9284 -14.0986 -0.573225 88 51 50
-13.0086 -14.0547 -0.574138 80 37 31
-13.056 -14.0188 -0.574395 134 84 77
-14.6753 -13.3769 -0.603637 64 62 37
-14.6413 -13.2625 -0.599449 61 55 38
-14.6436 -13.1821 -0.59732 57 53 41
-14.7077 -13.1165 -0.597496 58 56 33
-14.8135 -13.1293 -0.601134 71 69 50
-14.918 -13.1403 -0.604689 83 80 66
-15.0224 -13.1089 -0.60709 70 72 61
-24.9468 -13.5029 -0.842528 71 71 70
-61.8964 -9.19915 -1.61413 119 111 122
-55.7041 -7.47838 -1.42871 159 147 141
-55.0624 -1.01963 -1.27498 109 125 151
-54.8953 -0.595844 -1.2706 136 164 187
-54.9081 -0.42769 -1.27109 139 171 193
-54.8325 -0.259047 -1.26915 154 186 208
-54.8902 -0.00695084 -1.27097 176 196 216
-7.324 -14.9186 -0.470243 52 57 42
-7.38131 -14.86 -0.469087 61 69 54
-7.50894 -14.8885 -0.472462 54 65 48
-7.55078 -14.7987 -0.469907 63 67 50
-7.61962 -14.8222 -0.472048 63 61 49
-7.64204 -14.7526 -0.46991 75 66 61
-7.97489 -14.893 -0.481349 61 66 44
-13.7449 -14.6759 -0.6136 133 80 73
-13.7636 -14.4686 -0.607938 128 81 73
-13.9441 -14.5695 -0.616101 124 80 73
-14.1483 -14.6475 -0.624263 130 93 91
-14.826 -13.9004 -0.622778 154 118 89
-14.7699 -13.6758 -0.614815 79 69 51
-14.8289 -13.6028 -0.614578 70 68 47
-15.7807 -13.0994 -0.630828 77 80 73
-15.91 -13.1243 -0.635621 50 52 47
-16.015 -13.1282 -0.639096 62 61 56
-16.1438 -13.109 -0.642735 54 54 39
-16.1702 -13.0474 -0.642008 57 59 42
-16.3671 -13.1238 -0.650345 80 83 66
-16.5152 -13.1171 -0.654973 65 72 48
-17.1465 -12.5668 -0.662231 82 83 70
-25.1742 -13.4747 -0.849542 61 60 60
-25.9717 -13.6969 -0.879779 85 85 79
-26.3606 -13.5371 -0.890045 84 80 70
-16.9265 -7.01638 -0.543525 193 148 116
-16.9421 -6.96117 -0.543294 129 77 49
-63.3543 -8.19816 -1.65262 139 134 133
-63.3928 -8.00075 -1.65309 133 122 123
-62.6236 -7.70422 -1.62985 124 120 121
-63.6048 -7.62178 -1.65804 127 124 129
-15.3736 -14.7369 -0.662851 79 74 51
-15.3643 -14.6365 -0.659735 109 87 74
-15.4108 -14.5901 -0.659831 128 99 80
-17.2745 -13.6372 -0.692891 77 94 58
-17.4951 -13.7245 -0.702301 78 89 54
-17.4351 -13.5898 -0.696962 83 89 61
-17.2837 -13.3416 -0.68577 98 94 72
-17.6028 -13.5025 -0.70029 105 90 71
-16.9821 -12.9396 -0.665861 118 100 77
-17.1501 -12.8588 -0.669436 123 98 81
-17.1656 -12.7874 -0.668216 96 86 74
-17.176 -12.7124 -0.666749 74 72 60
-17.3332 -12.622 -0.66983 90 92 79
-17.6577 -12.7759 -0.684434 80 81 67
-17.7994 -12.7528 -0.688653 119 111 104
-17.996 -12.81 -0.696665 111 103 96
-18.4232 -12.5203 -0.704518 84 78 79
-30.2193 -16.6239 -1.07063 74 74 81
-29.5285 -15.4687 -1.02791 87 85 73
-29.9299 -15.2652 -1.03789 91 90 70
-27.361 -13.5718 -0.924136 103 97 65
-27.8661 -13.5537 -0.94085 109 103 68
-28.0547 -13.5378 -0.946977 99 94 63
-28.991 -13.8811 -0.984042 88 85 52
-29.4441 -13.9299 -1.00014 60 54 42
-19.074 -14.4039 -0.771192 108 89 68
-19.4899 -13.7886 -0.770368 107 106 104
-19.5064 -13.6639 -0.767995 103 101 101
-19.5599 -13.611 -0.768591 106 101 99
-19.6804 -13.6047 -0.772567 92 85 82
-19.7134 -13.2233 -0.764977 102 102 106
-19.8543 -13.1841 -0.768952 112 106 110
-19.9314 -13.1464 -0.770785 107 102 101
-20.0185 -13.1149 -0.773113 108 107 105
-30.3088 -16.5503 -1.07229 81 77 78
-31.5033 -16.3218 -1.10795 88 81 69
-30.2068 -15.2291 -1.04655 93 90 68
-30.3284 -15.1721 -1.0497 93 88 69
-29.8991 -14.6649 -1.02708 98 98 61
-30.4408 -14.2881 -1.03951 96 82 75
-29.4388 -13.7028 -0.996477 110 80 78
-30.5863 -14.066 -1.04106 118 89 85
-30.294 -13.8162 -1.02733 91 67 65
-30.3345 -13.7204 -1.02729 72 44 58
-30.4597 -13.6054 -1.02985 125 73 70
-30.5669 -13.5391 -1.03256 113 62 58
-30.5591 -13.4215 -1.03058 200 130 112
-30.4686 -13.268 -1.02525 195 118 100
-30.4914 -13.108 -1.02372 139 109 103
-30.7019 -13.0855 -1.03067 141 105 90
-31.0246 -13.1093 -1.04216 195 141 121
-9.81862 -17.7546 -0.621161 128 108 86
-9.90318 -17.7788 -0.623715 118 92 71
-9.9947 -17.815 -0.626845 140 106 90
-10.2058 -17.8686 -0.633018 120 89 73
-10.2317 -17.7851 -0.630553 134 102 91
-10.3104 -17.7953 -0.632532 130 96 75
-10.438 -17.8256 -0.636233 135 100 62
-10.8516 -18.2825 -0.661095 123 98 42
-10.7357 -17.764 -0.640278 135 119 45
-10.9206 -17.9487 -0.650734 119 93 30
-21.3227 -14.648 -0.852871 85 86 80
-20.1427 -13.0624 -0.776265 76 66 61
-20.2365 -13.0342 -0.778923 90 82 72
-20.3705 -13.0315 -0.78356 74 66 58
-20.5283 -13.043 -0.789351 73 69 62
-20.7035 -13.0193 -0.794977 67 67 59
-20.8669 -13.032 -0.801017 38 38 39
-21.0153 -13.0343 -0.806314 61 64 58
-21.1963 -13.0102 -0.812188 69 70 53
-21.3657 -13.0231 -0.818476 105 108 79
-21.2555 -12.8651 -0.811242 85 89 63
-21.1462 -12.7089 -0.804089 79 78 58
-21.4467 -12.754 -0.815736 107 89 79
-21.3518 -12.6076 -0.809326 128 106 92
-21.3372 -12.5094 -0.80679 141 118 104
-21.4813 -12.4595 -0.810935 98 91 76
-21.5696 -12.4213 -0.813348 67 64 54
-21.6024 -12.3509 -0.813122 63 57 47
-32.3423 -13.0766 -1.08738 183 120 92
-31.5407 -12.636 -1.05356 117 74 70
-33.3662 -13.1298 -1.12379 152 149 141
-20.181 -7.78411 -0.680591 169 109 74
-20.1075 -7.68385 -0.676318 142 99 68
-9.78712 -18.1662 -0.635477 53 61 37
-9.86465 -18.0408 -0.632438 75 57 59
-11.2042 -18.6868 -0.682819 135 132 49
-8.81373 -7.5959 -0.398993 86 89 77
-8.84425 -7.57531 -0.39953 88 90 81
-8.85811 -7.54022 -0.398901 105 105 100
-8.89878 -7.50445 -0.399331 96 94 95
-8.89868 -7.45762 -0.397749 97 97 97
-21.8019 -12.3303 -0.819906 90 81 77
-34.4356 -12.9339 -1.15868 155 115 75
-34.7982 -12.9467 -1.17159 163 125 87
-35.3689 -13.0342 -1.19276 162 119 79
-34.9968 -12.772 -1.17642 173 124 85
-35.1325 -12.635 -1.17951 177 131 87
-35.1072 -12.5018 -1.17702 186 134 93
-35.5288 -12.5275 -1.19223 172 123 81
-35.6768 -12.3917 -1.19584 157 120 78
-8.55559 -12.1407 -0.49801 80 66 36
-8.64262 -12.1869 -0.502245 99 73 43
-8.74081 -11.9282 -0.494854 150 113 42
-8.81925 -11.9598 -0.49832 121 83 26
-9.00641 -12.1418 -0.510728 163 122 58
-13.7315 -7.69131 -0.542711 83 78 87
-13.7391 -7.63973 -0.541857 38 37 47
-25.0223 -13.4958 -0.959926 88 90 77
-25.2854 -13.4856 -0.969355 62 62 63
-36.2574 -12.4672 -1.21732 174 132 82
-36.7048 -12.4934 -1.23351 173 130 89
-36.7094 -12.3027 -1.23146 161 120 72
-37.1952 -12.3368 -1.24914 149 110 62
-37.621 -12.348 -1.26444 166 122 84
-38.1553 -12.3919 -1.28398 167 124 88
-38.4704 -12.295 -1.29414 149 107 66
-8.26119 -18.733 -0.629327 63 66 55
-8.38099 -18.8508 -0.635745 58 64 49
-8.65532 -12.5785 -0.518095 76 67 41
-8.53312 -12.2705 -0.50252 71 67 42
-9.04242 -12.4758 -0.524754 163 119 54
-9.18597 -12.2698 -0.520826 152 123 55
-9.31445 -12.3657 -0.528235 161 133 70
-9.42485 -12.3549 -0.531035 84 87 40
-9.57789 -12.4393 -0.538729 79 82 48
-9.56925 -12.3477 -0.534985 81 91 51
-9.72421 -12.4725 -0.544318 49 45 20
-9.74932 -12.3849 -0.541725 46 56 27
-9.78249 -12.3486 -0.541347 72 67 44
-9.84612 -12.3516 -0.543372 66 72 42
-9.89727 -12.2983 -0.542895 93 88 63
-13.79 -7.61255 -0.543412 70 68 72
-25.4802 -13.4879 -0.976556 62 62 60
-26.0497 -13.6863 -1.00125 88 88 79
-38.8861 -12.2943 -1.309 177 134 90
-39.4144 -12.3264 -1.32824 160 120 75
-39.9415 -12.286 -1.34667 155 111 69
-40.2574 -12.2456 -1.35758 181 138 95
-40.726 -12.2494 -1.37445 160 120 76
-41.3117 -12.2147 -1.39512 155 121 80
-8.20242 -13.1918 -0.531041 118 97 47
-8.2223 -13.0859 -0.527195 102 75 33
-8.22406 -12.9978 -0.523641 140 122 59
-8.2808 -12.9999 -0.525182 85 74 24
-8.3644 -12.9992 -0.527297 95 70 31
-8.42029 -12.999 -0.528743 93 63 29
-8.4752 -12.9969 -0.530092 158 116 66
-8.56133 -12.9984 -0.5324 189 154 57
-8.55173 -12.895 -0.527981 90 70 1
-8.67482 -12.9979 -0.535388 113 90 32
-8.77797 -13.0684 -0.540968 142 114 47
-29.728 -16.1609 -1.18326 79 78 75
-29.5058 -15.3305 -1.15932 72 69 61
-30.2092 -15.5772 -1.18987 107 101 95
-29.9409 -15.3204 -1.17522 84 81 67
-29.9346 -15.1994 -1.17278 79 77 58
-30.0977 -15.1053 -1.17709 84 74 68
-29.8128 -14.7297 -1.15975 86 81 61
-29.9383 -14.6176 -1.16242 100 104 68
-27.9968 -13.5598 -1.0712 96 92 55
-28.4683 -13.679 -1.09095 104 97 73
-29.4957 -14.0604 -1.13611 88 83 64
-29.2682 -13.7837 -1.12277 98 82 66
-29.2888 -13.6818 -1.12181 100 83 67
-29.5336 -13.6842 -1.13108 108 78 69
-41.8253 -12.2247 -1.4137 122 83 43
-42.4064 -12.2511 -1.43489 94 62 34
-42.9688 -12.2684 -1.45533 120 97 78
-43.5318 -12.2085 -1.47503 127 109 93
-44.0953 -12.2182 -1.49548 138 122 106
-44.5439 -12.1927 -1.51146 167 149 130
-36.3109 -7.28196 -1.17108 93 79 97
-36.3425 -7.16977 -1.17148 143 126 108
-36.2282 -6.96999 -1.16593 196 165 139
-36.531 -6.90977 -1.1767 139 106 84
-3.53047 -7.41907 -0.28102 57 66 45
-3.54657 -7.39416 -0.280049 78 92 57
-3.5815 -7.38038 -0.280168 56 66 43
-3.60147 -7.36444 -0.279803 64 69 52
-3.62716 -7.36114 -0.280289 62 74 46
-3.67363 -7.37231 -0.282108 66 76 52
-3.71284 -7.39768 -0.284537 58 67 46
-8.19649 -13.275 -0.534307 129 100 55
-9.10512 -13.4334 -0.564331 102 64 26
-11.5936 -13.7434 -0.648622 69 73 46
-12.1994 -13.5923 -0.66235 84 65 54
-13.0268 -13.149 -0.674307 109 104 99
-13.029 -13.0286 -0.670276 110 110 103
-13.0873 -13.0067 -0.671537 118 115 104
-13.1765 -13.0157 -0.674914 113 107 104
-13.2877 -13.0051 -0.678386 111 107 103
-13.3731 -13.0088 -0.681475 99 97 92
-13.4671 -13.0206 -0.685142 105 96 91
-30.4675 -15.1724 -1.19206 100 93 92
-30.2828 -13.8597 -1.16231 86 55 52
-30.4362 -13.8152 -1.16737 67 37 47
-30.2402 -13.6124 -1.15659 95 64 68
-30.4599 -13.5399 -1.16372 124 71 71
-30.6201 -13.4969 -1.16911 184 122 111
-30.5189 -13.3384 -1.16271 190 119 100
-30.4902 -13.2126 -1.1596 188 128 112
-30.542 -13.0652 -1.15922 168 143 132
-30.7989 -13.0615 -1.16899 126 81 63
-31.1112 -13.0796 -1.18124 192 122 98
-44.5786 -11.9769 -1.51069 163 145 131
-44.7345 -11.8686 -1.51535 183 163 148
-44.8883 -11.759 -1.51994 165 146 132
-45.114 -11.5916 -1.52661 141 133 122
-45.3018 -11.4887 -1.53254 130 121 110
-45.3967 -11.3613 -1.53489 142 129 119
-45.5938 -11.2589 -1.5412 136 119 112
-45.8526 -11.0943 -1.54921 141 128 123
-46.0084 -10.9794 -1.55395 146 135 132
-46.2862 -10.8925 -1.56338 144 135 130
-37.504 -6.973 -1.21294 254 245 205
-5.31907 -13.0982 -0.465038 67 61 49
-5.34796 -13.0525 -0.463498 71 65 54
-5.37153 -12.9938 -0.461285 68 73 51
-5.50673 -13.1591 -0.471084 67 74 55
-5.54359 -13.1334 -0.470601 65 68 52
-5.61906 -13.2038 -0.475118 66 69 48
-5.72342 -13.2839 -0.480591 66 68 57
-5.79149 -13.2163 -0.478858 64 72 52
-5.87308 -13.2381 -0.481351 61 66 49
-5.86633 -13.1084 -0.475486 64 69 48
-3.51424 -7.44395 -0.281992 69 79 55
-9.83973 -14.1164 -0.611457 70 59 27
-10.1592 -14.2511 -0.625603 107 73 33
-10.0374 -13.9826 -0.611667 132 91 39
-11.282 -13.8865 -0.644358 54 63 25
-11.4668 -13.8956 -0.650332 77 76 45
-11.4756 -13.8183 -0.647744 51 53 39
-11.5548 -13.8278 -0.65054 58 56 43
-11.664 -13.7414 -0.650746 49 54 32
-11.8806 -13.7823 -0.65903 87 86 66
-12.0989 -13.8651 -0.668952 80 79 63
-12.1624 -13.8519 -0.6705 39 41 32
-12.1874 -13.7502 -0.667621 50 50 39
-12.2455 -13.7306 -0.668784 56 53 43
-13.0188 -13.3056 -0.679384 90 82 86
-13.1083 -13.3155 -0.682762 87 86 87
-13.6389 -13.0666 -0.692654 97 81 74
-13.7522 -13.0951 -0.697572 117 93 80
-13.8427 -13.1009 -0.700951 128 96 73
-13.9205 -13.0938 -0.703464 146 106 80
-14.0304 -13.0757 -0.706744 155 123 94
-14.1011 -13.0609 -0.708777 50 36 16
-14.1777 -13.0512 -0.711194 92 89 64
-14.2762 -13.0204 -0.713706 40 39 25
-14.1181 -12.7936 -0.70073 35 31 22
-14.4179 -12.9882 -0.717771 56 51 42
-14.5641 -13.0402 -0.724711 59 56 40
-14.6779 -13.0204 -0.728185 47 40 22
-14.7699 -13.0214 -0.731566 54 51 36
-14.8486 -13.01 -0.734081 65 67 49
-32.0574 -12.8917 -1.21471 203 141 119
-31.5814 -12.5856 -1.1918 109 95 99
-33.5262 -13.1189 -1.27482 146 129 111
-46.5186 -10.7164 -1.57043 143 133 137
-46.7104 -10.6065 -1.57658 143 133 137
-46.9099 -10.4973 -1.58304 143 133 138
-47.0935 -10.3834 -1.58889 139 133 135
-47.2422 -10.1832 -1.59282 138 126 133
-47.4232 -10.0666 -1.5986 137 124 135
-47.5239 -9.93224 -1.60133 134 122 133
-47.6141 -9.71726 -1.60309 139 129 131
-13.4006 -14.8179 -0.74497 74 43 40
-13.1022 -14.3013 -0.716907 86 49 44
-13.7898 -14.8319 -0.758186 145 90 81
-13.9733 -14.9391 -0.768007 141 83 72
-13.9101 -14.6394 -0.755426 142 82 71
-14.0836 -14.733 -0.764478 140 83 74
-13.9549 -14.5051 -0.752274 134 79 70
-14.0856 -14.5066 -0.756707 55 37 31
-15.5212 -13.0207 -0.759176 45 45 43
-15.5764 -12.9853 -0.760152 35 26 23
-15.6916 -12.9588 -0.763628 39 30 27
-15.8326 -12.9942 -0.769994 45 36 33
-15.9663 -13.0226 -0.775878 46 41 30
-15.7071 -12.6862 -0.755971 62 61 45
-16.198 -13.0052 -0.784086 88 98 73
-16.1494 -12.8833 -0.778615 62 62 36
-16.368 -12.9351 -0.788445 72 82 41
-16.3155 -12.8109 -0.782782 66 77 40
-16.6992 -13.0324 -0.80397 62 63 33
-16.8161 -13.0408 -0.808701 67 69 37
-16.9427 -13.0137 -0.812757 87 83 50
-17.1135 -12.7692 -0.812339 119 99 85
-16.9481 -6.97314 -0.66914 192 123 88
-34.2593 -12.7917 -1.29857 162 121 82
-34.5419 -12.7743 -1.30934 155 120 80
-34.5585 -12.6576 -1.30838 144 106 67
-34.6168 -12.495 -1.30842 153 117 70
-34.6287 -12.377 -1.3073 189 146 102
-34.9902 -12.3829 -1.32154 164 118 73
-35.3502 -12.386 -1.33569 170 129 85
-35.5242 -12.26 -1.34085 169 128 86
-48.7732 -8.52639 -1.63804 150 140 139
-48.9501 -8.39904 -1.64382 143 133 135
-47.4882 -7.76357 -1.58616 122 107 110
-47.5764 -7.62465 -1.58867 118 108 112
-7.31186 -14.8816 -0.582079 68 84 47
-7.35951 -14.863 -0.582271 62 76 39
-7.47989 -14.7018 -0.577845 60 72 43
-7.61469 -14.8018 -0.585051 61 64 43
-7.68797 -14.8341 -0.588032 82 73 62
-8.1053 -15.1375 -0.610238 60 69 46
-14.1852 -15.4093 -0.791552 96 58 55
-17.0252 -12.9939 -0.815372 86 86 53
-17.1822 -13.0308 -0.82251 78 82 49
-17.214 -12.9287 -0.820792 102 91 70
-17.4288 -12.9232 -0.829006 121 93 83
-17.4934 -12.8453 -0.82931 125 96 90
-17.6532 -12.8797 -0.836545 127 94 91
-17.5688 -12.7337 -0.829151 132 95 95
-17.7853 -12.8083 -0.839756 127 92 94
-17.7928 -12.6877 -0.836691 155 131 123
-18.3977 -13.038 -0.870303 122 87 88
-18.371 -12.9332 -0.866374 125 84 85
-18.4435 -12.6018 -0.860282 112 78 77
-18.4903 -12.5076 -0.859626 120 96 73
-35.7393 -12.2091 -1.34864 172 134 88
-36.134 -12.2179 -1.36429 175 133 95
-36.6145 -12.189 -1.38282 166 127 90
-37.0404 -12.2021 -1.39979 167 129 91
-37.461 -12.2108 -1.4165 143 100 63
-37.9162 -12.228 -1.43471 138 93 56
-49.0806 -8.18355 -1.64737 132 125 126
-49.7512 -7.57445 -1.66888 136 127 127
-49.8803 -7.43389 -1.67295 96 86 88
-50.0347 -7.29634 -1.67799 91 81 87
-50.2728 -7.08932 -1.68579 147 142 144
-7.26755 -14.9073 -0.58227 65 74 48
-7.61902 -15.1051 -0.598225 70 87 47
-8.225 -15.6064 -0.632923 70 59 49
-18.6706 -13.0162 -0.880541 124 84 84
-18.7972 -13.0187 -0.885661 120 80 81
-18.9157 -13.0147 -0.8903 119 82 80
-19.395 -13.0387 -0.910186 115 95 73
-19.5426 -13.0507 -0.916462 122 93 84
-19.7025 -13.0257 -0.922257 127 86 80
-19.8505 -13.0359 -0.928534 123 81 82
-20.0071 -13.0508 -0.935293 120 80 81
-20.0023 -12.9146 -0.931557 113 84 82
-20.0134 -12.8337 -0.92994 104 85 81
-20.1216 -12.8155 -0.933907 97 96 80
-38.3816 -12.1793 -1.4525 161 122 82
-38.8568 -12.1963 -1.47154 241 201 164
-39.2067 -12.1713 -1.48512 237 194 159
-39.4575 -12.0461 -1.49359 237 201 167
-39.5038 -11.9251 -1.49404 236 204 167
-39.6205 -11.8251 -1.49755 227 200 160
-39.7898 -11.6722 -1.50254 222 186 155
-39.9213 -11.575 -1.50671 189 157 135
-40.0295 -11.4706 -1.50989 147 125 111
-50.446 -6.9522 -1.69158 143 133 136
-50.6998 -6.82505 -1.70042 149 140 143
-50.8569 -6.60227 -1.70524 142 137 137
-51.0723 -6.46718 -1.71267 142 135 140
-51.7581 -6.38923 -1.73784 135 129 133
-53.3761 -6.41967 -1.79812 134 128 133
-55.0411 -1.03384 -1.71405 84 99 123
-54.8113 -0.777051 -1.7059 73 83 100
-54.8406 -0.609254 -1.70706 44 50 71
-9.99111 -17.1226 -0.73782 97 59 48
-10.186 -17.2774 -0.74897 112 73 52
-10.2953 -17.343 -0.754357 101 64 48
-10.4671 -17.3273 -0.757916 64 59 32
-10.5227 -17.2986 -0.758112 73 61 30
-8.43224 -12.0564 -0.562076 107 79 35
-8.72128 -12.3974 -0.585697 111 86 45
-9.28477 -12.4175 -0.604045 93 76 40
-9.6479 -12.2636 -0.609267 78 78 46
-9.71247 -12.2687 -0.611603 69 65 37
-9.873 -12.3961 -0.6222 66 70 45
-9.93913 -12.3615 -0.622945 94 90 56
-9.97213 -12.3246 -0.622527 53 59 30
-10.0187 -12.3049 -0.623275 51 57 28
-10.0565 -12.2741 -0.623281 38 43 25
-20.6165 -13.0438 -0.96002 90 92 78
-20.8101 -13.0314 -0.967646 86 86 65
-20.8602 -12.9728 -0.968244 88 88 70
-21.1166 -13.0428 -0.98059 83 80 62
-21.2415 -12.9836 -0.984269 105 88 72
-21.1333 -12.8265 -0.975912 94 85 63
-21.1726 -12.7605 -0.975934 93 89 64
-21.1974 -12.6406 -0.974028 92 80 74
-21.2927 -12.6082 -0.977227 126 101 93
-21.2867 -12.5152 -0.974744 130 104 84
-21.5347 -12.5722 -0.986515 119 101 81
-21.8255 -12.6069 -0.999536 131 123 115
-21.8158 -12.5107 -0.996862 90 84 80
-21.6967 -12.3521 -0.98812 97 87 85
-13.7476 -7.70896 -0.619863 78 66 76
-13.7552 -7.65738 -0.618921 64 57 70
-13.8045 -7.62909 -0.620526 93 85 98
-20.1723 -7.7313 -0.827816 139 101 64
-20.1416 -7.64747 -0.825041 155 119 80
-40.1374 -11.3655 -1.51307 131 113 103
-40.2666 -11.1978 -1.51642 132 118 112
-40.4739 -11.119 -1.52389 127 116 111
-40.581 -11.0117 -1.52707 130 120 114
-40.7241 -10.8452 -1.53108 139 125 124
-40.8652 -10.7457 -1.53575 134 123 127
-41.0273 -10.651 -1.54132 135 127 134
-41.2077 -10.4911 -1.54698 137 127 132
-41.3654 -10.3933 -1.55239 137 128 133
-36.261 -7.20104 -1.31818 113 102 103
-55.0284 -6.35625 -1.85931 142 136 134
-54.8374 -0.44097 -1.70707 84 86 104
-54.8417 -0.272775 -1.70737 69 73 104
-54.8515 -0.0204107 -1.70794 52 60 81
-3.61268 -7.34887 -0.310774 64 73 42
-9.48933 -17.6842 -0.749827 56 66 42
-9.57961 -17.5231 -0.745019 76 50 49
-9.52662 -17.293 -0.734061 73 47 47
-9.65181 -17.3317 -0.738577 89 52 51
-9.7932 -17.4635 -0.747424 102 63 54
-9.90984 -17.419 -0.748295 98 61 45
-10.0348 -17.4517 -0.752618 103 67 56
-10.0448 -17.3427 -0.748295 95 59 47
-8.65142 -12.5859 -0.59183 106 82 44
-8.66053 -12.4735 -0.587171 121 90 46
-9.24956 -12.8649 -0.622137 136 91 42
-9.19329 -12.4946 -0.604462 67 61 33
-9.69382 -12.8092 -0.63371 74 75 26
-9.72483 -12.7682 -0.632975 83 80 43
-9.70712 -12.4601 -0.619432 76 73 35
-41.5094 -10.2913 -1.55723 138 127 134
-41.6298 -10.1827 -1.56107 137 128 135
-41.7366 -10.0009 -1.56367 135 127 134
-41.901 -9.90151 -1.56941 136 126 134
-42.0477 -9.79704 -1.57441 134 126 136
-42.2677 -9.63881 -1.58189 133 127 136
-42.3631 -9.52091 -1.58474 132 126 136
-42.6336 -9.44129 -1.59503 132 126 134
-42.7606 -9.25854 -1.59863 129 126 135
-36.2199 -7.07494 -1.31557 167 141 117
-36.2971 -6.91285 -1.31751 212 178 156
-36.8338 -6.89521 -1.33928 198 184 149
-37.5552 -6.90814 -1.36882 155 122 101
-3.49582 -7.45138 -0.313621 59 63 48
-3.50776 -7.41744 -0.311942 59 63 46
