-3.19154 3.96279 -1.83716 67 67 84
-3.0988 4.17104 -1.85182 87 90 107
-3.07 4.16165 -1.84302 87 90 105
-2.96967 4.3697 -1.85367 83 93 105
-2.95428 4.37364 -1.85289 86 92 106
-2.81521 4.53664 -1.84135 85 92 108
-2.69969 4.74914 -1.85246 84 92 105
-2.55143 4.91838 -1.84047 84 94 106
-2.50517 5.03043 -1.85099 83 92 105
-2.37205 5.26273 -1.85986 82 92 104
-2.21721 5.46939 -1.85824 82 91 106
-2.05968 5.70685 -1.85767 84 94 106
-5.66144 0.225712 -1.80533 90 97 115
-2.80009 4.54166 -1.84136 82 91 106
-2.53514 4.92271 -1.84048 83 92 107
-2.47857 5.02954 -1.84813 84 91 106
-2.35507 5.26844 -1.86057 83 93 105
-2.04231 5.71893 -1.86099 86 96 108
-5.67801 0.208532 -1.81061 85 93 111
-3.1954 3.8888 -1.827 73 75 90
-3.17682 3.98188 -1.8421 68 71 86
-3.15526 3.97172 -1.83391 68 71 86
-3.06349 4.18432 -1.85105 90 94 107
-2.93472 4.38712 -1.85525 89 95 109
-2.78673 4.55189 -1.84367 84 94 106
-2.6775 4.75973 -1.85397 83 92 104
-2.51884 4.927 -1.84049 83 92 107
-2.33932 5.27957 -1.86339 82 92 104
-2.20097 5.48203 -1.86165 83 92 107
-5.67789 0.181684 -1.80995 80 87 105
-3.192 3.91453 -1.83696 78 79 96
-3.16995 3.90276 -1.82785 72 73 91
-3.14915 3.99254 -1.8413 67 71 85
-3.05019 4.19191 -1.85186 89 92 107
-3.02369 4.18725 -1.84546 89 93 105
-2.92204 4.39778 -1.8576 89 95 107
-2.7644 4.55928 -1.84369 82 89 105
-2.66332 4.76968 -1.85622 82 92 104
-2.46568 5.0481 -1.8539 84 93 108
-2.31985 5.27423 -1.85989 82 91 106
-2.18023 5.47254 -1.85689 84 93 108
-2.01483 5.72486 -1.86166 84 94 106
-5.67361 0.163643 -1.80797 75 82 101
-3.13018 4.0033 -1.84214 67 68 86
-2.90451 4.39644 -1.85449 91 95 109
-2.74687 4.55714 -1.84063 85 91 107
-2.64414 4.76367 -1.85174 82 92 104
-2.49622 4.93872 -1.84271 82 91 106
-2.44607 5.04138 -1.84959 85 94 107
-2.16137 5.47219 -1.85554 86 95 109
-5.68434 0.146094 -1.81127 79 86 105
-3.16017 3.93154 -1.83782 67 70 85
-3.11987 4.01589 -1.84543 66 69 84
-3.01473 4.20482 -1.85108 89 95 108
-2.99704 4.20216 -1.84709 85 91 105
-2.88838 4.39846 -1.85294 89 92 107
-2.73283 4.56547 -1.84217 85 91 107
-2.62076 4.77048 -1.85176 83 92 107
-2.47845 4.9375 -1.84052 82 90 105
-2.42275 5.05284 -1.85177 84 94 106
-2.29612 5.28895 -1.86341 82 91 106
-1.99418 5.71445 -1.85704 85 95 107
-5.6877 0.119343 -1.81193 77 86 103
-3.14851 3.94089 -1.83949 62 70 83
-3.13365 3.94366 -1.83784 65 73 86
-3.10477 4.01861 -1.8438 70 73 88
-2.98582 4.21461 -1.8503 87 90 105
-2.86526 4.40311 -1.8514 86 92 106
-2.60595 4.77851 -1.85327 84 94 106
-2.46071 4.93622 -1.83833 84 94 106
-2.13637 5.48631 -1.85896 85 95 107
-1.9754 5.71703 -1.85705 86 96 108
-5.67569 0.101174 -1.80731 81 90 107
-3.11879 3.94638 -1.83619 66 74 87
-3.08253 4.02258 -1.84135 71 73 88
-2.95869 4.2079 -1.84311 87 89 104
-2.85314 4.41531 -1.85453 90 96 110
-2.71215 4.5779 -1.84449 84 91 107
-2.58739 4.77407 -1.84953 83 93 105
-2.43798 4.94769 -1.84054 84 92 105
-2.40504 5.0532 -1.85033 84 94 106
-2.27787 5.28895 -1.86202 82 91 106
-5.6787 0.083376 -1.80797 79 88 105
-3.09308 3.94213 -1.82957 72 76 91
-3.07364 4.03838 -1.84628 68 68 86
-3.04693 4.01614 -1.83235 68 68 86
-2.94669 4.21857 -1.84552 91 95 110
-2.83829 4.4206 -1.85454 87 95 106
-2.69463 4.57558 -1.84143 84 91 107
-2.5736 4.78556 -1.85254 82 92 104
-2.38826 5.05712 -1.85034 82 92 104
-2.2604 5.29256 -1.86203 83 92 107
-2.11925 5.49504 -1.86101 86 95 110
-1.94741 5.71892 -1.8564 87 96 110
-3.08517 3.95955 -1.83539 68 71 88
-3.06724 3.9555 -1.83042 68 71 90
-2.93535 4.23091 -1.84873 89 95 109
-2.81706 4.43018 -1.85533 87 93 105
-2.67996 4.582 -1.84221 82 89 105
-2.42114 4.94989 -1.83982 84 93 105
-2.40209 4.94302 -1.83543 84 94 106
-2.36786 5.04652 -1.84459 84 94 106
-2.09864 5.48527 -1.85625 84 93 108
-3.03392 4.03971 -1.83975 68 71 86
-2.79959 4.42847 -1.85222 86 94 107
-2.66581 4.59015 -1.84375 81 88 104
-2.55011 4.79205 -1.85255 81 90 105
-2.23346 5.29237 -1.85994 83 92 107
-3.05447 3.9791 -1.8379 70 72 87
-3.02487 4.05541 -1.84468 66 69 84
-2.91519 4.24088 -1.84955 90 93 108
-2.89893 4.24125 -1.84716 89 95 111
-2.78599 4.43706 -1.85379 84 94 106
-2.64274 4.59524 -1.843 82 91 108
-2.53417 4.79632 -1.85256 81 91 104
-2.37927 4.95424 -1.83764 82 92 104
-2.3462 5.0649 -1.84965 84 94 106
-2.21747 5.30317 -1.86275 82 91 106
-2.07449 5.50467 -1.86171 83 92 109
-3.04256 3.98818 -1.83957 69 72 86
-3.01122 4.06113 -1.84469 71 74 89
-2.88338 4.24326 -1.84556 88 93 110
-2.51668 4.79519 -1.85033 83 93 105
-2.32895 5.06683 -1.84893 83 93 105
-2.19922 5.30293 -1.86136 82 91 106
-2.05561 5.50399 -1.86036 83 92 107
-3.02838 3.99225 -1.83875 69 72 87
-2.99755 4.06681 -1.8447 71 74 89
-2.96707 4.05192 -1.83323 68 72 86
-2.76594 4.44987 -1.85615 84 91 107
-2.62904 4.60505 -1.84531 83 92 107
-2.60998 4.59714 -1.83995 83 92 107
-2.36329 4.95986 -1.83838 83 93 105
-2.31254 5.07233 -1.84966 84 94 106
-3.00274 3.98747 -1.83213 69 70 87
-2.86716 4.26324 -1.85119 89 95 109
-2.84891 4.25832 -1.84639 88 94 108
-2.751 4.45491 -1.85616 86 96 109
-2.73228 4.4495 -1.85148 87 97 110
-2.49315 4.80142 -1.85034 84 94 106
-2.34816 4.96905 -1.84059 84 94 106
-2.17301 5.30613 -1.86067 83 93 105
-2.03738 5.50695 -1.86037 84 93 109
-2.9915 3.99808 -1.83463 68 70 85
-2.97732 4.002 -1.83381 66 68 83
-2.963 4.07917 -1.8439 66 70 85
-2.59162 4.61791 -1.8461 87 97 109
-2.4757 4.80016 -1.84811 82 92 104
-2.28725 5.07597 -1.84896 82 92 104
-2.96457 4.00921 -1.83465 68 70 85
-2.95073 4.08805 -1.84555 69 71 86
-2.83663 4.26872 -1.8488 87 95 108
-2.81972 4.26711 -1.84561 88 95 111
-2.71979 4.46137 -1.85461 84 93 106
-2.57364 4.6134 -1.84228 86 94 107
-2.46461 4.82209 -1.8556 83 92 104
-2.32516 4.98004 -1.84281 84 94 106
-2.27 5.07772 -1.84825 83 93 105
-2.15796 5.32227 -1.86559 81 91 103
-2.01075 5.51313 -1.86106 85 94 109
-2.94188 4.01075 -1.83135 68 70 85
-2.92834 4.09126 -1.84311 77 80 95
-2.69774 4.4687 -1.85463 85 95 107
-2.55931 4.62125 -1.84382 81 91 103
-2.30497 4.96741 -1.83621 84 94 106
-2.25271 5.07941 -1.84753 83 93 105
-2.13795 5.31265 -1.86069 82 91 106
-1.99034 5.503 -1.8563 85 95 107
-2.9312 4.02289 -1.83468 70 72 87
-2.91458 4.09669 -1.84312 73 77 91
-2.80064 4.28001 -1.84803 88 94 108
-2.68212 4.4718 -1.85386 87 97 109
-2.44096 4.8281 -1.85561 83 93 105
-2.28975 4.97644 -1.83842 83 93 105
-2.90151 4.10376 -1.84395 82 82 98
-2.78824 4.29028 -1.85044 89 95 109
-2.66589 4.4731 -1.8523 86 96 108
-2.53715 4.6294 -1.8446 82 92 104
-2.42253 4.82308 -1.85188 84 94 106
-2.27329 4.97999 -1.83843 86 94 107
-2.11273 5.32109 -1.8621 83 93 105
-1.97362 5.51503 -1.85971 86 96 108
-2.924 4.0434 -1.84215 77 76 92
-2.89149 4.02119 -1.82724 70 71 86
-2.8798 4.10841 -1.84232 79 82 97
-2.77261 4.29193 -1.84885 89 95 109
-2.51923 4.62471 -1.84078 82 92 104
-2.40601 4.82517 -1.85114 83 93 105
-2.23101 5.09916 -1.85331 82 90 103
-2.09517 5.3242 -1.86211 82 91 106
-2.86459 4.11033 -1.84069 84 89 103
-2.85007 4.11389 -1.83988 86 88 106
-2.75147 4.29948 -1.84886 89 96 110
-2.64674 4.48891 -1.85622 87 95 108
-2.50532 4.63419 -1.84309 84 94 106
-2.24898 4.98522 -1.83845 84 93 108
-2.21172 5.09163 -1.849 86 94 107
-1.94458 5.5061 -1.85496 84 93 108
-2.8876 4.05005 -1.83886 66 72 86
-2.87125 4.04858 -1.83555 66 72 86
-2.73834 4.30791 -1.85047 88 94 108
-2.62874 4.48486 -1.85233 88 93 107
-2.3828 4.83271 -1.85191 83 91 106
-2.23172 4.98501 -1.83699 84 94 106
-2.1948 5.09497 -1.84901 84 91 107
-2.0776 5.32725 -1.86212 82 91 108
-1.92808 5.51985 -1.85905 84 93 108
-2.83967 4.12754 -1.84399 79 79 94
-2.72022 4.3025 -1.84567 88 94 110
-2.61483 4.49298 -1.8539 88 93 108
-2.48405 4.64566 -1.8454 84 94 106
-2.36583 4.83288 -1.85042 84 90 108
-2.0584 5.32104 -1.85862 83 92 108
-2.85055 4.05472 -1.83473 79 79 95
-2.81519 4.12512 -1.83909 68 72 87
-2.5932 4.5016 -1.85469 86 95 107
-2.46954 4.65326 -1.84694 84 94 106
-2.34974 4.8366 -1.85042 87 90 108
-2.21597 4.99202 -1.83846 84 94 106
-2.17021 5.10171 -1.84974 83 92 107
-1.90979 5.52243 -1.85906 84 93 107
-2.83757 4.06157 -1.83557 82 80 98
-2.80469 4.1387 -1.8432 67 73 89
-2.70147 4.31672 -1.84889 87 93 107
-2.57808 4.50612 -1.8547 86 94 107
-2.45216 4.65012 -1.84389 82 91 106
-2.15178 5.09763 -1.84687 84 93 108
-2.03465 5.33835 -1.86354 83 92 107
-1.8915 5.52496 -1.85907 85 95 107
-2.82525 4.07009 -1.83724 74 72 90
-2.78742 4.13528 -1.8391 68 71 88
-2.68824 4.32501 -1.85051 88 94 107
-2.56182 4.50709 -1.85315 87 93 107
-2.43433 4.64513 -1.84006 83 92 106
-2.33453 4.84387 -1.85193 86 94 109
-2.1916 4.99699 -1.83848 84 94 106
-2.01549 5.332 -1.86004 83 93 105
-2.79986 4.06414 -1.83062 68 70 85
-2.77228 4.15639 -1.84568 67 72 87
-2.67257 4.32634 -1.84891 87 93 105
-2.17581 5.00389 -1.83995 82 92 104
-2.13631 5.1081 -1.84976 82 91 106
-1.86314 5.51935 -1.85568 85 95 106
-2.78814 4.07424 -1.83312 73 76 93
-2.75962 4.16476 -1.84733 79 81 96
-2.6501 4.32997 -1.84732 88 94 108
-2.5401 4.51547 -1.85394 85 95 107
-2.41203 4.65273 -1.84084 84 92 105
-2.31165 4.85289 -1.85344 84 94 106
-2.15925 5.00709 -1.83996 84 94 106
-2.11681 5.09842 -1.84472 82 91 106
-1.99848 5.33851 -1.86145 84 94 106
-2.77703 4.08602 -1.83645 71 74 90
-2.74108 4.15777 -1.8416 81 83 98
-2.63854 4.34333 -1.85134 86 94 107
-2.52493 4.51984 -1.85395 87 97 107
-2.39791 4.66192 -1.84315 83 91 104
-2.29679 4.86186 -1.8557 82 91 106
-2.76521 4.09608 -1.83894 69 71 86
-2.62401 4.34797 -1.85135 86 93 109
-2.50867 4.52063 -1.8524 86 95 105
-2.38239 4.6657 -1.84316 82 92 104
-2.27935 4.85996 -1.85346 82 91 106
-2.13375 5.00634 -1.83777 85 95 107
-2.0936 5.11214 -1.84834 83 93 105
-1.97218 5.34079 -1.86077 82 92 104
-2.74371 4.10002 -1.8373 74 77 94
-2.7244 4.17532 -1.84653 93 96 111
-2.60833 4.34909 -1.84975 87 95 108
-2.49404 4.52667 -1.85319 88 96 109
-2.07836 5.12428 -1.85195 84 94 106
-1.95426 5.34163 -1.86007 84 93 108
-2.73119 4.10829 -1.83897 74 79 94
-2.70845 4.17502 -1.84408 88 93 107
-2.35863 4.66769 -1.84164 84 94 106
-2.25553 4.86513 -1.85347 82 91 106
-2.11858 5.01672 -1.84072 83 93 105
-2.71675 4.11139 -1.83815 76 82 96
-2.69505 4.18151 -1.84491 85 91 105
-2.58751 4.35765 -1.85057 86 94 107
-2.47271 4.53652 -1.85476 84 92 105
-2.34398 4.67494 -1.84318 83 93 105
-2.23975 4.87033 -1.85423 80 92 106
-2.10164 5.01793 -1.83999 83 92 107
-2.06065 5.12356 -1.85051 83 93 105
-1.93718 5.34796 -1.86148 84 93 108
-2.69274 4.10825 -1.83318 68 74 88
-2.67752 4.19718 -1.84903 91 95 107
-2.57293 4.36214 -1.85058 87 93 109
-2.45644 4.53715 -1.85321 84 91 107
-2.32712 4.67317 -1.84089 84 92 106
-2.22234 4.86824 -1.85199 82 91 106
-2.08503 5.02091 -1.84 84 93 108
-2.66218 4.19844 -1.8474 90 93 108
-2.55668 4.36135 -1.84818 87 93 109
-2.4407 4.5395 -1.85244 86 93 109
-2.03356 5.11687 -1.84621 84 94 106
-1.91139 5.35366 -1.8622 84 93 108
-2.68503 4.13009 -1.84149 76 81 96
-2.64561 4.19621 -1.84412 88 92 111
-2.30421 4.6785 -1.84091 81 90 105
-2.1969 4.86591 -1.84901 82 91 107
-2.05858 5.01433 -1.83561 83 93 105
-2.01951 5.1362 -1.8527 84 94 106
-1.89292 5.35061 -1.8601 84 93 108
-2.66933 4.12962 -1.83901 79 82 97
-2.62849 4.19221 -1.84003 90 96 111
-2.53578 4.36968 -1.849 88 94 108
-2.51901 4.36701 -1.8458 88 94 108
-2.42131 4.55621 -1.85714 85 92 108
-2.04198 5.01719 -1.83562 82 92 104
-2.64774 4.13311 -1.83736 96 99 111
-2.60718 4.19728 -1.83922 89 95 109
-2.40451 4.55491 -1.8548 84 91 109
-2.29073 4.69099 -1.84475 82 91 106
-2.18267 4.87819 -1.85276 82 92 104
-2.00051 5.12795 -1.84838 84 94 106
-1.87577 5.35676 -1.86151 83 93 105
-2.63622 4.14455 -1.84069 95 98 110
-2.5044 4.3713 -1.84581 86 94 107
-2.2743 4.69085 -1.84322 81 91 103
-2.1653 4.87591 -1.85053 82 92 104
-2.02758 5.0328 -1.84076 83 93 105
-1.85835 5.36101 -1.86222 84 94 106
-2.61819 4.13703 -1.83489 83 87 99
-2.59604 4.21039 -1.84333 87 93 106
-2.48396 4.38116 -1.84742 86 94 105
-2.38824 4.55532 -1.85325 85 92 108
-2.25869 4.69426 -1.84323 85 95 107
-2.14909 4.87903 -1.85053 84 94 106
-1.97542 5.13199 -1.8484 84 94 106
-2.60139 4.13288 -1.83075 76 79 93
-2.58132 4.21311 -1.84252 89 95 107
-2.46671 4.37655 -1.84342 87 95 107
-2.36622 4.56295 -1.85404 84 91 107
-2.00242 5.03326 -1.83931 83 92 107
-1.95867 5.13647 -1.84912 84 94 106
-2.55877 4.21451 -1.84008 88 92 108
-2.45413 4.38772 -1.84664 88 97 109
-2.23489 4.69568 -1.84171 83 93 105
-2.12517 4.88362 -1.85055 83 93 105
-1.98398 5.02496 -1.83491 83 92 107
-1.83172 5.3608 -1.86083 84 94 106
-2.58383 4.14814 -1.83491 74 74 95
-2.35187 4.57036 -1.85561 84 91 107
-2.21888 4.69716 -1.84095 83 93 105
-1.94191 5.14089 -1.84985 83 93 105
-1.81402 5.36306 -1.86084 84 93 108
-2.57159 4.1577 -1.83741 70 76 90
-2.54863 4.23097 -1.84583 86 94 107
-2.53216 4.22835 -1.84255 88 94 106
-2.441 4.39709 -1.84905 87 97 109
-2.33607 4.57238 -1.85484 85 92 108
-2.20325 4.7004 -1.84096 84 94 106
-2.11001 4.89207 -1.8528 83 93 105
-1.96823 5.03309 -1.83712 84 94 106
-1.92397 5.13791 -1.8477 86 96 108
-2.55481 4.15339 -1.83327 79 83 95
-2.41787 4.39787 -1.84666 86 92 106
-2.32073 4.57614 -1.85485 85 92 108
-2.09197 4.88593 -1.84907 83 93 106
-1.79656 5.36713 -1.86154 85 94 109
-2.53486 4.16154 -1.83412 90 92 107
-2.5124 4.23819 -1.84421 93 97 109
-2.17947 4.70156 -1.83944 84 92 105
-1.94311 5.03328 -1.83567 84 93 107
-1.9008 5.1545 -1.85275 85 95 107
-2.4954 4.2337 -1.84011 88 94 106
-2.40416 4.40538 -1.84827 87 91 107
-2.29765 4.57991 -1.85408 85 92 108
-2.06836 4.89208 -1.84983 83 92 107
-2.52252 4.17097 -1.83661 91 96 112
-2.50635 4.16822 -1.8333 88 94 110
-2.48119 4.23785 -1.84012 87 95 106
-2.38994 4.41109 -1.84908 84 90 106
-2.28 4.57464 -1.85018 86 94 107
-2.16493 4.71012 -1.84175 84 91 107
-1.92813 5.0468 -1.84007 83 93 105
-1.88312 5.15323 -1.85132 83 92 107
-2.4675 4.2437 -1.84095 83 91 104
-2.3668 4.41163 -1.84669 84 91 107
-2.2651 4.58002 -1.85097 85 95 107
-2.15073 4.72044 -1.84482 83 92 107
-2.05311 4.90038 -1.85208 84 94 106
-1.90979 5.03825 -1.83568 83 93 105
-1.86464 5.14637 -1.84772 84 93 108
-2.48844 4.18312 -1.83746 89 95 107
-2.35111 4.41192 -1.84509 86 96 107
-2.03548 4.89587 -1.84909 83 92 107
-2.47334 4.18372 -1.83581 88 93 106
-2.44709 4.25153 -1.84178 86 89 104
-2.2438 4.59068 -1.85333 87 96 111
-2.12654 4.71954 -1.84254 84 94 106
-1.88574 5.04552 -1.83716 86 96 108
-2.43229 4.25379 -1.84097 87 91 106
-2.33873 4.42456 -1.84911 87 95 107
-2.22709 4.5888 -1.85099 84 94 106
-2.11119 4.72432 -1.84331 83 93 105
-2.01312 4.90907 -1.85285 84 93 108
-1.84076 5.15903 -1.85134 83 93 105
-2.46033 4.19126 -1.83748 89 94 109
-2.41906 4.26125 -1.84262 88 94 108
-1.86879 5.04601 -1.83643 83 93 105
-1.82363 5.16126 -1.85134 84 94 106
-2.31836 4.43549 -1.85153 86 96 108
-2.21256 4.59582 -1.85256 84 91 107
-2.09582 4.72906 -1.84409 84 94 106
-1.99808 4.91903 -1.85585 83 92 107
-1.85285 5.05381 -1.83864 82 92 104
-2.44118 4.20249 -1.83998 89 95 109
-2.42503 4.19945 -1.83667 88 94 107
-2.39699 4.26362 -1.84099 86 94 107
-2.30217 4.43385 -1.84913 86 94 107
-2.18815 4.59372 -1.84945 83 92 107
-1.98048 4.91434 -1.85287 84 93 108
-1.80548 5.15606 -1.84847 83 93 105
-2.40992 4.19986 -1.83502 90 94 106
-2.38115 4.26222 -1.83854 86 96 108
-2.28827 4.44105 -1.85074 85 93 107
-2.07232 4.73153 -1.84333 83 93 105
-1.8354 5.05054 -1.83645 84 93 108
-2.36937 4.27479 -1.84265 87 95 108
-2.17485 4.60601 -1.85336 86 96 108
-2.05592 4.7307 -1.84181 86 93 109
-1.95546 4.91269 -1.85063 84 93 108
-1.78071 5.16293 -1.84992 84 94 106
-2.39981 4.21772 -1.84166 88 95 108
-2.26245 4.43043 -1.84354 85 94 109
-2.16022 4.61288 -1.85493 85 95 107
-1.81051 5.05196 -1.83573 82 92 105
-1.76236 5.15573 -1.84633 82 91 106
-2.37507 4.20943 -1.83504 87 93 107
-2.34877 4.2822 -1.84348 86 92 106
-2.24983 4.44284 -1.84755 85 92 108
-2.04019 4.73346 -1.84181 84 91 107
-1.94003 4.92067 -1.85289 83 94 108
-1.79426 5.05775 -1.8372 83 92 107
-2.33145 4.27537 -1.83857 86 92 106
-2.23414 4.44277 -1.84596 86 93 109
-2.13784 4.61951 -1.85572 85 95 107
-2.02382 4.73253 -1.84029 83 91 104
-1.9222 4.91397 -1.84915 84 94 106
-1.74595 5.16328 -1.8485 83 93 106
-2.36287 4.2202 -1.83837 87 94 107
-2.31808 4.28255 -1.84022 87 94 107
-1.90645 4.92002 -1.85065 85 95 107
-1.77709 5.05613 -1.83574 84 93 109
-2.34824 4.22216 -1.83754 87 93 105
-2.21973 4.44799 -1.84677 86 93 109
-2.12036 4.61369 -1.85183 86 96 108
-2.00218 4.7456 -1.84413 84 94 106
-2.32457 4.21712 -1.83258 88 94 106
-2.29598 4.28445 -1.83859 88 91 107
-2.10608 4.62221 -1.85418 87 95 109
-1.98396 4.73362 -1.83801 84 92 105
-1.75263 5.06097 -1.83648 86 96 108
-2.19827 4.45485 -1.84758 85 94 107
-1.88318 4.92901 -1.85291 83 93 105
-2.31367 4.23303 -1.83839 91 93 106
-2.28256 4.29153 -1.84024 90 91 109
-2.18341 4.45818 -1.84759 86 94 107
-2.09174 4.63069 -1.85652 86 93 109
-1.96882 4.73981 -1.83955 85 95 107
-1.86488 4.91846 -1.84768 83 93 105
-1.7346 5.05185 -1.83209 85 95 107
-2.29947 4.23661 -1.8384 89 93 105
-2.26582 4.28623 -1.83614 88 94 108
-2.1673 4.4561 -1.84519 88 94 110
-2.06698 4.62621 -1.85263 86 93 107
-2.25653 4.30911 -1.84517 86 96 106
-1.94589 4.74536 -1.84033 84 94 106
-1.84933 4.92618 -1.84993 83 92 107
-1.71956 5.06848 -1.83796 84 94 106
-2.27856 4.24189 -1.83842 86 92 106
-2.14658 4.46631 -1.84761 87 95 108
-2.04996 4.62195 -1.84952 85 92 108
-2.26211 4.23654 -1.83427 85 91 106
-2.23574 4.31602 -1.84601 85 95 107
-2.1305 4.46412 -1.84521 87 97 109
-2.03594 4.63208 -1.85265 84 91 107
-1.93067 4.75143 -1.84187 85 93 106
-1.82728 4.9441 -1.85593 83 92 107
-1.69505 5.07307 -1.83871 84 94 106
-2.2479 4.23996 -1.83428 84 90 106
-2.21947 4.31233 -1.84273 84 92 105
-1.91433 4.75016 -1.84034 83 90 107
-1.80804 4.92601 -1.8477 84 93 108
-2.11675 4.47262 -1.84762 88 96 111
-2.01343 4.63817 -1.85344 85 92 108
-2.23453 4.24687 -1.83595 84 92 106
-2.205 4.31566 -1.84274 87 95 106
-1.89106 4.75364 -1.84035 83 92 107
-1.79341 4.94092 -1.85295 84 94 106
-2.21315 4.25009 -1.83513 86 94 107
-2.18241 4.31526 -1.84029 90 93 108
-2.09554 4.48082 -1.84924 85 94 109
-1.99681 4.63555 -1.8511 85 95 107
-2.07947 4.47846 -1.84684 84 93 108
-1.97987 4.63106 -1.84799 87 95 108
-1.87579 4.75955 -1.84189 83 93 105
-2.201 4.26221 -1.83929 84 92 105
-2.1718 4.33443 -1.84768 89 92 107
-1.86024 4.7636 -1.84267 83 93 105
-1.7692 4.94391 -1.85296 85 95 107
-2.18504 4.25837 -1.83597 84 92 105
-2.06415 4.47964 -1.84604 85 95 107
-1.9587 4.64415 -1.8519 85 92 108
-1.75231 4.94217 -1.85147 86 96 108
-2.15683 4.33585 -1.84687 89 95 107
-2.051 4.49155 -1.85006 86 94 107
-1.84415 4.76394 -1.84191 84 94 106
-2.16321 4.25959 -1.83433 83 93 103
-2.13463 4.337 -1.84524 87 95 106
-1.94347 4.6486 -1.85269 84 93 107
-1.73588 4.94405 -1.85148 85 95 107
-2.02718 4.48688 -1.84606 87 95 108
-1.92722 4.64757 -1.85114 84 93 108
-1.82081 4.7671 -1.84192 85 95 107
-2.15173 4.27514 -1.84014 86 94 106
-2.1209 4.34363 -1.84689 84 94 106
-1.72034 4.95324 -1.85448 86 96 108
-2.1362 4.27291 -1.83766 84 92 105
-2.10674 4.34845 -1.84771 85 93 106
-2.01289 4.4933 -1.84767 86 94 107
-1.91262 4.65555 -1.85348 82 92 104
-1.80426 4.76366 -1.83963 85 95 107
-2.08978 4.34076 -1.8428 86 94 107
-1.99789 4.49608 -1.84768 86 96 108
-1.6937 4.93566 -1.84626 86 96 108
-2.11396 4.27213 -1.83518 84 92 105
-1.88963 4.65929 -1.8535 83 93 105
-1.78958 4.77482 -1.84347 84 94 106
-2.1004 4.27867 -1.83685 85 93 107
-2.06759 4.3416 -1.84117 86 95 108
-1.97581 4.50016 -1.84769 86 96 108
-1.76417 4.76124 -1.83658 84 94 106
-1.67792 4.94289 -1.84851 84 94 106
-2.08492 4.27627 -1.83437 88 96 109
-1.87339 4.65809 -1.85194 86 94 107
-1.66251 4.95376 -1.85226 85 95 107
-2.05572 4.35696 -1.84692 86 94 107
-1.96013 4.49922 -1.84609 86 96 108
-1.859 4.66774 -1.85507 84 91 107
-1.74988 4.77596 -1.84195 81 91 103
-2.03923 4.35088 -1.84282 86 95 107
-1.94479 4.50004 -1.8453 85 95 107
-2.06492 4.28594 -1.83687 90 96 110
-1.73337 4.7723 -1.83966 82 92 104
-2.04947 4.28342 -1.83438 90 96 110
-2.01888 4.36042 -1.8453 89 97 110
-1.92269 4.50389 -1.84531 85 95 107
-1.83478 4.66396 -1.85196 83 91 109
-2.03474 4.28443 -1.83356 87 93 107
-1.8203 4.67351 -1.85509 81 90 105
-2.0061 4.37209 -1.8494 87 95 108
-1.90889 4.51362 -1.84852 84 94 107
-1.71101 4.78414 -1.8435 84 93 108
-2.02038 4.28717 -1.83357 89 95 109
-1.98966 4.36585 -1.84531 87 96 109
-1.89261 4.50886 -1.84532 86 96 108
-1.80295 4.66481 -1.85041 84 94 106
-1.69433 4.77852 -1.84044 84 94 106
-1.99925 4.29121 -1.83358 89 95 107
-1.96672 4.36264 -1.84204 84 95 107
-1.78238 4.68446 -1.85745 83 93 105
-1.67883 4.78386 -1.84198 84 94 106
-1.87165 4.5197 -1.84854 85 96 108
-1.98721 4.30636 -1.83939 89 92 107
-1.95279 4.3688 -1.84368 86 94 107
-1.85541 4.51482 -1.84534 86 96 108
-1.7656 4.67928 -1.85433 85 95 107
-1.65558 4.78812 -1.84276 86 96 108
-1.97111 4.30002 -1.83525 90 93 108
-1.93748 4.36776 -1.84205 85 94 109
-1.74888 4.67405 -1.85121 87 97 109
-1.8412 4.52256 -1.84775 85 94 109
-1.63986 4.79152 -1.84353 87 95 108
-1.9512 4.311 -1.83858 88 94 108
-1.82612 4.52483 -1.84775 86 93 109
-1.93294 4.29201 -1.82863 88 95 108
-1.91726 4.37865 -1.84534 86 96 108
-1.72631 4.6807 -1.85278 88 98 110
-1.62272 4.78016 -1.83817 86 94 107
-1.90356 4.38647 -1.84781 87 95 108
-1.80256 4.51908 -1.84376 85 94 109
-1.70962 4.67535 -1.84967 85 95 107
-1.92041 4.3052 -1.83361 88 96 107
-1.88632 4.3745 -1.84125 87 93 107
-1.60751 4.78897 -1.84124 86 96 108
-1.78905 4.53211 -1.84857 86 96 108
-1.69494 4.68455 -1.85279 85 95 108
-1.9001 4.31417 -1.83612 87 94 109
-1.8726 4.38223 -1.84372 88 96 109
-1.58407 4.79107 -1.84125 83 93 107
-1.77266 4.52515 -1.84457 87 97 109
-1.67876 4.68275 -1.85124 85 95 107
-1.88563 4.31652 -1.83612 87 95 106
-1.87087 4.31703 -1.8353 87 95 106
-1.85221 4.39285 -1.84701 87 95 106
-1.75092 4.53185 -1.84618 86 96 108
-1.65564 4.68545 -1.85125 83 92 106
-1.8366 4.3897 -1.84456 86 96 108
-1.85669 4.32108 -1.83613 87 95 106
-1.7358 4.53385 -1.84619 86 96 108
-1.64039 4.69084 -1.85282 84 94 106
-1.82071 4.38469 -1.84128 87 97 109
-1.71927 4.5249 -1.84138 86 96 108
-1.83482 4.3208 -1.83448 89 96 109
-1.62489 4.69436 -1.8536 84 94 106
-1.80081 4.3987 -1.84621 84 94 106
-1.82088 4.32654 -1.83615 87 91 106
-1.69863 4.54046 -1.84701 85 94 109
-1.78524 4.39538 -1.84376 88 96 107
-1.6015 4.69498 -1.85283 85 95 107
-1.80718 4.33405 -1.83864 85 92 105
-1.77024 4.39561 -1.84294 88 97 107
-1.68348 4.5423 -1.84701 87 96 110
-1.58578 4.69656 -1.85284 85 95 107
-1.6677 4.53864 -1.84461 88 98 110
-1.78607 4.33894 -1.83948 86 94 108
-1.57084 4.70542 -1.85596 84 94 106
-1.74805 4.39498 -1.84131 87 95 109
-1.65276 4.5422 -1.84542 89 99 111
-1.77279 4.34995 -1.84364 83 89 105
-1.73385 4.40052 -1.84296 87 95 110
-1.75626 4.3375 -1.83701 84 89 105
-1.63025 4.54292 -1.84463 88 98 110
-1.54705 4.70213 -1.85363 84 93 108
-1.71936 4.40422 -1.84378 87 94 110
-1.61589 4.55184 -1.84784 86 96 108
-1.73534 4.34397 -1.83868 73 79 96
-1.70386 4.40064 -1.84133 87 96 111
-1.71962 4.33681 -1.83453 72 78 94
-1.60128 4.5589 -1.85025 86 95 110
-1.68314 4.41055 -1.84462 88 98 110
-1.70623 4.34764 -1.83869 71 77 93
-1.6693 4.41953 -1.84791 87 97 109
-1.57781 4.55027 -1.84545 86 95 110
-1.68392 4.34306 -1.83538 69 76 92
-1.56265 4.55175 -1.84545 86 96 108
-1.65381 4.41579 -1.84545 86 96 108
-1.67021 4.35199 -1.8387 81 89 102
-1.54764 4.55501 -1.84626 86 96 109
-1.63139 4.41282 -1.843 86 96 108
-1.65543 4.35184 -1.83788 83 93 105
-1.61596 4.40897 -1.84054 85 93 106
-1.52527 4.55708 -1.84627 86 96 108
-1.64125 4.35708 -1.83954 85 94 107
-1.60224 4.41956 -1.84465 87 95 107
-1.5107 4.5657 -1.84948 87 97 109
-1.61918 4.354 -1.83706 86 93 107
-1.58006 4.41817 -1.84302 90 98 109
-1.49517 4.56333 -1.84788 86 96 108
-1.60442 4.3537 -1.83624 87 97 109
-1.58946 4.35155 -1.83458 85 95 107
-1.56604 4.42685 -1.84631 88 98 110
-1.5514 4.43005 -1.84713 89 97 110
-1.56939 4.36815 -1.84123 85 91 105
-1.55393 4.36046 -1.83709 87 93 107
-1.53012 4.4375 -1.8496 85 95 107
-1.53932 4.36178 -1.83709 84 92 105
-1.51386 4.42426 -1.84304 84 94 107
-1.4994 4.42912 -1.84469 88 97 112
-1.51798 4.36548 -1.83793 86 93 109
-1.48425 4.42668 -1.84305 85 95 107
-1.5038 4.37213 -1.84042 85 93 107
-1.46258 4.4302 -1.84388 87 97 109
-1.48887 4.36967 -1.83877 86 94 107
-1.47328 4.3581 -1.83296 87 95 108
-1.44789 4.4331 -1.84471 87 97 109
-1.45231 4.36696 -1.83629 89 97 110
-1.43816 4.37523 -1.83962 88 96 109
-1.42339 4.37439 -1.83879 86 96 108
-3.95168 -7.27625 0.48064 126 123 108
-3.94578 -7.34901 0.482751 128 118 106
-3.96917 -7.2557 0.480298 64 72 61
-4.01391 -7.28845 0.481998 44 49 43
-4.0268 -7.25885 0.481315 51 54 52
-4.07032 -7.26047 0.482063 54 53 50
-3.93442 -7.32447 0.451953 51 48 50
-3.93926 -7.27906 0.450797 49 49 49
-3.95298 -7.25146 0.450249 41 46 47
-3.9859 -7.26107 0.450976 45 46 50
-4.02382 -7.25223 0.451279 53 52 50
-4.04384 -7.2368 0.451156 49 50 44
-5.81394 -13.8403 0.710703 104 90 82
-6.19883 -14.3514 0.731807 55 59 39
-6.41832 -15.1515 0.759882 91 86 76
-6.21634 -14.5216 0.737398 66 70 55
-6.31053 -14.3063 0.731866 64 64 57
-6.34112 -13.9531 0.721226 72 82 59
-6.39451 -13.9577 0.722106 65 78 47
-3.94201 -7.32115 0.390528 106 74 77
-3.94627 -7.27385 0.389613 106 75 74
-3.97792 -7.2529 0.389521 103 72 69
-4.01442 -7.2697 0.39025 106 76 73
-4.03459 -7.25436 0.390157 104 74 72
-6.62131 -15.1772 0.763341 55 57 43
-6.5843 -14.6384 0.745956 61 60 56
-6.55354 -14.2017 0.731908 53 60 48
-6.64891 -14.2376 0.734356 89 99 72
-6.62799 -14.0735 0.728969 68 74 60
-4.07995 -7.25959 0.390749 104 72 75
-5.38253 -12.8148 0.622306 102 88 78
-5.45177 -12.8146 0.623094 88 88 78
-5.49416 -12.8057 0.623333 62 66 54
-6.79275 -14.3209 0.738975 59 57 61
-6.86559 -14.1876 0.735899 65 67 62
-6.91184 -14.1722 0.736097 72 77 65
-5.54266 -12.8114 0.624058 55 59 43
-5.62451 -12.8398 0.625819 63 68 55
-5.66161 -12.8174 0.625632 64 66 61
-5.71824 -12.8409 0.626965 47 46 44
-5.78733 -12.8371 0.627691 66 65 64
-5.83395 -12.8362 0.628234 53 58 52
-5.88303 -12.8406 0.628958 81 89 73
-5.91924 -12.8156 0.628711 61 69 58
-5.9885 -12.8106 0.629437 59 60 54
-6.03939 -12.8181 0.630283 49 50 51
-6.08542 -12.8144 0.630764 60 58 63
-7.67288 -13.5913 0.73027 105 79 82
-7.67865 -13.0183 0.713353 74 90 50
-7.67696 -12.9221 0.710487 75 91 55
-7.66775 -12.8139 0.707144 82 96 63
-7.69301 -12.7201 0.704824 83 88 55
-6.15913 -12.8177 0.631794 43 41 46
-6.20694 -12.8172 0.632396 48 49 50
-6.26417 -12.8364 0.633668 57 62 59
-6.33659 -12.8351 0.634575 60 61 55
-7.81677 -15.7876 0.799078 60 61 57
-8.04575 -16.0113 0.809345 64 64 59
-3.90505 -7.31589 0.358426 106 75 77
-3.93255 -7.23202 0.357248 106 76 78
-3.94617 -7.20451 0.356905 106 75 75
-7.76108 -13.6017 0.732034 67 68 58
-7.89053 -13.6362 0.735218 52 60 41
-7.90213 -13.5581 0.733101 81 89 69
-7.74323 -12.7156 0.705566 67 72 39
-7.79655 -12.7161 0.706511 77 79 47
-7.85099 -12.718 0.707525 61 70 38
-7.92135 -12.7008 0.708267 71 77 47
-7.978 -12.7057 0.709417 75 81 52
-6.53942 -13.1563 0.646055 61 61 60
-6.48534 -12.8401 0.636686 65 66 61
-8.13965 -16.0139 0.810837 63 57 56
-3.94156 -7.333 0.359031 106 71 75
-3.98723 -7.2302 0.3577 105 73 71
-4.0167 -7.20555 0.357547 106 76 73
-4.05619 -7.22733 0.358266 108 74 73
-8.03373 -12.7086 0.710498 84 93 64
-8.1137 -12.7057 0.711852 75 86 54
-8.16858 -12.7063 0.712866 71 82 56
-9.00504 -7.16429 0.589798 103 111 60
-9.03786 -7.12252 0.58979 99 106 59
-9.05468 -7.09084 0.58958 85 88 50
-9.09325 -7.07653 0.59032 89 89 61
-8.42267 -15.4806 0.799062 107 73 74
-8.50081 -15.3385 0.796051 103 73 70
-8.39266 -12.6686 0.715897 75 85 60
-8.50553 -12.6275 0.716834 69 80 50
-8.79731 -13.6227 0.750696 59 69 45
-8.8766 -13.6075 0.751709 95 107 80
-9.02365 -13.559 0.753043 81 94 68
-8.80359 -12.9085 0.730427 72 81 57
-10.0061 -6.67049 0.60754 66 71 55
-10.0316 -6.62056 0.607328 79 77 57
-10.1014 -6.62272 0.609356 88 83 56
-10.0896 -6.5704 0.608059 83 78 47
-9.30397 -14.1851 0.77613 80 87 56
-9.19996 -12.9749 0.73991 83 91 55
-9.23072 -12.9335 0.739356 82 90 54
-9.26132 -12.892 0.738803 95 102 64
-10.1393 -6.80632 0.613857 77 72 55
-7.62812 -12.9705 0.656507 70 82 45
-7.68392 -12.975 0.657472 76 87 52
-7.66961 -12.8582 0.654185 93 106 77
-7.68776 -12.7524 0.651689 60 70 46
-9.41246 -13.9219 0.77065 76 85 62
-9.49874 -13.8178 0.769339 77 83 57
-9.67405 -13.9858 0.777426 72 81 53
-9.73616 -13.9842 0.778573 65 69 46
-9.74354 -13.8552 0.775094 90 97 62
-9.39766 -12.8728 0.740963 84 95 58
-7.98014 -16.0301 0.743824 68 70 74
-7.76594 -13.6487 0.67652 76 73 68
-7.76313 -13.5447 0.673718 53 58 51
-7.88407 -13.6621 0.678631 75 79 64
-7.87097 -13.5407 0.675222 78 82 61
-7.71573 -12.7101 0.651013 64 69 56
-7.77316 -12.7174 0.6521 61 67 54
-7.85172 -12.7143 0.653247 77 80 58
-7.90214 -12.7091 0.653908 66 70 50
-7.95784 -12.7123 0.654872 82 89 66
-10.0136 -13.6499 0.774695 89 99 63
-10.1497 -13.0099 0.759991 91 97 60
-8.11822 -15.9977 0.744782 73 72 77
-8.04565 -15.7279 0.736449 75 67 78
-8.1067 -15.7283 0.737292 68 58 65
-3.9324 -7.25725 0.32502 107 75 76
-3.94088 -7.21892 0.324573 110 80 79
-3.96188 -7.20552 0.324542 111 81 81
-8.2659 -14.9315 0.718033 107 73 72
-8.01256 -12.7135 0.655776 60 68 47
-8.08732 -12.7022 0.65668 71 85 50
-8.14647 -12.7096 0.657826 74 88 53
-10.5353 -14.5697 0.810499 78 78 44
-10.5742 -14.2918 0.803596 84 94 57
-10.3691 -13.9167 0.789164 76 88 50
-10.281 -13.7058 0.781603 78 90 51
-10.3611 -13.7256 0.783769 75 84 47
-10.3819 -13.62 0.78131 96 101 66
-10.4261 -13.5912 0.781436 99 107 67
-10.5401 -13.6547 0.785507 93 105 68
-10.2699 -13.0832 0.76447 81 95 55
-10.2796 -13.012 0.762759 84 99 52
-10.5235 -13.0323 0.768441 84 77 51
-10.3801 -12.647 0.75516 83 94 51
-10.6537 -12.6221 0.760423 102 96 50
-9.0232 -7.15123 0.548552 82 93 58
-9.02442 -7.10713 0.547758 78 91 56
-9.0521 -7.08417 0.547993 78 92 58
-9.12385 -7.07295 0.549499 98 106 69
-3.9993 -7.22405 0.325044 108 72 72
-4.02705 -7.19568 0.324865 112 75 72
-4.07395 -7.23158 0.325664 113 80 76
-8.45841 -12.808 0.665447 80 83 62
-8.4814 -12.757 0.664528 66 72 57
-8.60165 -12.7251 0.665726 67 74 58
-10.6824 -13.4042 0.781724 85 92 51
-10.7877 -13.453 0.785249 95 95 64
-10.9648 -13.5052 0.790396 103 104 70
-10.7027 -12.6015 0.760956 98 103 57
-8.78037 -15.7682 0.747854 110 77 72
-8.68507 -13.4775 0.686298 65 74 47
-8.89892 -13.6752 0.694852 68 73 52
-9.03052 -13.2842 0.687089 67 74 56
-9.01185 -13.1232 0.68271 73 78 57
-9.04274 -12.781 0.674662 85 95 60
-11.2884 -13.6924 0.802274 83 96 50
-11.5864 -13.8398 0.812586 91 89 47
-11.1965 -12.9889 0.781876 82 88 54
-9.99441 -6.69863 0.564363 78 74 64
-9.97847 -6.62097 0.562661 72 73 59
-10.0267 -6.60878 0.563682 78 76 53
-9.07256 -13.8531 0.702251 83 91 66
-9.19407 -12.9138 0.680602 75 82 48
-9.1694 -12.794 0.677194 89 94 55
-9.19491 -12.5391 0.671341 84 91 58
-11.7927 -14.2267 0.827218 77 94 50
-11.7585 -13.7414 0.813775 77 87 54
-11.8455 -13.6715 0.813887 86 91 52
-11.8641 -13.6076 0.812651 79 83 46
-12.0983 -13.7506 0.821545 95 102 60
-12.2008 -13.7825 0.82466 93 101 60
-12.2502 -13.6235 0.821712 85 94 53
-12.014 -13.0658 0.802234 98 101 55
-12.253 -13.0833 0.808179 118 112 38
-14.0522 -7.29055 0.736983 74 69 49
-14.0848 -7.25225 0.737379 78 75 64
-9.52949 -13.8004 0.708563 72 80 64
-9.64039 -13.7335 0.708788 78 89 61
-12.3318 -13.6303 0.823739 76 89 53
-12.3313 -13.0454 0.80905 116 118 68
-12.3346 -12.9678 0.807203 85 80 43
-12.3799 -12.9354 0.807463 91 85 62
-12.4412 -12.8792 0.807518 110 112 103
-12.4891 -12.8493 0.807913 126 119 107
-12.9019 -12.995 0.821263 116 125 67
-12.6572 -12.5866 0.805541 76 87 44
-12.4108 -12.2222 0.790851 111 104 64
-12.6408 -12.3754 0.80008 96 93 60
-12.463 -12.1226 0.78974 97 103 71
-12.9241 -12.4619 0.809023 100 107 74
-14.0645 -7.38054 0.738757 91 77 52
-5.90701 -14.1935 0.552316 109 93 80
-10.2425 -14.0874 0.728102 100 103 71
-10.2952 -13.4433 0.713283 76 92 60
-10.0295 -12.8813 0.694814 90 106 70
-10.0556 -12.833 0.694137 95 105 66
-10.0828 -12.7862 0.69352 76 85 51
-13.6182 -14.9851 0.887283 92 100 67
-13.5727 -14.7017 0.879098 91 95 52
-13.0538 -13.2745 0.831673 72 73 39
-12.967 -12.9806 0.822473 83 94 49
-13.4488 -12.8958 0.83211 86 99 68
-13.4712 -12.8374 0.831281 77 94 61
-13.1925 -12.4894 0.816254 80 99 64
-13.4036 -12.5741 0.823442 87 101 66
-13.1333 -12.2398 0.808959 67 83 49
-13.0472 -12.0827 0.803172 88 114 67
-13.461 -12.3557 0.819802 63 93 46
-13.4183 -12.2392 0.816053 74 96 58
-13.3618 -12.1109 0.811693 85 98 74
-13.4681 -12.0944 0.813988 79 82 57
-13.3868 -11.9452 0.808542 104 110 76
-5.97289 -14.2315 0.553682 108 98 87
-6.12652 -14.2939 0.556325 64 67 58
-6.16072 -14.2514 0.555726 64 67 58
-6.18251 -14.1794 0.554396 51 54 47
-10.4005 -14.0762 0.730631 93 101 64
-10.669 -14.3522 0.742213 78 90 49
-10.5142 -14.0489 0.732006 69 83 48
-10.5163 -13.9153 0.728779 79 87 55
-10.4968 -13.7996 0.725612 70 80 48
-10.4476 -13.558 0.718855 87 101 68
-10.3367 -12.9882 0.703098 96 104 67
-10.4459 -13.0442 0.706486 86 92 55
-10.6635 -13.2358 0.715152 88 93 56
-10.6345 -12.5471 0.698394 90 97 57
-10.663 -12.4627 0.696988 84 98 62
-13.6734 -15.3814 0.898611 97 105 68
-13.9318 -15.0033 0.894921 98 105 52
-13.9055 -14.2441 0.875518 98 91 71
-13.9763 -12.3243 0.832084 102 90 78
-13.9586 -12.1928 0.828674 109 93 82
-14.0185 -12.1693 0.829679 101 99 81
-6.36626 -15.0855 0.575154 92 84 74
-6.24536 -14.1441 0.55421 68 70 68
-6.29407 -14.0163 0.551961 42 43 47
-6.39254 -14.0649 0.553877 36 42 39
-10.8301 -13.3606 0.721269 89 94 56
-10.9749 -13.4131 0.725263 87 100 57
-11.1118 -13.4971 0.729862 85 100 58
-11.1352 -12.8602 0.715468 70 75 51
-14.5588 -12.9265 0.860487 94 93 71
-19.1413 -7.09926 0.892854 132 107 66
-19.1591 -6.93628 0.891539 127 103 67
-19.1818 -6.87695 0.891593 138 109 76
-6.48723 -14.0446 0.554323 52 55 48
-6.51025 -13.9794 0.553175 56 54 57
-6.58507 -13.9718 0.55372 59 55 54
-6.63637 -13.9701 0.554171 59 56 54
-11.3846 -13.7461 0.740953 71 82 48
-11.5755 -13.8474 0.747009 104 107 60
-11.7551 -13.6716 0.746415 82 93 62
-11.8419 -13.4743 0.743589 97 107 73
-15.8082 -13.66 0.908851 80 89 66
-15.8489 -13.5666 0.907816 96 110 84
-15.9738 -13.5889 0.911535 84 98 72
-16.092 -13.476 0.912114 99 107 66
-16.0647 -13.3679 0.909042 107 112 62
-16.046 -13.2679 0.906378 90 89 28
-16.0391 -13.1783 0.904258 83 86 52
-19.2376 -7.06707 0.895549 133 110 72
-6.76408 -14.1355 0.558825 40 41 34
-6.81974 -14.0831 0.558272 54 50 48
-6.88341 -14.1059 0.559363 54 49 49
-7.00867 -14.0879 0.56022 61 64 57
-12.3315 -14.6713 0.780908 115 108 53
-11.9276 -13.7018 0.750516 93 100 71
-12.0565 -13.551 0.74963 94 104 63
-12.2833 -13.5946 0.755185 77 86 57
-11.9858 -13.179 0.739769 82 92 57
-12.0134 -13.0863 0.738241 80 90 49
-12.0643 -13.0609 0.738714 97 109 71
-12.4511 -12.9095 0.743369 46 45 38
-12.4382 -12.8161 0.741053 82 81 65
-12.5108 -12.812 0.742496 105 103 60
-12.4294 -12.1863 0.727266 89 90 56
-16.407 -13.8744 0.929039 77 89 55
-14.0456 -7.39172 0.680756 79 79 61
-14.0156 -7.29266 0.678568 61 58 45
-14.0589 -7.25994 0.679283 72 72 58
-23.9734 -6.62741 1.04421 114 122 72
-7.06851 -14.101 0.561082 52 54 49
-12.8227 -13.0128 0.753456 105 105 54
-12.8702 -12.9004 0.752036 88 91 54
-13.061 -12.6144 0.750032 89 102 75
-13.1464 -12.4634 0.74872 73 88 56
-12.9808 -12.1904 0.739374 83 95 63
-12.9891 -12.1227 0.738149 67 79 42
-13.2125 -11.8803 0.738145 94 107 69
-13.2652 -11.854 0.738799 92 102 67
-17.3226 -14.1108 0.958083 85 90 68
-17.4247 -14.1049 0.960646 82 86 53
-17.7931 -13.9086 0.966261 117 120 77
-17.8324 -13.8056 0.965157 114 104 70
-17.7881 -13.6825 0.961406 96 88 44
-17.6958 -13.5232 0.955619 93 92 50
-17.5887 -13.3105 0.948338 103 105 68
-17.6916 -13.3028 0.950968 121 122 91
-17.6722 -13.0737 0.945774 151 139 117
-17.598 -12.6404 0.935051 94 99 72
-17.7194 -12.6451 0.938495 99 103 70
-18.13 -12.8562 0.954019 102 108 72
-18.1748 -12.7609 0.95339 98 105 64
-18.2678 -12.7422 0.955612 67 61 41
-18.6996 -12.9601 0.97188 84 79 75
-18.7826 -12.8884 0.972811 79 71 68
-24.2542 -7.36373 1.06023 72 49 26
-23.963 -7.0705 1.04795 99 94 59
-24.3377 -6.81084 1.05776 106 109 74
-7.69746 -13.8886 0.563289 107 73 72
-7.66844 -13.0435 0.546076 63 70 54
-7.7042 -12.9651 0.544929 74 85 69
-7.69322 -12.8533 0.542594 70 79 65
-7.68058 -12.74 0.540213 62 66 67
-7.7569 -12.7342 0.540983 76 80 82
-7.81028 -12.7347 0.541615 73 76 71
-7.85658 -12.7229 0.541927 83 86 74
-13.6643 -15.4774 0.825761 83 93 60
-13.8339 -13.7905 0.79179 86 93 58
-13.4181 -13.2477 0.771226 103 103 72
-13.3968 -13.0633 0.766835 94 103 83
-13.46 -12.923 0.765232 74 89 59
-13.4334 -12.8174 0.76243 73 88 59
-13.7528 -12.7626 0.768316 100 113 79
-13.3269 -12.2486 0.748243 81 102 63
-13.3571 -12.2005 0.747927 74 92 50
-9.02841 -7.18122 0.463196 103 99 58
-9.03457 -7.1408 0.462734 87 93 50
-9.0626 -7.09522 0.46259 114 106 69
-9.11838 -7.09466 0.463583 135 126 76
-29.5772 -7.05083 1.23182 141 121 108
-28.9746 -6.8105 1.21008 93 72 65
-32.4115 -6.13608 1.31938 156 120 50
-32.3159 -6.01299 1.31544 145 104 52
-5.86334 -14.1138 0.491538 112 100 86
-5.88825 -14.0499 0.490584 114 102 90
-7.94034 -12.7281 0.543016 74 80 66
-7.99397 -12.7278 0.543648 95 103 80
-8.04245 -12.7188 0.544051 76 89 59
-8.10664 -12.7352 0.545139 84 99 68
-8.18156 -12.7235 0.545817 48 62 35
-14.4202 -15.5448 0.842577 88 99 66
-14.2999 -15.318 0.835043 89 99 64
-14.0507 -14.908 0.820778 82 86 51
-14.0884 -14.8557 0.8204 70 75 45
-14.41 -15.1039 0.832572 100 98 58
-14.689 -13.0557 0.795255 84 87 63
-28.944 -7.3317 1.21323 152 131 108
-29.3444 -7.23841 1.22564 74 60 55
-32.3839 -6.97651 1.32406 156 124 78
-32.4478 -6.88397 1.32553 93 72 60
-32.5856 -6.80671 1.32956 96 82 79
-32.5089 -6.63112 1.32582 115 110 103
-32.2899 -6.48082 1.31755 118 97 90
-32.3679 -6.39108 1.31956 85 70 71
-32.4458 -6.24808 1.32123 97 79 65
-6.02041 -14.1881 0.493959 75 71 62
-6.11633 -14.2977 0.496573 65 67 55
-6.10852 -14.1538 0.493988 72 77 62
-6.12063 -14.0599 0.492427 71 78 64
-8.02213 -15.8366 0.606284 62 64 59
-8.15068 -15.9111 0.60911 74 57 66
-8.28265 -14.3362 0.578685 59 63 51
-8.40314 -14.4469 0.582238 54 57 46
-8.33719 -12.8849 0.550829 88 98 74
-8.43939 -12.6518 0.547604 72 74 63
-15.4788 -15.6392 0.866748 132 130 78
-15.3397 -13.5536 0.820021 93 85 70
-22.9416 -16.6846 1.16269 144 138 132
-10.0226 -6.68181 0.474786 65 64 62
-10.0361 -6.6463 0.474597 68 70 57
-22.8707 -12.892 1.09075 96 83 67
-22.8772 -12.8018 1.08944 82 73 63
-22.98 -12.7187 1.09111 92 81 77
-25.8414 -12.2232 1.16989 60 55 59
-25.8373 -12.1226 1.16831 58 59 61
-25.8888 -12.0485 1.16883 62 68 59
-19.2284 -7.13783 0.821198 134 117 79
-19.1504 -7.04108 0.817984 138 120 77
-19.1581 -6.94225 0.817183 154 128 80
-6.25903 -14.2053 0.495992 66 69 60
-6.23311 -14.0229 0.49261 45 45 37
-6.2629 -13.973 0.49196 66 64 59
-6.3366 -13.9649 0.492374 59 57 56
-6.44277 -13.9723 0.493312 82 91 75
-6.45973 -13.8946 0.492093 51 52 48
-3.92388 -7.31022 0.259464 104 74 76
-3.92309 -7.25415 0.259129 105 74 74
-8.52186 -15.6693 0.608052 105 74 71
-3.93696 -7.19944 0.258848 108 75 73
-8.62722 -15.751 0.610828 108 74 72
-3.9707 -7.21078 0.25902 107 73 71
-4.00081 -7.21491 0.259138 103 72 69
-8.43993 -15.1114 0.595928 105 73 71
-8.66352 -15.2982 0.602121 83 65 64
-8.78882 -13.514 0.568479 77 87 61
-8.63232 -12.819 0.553208 77 79 68
-8.77602 -12.8645 0.555883 79 81 66
-8.95946 -13.054 0.561806 81 84 63
-8.98278 -12.8709 0.558641 81 89 73
-16.0668 -14.6063 0.857773 75 92 57
-16.4159 -14.3755 0.86096 105 89 79
-15.8153 -13.6734 0.833241 77 79 65
-15.8364 -13.5629 0.831528 87 101 79
-15.9069 -13.5383 0.832664 68 80 55
-16.0215 -13.551 0.835556 74 89 60
-16.0981 -13.4877 0.836084 86 106 79
-16.0568 -13.3683 0.832797 75 91 61
-16.0626 -13.2889 0.831388 79 95 59
-16.4422 -13.5192 0.844697 94 108 69
-16.6084 -13.5272 0.848738 80 88 58
-23.2059 -17.3821 1.18403 87 94 62
-23.3303 -17.1933 1.18357 93 91 77
-23.2226 -17.0017 1.17676 118 117 110
-23.6147 -16.1294 1.17044 80 72 69
-25.9354 -13.7901 1.19663 79 60 72
-29.007 -12.0998 1.26634 145 124 76
-28.843 -11.9253 1.25893 126 107 74
-29.426 -12.0601 1.27896 140 125 79
-28.8026 -11.6456 1.25407 161 135 78
-29.0179 -11.6277 1.26062 155 124 60
-28.8735 -11.4649 1.25403 100 78 35
-28.5286 -11.1724 1.23951 106 95 54
-28.6464 -11.1156 1.24253 78 69 56
-28.5667 -10.9819 1.23838 72 66 68
-28.6393 -10.9073 1.23978 91 83 78
-28.6204 -10.7465 1.23725 101 89 83
-6.625 -13.9729 0.494739 57 55 53
-4.02538 -7.20832 0.259176 106 71 70
-8.94811 -15.9357 0.618018 105 73 74
-9.08435 -13.8396 0.578373 69 73 56
-9.04996 -13.3691 0.56894 86 86 81
-9.0111 -12.8269 0.558177 67 72 55
-9.0219 -12.7147 0.556207 54 61 42
-9.12624 -12.697 0.557239 77 92 62
-9.23989 -12.7753 0.560194 71 80 58
-9.28297 -12.7099 0.559547 77 88 58
-16.6706 -14.5088 0.869425 109 100 86
-16.7786 -13.5802 0.853748 74 80 47
-16.968 -13.6473 0.859485 82 89 51
-17.0902 -13.2286 0.854494 82 85 39
-17.1925 -13.2231 0.856839 100 94 38
-17.6832 -13.5153 0.874018 90 89 48
-17.7115 -13.2341 0.869546 62 69 51
-17.3815 -12.8602 0.854755 78 77 59
-17.609 -12.9449 0.861822 103 102 92
-17.694 -12.5474 0.856833 85 91 61
-17.8272 -12.5175 0.859599 98 102 70
-27.71 -17.522 1.31258 79 71 64
-27.7133 -17.4033 1.31052 71 64 52
-27.7856 -17.3282 1.31124 87 77 64
-27.9525 -17.2514 1.31467 84 84 54
-28.0431 -17.1869 1.31614 80 86 52
-28.0041 -17.0428 1.31245 84 85 48
-27.9362 -16.8222 1.30658 89 90 56
-27.8991 -16.6812 1.30303 92 93 59
-27.671 -16.4268 1.29195 71 65 45
-28.1201 -16.5766 1.30766 146 136 115
-28.4278 -16.5799 1.31672 199 173 142
-28.2355 -16.3491 1.30713 220 189 155
-28.2184 -16.2217 1.30446 189 153 126
-27.829 -15.8232 1.28626 80 74 64
-31.1453 -14.215 1.36156 89 72 57
-30.9918 -13.8528 1.35175 95 83 60
-29.2246 -12.9492 1.28451 101 90 73
-29.2478 -12.8504 1.28388 77 70 52
-29.8032 -12.9292 1.30221 85 80 63
-30.1068 -12.9499 1.31194 73 65 54
-31.0348 -13.2364 1.34471 94 85 62
-29.5351 -12.4845 1.28791 85 74 69
-34.5365 -11.7602 1.43774 131 110 79
-34.7586 -11.5333 1.44242 124 98 68
-34.4202 -11.3009 1.42906 86 72 49
-35.0078 -11.3128 1.44812 87 78 63
-34.9833 -11.184 1.44599 76 70 63
-24.0305 -6.71795 0.955461 83 84 44
-6.82492 -14.2942 0.501865 55 57 51
-6.83403 -14.1401 0.499282 49 49 48
-6.90475 -14.1774 0.50049 57 57 55
-6.8698 -13.9904 0.496994 50 48 45
-6.95637 -14.0043 0.497938 65 64 54
-7.00037 -13.985 0.49797 57 57 54
-9.49043 -12.833 0.564591 77 93 53
-9.56756 -12.8136 0.565266 90 101 64
-9.65765 -12.8536 0.567218 83 91 57
-9.71372 -12.8465 0.567847 78 87 62
-9.87727 -12.8581 0.570291 78 91 63
-18.0338 -13.6516 0.884959 98 100 51
-18.2081 -13.6954 0.889966 102 108 63
-18.6477 -13.5345 0.897746 154 145 137
-18.6825 -13.0343 0.889784 69 64 50
-18.7766 -13.0136 0.891764 64 57 61
-18.8056 -12.9041 0.890594 85 80 75
-18.7627 -12.789 0.887551 73 69 65
-18.7937 -12.7248 0.887231 76 77 67
-31.553 -16.1068 1.40203 73 69 61
-31.6098 -15.9493 1.40132 65 66 59
-31.6072 -15.8242 1.39932 58 58 54
-30.8457 -15.1404 1.36585 81 81 85
-30.7738 -14.9858 1.36135 142 134 124
-33.5092 -16.1957 1.46277 160 133 109
-31.1354 -14.8628 1.37058 100 59 52
-31.4688 -14.2448 1.37197 93 76 60
-35.3189 -12.4616 1.47059 160 132 84
-36.6131 -12.7271 1.51498 120 90 56
-36.5407 -12.5737 1.51096 143 113 84
-24.2294 -7.26615 0.965808 105 89 77
-23.9537 -7.06131 0.956072 88 74 58
-24.2775 -6.86874 0.963866 123 120 78
-7.67269 -12.9375 0.486321 75 89 53
-7.66337 -12.8295 0.484457 78 91 60
-7.65645 -12.7268 0.482707 67 81 57
-7.71751 -12.6953 0.482777 62 68 58
-9.91076 -12.8197 0.570053 85 101 67
-9.97187 -12.8179 0.570864 94 103 77
-10.1916 -12.9815 0.576872 80 86 51
-10.1486 -12.8424 0.573762 80 93 55
-10.0081 -12.579 0.567051 83 88 61
-10.3164 -12.8523 0.576295 67 73 48
-8.97787 -7.12905 0.417747 104 105 48
-9.00424 -7.08251 0.417588 93 95 55
-9.03966 -7.06592 0.41792 88 92 52
-32.7606 -17.9062 1.46687 77 74 63
-33.3979 -18.121 1.48935 114 135 115
-33.3871 -17.9127 1.48565 162 177 167
-33.7893 -16.7906 1.48022 67 65 62
-28.9413 -7.31177 1.10336 153 137 114
-28.9846 -7.22627 1.104 95 72 68
-29.3535 -7.17172 1.11442 114 93 74
-29.4373 -7.09457 1.11633 93 74 60
-29.4333 -6.9962 1.11552 111 90 74
-29.0669 -6.81328 1.1035 122 110 91
-32.377 -6.20823 1.19743 110 98 90
-32.3621 -6.10032 1.19639 144 130 94
-32.333 -5.99001 1.19492 99 83 62
-7.76877 -12.6925 0.483224 59 61 51
-7.82417 -12.6963 0.483824 63 65 55
-7.89752 -12.6844 0.484348 57 64 51
-7.95417 -12.6894 0.484985 66 78 57
-8.00672 -12.6873 0.48547 84 94 67
-8.06248 -12.6901 0.486069 53 62 38
-10.3955 -12.8708 0.577743 77 86 61
-10.43 -12.8325 0.577551 85 98 72
-10.5058 -12.8046 0.578133 91 100 80
-10.574 -12.808 0.579171 83 90 75
-10.68 -12.8577 0.581576 89 88 64
-10.7385 -12.848 0.58225 83 79 60
-10.7396 -12.7274 0.580142 105 105 72
-10.7277 -12.6328 0.578309 81 87 60
-10.6794 -12.4953 0.5752 82 90 74
-10.7901 -12.5086 0.577057 65 70 51
-22.858 -12.9674 0.995566 72 57 46
-22.8734 -12.8821 0.994698 77 57 57
-22.8519 -12.7764 0.992561 94 83 81
-22.9634 -12.6982 0.994352 86 72 73
-32.4958 -6.97315 1.20552 92 73 43
-32.4482 -6.85673 1.20339 105 92 86
-32.4355 -6.74797 1.20234 95 87 84
-32.4288 -6.58769 1.20118 141 142 133
-32.2897 -6.45425 1.19627 127 108 100
-32.3796 -6.36674 1.19842 128 113 117
-7.92385 -15.7727 0.536157 73 72 58
-8.16111 -14.3996 0.51505 77 58 59
-8.19986 -14.3117 0.513944 60 63 59
-8.24961 -14.1938 0.51245 62 68 57
-8.13722 -12.6787 0.486631 47 54 30
-8.41716 -12.6429 0.488904 64 65 53
-11.2832 -12.93 0.591662 62 72 55
-11.3515 -12.9285 0.592654 86 94 72
-11.4625 -12.9348 0.594419 71 78 57
-22.8859 -16.7337 1.05855 133 125 118
-22.8027 -16.4014 1.05057 81 81 62
-22.7785 -16.2765 1.04776 88 91 60
-9.96035 -6.67041 0.4276 69 70 63
-9.97586 -6.61413 0.427253 71 69 63
-10.0173 -6.59764 0.427735 70 70 54
-40.2431 -25.9431 1.82527 76 74 54
-40.3722 -25.8483 1.82719 79 75 62
-25.6145 -12.1958 1.05866 92 75 62
-25.8543 -12.2113 1.06541 71 67 55
-25.8374 -12.1048 1.06357 79 68 64
-25.9144 -12.0425 1.06488 69 68 61
-28.6311 -11.1893 1.13021 134 112 45
-28.5832 -11.0678 1.12753 122 106 76
-28.6469 -10.9897 1.12847 85 81 82
-28.7515 -10.9269 1.13075 87 81 76
-28.7475 -10.7713 1.12897 87 82 79
-5.94402 -14.0282 0.428987 84 79 70
-6.01739 -14.0844 0.43017 68 70 59
-8.26289 -16.3406 0.548665 51 52 37
-8.17551 -15.9735 0.54168 84 74 75
-8.42122 -15.2619 0.531791 109 74 72
-8.53147 -15.1834 0.531473 110 71 72
-8.68959 -13.3784 0.503436 91 102 59
-8.79368 -13.4042 0.504906 54 66 40
-8.52508 -12.6796 0.490601 56 55 46
-8.62674 -12.7486 0.492752 66 67 59
-11.5638 -13.3428 0.602974 88 100 82
-11.5377 -12.9401 0.595638 79 83 59
-11.5379 -12.8594 0.594259 61 66 42
-11.632 -12.8448 0.595432 68 79 53
-11.8909 -13.055 0.602937 78 88 57
-11.8496 -12.9275 0.600146 77 85 61
-25.6818 -13.9959 1.08531 144 161 145
-25.876 -13.9974 1.09049 50 61 52
-26.8712 -14.3743 1.12238 160 142 154
-13.9924 -7.4037 0.5608 78 72 66
-14.0271 -7.36668 0.561107 84 85 59
-14.014 -7.30431 0.560189 109 106 65
-14.0828 -7.25729 0.561084 80 77 58
-28.5717 -12.5262 1.14407 91 74 52
-28.4773 -12.3259 1.13903 94 92 77
-28.583 -12.2659 1.14124 65 63 50
-28.7971 -12.2515 1.14702 86 82 58
-29.1307 -12.1255 1.15482 85 75 53
-28.8407 -11.8993 1.14411 62 51 29
-28.779 -11.7688 1.14088 119 94 56
-29.2801 -11.8137 1.15541 131 107 45
-28.7369 -11.3863 1.13537 135 118 48
-6.23986 -14.9651 0.443542 109 92 82
-6.28216 -14.1656 0.432793 71 74 63
-6.32688 -14.0875 0.431987 62 60 59
-6.38143 -14.0941 0.432397 78 78 67
-6.48176 -13.9091 0.430481 60 59 56
-8.788 -16.0651 0.548519 109 74 72
-8.70223 -15.104 0.531714 79 85 75
-8.85044 -13.7262 0.510643 78 85 50
-9.14069 -13.0389 0.502747 69 77 54
-8.97834 -12.6748 0.495317 68 69 60
-9.06294 -12.7129 0.496823 77 84 66
-9.2798 -12.9387 0.502683 72 80 59
-9.30632 -12.8487 0.501577 67 71 61
-9.25994 -12.6998 0.498766 69 78 61
-9.32807 -12.712 0.499704 61 64 51
-12.3121 -13.3168 0.613799 76 87 74
-12.6478 -13.5174 0.622337 70 66 57
-12.4159 -12.8969 0.608396 91 67 53
-12.5805 -12.9492 0.611844 96 83 59
-12.5835 -12.7921 0.609314 98 79 52
-12.6038 -12.6936 0.608027 86 77 47
-27.1979 -17.5831 1.18051 83 80 61
-27.2437 -17.4926 1.18018 80 74 62
-27.608 -17.3041 1.18639 70 67 55
-27.641 -17.205 1.18564 82 78 62
-27.5355 -16.9607 1.17902 77 76 57
-27.9302 -16.9649 1.18925 77 78 49
-27.9199 -16.7801 1.18607 87 91 59
-27.8498 -16.6199 1.18175 92 92 57
-27.755 -16.446 1.17658 65 57 30
-27.9228 -16.4282 1.18067 148 134 104
-27.8712 -16.2225 1.17616 173 155 115
-27.8849 -16.1142 1.17487 199 168 124
-27.8791 -15.995 1.17291 203 175 133
-31.0838 -14.2697 1.23496 66 69 61
-31.1004 -14.1598 1.23403 82 78 65
-30.9945 -13.9949 1.22905 81 76 53
-31.0373 -13.8394 1.22829 121 106 70
-31.3705 -13.8707 1.23787 170 141 103
-31.3784 -13.2343 1.23042 65 61 32
