-13.9633 15.8779 -1.36761 96 90 102
-13.8565 15.8988 -1.36346 95 89 101
-13.7674 15.89 -1.35849 96 90 102
-13.681 15.884 -1.35383 93 87 99
-13.5673 15.8939 -1.34877 96 90 102
-13.4763 15.8806 -1.3435 96 90 102
-13.3928 15.8765 -1.33915 94 91 102
-13.293 15.902 -1.33578 91 82 92
-13.2002 15.8843 -1.3302 84 73 82
-13.1159 15.8773 -1.32571 96 90 100
-13.0164 15.9013 -1.32235 96 90 101
-12.9254 15.8839 -1.31693 95 89 100
-12.8452 15.8805 -1.3129 96 90 100
-12.7699 15.8832 -1.30948 95 89 101
-12.6661 15.8988 -1.30551 95 87 100
-12.5759 15.8797 -1.3001 96 89 98
-12.4974 15.8765 -1.29623 96 89 97
-8.096 15.8879 -1.03214 117 103 94
-8.03248 15.8804 -1.02973 118 102 94
-7.94487 15.8852 -1.02737 119 102 94
-7.88078 15.8754 -1.02482 120 103 95
-7.82226 15.8781 -1.02325 121 104 94
-7.73651 15.8855 -1.02119 124 105 91
-4.49018 10.6324 -0.643642 135 113 90
-4.456 10.643 -0.643557 135 113 90
-32.5344 7.43478 -2.17999 96 99 116
-32.5354 7.53892 -2.18157 97 100 117
-32.5495 7.64645 -2.18418 98 100 115
-32.5568 7.80469 -2.18708 98 100 115
-32.5661 7.91162 -2.1894 96 98 113
-32.5848 8.02116 -2.19245 95 98 113
-32.5902 8.18006 -2.19535 96 98 113
-32.6291 8.29563 -2.20003 97 97 113
-32.6483 8.40639 -2.20322 91 97 116
-26.1774 11.3272 -1.94828 117 115 128
-26.4149 11.9658 -1.98505 115 113 118
-26.2246 12.0199 -1.97299 113 113 118
-26.168 12.0895 -1.97111 107 106 112
-26.079 12.143 -1.96641 106 103 110
-25.9421 12.2207 -1.95907 106 107 111
-25.819 12.2561 -1.95139 119 119 123
-25.7351 12.3107 -1.94717 124 122 125
-25.7204 12.4001 -1.94906 127 123 127
-25.7052 12.5379 -1.95253 123 121 124
-25.6455 12.6045 -1.9505 122 117 120
-25.5466 12.6505 -1.94503 118 113 118
-25.5847 12.8169 -1.95335 107 104 111
-25.4978 12.8688 -1.94898 107 101 112
-25.3774 12.9024 -1.94163 105 102 115
-25.2945 13.0044 -1.9393 108 106 117
-25.216 13.0597 -1.93571 111 110 122
-25.1478 13.1204 -1.93306 108 108 120
-8.58886 10.9213 -0.897382 96 89 97
-8.53587 10.9181 -0.894588 96 89 96
-12.3896 15.884 -1.29165 97 90 97
-8.47689 10.9426 -0.893397 98 91 98
-12.3092 15.8767 -1.28748 98 91 99
-12.2368 15.8805 -1.28437 97 91 100
-8.43263 11.028 -0.897146 99 91 102
-12.1272 15.8831 -1.27949 100 92 103
-12.0529 15.8829 -1.27609 99 91 102
-11.4705 15.8818 -1.24996 101 91 99
-7.67352 15.8767 -1.01878 126 104 88
-7.61596 15.8805 -1.01736 126 103 84
-7.53194 15.8905 -1.01559 130 105 85
-7.47372 15.892 -1.01403 129 106 90
-7.40895 15.8767 -1.01119 129 106 92
-32.422 6.33016 -2.15717 97 102 121
-32.4187 6.4315 -2.15817 98 103 121
-32.4399 6.58913 -2.16168 94 101 120
-32.4884 6.70194 -2.16667 94 99 118
-32.4898 6.80496 -2.16811 93 100 118
-32.5103 6.91235 -2.17102 94 101 119
-32.5058 7.0659 -2.17274 93 99 118
-32.5177 7.1719 -2.17507 96 98 117
-32.5388 7.2803 -2.17813 97 98 116
-27.0545 10.381 -1.986 115 115 127
-27.0117 10.4581 -1.9849 114 116 128
-26.9559 10.5769 -1.98398 112 114 126
-26.9383 10.6644 -1.98509 113 115 127
-26.948 10.7634 -1.98855 114 116 128
-26.9365 10.9014 -1.99156 115 116 129
-26.9453 11.0008 -1.99502 115 117 129
-26.9483 11.098 -1.998 115 115 127
-26.9314 11.2348 -2.00069 118 118 130
-26.928 11.3298 -2.00321 114 114 126
-26.9443 11.4338 -2.00745 116 116 127
-26.2136 11.2489 -1.94859 118 116 127
-26.9324 11.7694 -2.01657 112 112 123
-26.9271 11.865 -2.01908 121 121 133
-26.8954 11.9975 -2.02081 99 90 99
-26.6604 11.9849 -2.0034 97 86 95
-11.3939 15.8738 -1.24611 102 92 100
-11.2937 15.8831 -1.24232 99 92 99
-11.2195 15.8778 -1.23877 100 90 99
-11.1455 15.8721 -1.23523 91 88 99
-11.0404 15.8715 -1.23068 112 112 122
-10.974 15.877 -1.22821 113 112 118
-10.9004 15.8703 -1.22467 118 116 120
-10.8052 15.8836 -1.2215 118 116 118
-10.7308 15.8746 -1.21781 116 116 114
-10.6617 15.8737 -1.21489 119 110 109
-7.35233 15.8814 -1.00992 125 106 92
-7.265 15.8808 -1.00744 128 106 93
-7.20421 15.874 -1.00532 129 107 93
-7.14777 15.878 -1.00405 130 108 95
-7.06358 15.8838 -1.00214 130 109 91
-32.4215 5.51887 -2.14813 96 104 125
-32.419 5.61939 -2.14898 98 105 124
-32.375 5.71242 -2.14671 98 104 123
-32.3802 5.86499 -2.14874 91 96 115
-32.4313 5.97606 -2.15375 113 117 136
-32.4249 6.22887 -2.15618 93 99 118
-28.0184 9.99513 -2.04796 103 105 115
-27.7288 9.98157 -2.02592 119 121 133
-27.4796 10.0288 -2.00846 125 127 139
-27.3134 10.0591 -1.99682 120 122 134
-27.2771 10.1393 -1.9962 115 117 130
-27.1782 10.2418 -1.9915 113 113 127
-27.1266 10.3156 -1.98961 114 114 126
-11.8187 10.6313 -1.10016 87 81 86
-11.7272 10.6065 -1.09289 91 89 100
-11.6903 10.6701 -1.09439 92 90 102
-10.5846 15.8589 -1.21074 100 90 91
-10.4949 15.8791 -1.20834 102 91 97
-10.4151 15.8584 -1.20374 103 90 96
-10.3485 15.8597 -1.20112 103 91 95
-10.2571 15.8752 -1.19843 103 93 94
-10.1847 15.8655 -1.1949 102 92 93
-10.1145 15.8591 -1.19168 101 92 93
-10.0263 15.8785 -1.18944 105 95 97
-7.00793 15.8893 -1.00102 132 110 89
-6.9454 15.8759 -0.998471 133 108 87
-6.86011 15.8769 -0.996283 134 109 89
-6.80462 15.8817 -0.995159 135 110 90
-32.1541 4.67463 -2.12045 100 107 125
-32.2113 4.78273 -2.12562 100 107 125
-32.2484 4.88814 -2.1293 100 108 126
-32.3265 5.05045 -2.13655 98 107 124
-32.3687 5.15761 -2.14067 98 107 124
-32.4124 5.26542 -2.14494 98 107 124
-32.4336 5.42009 -2.14802 97 106 123
-29.2617 10.012 -2.14186 106 105 121
-28.9463 9.99711 -2.11774 96 98 113
-28.6425 9.9845 -2.09458 98 98 110
-28.3271 10.0139 -2.07159 97 97 109
-9.95341 15.8661 -1.18576 104 93 98
-9.89124 15.8727 -1.18377 105 94 100
-9.79466 15.8752 -1.18016 105 94 97
-9.72318 15.8637 -1.17664 106 95 96
-9.65842 15.8641 -1.17419 108 98 96
-9.59001 15.8573 -1.17113 107 97 95
-9.50147 15.8722 -1.16875 106 96 96
-6.78588 15.9896 -1.00184 137 112 90
-6.80579 16.2907 -1.02236 135 113 90
-6.59957 15.864 -0.988743 135 113 90
-6.5566 15.9038 -0.990318 136 114 91
-32.115 3.87913 -2.11159 103 106 125
-32.1098 3.97687 -2.11186 105 106 126
-32.1359 4.07878 -2.1145 105 107 126
-32.1754 4.18278 -2.11819 99 106 122
-32.1862 4.33254 -2.1201 102 106 126
-32.1381 4.4247 -2.11724 98 101 120
-32.145 4.52467 -2.11855 96 101 118
-30.2273 9.39245 -2.20095 132 133 145
-30.1327 9.51233 -2.19636 114 112 125
-30.0773 9.59461 -2.19397 91 91 103
-30.1502 9.72006 -2.20231 86 84 97
-30.1108 9.85844 -2.20245 98 97 107
-30.0544 9.9404 -2.20006 87 84 98
-29.9169 9.99376 -2.1909 86 84 98
-29.6082 9.98584 -2.1674 90 88 102
-8.61995 10.9744 -0.939148 97 87 96
-8.56476 10.9679 -0.935917 99 89 98
-8.49798 10.981 -0.933484 99 89 98
-8.46382 11.0056 -0.933529 97 89 100
-8.4361 11.04 -0.934609 98 90 101
-8.4147 11.1224 -0.939414 98 90 101
-9.43605 15.8701 -1.16615 107 96 95
-9.36433 15.8553 -1.16248 107 96 94
-9.27154 15.8601 -1.15934 107 96 92
-9.20738 15.8589 -1.1569 110 96 96
-9.14689 15.8645 -1.15506 110 96 96
-9.05799 15.8753 -1.15254 108 97 95
-8.98879 15.8625 -1.14918 109 98 96
-6.34806 15.8698 -0.98292 139 114 92
-6.28799 15.8578 -0.980668 140 116 92
-32.047 3.18554 -2.1025 99 100 121
-32.0222 3.28056 -2.10114 103 106 125
-32.0585 3.38219 -2.10439 102 107 126
-32.0394 3.52674 -2.10378 102 109 127
-32.065 3.62764 -2.10628 97 104 123
-32.0962 3.72945 -2.10923 110 115 134
-30.0732 8.00811 -2.16133 99 99 119
-30.0835 8.10872 -2.16401 91 92 111
-30.1166 8.21608 -2.16857 82 83 101
-30.0729 8.35059 -2.16778 86 89 106
-30.0917 8.45443 -2.17124 88 91 106
-30.1482 8.56987 -2.17786 88 92 106
-30.1277 8.71202 -2.17912 92 93 111
-30.1528 8.81888 -2.1832 95 96 113
-30.168 8.92304 -2.1865 96 97 111
-30.1714 9.02379 -2.18885 94 93 110
-30.1524 9.16756 -2.19042 75 83 96
-30.1569 9.26915 -2.19292 91 99 109
-6.44578 11.2424 -0.827694 110 96 96
-6.38179 11.2455 -0.825541 109 98 96
-8.92849 15.8674 -1.14735 110 99 96
-8.83728 15.8716 -1.14438 110 96 93
-8.77627 15.8741 -1.14239 113 100 94
-8.70504 15.8548 -1.13858 114 99 94
-8.6244 15.8794 -1.13744 113 98 93
-6.01107 15.8608 -0.974368 140 118 95
-31.9794 2.83806 -2.09586 89 100 122
-32.031 2.94019 -2.10016 92 98 118
-32.0763 3.0421 -2.10401 98 100 119
-29.9936 6.9734 -2.13734 96 99 118
-30.025 7.07686 -2.14145 94 101 116
-29.9692 7.20668 -2.13924 95 98 113
-29.9322 7.29319 -2.13781 89 87 103
-29.9411 7.39157 -2.14017 98 96 110
-30.0211 7.5088 -2.14839 124 124 137
-30.0174 7.65274 -2.15061 133 133 148
-30.0386 7.75539 -2.15407 125 124 147
-30.0595 7.85825 -2.15754 121 121 142
-21.3839 11.1585 -1.75339 124 120 119
-21.3044 11.2385 -1.75047 121 117 118
-20.0803 14.1613 -1.7904 79 69 70
-19.9699 14.1711 -1.78322 82 73 74
-19.8152 14.1926 -1.77355 100 91 97
-8.34347 15.8674 -1.12702 115 102 94
-8.28057 15.8627 -1.12458 114 101 93
-8.21616 15.8541 -1.12185 115 100 95
-8.12457 15.8508 -1.11858 117 103 94
-6.962 17.3529 -1.09708 137 114 91
-6.84904 17.1991 -1.08403 138 113 91
-31.8464 2.14987 -2.08358 99 106 123
-31.795 2.24254 -2.07998 134 125 133
-31.9158 2.49313 -2.0898 140 147 163
-29.9062 6.19415 -2.11881 96 102 118
-29.9072 6.28865 -2.12023 94 100 117
-29.9177 6.38542 -2.12245 95 102 120
-29.9137 6.52633 -2.12421 94 101 119
-29.933 6.62561 -2.12721 93 100 118
-29.9346 6.72096 -2.12879 96 101 120
-29.9522 6.86786 -2.13244 93 100 118
-23.2921 12.126 -1.93604 111 109 112
-23.0585 12.4034 -1.92919 126 122 125
-23.0543 12.5376 -1.93421 122 119 124
-23.052 12.6279 -1.93766 119 116 125
-23.0493 12.7183 -1.94111 92 82 93
-22.9696 12.8095 -1.93883 109 102 109
-22.8943 12.8573 -1.93516 108 105 111
-22.7984 12.8924 -1.92946 107 104 112
-22.6992 12.971 -1.92532 106 104 111
-22.61 13.0092 -1.92029 109 107 118
-22.5361 13.0564 -1.91679 107 105 118
-22.4502 13.0959 -1.91211 108 107 121
-22.3656 13.1818 -1.9095 107 107 119
-22.3234 13.2479 -1.90922 107 107 119
-22.2691 13.3065 -1.90776 105 105 117
-22.1988 13.401 -1.90668 103 102 117
-22.1542 13.4656 -1.90623 105 103 120
-22.081 13.5116 -1.90291 106 103 120
-22.0164 13.6095 -1.90251 102 101 117
-21.9296 13.6461 -1.89783 102 102 114
-21.8577 13.6922 -1.89468 100 100 112
-21.7509 13.7613 -1.89005 99 99 111
-21.6557 13.791 -1.88453 100 98 111
-21.6165 13.8583 -1.88476 99 97 108
-21.5688 13.9199 -1.88415 99 97 108
-21.4745 13.9961 -1.88088 97 95 106
-21.4182 14.0515 -1.87942 93 93 101
-21.3765 14.1171 -1.87949 91 90 98
-21.2928 14.2001 -1.8774 79 73 85
-21.2376 14.256 -1.87612 84 76 89
-21.213 14.3338 -1.87805 95 92 101
-21.1365 14.4217 -1.8768 92 91 98
-21.0727 14.4712 -1.87468 90 89 95
-21.0376 14.5416 -1.87559 90 86 84
-20.8511 14.644 -1.8675 79 70 72
-20.5887 14.8805 -1.8609 99 90 93
-20.5207 14.9253 -1.85844 101 92 91
-20.4541 15.0196 -1.85855 90 85 87
-20.3623 15.0454 -1.85357 95 89 91
-20.2892 15.0855 -1.8506 73 67 71
-20.2359 15.1899 -1.85224 72 65 72
-20.1951 15.2557 -1.85282 82 76 82
-20.0906 15.27 -1.84648 70 63 70
-20.0378 15.3749 -1.84829 88 82 86
-19.964 15.4136 -1.84533 84 79 83
-19.8979 15.4583 -1.84321 89 84 90
-19.85 15.5181 -1.84312 87 82 89
-19.7592 15.5914 -1.84088 90 88 93
-19.7337 15.6701 -1.84332 95 90 94
-19.6624 15.71 -1.8407 96 91 97
-19.5663 15.7784 -1.83796 95 90 96
-19.4979 15.8202 -1.83568 101 98 103
-19.3813 15.8199 -1.82801 101 100 105
-19.2326 15.8407 -1.81938 98 96 102
-19.1075 15.8311 -1.81071 101 100 106
-18.9796 15.8183 -1.8017 104 100 107
-18.836 15.8404 -1.79358 107 103 111
-18.7205 15.8368 -1.78593 99 95 103
-18.5992 15.8273 -1.7776 95 92 99
-18.4856 15.8238 -1.77012 97 94 102
-18.3399 15.84 -1.76168 94 89 96
-18.2223 15.8312 -1.7537 88 84 91
-18.1034 15.8205 -1.74555 86 76 86
-17.9629 15.8382 -1.73762 87 74 74
-17.8575 15.8385 -1.73099 89 77 78
-17.7781 15.863 -1.72739 86 77 81
-17.6724 15.9117 -1.7235 89 84 98
-17.5688 15.9119 -1.71704 90 86 102
-17.4596 15.906 -1.70991 91 87 105
-17.3563 15.9051 -1.70346 90 89 105
-16.7688 15.9185 -1.66814 91 89 103
-16.6652 15.9129 -1.66153 91 89 103
-16.5341 15.928 -1.65448 92 91 105
-16.4282 15.9185 -1.64754 92 95 112
-16.3266 15.9127 -1.6411 113 116 133
-16.2029 15.9329 -1.63489 120 122 134
-16.0976 15.9217 -1.62796 122 119 131
-15.9939 15.9114 -1.6212 119 114 119
-15.8998 15.9109 -1.61561 92 84 97
-15.7702 15.9211 -1.60857 92 88 103
-15.6751 15.9181 -1.60282 92 89 104
-15.5789 15.9132 -1.5969 90 88 102
-15.4472 15.9183 -1.58953 91 87 102
-15.35 15.9108 -1.58345 93 89 104
-15.2557 15.9058 -1.57771 91 87 102
-8.066 15.8544 -1.11691 117 103 94
-8.0059 15.8541 -1.11494 117 103 94
-7.91863 15.8588 -1.11244 117 102 95
-7.85635 15.8525 -1.11001 120 103 95
-7.79497 15.8478 -1.10774 120 103 93
-31.7418 1.4712 -2.07454 159 156 172
-31.7457 1.71095 -2.07512 151 137 142
-29.8729 5.29889 -2.10464 97 106 123
-29.8782 5.43934 -2.10672 98 107 124
-29.866 5.53016 -2.10688 97 106 123
-29.8614 5.62251 -2.10768 100 107 125
-29.8592 5.76208 -2.10928 95 101 117
-29.9124 5.8666 -2.11483 99 102 119
-29.9146 5.96088 -2.11626 118 121 138
-24.2659 10.6586 -1.9587 111 106 110
-24.2057 10.7625 -1.95743 104 99 104
-24.1657 10.8318 -1.95663 114 109 116
-24.1434 10.9096 -1.95754 123 120 126
-24.0677 11.0059 -1.95491 127 120 130
-24.0126 11.0678 -1.95276 127 122 134
-23.9609 11.1312 -1.95094 124 121 135
-23.8754 11.222 -1.94747 120 119 135
-23.8162 11.2813 -1.94497 118 117 131
-23.7763 11.3502 -1.94435 112 114 127
-23.7398 11.4208 -1.94407 109 113 125
-23.6744 11.5209 -1.94264 114 114 124
-23.625 11.5848 -1.94116 117 117 125
-23.5878 11.6549 -1.94088 120 120 128
-23.5337 11.7608 -1.94064 119 119 133
-23.473 11.8184 -1.93815 116 115 128
-23.4649 11.904 -1.94076 119 116 130
-23.4008 12.0046 -1.93966 116 113 125
-23.3361 12.0597 -1.93683 116 114 123
-15.1339 15.9193 -1.57152 91 87 102
-15.0425 15.9164 -1.56611 91 87 101
-14.9513 15.913 -1.56071 92 89 100
-14.8327 15.9276 -1.55486 94 90 103
-14.7379 15.9187 -1.54896 96 90 105
-14.6447 15.9109 -1.54323 98 92 106
-14.5279 15.9251 -1.53756 95 91 104
-14.4324 15.9133 -1.53149 96 94 105
-14.3422 15.9071 -1.5261 95 92 106
-14.2548 15.9036 -1.52104 94 90 104
-14.14 15.917 -1.51554 92 87 100
-14.0566 15.9173 -1.51099 94 88 102
-13.9658 15.9078 -1.50544 95 89 102
-13.8478 15.9147 -1.49945 93 87 101
-13.7661 15.9153 -1.49507 96 90 104
-13.6759 15.9045 -1.48951 94 88 102
-13.578 15.9348 -1.48621 96 90 104
-13.4832 15.9168 -1.47999 96 89 103
-13.3948 15.9063 -1.47461 96 90 102
-13.3102 15.9002 -1.46974 99 91 102
-7.71261 15.8625 -1.10616 124 103 92
-7.64836 15.8499 -1.10328 125 102 88
-7.59251 15.8573 -1.10207 126 101 82
-7.52924 15.8461 -1.09935 131 107 86
-7.44565 15.8557 -1.09746 127 107 93
-31.7908 1.37762 -2.07814 105 111 137
-29.7703 4.54245 -2.08836 125 134 151
-29.7969 4.68457 -2.09189 115 122 139
-29.8639 4.78792 -2.09824 101 108 124
-29.8734 4.88194 -2.1 93 100 116
-29.865 4.97297 -2.10032 91 98 115
-29.8581 5.11057 -2.1013 96 105 120
-29.8608 5.20379 -2.10257 98 107 122
-25.0137 9.97781 -1.99638 119 118 132
-24.7955 10.0169 -1.9801 122 121 136
-24.6791 10.0545 -1.97197 119 118 132
-24.6193 10.116 -1.96913 112 115 127
-24.5524 10.2178 -1.96701 108 110 122
-24.4958 10.2803 -1.96451 108 108 120
-24.4481 10.3467 -1.96286 114 112 123
-24.3984 10.412 -1.96104 116 114 124
-24.3611 10.5265 -1.96182 125 121 127
-24.291 10.5822 -1.95813 123 120 126
-13.1971 15.9077 -1.46426 98 94 102
-13.1164 15.9055 -1.45989 96 90 102
-13.0335 15.8997 -1.45519 97 91 105
-12.9292 15.9168 -1.45089 94 88 101
-12.8419 15.9038 -1.44552 95 89 101
-12.7606 15.8984 -1.44099 96 90 102
-12.6579 15.9155 -1.43686 95 87 99
-12.5723 15.9028 -1.43167 98 88 99
-12.4984 15.906 -1.42814 98 88 97
-12.3938 15.9184 -1.42369 99 89 100
-12.3122 15.9094 -1.419 98 89 100
-12.2306 15.9001 -1.41431 97 90 98
-6.40771 11.2969 -0.864327 110 98 98
-6.35569 11.279 -0.860962 113 102 100
-7.38846 15.8588 -1.09596 124 104 93
-7.32553 15.8468 -1.09323 128 106 93
-7.24359 15.8591 -1.09166 126 107 93
-7.18021 15.8447 -1.08878 127 108 94
-7.12258 15.845 -1.08713 129 110 95
-29.7317 3.8971 -2.07951 142 139 156
-29.7616 4.03795 -2.08305 113 118 133
-29.8052 4.13561 -2.08735 87 94 109
-29.8169 4.22888 -2.0891 75 89 105
-29.8136 4.36579 -2.09009 93 106 123
-29.8128 4.45743 -2.09089 104 117 133
-26.2707 10.0006 -2.09814 101 99 113
-26.0188 9.99031 -2.07753 98 97 111
-25.7618 9.97631 -2.05642 92 91 105
-25.5023 10.0041 -2.03637 87 86 100
-25.2588 9.99205 -2.01646 93 92 106
-21.3962 11.199 -1.82108 115 113 126
-21.3165 11.279 -1.81806 113 111 123
-22.092 12.1967 -1.9164 93 82 96
-22.0353 12.2957 -1.91618 120 114 117
-21.9445 12.3301 -1.91065 130 128 127
-21.9169 12.4022 -1.91161 130 126 127
-21.8567 12.4545 -1.90924 131 127 126
-21.8242 12.568 -1.91164 118 113 120
-21.75 12.6115 -1.90787 109 104 113
-21.8026 12.7335 -1.91724 108 104 113
-21.7264 12.8205 -1.91526 106 103 115
-21.6416 12.857 -1.91044 108 104 118
-21.5835 12.9102 -1.90842 109 105 119
-21.4631 12.9681 -1.9019 106 105 118
-21.3597 12.9914 -1.89516 104 103 116
-21.3047 13.0457 -1.89349 103 101 114
-21.1791 13.0983 -1.88645 103 101 114
-21.162 13.1772 -1.88881 100 99 113
-21.0784 13.212 -1.88417 100 100 112
-21.0129 13.2585 -1.88146 102 101 115
-20.9528 13.3536 -1.88142 101 100 112
-20.91 13.4154 -1.88115 101 100 112
-20.8965 13.4973 -1.88404 99 97 111
-20.7879 13.5589 -1.87893 96 95 109
-20.7347 13.6133 -1.87762 95 95 107
-20.6438 13.6411 -1.87229 102 101 109
-20.5851 13.7368 -1.8726 84 81 90
-20.5071 13.773 -1.86867 70 64 74
-20.4824 13.8474 -1.8705 89 86 97
-20.4082 13.9319 -1.86924 82 79 88
-20.3395 13.9742 -1.86636 82 80 89
-20.3396 14.0672 -1.87099 81 78 83
-20.2307 14.0795 -1.86375 79 71 80
-20.1713 14.1746 -1.86424 68 58 66
-20.1053 14.2184 -1.86171 75 66 69
-19.9409 14.1871 -1.84836 89 83 85
-19.9553 14.338 -1.85705 83 78 82
-19.9236 14.4075 -1.85836 87 81 83
-19.8366 14.4343 -1.85357 89 83 87
-19.7724 14.5253 -1.85371 87 82 86
-19.7275 14.5846 -1.85363 86 82 81
-19.645 14.614 -1.84936 76 70 72
-19.5488 14.6793 -1.84602 78 71 78
-19.4988 14.7341 -1.84542 84 75 83
-19.4485 14.7888 -1.84481 99 92 99
-19.3905 14.837 -1.84334 101 92 97
-19.292 14.8994 -1.83982 96 90 94
-19.2566 14.9662 -1.84096 91 84 91
-19.1874 15.0047 -1.83827 94 87 95
-19.1142 15.0877 -1.83772 91 86 90
-19.0417 15.1231 -1.83468 88 83 87
-19.004 15.1879 -1.83565 90 85 89
-18.8773 15.2245 -1.82901 91 88 93
-12.1231 15.9059 -1.40936 100 94 98
-12.0543 15.9139 -1.4065 101 94 100
-11.5403 15.9084 -1.38123 101 93 101
-11.4722 15.9141 -1.37838 100 94 98
-11.3955 15.9061 -1.3742 98 92 97
-6.32776 11.3134 -0.862569 113 100 97
-7.04154 15.8582 -1.08571 128 108 94
-6.98197 15.8524 -1.0836 129 108 92
-6.92385 15.8501 -1.08179 131 108 92
-6.84361 15.8641 -1.08052 134 109 92
-4.51398 10.6637 -0.720964 136 111 91
-4.47721 10.6666 -0.720217 134 112 91
-29.7388 3.30801 -2.07575 95 101 117
-29.7552 3.40057 -2.07767 95 101 117
-29.7673 3.49279 -2.07927 95 100 120
-29.8487 3.63945 -2.08679 116 120 139
-29.9272 3.74102 -2.0938 129 130 147
-29.7663 3.8108 -2.08157 149 147 163
-27.3441 9.86348 -2.18123 89 91 106
-27.2818 9.98035 -2.17941 89 91 104
-27.0808 9.99649 -2.16356 92 94 107
-26.8206 9.98828 -2.14225 95 97 110
-26.5459 9.97269 -2.11958 93 95 106
-23.2195 10.6328 -1.94459 114 116 126
-23.1423 10.6806 -1.9401 113 114 126
-23.124 10.7571 -1.94141 116 117 131
-23.0626 10.8123 -1.93849 116 116 132
-23.0071 10.913 -1.93774 118 118 132
-22.9471 10.9685 -1.93501 117 120 132
-22.9419 11.0519 -1.93772 115 119 130
-22.85 11.1336 -1.93345 118 117 133
-22.8318 11.2105 -1.93494 120 118 131
-22.7746 11.267 -1.93256 118 118 130
-22.7223 11.369 -1.93233 114 116 128
-22.67 11.4278 -1.93048 116 115 129
-22.6455 11.5016 -1.93143 116 115 131
-22.5449 11.5773 -1.92647 114 114 130
-22.5181 11.6497 -1.92725 110 112 127
-22.4633 11.7067 -1.92522 112 113 126
-22.3117 12.0157 -1.92594 112 111 122
-22.2197 12.0947 -1.92203 113 110 118
-22.1912 12.1664 -1.92281 97 93 107
-18.8557 15.3033 -1.83189 89 87 90
-18.7738 15.3296 -1.82781 88 86 89
-18.6962 15.408 -1.82692 94 89 93
-18.6588 15.4733 -1.82806 94 90 91
-18.5871 15.508 -1.8252 95 92 97
-18.573 15.5943 -1.82913 99 95 101
-18.4736 15.653 -1.8258 94 93 98
-18.4265 15.7097 -1.8259 107 104 112
-18.3558 15.7447 -1.82321 108 105 114
-18.2793 15.8237 -1.82267 110 102 115
-18.1997 15.8499 -1.81895 103 96 108
-18.0766 15.8349 -1.81001 104 101 109
-17.9491 15.8646 -1.80339 107 105 110
-17.8366 15.8578 -1.79568 107 106 112
-17.7271 15.8533 -1.78831 103 97 107
-17.5887 15.8697 -1.78031 109 106 115
-17.4739 15.8584 -1.77225 106 104 111
-17.3693 15.8562 -1.76542 102 99 109
-17.2536 15.8424 -1.75719 99 94 107
-16.6819 15.8674 -1.72246 92 88 103
-16.5815 15.8643 -1.71599 92 88 103
-16.4673 15.8962 -1.71079 88 86 100
-16.3904 15.9165 -1.70726 112 118 134
-16.3081 15.9308 -1.70305 116 119 134
-16.2164 15.9345 -1.69762 121 120 135
-16.0766 15.9365 -1.68913 116 111 123
-15.9785 15.9319 -1.68284 115 108 115
-15.8952 15.9429 -1.67845 97 91 106
-15.7683 15.9559 -1.67153 93 90 107
-15.6653 15.944 -1.66455 92 91 107
-15.5757 15.9463 -1.65931 93 93 105
-15.4507 15.9587 -1.65257 96 93 108
-15.351 15.9482 -1.64594 98 95 110
-15.2619 15.9491 -1.6407 96 92 107
-11.2961 15.9171 -1.37027 99 92 99
-11.2218 15.9117 -1.36643 101 91 100
-11.1424 15.8976 -1.36176 101 98 109
-11.0497 15.9172 -1.35883 112 111 120
-10.98 15.9176 -1.35566 113 112 120
-10.8969 15.8956 -1.35033 114 113 119
-10.8254 15.892 -1.34683 115 115 117
-10.7332 15.9099 -1.34391 121 116 117
-10.6558 15.8954 -1.33941 112 102 107
-6.78029 15.8464 -1.0775 134 108 91
-6.75222 15.9279 -1.08254 136 111 91
-6.57948 15.8379 -1.07142 134 112 89
-29.5779 2.75017 -2.05968 98 105 126
-29.6218 2.84433 -2.06368 94 101 120
-29.6767 2.98496 -2.06883 99 101 119
-29.712 3.07897 -2.07218 100 102 118
-29.7212 3.17034 -2.07347 98 101 116
-27.4378 8.64819 -2.15732 97 96 112
-27.4381 8.73968 -2.15958 97 96 112
-27.4494 8.83507 -2.16287 96 95 111
-27.435 8.96782 -2.16499 92 95 110
-27.4247 9.05635 -2.16639 85 88 103
-27.4424 9.15478 -2.17035 83 87 100
-27.4353 9.24478 -2.1721 95 97 111
-27.4132 9.37585 -2.1737 128 130 144
-27.4521 9.48289 -2.17971 135 141 151
-27.3373 9.53421 -2.17171 116 113 123
-27.359 9.77534 -2.18 89 85 99
-24.0694 10.0003 -1.99206 121 121 132
-23.8176 10.0166 -1.97193 121 121 133
-23.6691 10.0351 -1.96038 116 116 128
-23.6222 10.0987 -1.9587 112 113 124
-23.5374 10.1872 -1.95477 108 110 120
-23.4757 10.2436 -1.95168 111 113 125
-23.4535 10.3183 -1.95246 110 114 125
-23.3697 10.4064 -1.94871 112 110 120
-23.3577 10.486 -1.95055 110 110 117
-23.2557 10.5225 -1.94359 113 113 122
-15.1453 15.9685 -1.63501 95 93 107
-15.037 15.946 -1.62718 96 94 107
-14.9524 15.95 -1.62246 95 93 106
-14.8588 15.9431 -1.61653 94 93 107
-14.7365 15.9525 -1.60998 96 92 107
-14.6535 15.9568 -1.60545 96 90 106
-14.5579 15.9455 -1.59918 95 93 106
-14.4412 15.9591 -1.59333 92 91 104
-14.3498 15.9513 -1.58758 91 89 103
-14.2573 15.9417 -1.58167 92 90 104
-14.1437 15.9565 -1.57617 92 88 102
-14.0579 15.9536 -1.57112 89 85 99
-13.9659 15.9425 -1.56521 94 91 102
-13.8529 15.9556 -1.55972 98 94 107
-13.7625 15.9452 -1.55399 94 88 100
-13.6822 15.9469 -1.54964 99 93 105
-13.5721 15.9613 -1.5445 95 92 103
-13.4848 15.9528 -1.53912 98 93 105
-13.4 15.9469 -1.53408 100 94 107
-13.2913 15.9091 -1.52559 98 90 102
-10.5867 15.8942 -1.33624 100 90 101
-10.4897 15.9023 -1.33249 102 93 98
-10.4148 15.8901 -1.32833 102 93 96
-10.3491 15.8932 -1.32567 102 93 96
-10.2555 15.9051 -1.32243 102 93 96
-10.1801 15.8902 -1.3181 104 94 95
-10.1166 15.8959 -1.31578 106 95 99
-6.77875 16.1675 -1.10035 136 112 91
-6.53275 15.8663 -1.07221 136 114 91
-6.32589 15.834 -1.06446 139 114 92
-6.27042 15.8351 -1.06312 140 114 91
-29.4741 2.24958 -2.04919 143 128 129
-29.4777 2.42804 -2.05019 111 115 132
-29.4651 2.51607 -2.04958 143 149 166
-27.3755 7.45948 -2.12525 101 109 122
-27.3756 7.59273 -2.12807 109 115 129
-27.3814 7.68354 -2.13051 102 107 121
-27.3888 7.77504 -2.13312 83 88 106
-27.4035 7.86896 -2.13642 84 87 104
-27.394 8.00054 -2.13855 96 96 116
-27.4193 8.09831 -2.14287 94 97 114
-27.429 8.19158 -2.14582 95 96 114
-27.4274 8.32662 -2.1488 95 97 112
-27.4325 8.41897 -2.1514 95 97 112
-27.4393 8.51207 -2.15418 96 97 115
-24.9871 10.0058 -2.06785 97 96 111
-24.712 10.0199 -2.04558 91 90 105
-24.5134 10.0215 -2.02926 87 85 99
-24.2876 10.0099 -2.01031 90 93 105
-13.2036 15.9499 -1.52357 98 93 105
-13.1264 15.9524 -1.51957 98 94 106
-13.0352 15.9354 -1.5135 97 91 103
-12.9263 15.946 -1.50838 99 93 106
-12.8507 15.949 -1.50456 100 90 103
-12.7671 15.9404 -1.49953 99 90 101
-12.6668 15.9607 -1.49562 98 89 100
-12.5846 15.9529 -1.49077 97 87 98
-12.4865 15.922 -1.48351 96 88 99
-12.4185 15.9329 -1.48073 97 89 100
-12.321 15.9545 -1.47717 96 90 102
-10.0194 15.8995 -1.31187 105 94 100
-9.95312 15.8993 -1.30905 106 95 100
-9.88122 15.8884 -1.30523 105 94 98
-9.81803 15.893 -1.30291 104 93 97
-9.72709 15.9054 -1.3 107 95 99
-9.65559 15.8936 -1.29619 106 96 97
-9.59076 15.8938 -1.29353 106 96 95
-6.18713 15.8345 -1.06095 141 117 93
-29.4219 1.7131 -2.04342 149 135 132
-29.4925 2.02856 -2.04991 104 110 129
-29.5488 2.12185 -2.05471 102 108 130
-27.3027 6.56146 -2.10145 94 101 119
-27.3062 6.64945 -2.10339 96 101 120
-27.3345 6.744 -2.10755 95 101 117
-27.3356 6.83174 -2.10931 93 99 115
-27.3427 6.96502 -2.11248 93 99 115
-27.3468 7.05401 -2.11459 93 96 115
-27.3603 7.14572 -2.11755 91 94 113
-27.3505 7.27529 -2.11934 88 92 108
-27.3612 7.36677 -2.12213 87 92 108
-26.1993 9.87773 -2.16457 87 88 103
-26.1426 9.99119 -2.16325 89 91 106
-25.9628 10.0091 -2.14884 91 90 104
-25.7113 9.99657 -2.12756 95 96 111
-25.4407 10.0189 -2.1058 101 101 118
-25.2303 10.0199 -2.08841 94 95 110
-11.8357 10.6187 -1.23754 92 91 99
-11.7285 10.5789 -1.22743 112 111 119
-11.7028 10.6204 -1.22843 109 108 114
-12.2417 15.9485 -1.47267 98 90 101
-12.1638 15.9437 -1.46835 102 95 103
-12.0576 15.9507 -1.46341 100 93 101
-11.4681 15.9391 -1.43317 100 94 101
-9.49641 15.898 -1.28997 108 98 97
-9.43272 15.8993 -1.28749 107 97 96
-9.36818 15.8987 -1.28484 108 96 96
-9.35124 16.0523 -1.29539 108 96 96
-9.20625 15.8933 -1.27797 108 97 95
-9.14292 15.8935 -1.27549 111 97 97
-4.50363 10.7185 -0.755175 136 112 92
-6.84601 16.965 -1.15915 135 113 90
-6.73957 16.9142 -1.15271 139 114 92
-5.99579 15.8417 -1.05672 141 117 95
-5.9377 15.8322 -1.05462 142 117 95
-29.4565 1.31646 -2.04551 98 110 132
-29.4175 1.40304 -2.0425 90 94 116
-29.3943 1.49025 -2.04078 154 153 164
-27.3049 5.82769 -2.08897 100 107 125
-27.3385 5.96422 -2.09404 118 127 144
-27.2297 6.02521 -2.08585 106 113 129
-27.2835 6.12389 -2.09208 95 101 117
-27.2594 6.24753 -2.09217 96 100 118
-27.3085 6.34593 -2.09806 96 103 121
-27.2993 6.43038 -2.09879 95 102 118
-26.3359 8.58713 -2.13988 95 97 112
-26.3189 8.7135 -2.14174 94 97 112
-26.3282 8.80528 -2.14498 93 96 113
-26.3466 8.90055 -2.1491 92 93 111
-26.3074 9.01979 -2.14901 85 86 104
-26.3193 9.1133 -2.1526 85 88 102
-26.3178 9.20217 -2.15495 89 95 107
-26.2921 9.32689 -2.15628 126 129 142
-26.3421 9.4356 -2.16357 131 135 147
-26.306 9.51206 -2.16273 119 112 128
-26.2174 9.61323 -2.15824 88 84 101
-26.2494 9.71605 -2.16394 86 82 98
-26.2236 9.79656 -2.16416 84 83 97
-11.4011 15.9462 -1.43041 102 92 100
-11.3049 15.9621 -1.42687 100 93 100
-11.2233 15.945 -1.42169 94 88 99
-11.146 15.9342 -1.41721 106 108 118
-11.0805 15.9417 -1.41463 112 112 120
-10.9827 15.9525 -1.41075 115 114 120
-10.9048 15.939 -1.4061 116 116 118
-10.8364 15.9405 -1.403 117 115 116
-9.05202 15.9006 -1.27243 110 97 97
-8.99415 15.911 -1.27095 112 101 98
-8.92489 15.8979 -1.26731 110 99 96
-8.85493 15.8828 -1.26351 110 99 95
-8.76537 15.8901 -1.26062 111 100 96
-8.70429 15.8924 -1.25848 113 100 94
-4.46451 10.7139 -0.753722 135 113 90
-29.4834 0.919196 -2.04742 98 110 134
-29.4637 1.007 -2.04586 99 111 135
-29.5054 1.09716 -2.04924 99 111 133
-29.4573 1.22796 -2.04548 101 113 137
-27.3762 5.15878 -2.0849 97 106 124
-27.3547 5.28223 -2.08483 96 105 121
-27.3529 5.36716 -2.08591 98 105 123
-27.3546 5.45296 -2.08734 96 103 122
-27.3307 5.53345 -2.08654 97 104 123
-27.3308 5.66182 -2.08852 96 105 122
-27.3238 5.74605 -2.08926 96 103 121
-26.2825 7.48378 -2.10833 93 98 117
-26.3152 7.57958 -2.11334 95 98 115
-26.3051 7.70554 -2.1154 98 97 115
-26.3029 7.79116 -2.11723 95 98 115
-26.306 7.87864 -2.11959 94 97 114
-26.3096 8.00973 -2.12305 94 97 112
-26.3138 8.09807 -2.12558 94 97 114
-26.3178 8.18652 -2.12812 94 97 114
-26.3292 8.32127 -2.13246 96 98 113
-26.3324 8.41 -2.13499 96 98 113
-26.3277 8.49628 -2.13682 95 97 112
-10.739 15.9499 -1.39913 122 116 112
-10.6668 15.9439 -1.39534 103 91 94
-10.5957 15.9393 -1.39173 102 93 98
-10.4967 15.944 -1.38752 102 93 96
-10.4308 15.9473 -1.38477 102 93 96
-10.3551 15.9332 -1.3803 103 94 97
-10.2644 15.9502 -1.37747 102 93 96
-8.33837 15.8974 -1.24531 119 104 101
-29.4734 0.697729 -2.04668 99 114 137
-27.429 4.57456 -2.08173 100 107 125
-27.3888 4.6943 -2.07977 99 105 123
-27.3869 4.77863 -2.08068 98 105 124
-27.3984 4.86555 -2.0828 96 104 123
-27.3881 4.99093 -2.08359 96 104 124
-27.3872 5.0758 -2.08468 96 104 123
-26.2356 6.5801 -2.08493 94 99 117
-26.244 6.70836 -2.08824 92 100 113
-26.2547 6.79558 -2.09096 93 98 117
-26.267 6.88346 -2.09386 93 98 117
-26.2527 7.00637 -2.09522 94 98 117
-26.2758 7.0978 -2.09918 96 99 118
-26.266 7.18004 -2.10013 94 97 116
-26.277 7.31102 -2.10395 97 99 116
-26.2856 7.39906 -2.10667 97 100 117
-8.60701 10.946 -1.05748 98 92 103
-8.54385 10.9282 -1.0526 100 93 104
-8.50203 10.9415 -1.05134 101 93 104
-8.45402 10.9826 -1.05191 103 95 106
-8.42748 11.0187 -1.05331 103 95 106
-8.41173 11.0714 -1.05661 105 98 105
-10.1891 15.9354 -1.373 104 94 95
-10.1255 15.941 -1.3706 104 94 95
-10.0524 15.9291 -1.36648 105 95 97
-9.96404 15.948 -1.364 106 95 99
-9.89595 15.9441 -1.36074 104 93 97
-9.82042 15.926 -1.35611 105 94 99
-9.73044 15.9402 -1.35328 108 96 98
-8.27122 15.8835 -1.24185 117 100 97
-8.21151 15.8858 -1.23988 118 103 96
-8.12129 15.886 -1.23667 117 104 95
-8.06335 15.8914 -1.23504 117 102 94
-8.00385 15.8929 -1.23307 119 102 93
-27.3604 4.016 -2.06945 80 87 106
-27.3822 4.10328 -2.07227 74 80 98
-27.3645 4.18446 -2.07164 75 83 101
-27.3987 4.31611 -2.07605 88 91 108
-27.4274 4.40524 -2.07955 109 112 129
-27.4147 4.48752 -2.07943 105 111 127
-26.2045 5.82278 -2.06796 106 112 128
-26.2124 5.9074 -2.07016 123 127 144
-26.1468 6.01569 -2.06639 105 108 125
-26.1746 6.18849 -2.07202 95 102 118
-26.218 6.2827 -2.07759 96 103 119
-26.2259 6.40993 -2.08072 95 102 119
-26.2223 6.4927 -2.08203 94 101 118
-9.66273 15.9354 -1.35003 108 96 96
-9.59887 15.9373 -1.34747 108 97 95
-9.5073 15.9468 -1.3443 108 96 96
-9.43718 15.9358 -1.34054 108 96 96
-9.37176 15.9334 -1.33763 107 96 94
-7.91317 15.8902 -1.2297 119 102 93
-7.8546 15.893 -1.22791 121 104 95
-7.78837 15.8772 -1.22445 120 103 93
-7.72845 15.8759 -1.22232 123 105 91
-27.2774 3.42055 -2.05657 97 100 119
-27.2854 3.50467 -2.05802 99 100 120
-27.3208 3.59267 -2.06187 96 98 119
-27.3225 3.71785 -2.06319 95 100 119
-27.3434 3.80434 -2.06584 91 96 118
-27.3719 3.89217 -2.06917 93 100 119
-26.2703 5.17923 -2.06309 97 104 122
-26.2687 5.26089 -2.06423 96 103 121
-26.263 5.34176 -2.06501 95 103 124
-26.2368 5.45924 -2.0646 96 103 119
-26.2285 5.53967 -2.06521 97 104 122
-26.2121 5.61834 -2.06511 98 105 123
-26.2118 5.74187 -2.06718 92 100 118
-9.32468 16.0286 -1.34288 108 96 96
-9.218 15.944 -1.33208 108 97 95
-9.14932 15.9336 -1.32849 108 97 93
-9.08784 15.9372 -1.32628 108 97 95
-8.9944 15.9386 -1.32261 110 99 95
-8.92874 15.9327 -1.31954 110 99 95
-8.8675 15.9355 -1.31733 110 99 95
-7.64589 15.8901 -1.22062 127 104 85
-7.58833 15.8938 -1.21899 126 105 86
-7.52339 15.8789 -1.2157 124 104 90
-7.43952 15.8884 -1.21367 126 107 93
-7.37777 15.8803 -1.21105 126 107 93
-27.1928 2.91449 -2.04528 88 97 116
-27.2017 3.03902 -2.04695 96 101 121
-27.2426 3.12641 -2.05115 99 102 119
-27.2536 3.21043 -2.05277 96 99 118
-27.2446 3.29207 -2.05267 92 98 117
-26.3142 4.61658 -2.05879 98 105 124
-26.3066 4.69655 -2.05922 97 105 124
-26.301 4.81764 -2.06042 97 105 126
-26.2909 4.89725 -2.06068 96 104 124
-26.2863 4.97803 -2.06146 97 105 124
-26.2774 5.09881 -2.06248 97 104 122
-11.7895 10.5363 -1.29361 96 92 99
-11.778 10.592 -1.29666 98 93 100
-11.6951 10.5757 -1.2895 98 92 102
-11.6833 10.6313 -1.29255 96 90 100
-8.77531 15.9375 -1.31383 112 98 95
-8.71425 15.9397 -1.31162 114 101 94
-8.64732 15.9291 -1.30821 113 100 92
-7.31759 15.8756 -1.20876 123 105 93
-7.2354 15.8878 -1.20706 125 107 95
-7.17679 15.8864 -1.2051 128 109 95
-7.11827 15.8847 -1.20315 128 109 95
-27.1283 2.45658 -2.03677 139 146 164
-27.0188 2.52768 -2.02769 139 143 162
-27.1453 2.82702 -2.04055 94 105 125
-26.2806 4.04404 -2.0486 96 98 116
-26.3102 4.12963 -2.05224 95 96 116
-26.325 4.25337 -2.05505 90 92 112
-26.2911 4.32848 -2.05299 92 97 116
-26.3021 4.41143 -2.05503 93 99 115
-26.3019 4.53302 -2.05658 94 101 119
-20.6248 10.3349 -1.92519 110 112 125
-20.567 10.3826 -1.92224 109 108 122
-20.5125 10.4318 -1.91969 114 113 127
-20.4467 10.5139 -1.9176 121 119 132
-20.4007 10.5674 -1.916 110 108 122
-20.351 10.6189 -1.91403 94 91 106
-20.2931 10.7049 -1.91291 81 78 92
-20.2586 10.7646 -1.91267 75 75 86
-20.236 10.8312 -1.91378 81 80 91
-20.1841 10.9205 -1.91343 74 74 86
-20.1317 10.97 -1.91126 74 76 89
-20.0827 11.0213 -1.90948 82 79 92
-20.0369 11.0743 -1.90809 86 79 92
-19.9907 11.1668 -1.90851 74 70 78
-19.9445 11.2195 -1.90711 88 83 92
-19.905 11.2762 -1.90649 94 91 101
-19.8441 11.3598 -1.90537 82 80 90
-19.8229 11.4276 -1.90687 100 102 114
-19.7844 11.4848 -1.90644 102 106 118
-19.7108 11.5605 -1.90397 102 101 115
-19.6653 11.6132 -1.90277 104 103 119
-19.6162 11.6635 -1.90119 113 115 128
-19.5436 11.7393 -1.89891 125 126 138
-19.4891 11.786 -1.89675 132 132 144
-19.4463 11.84 -1.89594 132 132 144
-19.4099 11.8982 -1.8959 119 118 130
-19.323 11.964 -1.89208 112 111 125
-19.278 12.0163 -1.89108 112 110 124
-19.2311 12.0674 -1.88988 110 106 123
-19.1437 12.132 -1.88607 110 108 121
-19.1047 12.1882 -1.88584 109 108 118
-19.0328 12.2218 -1.88175 110 108 114
-18.9596 12.2954 -1.87968 113 109 116
-18.9103 12.3442 -1.87829 116 114 118
-18.8593 12.3917 -1.87671 123 118 123
-18.8309 12.455 -1.87783 127 119 125
-18.828 12.5782 -1.88422 127 122 127
-18.8119 12.6508 -1.88688 123 118 118
-18.7922 12.7211 -1.88915 119 114 116
-18.7201 12.7955 -1.88746 119 113 117
-18.6422 12.8233 -1.8828 111 106 112
-18.5835 12.865 -1.88046 107 103 110
-18.4662 12.9049 -1.87339 107 103 110
-18.4169 12.9531 -1.8722 102 99 107
-18.3864 13.0154 -1.87331 110 106 116
-18.3037 13.0804 -1.87048 104 99 109
-18.2728 13.1425 -1.87159 109 105 113
-18.2165 13.185 -1.86964 102 99 103
-18.1946 13.2542 -1.87191 103 100 105
-18.0984 13.3082 -1.86753 103 101 107
-18.0308 13.3414 -1.86423 100 96 105
-17.9974 13.4016 -1.86516 101 96 108
-17.9272 13.4755 -1.86406 105 101 110
-17.8314 13.4853 -1.8573 103 97 104
-17.8021 13.5488 -1.8588 105 99 108
-17.7466 13.6343 -1.85962 104 98 108
-17.6646 13.6545 -1.8546 101 94 105
-17.6178 13.7035 -1.85399 104 99 104
-17.5432 13.7729 -1.85251 103 98 102
-17.5507 13.8679 -1.85881 103 98 101
-17.4215 13.8469 -1.84784 103 96 104
-17.3252 13.8971 -1.84367 102 94 107
-17.2882 13.9542 -1.84441 104 96 107
-17.2391 14.0007 -1.84361 100 93 102
-17.2002 14.0562 -1.84416 101 95 105
-17.1122 14.1129 -1.84114 102 97 105
-17.0582 14.1548 -1.83977 102 97 103
-17.0203 14.2112 -1.84051 102 99 106
-8.34176 15.9304 -1.29666 106 87 80
-8.28119 15.931 -1.29445 117 100 92
-8.21746 15.9242 -1.29156 115 102 93
-8.15784 15.9263 -1.28953 117 104 95
-7.03484 15.8922 -1.20112 130 108 94
-6.97369 15.8826 -1.19851 131 110 93
-6.91403 15.8765 -1.19622 132 111 92
-6.8565 15.8758 -1.19444 131 110 91
-27.0233 2.16188 -2.02614 106 108 124
-27.0037 2.24149 -2.02483 138 131 135
-26.25 3.59758 -2.04102 94 100 117
-26.2674 3.68027 -2.04342 92 98 115
-26.2825 3.7628 -2.04563 93 98 117
-26.2854 3.88375 -2.0472 93 98 114
-26.2801 3.96342 -2.04763 94 97 114
-21.4028 9.98584 -1.97872 101 101 115
-21.2126 10.0095 -1.96289 115 116 128
-21.0454 10.004 -1.94794 123 124 136
-20.9244 10.0211 -1.93803 119 121 134
-20.8674 10.1091 -1.93671 114 114 128
-20.8154 10.1606 -1.93434 116 114 128
-20.765 10.2128 -1.93216 115 112 129
-20.6987 10.2565 -1.92825 115 114 130
-16.9509 14.2842 -1.83999 101 96 103
-16.8905 14.3202 -1.83785 99 94 101
-16.8388 14.364 -1.83687 98 95 102
-16.7717 14.4388 -1.83673 99 97 102
-16.7095 14.4727 -1.83441 101 97 104
-16.6603 14.5186 -1.83381 98 93 103
-16.6095 14.563 -1.83301 100 94 105
-16.527 14.6231 -1.83097 100 94 104
-16.473 14.6642 -1.82979 102 97 105
-16.4318 14.7176 -1.83034 101 96 103
-16.3445 14.7726 -1.82772 106 100 110
-16.2901 14.8131 -1.82655 95 92 101
-16.2385 14.8562 -1.82576 96 93 101
-8.07171 15.9353 -1.28708 118 103 94
-8.00985 15.9314 -1.28454 118 101 93
-7.95199 15.9364 -1.28285 121 104 95
-7.86067 15.9315 -1.2792 121 104 94
-6.77807 15.8951 -1.19357 134 109 89
-6.7776 16.0554 -1.20601 134 109 89
-6.6593 15.8813 -1.18901 134 112 91
-6.56537 15.8544 -1.18418 135 113 90
-27.0316 1.67555 -2.02495 128 123 127
-26.9413 1.79089 -2.01749 150 139 134
-26.1775 3.03009 -2.02935 95 100 119
-26.1869 3.11065 -2.03086 96 99 118
-26.2197 3.19437 -2.03451 93 98 117
-26.2154 3.31322 -2.03519 94 101 118
-26.2396 3.39628 -2.03812 96 102 121
-26.2359 3.47565 -2.03856 96 99 118
-22.3615 10.008 -2.06468 105 103 117
-22.1659 9.9963 -2.04681 99 97 111
-21.9777 9.98695 -2.02971 99 98 112
-21.7795 10.0114 -2.01309 99 97 111
-21.6009 10.004 -1.99697 98 96 110
-15.9354 15.1199 -1.82218 104 97 110
-15.887 15.1661 -1.82197 96 88 99
-15.8064 15.2265 -1.8205 100 96 109
-15.7509 15.2652 -1.81933 110 113 125
-15.687 15.2949 -1.81702 110 114 131
-15.6367 15.3389 -1.81662 120 123 135
-15.569 15.4126 -1.81706 116 113 122
-15.5143 15.4519 -1.81609 119 113 123
-15.4622 15.4939 -1.8155 104 97 109
-15.3722 15.5433 -1.81289 103 101 112
-8.57987 10.9236 -1.11124 99 93 106
-8.52259 10.9138 -1.10714 101 95 108
-8.46261 10.9367 -1.10556 105 97 110
-8.4329 10.9678 -1.10643 103 95 107
-8.41286 11.0138 -1.1091 98 90 101
-8.39152 11.0582 -1.11156 99 91 102
-6.3968 11.2388 -0.972947 109 98 96
-6.34382 11.2653 -0.972979 110 99 95
-7.79682 15.9213 -1.27615 122 104 92
-7.73992 15.9274 -1.27464 123 104 90
-7.65282 15.9306 -1.27185 125 104 87
-7.59304 15.9288 -1.26965 136 118 104
-7.53554 15.9323 -1.26797 126 107 95
-6.54678 15.9656 -1.19232 138 113 93
-26.0459 2.54154 -2.01399 137 146 163
-26.1561 2.94821 -2.02677 93 99 118
-23.3763 9.68847 -2.14364 91 86 102
-23.3187 9.78773 -2.14209 82 82 94
-23.318 9.87076 -2.14512 83 83 97
-23.3405 9.9645 -2.15066 87 87 101
-22.9855 10.0113 -2.12057 91 92 105
-22.7855 10.0017 -2.1023 100 100 114
-22.5622 9.98002 -2.08151 103 101 115
-15.3332 15.5995 -1.81421 100 98 107
-15.2727 15.6321 -1.81247 105 101 111
-15.1862 15.6849 -1.81044 112 111 117
-15.1216 15.7124 -1.80813 109 106 116
-15.0727 15.7576 -1.80811 116 110 122
-14.9897 15.8139 -1.80666 112 111 116
-14.9052 15.8181 -1.80149 111 110 116
-14.8222 15.8235 -1.79651 112 111 119
-14.7327 15.821 -1.79058 110 108 119
-14.6199 15.8407 -1.78474 113 110 121
-14.5192 15.8236 -1.77709 122 119 128
-14.4354 15.8258 -1.77193 114 112 118
-14.3167 15.8361 -1.76514 121 114 121
-6.31009 11.2871 -0.973444 110 99 95
-7.4458 15.927 -1.26451 125 106 92
-7.39352 15.943 -1.26403 125 105 94
-7.33115 15.9329 -1.26115 124 104 93
-6.62609 16.3693 -1.22607 138 113 93
-6.56118 16.4346 -1.22934 138 113 91
-6.31736 15.8689 -1.17831 139 112 91
-6.25923 15.8624 -1.1762 139 113 90
-26.0566 2.46408 -2.01443 149 153 166
-23.5136 8.35941 -2.11061 92 95 112
-23.5163 8.44052 -2.11345 92 95 112
-23.5075 8.51746 -2.11513 91 93 110
-23.5016 8.6358 -2.11844 91 92 110
-23.4977 8.71502 -2.1207 94 94 110
-23.4953 8.79504 -2.12316 93 94 112
-23.4954 8.91667 -2.12724 92 95 112
-23.4665 8.98645 -2.12698 91 94 111
-23.4669 9.06816 -2.12982 83 88 102
-23.4504 9.14315 -2.13092 74 81 96
-23.4431 9.26289 -2.13441 95 101 113
-23.4498 9.34792 -2.13803 116 121 131
-23.5276 9.46338 -2.1492 131 133 146
-23.3852 9.52657 -2.13854 113 110 125
-14.2332 15.8375 -1.75998 113 106 113
-14.1334 15.8184 -1.75234 117 110 118
-14.0303 15.8453 -1.74785 111 103 114
-13.9397 15.8361 -1.74155 107 101 113
-13.853 15.8312 -1.73582 100 94 105
-13.7366 15.8393 -1.72923 97 92 101
-13.6552 15.8397 -1.72427 92 88 97
-13.5628 15.8256 -1.7176 92 86 97
-13.4756 15.8174 -1.71169 95 88 99
-13.3649 15.8296 -1.70587 94 88 100
-13.284 15.8283 -1.70092 94 87 101
-13.2154 15.8426 -1.69787 99 92 107
-13.111 15.861 -1.69301 98 93 107
-13.0067 15.8269 -1.68425 102 96 110
-7.24391 15.9321 -1.2582 128 109 95
-7.18532 15.9307 -1.25618 128 109 95
-7.12679 15.9291 -1.25416 129 110 96
-7.0649 15.918 -1.25129 130 108 95
-6.98087 15.9233 -1.24903 130 109 92
-6.00923 15.8629 -1.16952 141 119 98
-26.3223 1.33851 -2.01031 97 109 128
-26.3291 1.42193 -2.01127 148 146 164
-23.5728 7.47172 -2.08925 96 95 113
-23.5654 7.54745 -2.09075 96 96 112
-23.5615 7.62451 -2.09263 95 95 112
-23.5547 7.73985 -2.09536 93 94 112
-23.5501 7.81704 -2.09724 93 96 113
-23.5566 7.89825 -2.10029 96 95 113
-23.5534 7.97625 -2.10236 93 96 114
-23.5317 8.08724 -2.10373 93 96 113
-23.5315 8.1667 -2.10619 94 95 112
-23.5274 8.24486 -2.10827 94 96 111
-19.6012 10.0446 -1.91587 113 112 126
-19.5601 10.0973 -1.91463 110 112 124
-19.5155 10.148 -1.91298 113 115 128
-19.4391 10.2183 -1.90942 116 115 129
-19.3751 10.2577 -1.90555 116 117 129
-19.3335 10.3096 -1.90431 117 116 126
-19.2797 10.3544 -1.90166 126 123 133
-19.2249 10.4362 -1.90072 124 122 132
-19.1844 10.4886 -1.89969 124 122 128
-19.1302 10.5327 -1.89704 130 127 133
-19.0814 10.6179 -1.8969 133 129 137
-19.054 10.6779 -1.89748 126 124 131
-19.0061 10.7255 -1.89564 126 121 132
-18.9496 10.8059 -1.89471 126 121 133
-18.8929 10.8479 -1.89186 120 118 129
-18.8564 10.9022 -1.89143 118 118 128
-18.7789 10.9692 -1.88807 116 116 128
-18.7504 11.0284 -1.88865 117 115 129
-18.6931 11.0695 -1.8858 118 118 130
-18.6576 11.1242 -1.88558 119 119 131
-18.6193 11.2158 -1.88706 116 116 128
-18.5816 11.2692 -1.88664 116 116 128
-18.5338 11.316 -1.885 115 115 128
-18.473 11.3929 -1.88386 114 113 127
-18.4298 11.4425 -1.88283 114 113 126
-18.3947 11.4976 -1.88281 115 113 126
-18.3298 11.5715 -1.88127 112 110 124
-18.3041 11.633 -1.88246 111 109 123
-18.2521 11.6763 -1.88042 112 111 125
-18.1864 11.7495 -1.87889 114 112 128
-18.1357 11.7936 -1.87705 114 111 127
-18.0995 11.8477 -1.87703 113 111 125
-18.0469 11.8902 -1.875 113 111 125
-17.9997 11.9762 -1.87588 114 112 125
-17.9468 12.0183 -1.87384 112 109 121
-17.905 12.0684 -1.87322 114 111 125
-17.8345 12.1374 -1.87128 114 112 124
-17.778 12.1764 -1.86885 111 108 118
-17.7214 12.2153 -1.86642 112 107 117
-17.6503 12.2833 -1.86448 116 111 115
-17.5887 12.318 -1.86145 122 116 117
-17.5334 12.3572 -1.85922 122 118 116
-17.4859 12.4023 -1.85799 131 127 124
-17.4439 12.4921 -1.85988 122 114 113
-17.3835 12.5271 -1.85705 127 119 118
-17.3621 12.5924 -1.85924 118 112 109
-17.2988 12.6658 -1.85852 119 113 113
-17.2877 12.7397 -1.86212 109 99 105
-17.2515 12.7937 -1.8625 109 103 114
-17.1425 12.8303 -1.85595 113 107 120
-17.1076 12.8853 -1.85654 107 101 111
-17.0356 12.9099 -1.8523 107 99 112
-16.9724 12.9829 -1.85178 106 100 110
-16.9216 13.0247 -1.85036 108 104 111
-16.8616 13.0586 -1.84774 104 100 107
-16.8183 13.1063 -1.84732 106 103 110
-16.7511 13.1757 -1.8464 109 103 115
-16.715 13.2296 -1.84699 104 101 108
-16.6365 13.247 -1.84196 105 99 108
-16.5912 13.3351 -1.84405 111 106 112
-16.5515 13.3859 -1.84424 110 104 110
-16.5131 13.4379 -1.84463 110 105 111
-16.443 13.5045 -1.84351 106 100 110
-16.3776 13.5323 -1.84029 104 98 108
-12.9192 15.8145 -1.67816 98 92 106
-12.8238 15.8425 -1.67464 98 93 107
-12.7367 15.8293 -1.66855 99 92 108
-12.6557 15.8238 -1.66342 99 93 107
-12.5616 15.8519 -1.6601 102 96 110
-12.504 15.8779 -1.65877 100 92 107
-12.4371 15.8908 -1.65592 102 94 109
-12.3692 15.9017 -1.65289 101 95 109
-6.92463 15.9265 -1.24753 131 110 91
-6.86576 15.9222 -1.24534 131 110 91
-6.78197 15.9264 -1.24308 133 111 90
-23.5914 6.58952 -2.06724 92 99 117
-23.5908 6.66583 -2.06913 92 99 114
-23.6128 6.74908 -2.07336 93 99 115
-23.6009 6.86065 -2.07513 92 97 114
-23.6108 6.94075 -2.07818 94 97 112
-23.6185 7.02039 -2.08104 91 97 113
-23.6221 7.09895 -2.08351 93 97 114
-23.6009 7.20842 -2.0845 94 97 114
-23.6096 7.28898 -2.08755 93 99 115
-23.6066 7.36595 -2.08943 95 96 114
-20.5015 9.99329 -1.99552 89 92 104
-20.3286 9.97978 -1.97911 91 93 106
-20.1684 9.9718 -1.96411 100 102 115
-19.9875 9.98952 -1.9484 113 115 128
-19.8294 9.9804 -1.93362 123 122 135
-19.7048 9.98841 -1.92267 122 122 134
-16.3284 13.5745 -1.83927 109 105 114
-16.2386 13.6228 -1.83555 115 109 119
-16.2096 13.6833 -1.83734 108 102 112
-16.1512 13.7168 -1.83513 105 100 107
-16.0843 13.7856 -1.83461 109 106 113
-16.0503 13.8418 -1.8358 106 103 110
-15.9916 13.8746 -1.83359 107 101 111
-15.9414 13.9155 -1.83258 110 106 116
-15.8793 13.9888 -1.83287 105 100 110
-15.8145 14.0155 -1.82985 107 102 109
-15.7697 14.0612 -1.82965 107 102 108
-15.7125 14.1393 -1.83074 111 105 115
-15.6574 14.175 -1.82913 110 104 114
-15.6078 14.2161 -1.82832 109 106 114
-12.2637 15.912 -1.64767 102 95 110
-12.1867 15.9092 -1.64311 102 94 110
-12.111 15.9078 -1.63874 99 95 109
-6.76922 16.0529 -1.25287 134 112 90
-6.71345 16.0573 -1.25154 135 113 92
-6.57407 15.899 -1.23458 137 112 92
-6.53413 15.948 -1.23736 137 112 92
-25.3002 2.1593 -2.0012 111 109 122
-25.2826 2.23808 -2.00029 141 131 129
-25.2904 2.43973 -2.00264 132 134 153
-23.5937 5.87086 -2.05031 95 102 118
-23.5936 5.94602 -2.05201 98 105 123
-23.58 6.05524 -2.05321 96 101 120
-23.5735 6.12893 -2.05432 94 101 119
-23.5821 6.2069 -2.05699 94 101 119
-23.5576 6.31353 -2.05721 92 99 117
-23.579 6.39551 -2.06124 95 100 119
-23.5943 6.47602 -2.06469 92 99 117
-21.3992 9.98196 -2.07768 103 100 113
-21.2165 10.0088 -2.06194 99 97 111
-21.0213 9.98877 -2.04308 101 99 112
-20.8459 9.97755 -2.02645 102 100 113
-20.6849 9.97259 -2.01145 99 97 111
-15.2949 14.4449 -1.82148 103 102 110
-15.246 14.4861 -1.82087 105 102 109
-15.2024 14.533 -1.82107 109 106 113
-15.1262 14.5915 -1.81976 100 98 111
-15.0277 14.5803 -1.81196 110 113 128
-14.992 14.6352 -1.81335 114 117 132
-14.9195 14.6971 -1.81265 121 120 134
-14.8266 14.6905 -1.80565 115 112 121
-14.7877 14.7419 -1.80665 122 117 124
-11.4933 15.9128 -1.6051 104 97 108
-11.4198 15.9101 -1.60094 104 96 105
-11.3432 15.9022 -1.5962 99 92 100
-11.246 15.9164 -1.59214 101 96 108
-11.1781 15.9211 -1.58893 100 99 110
-11.0966 15.9037 -1.58325 117 117 123
-11.0269 15.9045 -1.57966 117 115 121
-6.5683 16.2194 -1.2603 139 114 94
-6.32667 15.9156 -1.2287 139 112 91
-6.26614 15.9015 -1.22583 140 114 91
-25.229 1.67346 -1.99167 143 131 133
-25.2518 1.79487 -1.99441 126 121 120
-25.2186 1.95231 -1.99259 96 99 118
-23.6834 5.29515 -2.04662 96 101 121
-23.6813 5.36918 -2.04793 96 101 121
-23.6531 5.47416 -2.04738 94 101 119
-23.6679 5.55251 -2.05045 94 103 120
-23.6476 5.62232 -2.05 95 103 120
-23.6317 5.73057 -2.05081 94 101 119
-23.5936 5.79576 -2.04861 91 100 115
-22.0995 9.1296 -2.10851 83 85 100
-22.0792 9.23815 -2.11078 119 123 135
-22.0801 9.31733 -2.11397 131 134 143
-22.0953 9.40315 -2.11879 121 118 132
-22.0956 9.48257 -2.12198 102 99 116
-21.9924 9.55391 -2.11513 87 84 95
-21.9917 9.71268 -2.12151 90 88 102
-21.9163 9.79655 -2.11791 92 91 105
-21.917 9.87685 -2.1213 77 77 89
-21.8547 9.92696 -2.1176 91 89 102
-21.7554 9.99853 -2.11137 94 92 104
-21.5647 9.9846 -2.0931 101 99 110
-14.7201 14.8087 -1.80675 107 101 111
-14.6634 14.8407 -1.80515 107 102 112
-14.6054 14.8711 -1.80335 102 99 108
-14.5291 14.9281 -1.80225 104 101 108
-14.463 14.949 -1.79925 102 99 108
-14.4165 14.9921 -1.79925 103 100 111
-14.3438 15.0051 -1.79526 101 98 109
-14.2826 15.0788 -1.79656 100 99 105
-14.228 15.1123 -1.79536 96 95 103
-14.1706 15.1426 -1.79376 96 93 102
-10.9302 15.917 -1.57561 118 116 121
-10.8596 15.9154 -1.57183 118 118 118
-10.7819 15.9016 -1.56673 119 118 116
-10.6855 15.9127 -1.56268 119 111 111
-10.6153 15.9102 -1.5589 104 94 102
-10.5381 15.8954 -1.5538 105 95 103
-10.4472 15.9137 -1.55071 105 99 103
-6.43078 11.2282 -1.0271 109 98 97
-4.52758 10.671 -0.854554 133 111 90
-4.48472 10.6553 -0.851829 134 112 91
-6.49666 16.2618 -1.26164 137 112 90
-6.21056 15.9024 -1.22434 141 116 94
-25.3596 1.40158 -2.00152 122 121 140
-25.2684 1.51624 -1.99418 145 147 160
-23.6939 4.77909 -2.03778 95 104 121
-23.7189 4.85826 -2.04164 96 104 123
-23.6969 4.96431 -2.04148 95 103 122
-23.7212 5.04381 -2.04533 95 103 122
-23.7141 5.11646 -2.04605 97 104 122
-23.6929 5.22297 -2.04609 97 102 122
-22.2559 7.96245 -2.08121 91 94 113
