-7.79729 18.0759 -0.267853 82 86 72
-29.8031 11.4431 -0.6086 74 82 95
-29.8461 16.2982 -0.653828 107 113 129
-29.3064 16.1662 -0.639558 124 127 143
-29.051 16.1357 -0.633159 124 128 143
-28.8253 16.121 -0.627646 75 82 98
-28.5833 16.153 -0.622267 101 108 116
-28.367 16.1405 -0.617021 105 106 111
-28.1681 16.1372 -0.612296 51 53 66
-19.7705 11.3968 -0.441273 48 50 63
-27.9118 16.1549 -0.606464 61 64 79
-27.7051 16.1438 -0.601488 72 78 90
-26.8596 16.1301 -0.581596 71 79 90
-20.7076 19.6682 -0.498817 88 89 85
-20.9665 20.504 -0.517557 76 77 69
-20.8303 20.5563 -0.515811 74 75 64
-20.6933 20.5423 -0.512968 76 72 66
-20.48 20.4463 -0.507306 69 63 67
-20.3766 20.4658 -0.505676 66 60 65
-20.1909 20.4606 -0.502076 63 57 64
-19.421 20.7854 -0.493359 86 75 78
-19.2394 20.7098 -0.48873 61 53 57
-18.2588 20.8131 -0.472983 72 73 58
-17.9175 20.5288 -0.461872 69 70 57
-18.2078 21.2252 -0.479526 114 116 106
-16.9236 21.4366 -0.46167 87 86 79
-14.6664 21.0304 -0.418089 70 70 63
-14.223 20.8436 -0.40773 74 75 67
-14.1292 20.8403 -0.406273 79 85 71
-14.0439 20.8502 -0.405214 75 77 66
-13.5722 20.7417 -0.396156 85 96 77
-12.9763 20.6246 -0.385303 69 66 69
-12.8286 20.5174 -0.381051 79 77 77
-12.6463 20.3468 -0.375027 73 72 70
-32.0617 16.1137 -0.705314 111 96 88
-31.7376 16.1277 -0.697582 95 84 84
-31.5275 16.1386 -0.692599 102 94 86
-31.2684 16.1219 -0.686161 90 83 81
-31.0037 16.161 -0.680163 129 120 121
-21.1473 11.1089 -0.474474 128 122 123
-30.7436 16.14 -0.673683 88 86 90
-21.0889 11.1584 -0.473504 75 77 83
-30.5084 16.1312 -0.667935 76 82 92
-15.4038 16.1201 -0.417362 70 70 73
-15.3182 16.1253 -0.415699 82 81 84
-15.2169 16.1121 -0.413346 90 87 87
-15.0984 16.1293 -0.411258 80 73 76
-15.0002 16.1181 -0.409024 72 65 69
-14.9112 16.117 -0.407193 78 72 76
-14.7894 16.1278 -0.404938 99 90 91
-14.7046 16.1304 -0.403283 81 72 70
-14.6071 16.1173 -0.401054 82 78 73
-14.4871 16.1276 -0.398861 75 76 68
-14.3965 16.1212 -0.396923 71 73 62
-14.3047 16.1128 -0.394928 70 72 61
-14.2181 16.1102 -0.393164 68 70 57
-14.1076 16.1291 -0.391379 66 67 57
-14.0176 16.121 -0.389446 59 59 50
-13.934 16.1203 -0.3878 70 70 58
-13.8239 16.1374 -0.38602 98 99 94
-13.7552 16.1548 -0.385064 86 82 85
-13.6768 16.1593 -0.383651 88 87 86
-13.5682 16.1765 -0.381932 61 56 51
-13.4852 16.1738 -0.380292 73 70 63
-13.2071 16.2844 -0.377439 78 79 65
-13.1091 16.2591 -0.375061 82 80 68
-13.0304 16.3133 -0.37478 80 74 65
-12.8634 16.2994 -0.3714 90 87 82
-12.142 16.3061 -0.358563 75 74 67
-12.9776 21.3257 -0.399706 79 79 65
-11.1366 20.6235 -0.360971 89 87 75
-11.0639 20.6403 -0.360433 83 76 70
-10.9015 20.721 -0.360165 75 71 70
-10.7575 20.9298 -0.362918 81 79 67
-9.24913 20.1188 -0.328162 84 80 71
-34.7889 11.5238 -0.737205 132 110 129
-19.4065 16.1503 -0.506431 73 77 89
-19.2791 16.1392 -0.503266 73 80 88
-19.1622 16.1368 -0.500509 75 82 88
-19.0411 16.1298 -0.49758 75 78 88
-18.8832 16.1391 -0.494093 81 81 89
-18.767 16.1348 -0.491342 77 73 80
-18.6466 16.1258 -0.488419 78 73 79
-18.4997 16.142 -0.485345 79 82 89
-18.3841 16.1357 -0.4826 76 80 91
-18.2659 16.1262 -0.479741 72 78 90
-18.1269 16.1467 -0.476964 75 79 91
-18.0135 16.14 -0.474282 76 78 90
-17.8931 16.1257 -0.471312 75 77 92
-17.7548 16.1438 -0.468542 75 77 90
-17.6477 16.1409 -0.466097 77 79 92
-17.5309 16.1276 -0.463249 74 78 87
-17.4228 16.1222 -0.460749 76 78 85
-17.2881 16.1401 -0.458104 81 80 90
-17.1791 16.132 -0.45555 77 80 88
-17.073 16.1263 -0.453113 79 82 88
-16.9362 16.1391 -0.450358 83 85 92
-16.8319 16.1336 -0.447983 83 86 95
-16.7278 16.1277 -0.445609 82 83 97
-16.5944 16.1411 -0.442975 84 86 93
-16.4866 16.1297 -0.440432 86 85 94
-16.3982 16.1381 -0.438697 84 84 91
-16.284 16.1184 -0.435868 87 86 91
-16.1623 16.1406 -0.433704 93 90 99
-16.0554 16.1271 -0.431167 92 87 97
-15.9527 16.1174 -0.428804 92 89 97
-15.837 16.1436 -0.426876 90 89 96
-15.7294 16.1269 -0.424286 85 85 92
-15.6353 16.1246 -0.422273 94 92 96
-15.5081 16.1354 -0.419832 94 92 98
-13.0564 16.4591 -0.378457 72 69 64
-12.9643 16.607 -0.380024 81 74 64
-12.8573 16.567 -0.377194 83 78 65
-13.0135 16.9034 -0.387484 56 60 45
-12.9057 16.9194 -0.385889 72 70 58
-12.1727 16.7514 -0.369165 77 72 76
-12.117 16.7825 -0.368909 78 73 77
-11.602 16.5006 -0.353662 75 71 70
-11.4689 17.1212 -0.365808 69 71 65
-11.1886 16.9568 -0.357408 79 83 65
-10.3781 16.9677 -0.344946 80 79 72
-9.91938 16.8155 -0.334408 74 74 69
-12.9259 22.2169 -0.41747 83 80 73
-9.35843 16.4956 -0.318483 72 69 63
-12.5991 22.3647 -0.416289 81 79 71
-9.14276 16.3205 -0.31114 87 85 77
-12.4872 22.3204 -0.413917 84 84 74
-9.09031 16.6815 -0.31929 91 89 77
-8.71103 16.3484 -0.30587 91 84 76
-8.35285 16.1758 -0.296807 90 88 75
-8.26049 16.1748 -0.295569 90 87 80
-8.23029 16.2464 -0.296976 75 71 69
-10.2802 21.1137 -0.361328 81 73 71
-10.1114 20.9965 -0.356862 81 76 70
-9.88012 21.291 -0.360727 87 85 78
-9.72109 21.0944 -0.354687 99 95 86
-9.67394 21.4636 -0.36229 88 84 73
-9.57551 21.4141 -0.360155 87 85 75
-6.34859 15.5002 -0.255812 85 84 67
-6.25069 15.3705 -0.251416 82 78 68
-8.31795 20.5834 -0.328971 82 79 72
-6.19966 15.4627 -0.253285 81 77 76
-39.6838 11.5422 -0.864968 110 80 106
-42.0551 15.1814 -0.948369 94 53 80
-41.6496 15.1751 -0.937912 78 80 92
-41.1778 15.2127 -0.926079 73 79 94
-40.7359 15.1865 -0.914584 72 82 94
-40.2705 15.1483 -0.90241 71 80 95
-40.0751 15.213 -0.897884 71 78 94
-40.0469 15.4133 -0.898619 77 84 99
-40.0392 15.9065 -0.902098 79 77 93
-40.0252 16.0434 -0.902786 86 86 99
-40.0641 16.2027 -0.904997 66 64 76
-40.0382 16.407 -0.905935 92 89 100
-40.0628 16.5615 -0.907776 96 94 105
-40.0557 16.7029 -0.908722 99 96 105
-40.039 16.8405 -0.909406 99 96 103
-40.028 17.0534 -0.910863 101 95 105
-40.0757 17.2204 -0.913432 101 98 107
-24.7215 10.7426 -0.569433 86 85 93
-40.0517 17.356 -0.913956 87 85 94
-24.6216 10.7858 -0.567057 79 78 86
-40.0415 17.5714 -0.915512 98 96 108
-40.0646 18.2482 -0.921922 82 81 97
-40.028 18.3802 -0.922179 115 116 130
-40.0288 18.5302 -0.923533 109 106 116
-40.0033 18.743 -0.924818 90 90 95
-40.0046 18.8943 -0.926223 93 92 98
-40.0053 19.0458 -0.927626 94 93 99
-39.9967 19.2689 -0.929481 97 96 106
-39.9995 19.4226 -0.930987 97 95 108
-40.016 19.5838 -0.932908 88 85 97
-39.9635 19.787 -0.933557 96 93 97
-39.9892 19.9541 -0.93579 100 97 92
-39.9912 20.1096 -0.937343 96 87 85
-22.7805 16.147 -0.587955 69 76 94
-22.6062 16.1216 -0.583218 72 81 96
-22.4768 16.1292 -0.580123 72 84 96
-22.281 16.1375 -0.5754 72 81 96
-22.1394 16.1337 -0.571841 74 81 97
-22.0059 16.1352 -0.568578 74 80 96
-21.8364 16.1078 -0.56397 74 83 98
-21.6796 16.1412 -0.560664 77 85 98
-21.5406 16.1354 -0.557173 73 81 95
-21.3971 16.1252 -0.553508 70 79 92
-21.2145 16.1344 -0.549217 71 78 94
-21.0902 16.1376 -0.546258 71 80 97
-20.9505 16.1275 -0.542718 70 78 97
-20.772 16.1359 -0.538552 76 83 99
-20.6575 16.1446 -0.53595 74 82 94
-20.5218 16.1348 -0.532532 73 83 93
-19.9575 16.1193 -0.518843 73 81 94
-19.8067 16.1429 -0.515687 75 79 91
-19.6785 16.1338 -0.512516 76 79 93
-19.5596 16.1321 -0.509696 77 76 91
-12.6296 17.6948 -0.398514 76 73 66
-12.6667 17.9387 -0.404714 72 68 70
-11.51 17.9563 -0.386054 80 78 65
-10.264 17.0145 -0.344349 85 85 73
-10.2853 17.2516 -0.350369 79 80 67
-10.0479 16.9313 -0.33911 77 77 67
-9.94248 16.992 -0.339027 70 66 64
-9.97288 17.2521 -0.345778 80 76 67
-8.59437 16.5781 -0.310025 88 86 74
-8.12621 16.5073 -0.302205 81 82 78
-8.02428 16.4111 -0.298501 77 73 71
-7.97948 16.451 -0.298954 86 78 75
-8.86446 21.1705 -0.347443 85 88 67
-8.7848 21.1608 -0.346438 86 89 72
-8.69283 21.221 -0.346871 84 82 65
-8.60524 21.1881 -0.345285 81 77 68
-8.44921 21.282 -0.345884 82 78 79
-8.3382 21.1781 -0.342503 80 76 73
-44.8415 11.5405 -1.00093 74 84 94
-46.8662 15.1206 -1.07239 129 101 122
-46.3521 15.1075 -1.05895 134 111 129
-45.7884 15.1523 -1.04459 148 120 144
-44.2721 15.0899 -1.00492 119 72 92
-43.788 15.1454 -0.992763 94 73 91
-43.422 15.1645 -0.983441 136 105 130
-42.9569 15.1453 -0.971326 103 49 77
-42.4798 15.1922 -0.959359 133 61 91
-26.0197 16.1376 -0.670543 75 81 94
-25.7826 16.1482 -0.664513 77 75 79
-25.5929 16.1333 -0.659373 71 71 78
-25.4334 16.1373 -0.655296 74 77 92
-25.236 16.1148 -0.649867 70 77 94
-25.0434 16.1487 -0.645383 69 79 91
-24.8451 16.1227 -0.639902 70 79 94
-24.6982 16.1308 -0.636248 70 81 92
-24.4753 16.1392 -0.630658 70 79 94
-24.3288 16.1454 -0.627008 69 78 93
-24.1385 16.1197 -0.621775 71 80 93
-23.9607 16.1552 -0.617782 70 80 93
-23.7922 16.1425 -0.613319 70 81 93
-23.6111 16.1194 -0.608388 71 80 93
-23.4642 16.1201 -0.604692 71 78 94
-23.2681 16.1369 -0.600008 76 85 96
-23.125 16.1381 -0.596435 72 81 95
-22.9564 16.1195 -0.591926 73 79 95
-13.9202 19.225 -0.455629 78 73 77
-10.2384 18.0571 -0.369223 82 77 71
-10.047 18.0309 -0.365846 74 71 65
-9.36873 17.9274 -0.353933 80 76 73
-7.85526 17.4723 -0.323415 87 84 75
-6.50205 16.5696 -0.285254 85 81 77
-6.42121 16.4989 -0.282587 91 87 78
-6.35751 16.5712 -0.283833 88 85 70
-49.6686 11.5264 -1.1291 78 90 106
-52.3813 15.098 -1.2165 110 74 100
-50.4452 15.1158 -1.1658 93 69 86
-49.8458 15.0987 -1.15001 110 83 97
-49.2139 15.1504 -1.13377 134 93 115
-48.6082 15.1227 -1.1178 128 97 115
-48.0145 15.095 -1.10215 104 67 90
-47.4301 15.1468 -1.08722 135 93 121
-29.7458 11.462 -0.719671 71 78 95
-29.1856 16.1451 -0.754629 104 113 128
-28.9442 16.1217 -0.747837 110 118 135
-28.729 16.1122 -0.741936 96 107 120
-28.4889 16.1442 -0.73591 97 99 106
-28.2813 16.1361 -0.730254 102 104 111
-28.0723 16.1258 -0.724542 58 59 72
-27.8315 16.1519 -0.718469 82 85 100
-27.6283 16.1421 -0.712942 71 77 90
-26.8172 16.1469 -0.691568 71 81 93
-26.5989 16.1206 -0.685467 69 77 90
-26.3925 16.1563 -0.680545 70 77 93
-26.1951 16.1404 -0.675159 71 79 92
-9.74905 11.3353 -0.319797 83 82 91
-9.71735 11.3683 -0.319983 84 87 96
-14.9181 20.5939 -0.504024 78 73 77
-14.0315 20.2188 -0.480168 77 79 68
-13.9174 20.3227 -0.480628 69 70 64
-13.6516 20.1089 -0.471229 73 76 67
-13.4809 19.9743 -0.465273 74 76 66
-13.4017 19.9871 -0.464258 72 72 67
-13.2817 20.0034 -0.46265 77 77 70
-13.1042 19.9948 -0.459548 82 87 68
-12.9431 20.0842 -0.459032 74 71 62
-12.8872 20.1349 -0.459326 78 75 69
-7.89362 17.7417 -0.330757 83 79 76
-7.81654 17.8811 -0.333446 90 92 80
-7.74991 17.9629 -0.334785 79 80 72
-54.8344 11.5188 -1.26707 80 93 110
-51.0978 11.125 -1.16584 79 79 93
-57.7526 15.1526 -1.35843 69 72 84
-56.8237 15.0906 -1.33358 76 78 90
-56.1145 15.1757 -1.31523 107 83 98
-55.3104 15.1361 -1.29382 115 76 97
-54.5379 15.1004 -1.27327 110 69 96
-53.7731 15.1511 -1.25338 108 66 93
-53.0635 15.1227 -1.23456 101 65 91
-32.1831 16.1087 -0.835941 96 88 85
-31.9406 16.1051 -0.829217 102 93 89
-31.6609 16.1412 -0.821941 118 110 108
-31.4332 16.1419 -0.815701 118 112 111
-31.1531 16.1129 -0.807684 109 104 101
-30.9061 16.1604 -0.801492 109 100 99
-30.6514 16.1414 -0.794315 75 77 86
-30.4268 16.1375 -0.78815 77 86 96
-29.6936 16.2611 -0.769794 96 105 120
-15.4788 20.7886 -0.518335 90 89 87
-15.3677 20.7673 -0.515874 75 76 72
-15.2758 20.7736 -0.514383 86 84 84
-12.7191 20.2122 -0.458474 67 62 67
-12.6714 20.2778 -0.459279 74 72 77
-12.6 20.3016 -0.458725 74 70 71
-12.5257 20.3953 -0.459788 72 70 71
-12.1168 19.9561 -0.443013 78 74 72
-12.3019 20.682 -0.46321 79 73 70
-11.3057 20.0293 -0.432677 77 72 69
-10.8486 20.0636 -0.427009 94 90 86
-10.8278 20.184 -0.429684 84 80 75
-4.69584 11.3353 -0.226396 77 78 62
-4.65749 11.3406 -0.226111 83 81 69
-4.62561 11.3668 -0.22662 81 76 71
-66.1358 15.1275 -1.58113 78 87 103
-64.0598 15.1642 -1.52593 71 76 92
-63.1328 15.1462 -1.50118 81 87 101
-62.148 15.2094 -1.47525 75 84 101
-61.2381 15.1824 -1.45096 73 82 97
-60.3599 15.1577 -1.42754 74 84 96
-59.5379 15.2398 -1.40609 75 83 96
-34.7152 11.5532 -0.865027 118 73 99
-10.7704 20.3961 -0.434131 83 78 74
-10.6759 20.4466 -0.434081 82 77 74
-10.4201 20.4879 -0.431667 79 76 75
-10.0543 20.63 -0.430447 96 93 79
-9.7844 20.2672 -0.417875 87 83 71
-67.2011 15.1578 -1.60967 80 90 104
-40.5506 15.1894 -1.06412 75 82 97
-40.1484 15.1741 -1.05235 74 80 97
-40.0441 15.2739 -1.05018 75 80 98
-40.0043 15.4695 -1.05073 80 84 96
-40.0068 15.9671 -1.05522 95 97 110
-40.0073 16.1101 -1.05653 73 71 85
-40.0294 16.2625 -1.05856 95 90 100
-40.0085 16.469 -1.05988 77 75 85
-40.0164 16.6165 -1.06149 82 79 87
-40.031 16.7674 -1.06334 93 90 96
-40.0286 16.9113 -1.06465 90 88 93
-40.0026 17.1178 -1.0659 88 87 92
-40.0208 17.2718 -1.06792 85 84 90
-40.0166 17.4163 -1.06923 84 83 91
-40.0024 17.63 -1.07095 88 85 94
-40.0171 18.3033 -1.07825 112 111 126
-40.0091 18.4489 -1.07955 126 124 136
-40.0042 18.5963 -1.08096 102 99 106
-39.9746 18.8073 -1.08238 89 87 94
-39.9935 18.9674 -1.08463 92 89 96
-39.9759 19.11 -1.08568 86 83 92
-39.9668 19.3331 -1.08787 90 85 92
-39.9462 19.4752 -1.08887 93 88 95
-39.9837 19.6472 -1.09182 94 88 97
-39.929 19.8493 -1.09258 107 101 101
-39.9685 20.0238 -1.09565 118 110 105
-14.8141 11.4362 -0.460227 71 81 91
-14.6955 11.4454 -0.456873 71 80 95
-9.68684 20.8605 -0.431636 83 80 73
-9.62642 20.9019 -0.431949 82 77 71
-9.58512 20.9915 -0.433722 87 84 79
-9.48527 21.031 -0.433513 81 78 73
-9.42051 21.0626 -0.433547 87 79 76
-9.33251 21.0344 -0.431787 89 81 79
-9.01049 20.8893 -0.424313 85 83 79
-8.64565 20.6102 -0.412992 86 89 72
-8.57396 20.6167 -0.412361 82 84 71
-8.33858 20.2636 -0.40064 87 88 72
-8.30772 20.3822 -0.40337 86 82 71
-8.15839 20.1612 -0.396031 80 75 71
-8.05922 20.1846 -0.395563 79 75 76
-8.00964 20.2497 -0.396728 80 76 74
-39.621 11.5911 -1.01026 123 82 108
-44.0923 15.1101 -1.16672 116 74 91
-43.5969 15.1593 -1.1526 123 70 94
-43.2365 15.1789 -1.14221 127 63 94
-42.7808 15.1612 -1.12876 123 63 89
-42.3037 15.2059 -1.11521 130 77 99
-41.8697 15.1899 -1.10244 87 71 92
-41.4399 15.1727 -1.0898 78 79 97
-40.9756 15.2109 -1.07663 73 83 94
-44.8334 11.4739 -1.16537 76 84 97
-49.1015 15.2114 -1.31502 119 76 98
-48.4937 15.1811 -1.29682 117 74 96
-47.8942 15.1495 -1.27889 116 74 96
-47.2374 15.1752 -1.25968 115 75 96
-46.7038 15.1569 -1.24381 121 78 98
-46.1631 15.1329 -1.22771 127 80 101
-45.6106 15.179 -1.2118 128 79 100
-51.0337 11.2097 -1.3512 76 79 94
-49.6029 11.6059 -1.30966 75 87 103
-55.1392 15.2011 -1.49463 80 74 88
-54.4068 15.1741 -1.47258 76 73 86
-53.6473 15.2237 -1.45021 70 66 81
-52.9393 15.1935 -1.42891 66 58 73
-52.299 15.1789 -1.40975 67 55 72
-50.3219 15.1777 -1.35097 92 82 90
-49.73 15.161 -1.3333 90 64 79
-19.7264 11.3886 -0.616 62 66 78
-19.7034 11.4548 -0.616414 75 79 93
-9.75753 11.3363 -0.377981 77 79 93
-9.72342 11.3662 -0.378035 77 82 94
-9.67957 11.4206 -0.378607 79 79 91
-54.8909 11.4648 -1.46921 80 91 105
-54.8148 11.6244 -1.46752 85 94 112
-60.8664 15.217 -1.66653 72 81 96
-59.9686 15.1836 -1.63935 74 84 96
-58.2309 15.2107 -1.58729 73 75 88
-57.486 15.2005 -1.56489 82 80 93
-56.6994 15.1741 -1.54116 78 81 93
-55.909 15.2339 -1.51784 80 79 91
-21.1663 11.0155 -0.658478 118 110 105
-21.1326 11.1196 -0.659015 108 102 105
-21.0707 11.1671 -0.657681 75 80 92
-67.7795 15.2191 -1.87526 78 87 99
-66.6955 15.1866 -1.84231 75 87 103
-63.6425 15.2 -1.75011 79 82 97
-62.7094 15.1764 -1.72185 79 84 103
-61.7397 15.2386 -1.69294 75 82 98
-17.4812 16.0927 -0.64725 76 82 96
-17.3662 16.0802 -0.643725 73 79 95
-17.2304 16.0963 -0.640335 75 82 98
-17.1299 16.0967 -0.637557 75 82 98
-17.0198 16.0866 -0.63426 80 88 101
-16.8944 16.1105 -0.631396 77 85 98
-16.7792 16.0935 -0.627806 76 83 99
-16.6725 16.0845 -0.624663 79 86 102
-16.5476 16.1063 -0.621804 74 83 98
-16.4427 16.0976 -0.618739 75 82 98
-16.3367 16.087 -0.615601 76 82 96
-16.2376 16.0832 -0.612834 77 79 92
-16.1067 16.0949 -0.609613 76 80 92
-16.0148 16.0974 -0.607219 76 79 94
-15.9136 16.0891 -0.60431 77 80 95
-15.7807 16.0957 -0.600946 75 81 96
-15.6852 16.0923 -0.598335 74 80 95
-15.586 16.0839 -0.595504 73 79 93
-15.4617 16.0974 -0.59259 74 80 94
-15.3707 16.0969 -0.590205 74 78 92
-15.2681 16.0825 -0.587157 74 80 94
-15.1788 16.0827 -0.584848 74 80 96
-15.0591 16.0982 -0.582163 77 80 95
-14.961 16.0868 -0.57934 74 82 95
-14.858 16.0689 -0.576224 71 83 95
-14.7492 16.0946 -0.574135 73 83 95
-14.662 16.094 -0.571907 77 83 99
-14.5634 16.0792 -0.569016 78 81 98
-14.4436 16.0893 -0.566268 77 80 97
-14.3531 16.0828 -0.563822 76 79 96
-14.2639 16.0773 -0.561452 75 82 92
-14.1775 16.0746 -0.559231 81 85 96
-14.0609 16.0855 -0.556636 77 81 92
-13.9736 16.0803 -0.554344 76 82 94
-13.8863 16.0747 -0.552052 80 82 95
-13.7777 16.0932 -0.549905 77 83 95
-13.6884 16.0835 -0.547468 77 81 93
-13.6041 16.0799 -0.545328 79 80 93
-13.4898 16.0887 -0.542817 78 80 93
-13.4022 16.0794 -0.540458 79 78 92
-13.1236 16.079 -0.533828 78 77 91
-13.0426 16.076 -0.531842 78 80 92
-12.9606 16.0711 -0.529783 77 80 90
-12.8559 16.0874 -0.527798 77 81 92
-12.7718 16.0784 -0.525594 75 80 92
-12.6902 16.0723 -0.523539 77 81 93
-12.5847 16.0854 -0.521484 78 82 93
-12.5092 16.0867 -0.519798 76 79 88
-12.4281 16.0794 -0.517746 78 79 89
-12.3207 16.0877 -0.515549 79 81 93
-12.2444 16.0862 -0.513793 77 81 92
-12.1638 16.0778 -0.511745 76 82 91
-12.0822 16.0675 -0.509624 78 82 93
-11.9788 16.0786 -0.507652 78 81 90
-11.9042 16.0774 -0.505974 79 82 91
-11.8297 16.0759 -0.504296 77 80 87
-11.7267 16.0856 -0.502328 80 79 87
-11.6503 16.08 -0.500506 79 72 80
-11.5783 16.0808 -0.498978 76 73 79
-11.4736 16.0857 -0.496868 77 80 87
-11.3986 16.0807 -0.495122 77 81 92
-11.3217 16.0721 -0.493231 76 80 91
-11.2512 16.0733 -0.49178 75 82 91
-11.1545 16.0881 -0.490187 77 81 92
-11.0812 16.0835 -0.488518 75 78 88
-11.0027 16.0701 -0.486485 76 78 89
-4.68206 11.3662 -0.2758 86 88 78
-4.63266 11.3352 -0.273965 77 75 71
-24.5828 10.6973 -0.773563 90 87 96
-24.5899 10.7895 -0.775085 88 85 94
-21.3439 16.0973 -0.761141 70 80 92
-21.1756 16.1175 -0.756411 69 79 91
-21.0267 16.1005 -0.751489 69 79 91
-14.7964 11.4249 -0.531741 68 78 90
-20.9028 16.1029 -0.747764 69 79 91
-20.7307 16.1163 -0.742818 70 77 93
-20.6041 16.1147 -0.738948 72 79 93
-20.467 16.1035 -0.734558 73 79 93
-20.0291 16.0926 -0.721149 72 80 93
-19.9052 16.0888 -0.717364 71 81 91
-19.7592 16.116 -0.713631 73 79 91
-19.6297 16.1056 -0.709552 73 79 92
-19.502 16.0958 -0.705549 71 77 91
-19.3448 16.1098 -0.701227 70 79 90
-19.2264 16.1065 -0.697676 74 82 93
-19.0979 16.0933 -0.693605 73 79 93
-18.9756 16.0848 -0.689833 73 77 93
-18.8327 16.1074 -0.686191 79 80 92
-18.702 16.0894 -0.681977 78 76 82
-18.5892 16.087 -0.678658 71 70 75
-18.4382 16.0988 -0.674577 78 80 92
-18.333 16.102 -0.671634 75 78 93
-18.2092 16.0868 -0.667725 75 78 95
-18.0705 16.1071 -0.664246 79 82 97
-17.9501 16.0933 -0.66049 79 82 97
-17.8356 16.0845 -0.657033 78 81 96
-17.7242 16.0779 -0.653726 77 80 97
-17.5964 16.1048 -0.650775 79 85 97
-10.9043 16.0801 -0.484749 77 80 89
-10.8313 16.0745 -0.483084 78 82 93
-10.7625 16.0755 -0.481711 78 82 93
-10.6676 16.0893 -0.480199 82 82 92
-10.5919 16.0776 -0.478317 80 79 90
-10.5195 16.0707 -0.476655 78 76 88
-10.4451 16.0601 -0.474848 81 81 93
-10.3556 16.0809 -0.473705 81 80 90
-10.2816 16.0696 -0.4719 81 81 90
-10.2136 16.0684 -0.470533 88 91 97
-10.1213 16.0827 -0.469175 81 81 91
-10.0477 16.0704 -0.467373 82 82 91
-9.98291 16.0736 -0.466228 79 79 87
-9.88718 16.0797 -0.464581 97 97 106
-9.81401 16.0664 -0.462782 87 89 100
-9.75323 16.0758 -0.461931 98 101 112
-9.656 16.077 -0.460142 80 81 93
-9.58883 16.0734 -0.458783 80 80 92
-9.52271 16.0713 -0.457497 84 84 91
-9.45849 16.0725 -0.456357 82 86 90
-9.36363 16.0757 -0.454719 78 81 88
-9.29421 16.0656 -0.453145 79 82 86
-9.22938 16.0642 -0.451935 77 80 87
-9.1385 16.0732 -0.450591 80 80 87
-9.07476 16.073 -0.449455 79 80 85
-9.00495 16.06 -0.447812 80 83 91
-4.58691 11.3802 -0.275064 70 68 72
-24.4268 16.12 -0.858892 73 80 96
-24.2381 16.0963 -0.852342 71 78 96
-24.0807 16.0935 -0.847222 72 80 96
-23.8919 16.1208 -0.84169 71 81 93
-23.7334 16.1149 -0.8365 71 81 93
-23.5623 16.0988 -0.830712 71 80 95
-23.4028 16.09 -0.825452 72 79 95
-23.2215 16.1173 -0.820233 74 83 98
-23.069 16.1113 -0.815279 75 84 99
-22.9071 16.0974 -0.809877 70 78 92
-22.7171 16.114 -0.804218 69 79 91
-22.5654 16.1054 -0.799271 72 82 94
-22.4187 16.0996 -0.794552 73 81 95
-22.2407 16.1211 -0.789427 72 79 95
-22.0929 16.1123 -0.784637 72 79 95
-21.9423 16.1003 -0.7797 71 80 95
-21.7951 16.09 -0.774915 72 79 96
-21.6276 16.1146 -0.770251 70 79 92
-21.4888 16.1088 -0.765845 71 81 93
-8.91873 16.0769 -0.446834 76 83 91
-8.85267 16.0704 -0.445483 77 81 90
-8.78758 16.0656 -0.444205 81 81 93
-8.72343 16.0622 -0.443001 77 77 88
-8.63665 16.0758 -0.441955 76 79 87
-8.57603 16.0792 -0.441043 81 83 89
-8.5113 16.0732 -0.439768 79 81 87
-8.41978 16.0748 -0.438289 77 79 88
-8.35611 16.0701 -0.437089 78 83 87
-8.29253 16.0652 -0.435889 84 85 90
-8.20621 16.0766 -0.434849 82 81 87
-8.14841 16.0839 -0.434158 81 81 87
-8.08035 16.0672 -0.432526 80 80 87
-8.02033 16.0686 -0.431619 84 83 90
-7.93119 16.0712 -0.430292 82 82 90
-7.86975 16.0684 -0.429242 83 84 90
-7.81071 16.0708 -0.42841 83 82 87
-27.5576 16.1129 -0.961948 71 80 93
-26.9174 16.1117 -0.940521 73 80 95
-26.7328 16.1078 -0.934306 71 78 94
-26.5367 16.0954 -0.927567 71 79 94
-26.3275 16.1287 -0.921236 71 81 93
-26.1354 16.1161 -0.914654 72 80 93
-25.9269 16.0914 -0.907323 77 81 93
-25.727 16.126 -0.90138 79 76 83
-25.5442 16.1154 -0.895185 80 82 94
-25.3551 16.0994 -0.888691 73 79 95
-25.1813 16.0924 -0.882877 69 77 92
-24.9857 16.124 -0.877099 73 82 97
-24.8059 16.1103 -0.87099 72 79 97
-24.6312 16.0992 -0.86511 72 81 96
-7.72945 16.0908 -0.427811 84 83 88
-7.66146 16.0706 -0.426111 87 87 94
-7.60187 16.0705 -0.425208 84 84 89
-7.51335 16.0709 -0.423888 85 86 90
-7.45098 16.0629 -0.422697 84 85 88
-7.39236 16.0639 -0.421869 85 84 88
-7.30849 16.0744 -0.420986 87 87 94
-7.24784 16.0693 -0.419942 87 87 92
-7.1894 16.0696 -0.419116 84 85 89
-7.1282 16.0622 -0.418001 90 89 90
-7.04254 16.0658 -0.416904 91 89 91
-6.98569 16.0691 -0.416225 88 87 91
-6.93087 16.0779 -0.415763 89 90 96
-6.83938 16.0635 -0.414018 93 94 97
-6.41049 15.5598 -0.391325 83 85 81
-6.30093 15.3983 -0.384443 85 86 85
-29.6722 11.3445 -0.965664 76 82 98
-29.7097 11.4634 -0.968447 77 85 98
-30.5697 16.1098 -1.06441 76 78 90
-29.8735 16.2584 -1.04291 71 81 93
-29.4858 16.1556 -1.02796 73 83 96
-29.1153 16.1182 -1.0147 69 81 97
-28.8813 16.0989 -1.00641 60 67 85
-28.6734 16.0934 -0.999264 103 113 122
-28.4251 16.1203 -0.991307 100 100 108
-28.2145 16.1101 -0.984013 73 76 84
-28.0076 16.1009 -0.976873 65 67 80
-19.7731 11.4325 -0.706957 62 64 77
-19.6872 11.4597 -0.704343 83 88 98
-27.757 16.1206 -0.968779 76 83 93
-6.78269 16.0662 -0.413341 86 85 90
-6.72276 16.0592 -0.412302 86 86 87
-6.64153 16.072 -0.411644 85 88 85
-6.47133 16.0756 -0.409546 93 92 98
-6.38338 16.0663 -0.408097 93 93 98
-6.32336 16.056 -0.406991 97 97 97
-6.26771 16.0588 -0.40639 99 99 101
-32.3019 11.2242 -1.06091 87 82 89
-32.2864 11.3289 -1.06146 77 79 91
-32.1214 16.0894 -1.1179 115 106 98
-31.8564 16.0737 -1.10843 113 103 94
-31.5914 16.1172 -1.09988 112 107 101
-31.3219 16.0954 -1.09019 111 103 98
-31.0828 16.0881 -1.08179 109 99 95
-21.1801 11.0407 -0.752054 106 96 92
-30.7994 16.1154 -1.07242 98 90 96
-21.0871 11.1115 -0.749832 99 93 101
-21.0722 11.1854 -0.750637 79 84 96
-34.6336 11.4208 -1.14939 72 79 92
-34.6666 11.5495 -1.15191 75 81 95
-18.5659 16.0921 -0.774474 73 69 81
-18.4295 16.1172 -0.770801 76 79 92
-18.3055 16.1024 -0.766483 73 79 95
-18.1905 16.0951 -0.762661 72 78 94
-18.0547 16.1179 -0.758994 76 82 96
-17.9386 16.108 -0.755094 75 83 96
-17.8271 16.1017 -0.751442 72 80 93
-17.7143 16.0935 -0.74771 75 81 97
-17.5751 16.109 -0.743805 76 79 94
-17.4586 16.0953 -0.739829 75 81 97
-17.3479 16.0867 -0.736185 76 81 97
-17.2178 16.1083 -0.73278 75 81 97
-17.1076 16.0984 -0.729139 75 82 100
-17.0018 16.0924 -0.725747 76 84 100
-16.8709 16.1103 -0.722266 77 87 99
-16.7668 16.1045 -0.71896 76 84 97
-16.656 16.091 -0.715243 76 84 97
-16.5552 16.0871 -0.712104 76 84 97
-16.4196 16.0964 -0.708302 77 83 95
-16.3245 16.0972 -0.705495 76 80 92
-16.2229 16.0903 -0.702278 76 79 94
-16.0961 16.1062 -0.698976 76 81 95
-15.9948 16.0982 -0.695763 76 79 94
-15.8964 16.0926 -0.692715 81 84 99
-15.7702 16.1065 -0.689418 76 82 97
-15.6708 16.0984 -0.686291 75 81 95
-15.5743 16.0928 -0.68333 74 80 94
-15.4527 16.1091 -0.680285 76 80 93
-15.3513 16.0964 -0.676999 73 80 94
-15.2553 16.0894 -0.674042 72 78 94
-15.1648 16.0879 -0.671414 75 81 97
-15.0413 16.0986 -0.668213 76 82 96
-14.9472 16.0916 -0.665343 77 80 95
-14.8559 16.0872 -0.662637 77 81 96
-14.7343 16.0975 -0.659523 76 84 97
-14.6459 16.0953 -0.656984 77 83 97
-14.5499 16.0833 -0.653956 74 80 94
-14.4429 16.1087 -0.651748 77 80 95
-14.3423 16.0896 -0.648394 77 80 95
-14.2633 16.0965 -0.646433 79 81 96
-14.1669 16.0812 -0.643328 79 83 95
-14.0541 16.0966 -0.640717 79 83 95
-13.9705 16.096 -0.638433 77 81 94
-13.8821 16.0887 -0.635822 77 80 95
-13.7687 16.1007 -0.633135 76 82 96
-13.6782 16.0894 -0.630364 76 82 94
-13.5915 16.0824 -0.627839 78 82 94
-13.4822 16.0975 -0.625401 79 82 94
-13.3947 16.088 -0.622797 79 83 94
-13.0389 16.089 -0.613542 77 79 91
-12.9546 16.0808 -0.611108 76 80 92
-12.8453 16.0905 -0.608599 75 79 90
-12.7625 16.083 -0.606248 75 81 91
-12.6845 16.0817 -0.604225 77 81 92
-12.5779 16.093 -0.601884 78 82 93
-12.4978 16.0876 -0.5997 78 80 93
-12.418 16.0819 -0.597517 77 81 93
-12.3394 16.0775 -0.595417 75 80 92
-12.2334 16.0868 -0.593082 74 82 93
-12.1584 16.0866 -0.591228 75 81 93
-12.0758 16.0745 -0.588805 75 81 92
-11.977 16.0922 -0.586963 77 81 92
-11.898 16.0842 -0.584786 77 79 91
-11.8191 16.0759 -0.582611 75 82 92
-11.7206 16.0922 -0.580773 95 94 102
-11.6443 16.0865 -0.578762 82 74 85
-11.5691 16.0822 -0.576834 77 71 81
-11.4678 16.092 -0.574756 79 83 94
-11.394 16.0887 -0.572911 74 80 92
-40.4016 15.1406 -1.40236 75 78 93
-40.0226 15.1341 -1.38839 76 82 98
-39.9983 15.2651 -1.38902 76 83 99
-39.9873 15.9683 -1.39698 103 100 110
-39.9676 16.1027 -1.39791 73 69 83
-39.9878 16.2542 -1.40052 97 93 100
-39.9708 16.4621 -1.40249 93 92 97
-39.9934 16.6157 -1.40525 100 99 104
-39.966 16.7483 -1.40594 100 98 103
-39.9966 16.9064 -1.40908 100 97 104
-39.987 17.12 -1.41151 90 87 95
-24.6783 10.6775 -0.881332 91 88 99
-39.9962 17.2699 -1.4138 84 81 95
-24.6004 10.7307 -0.879082 85 83 95
-39.9811 17.4093 -1.4151 82 81 89
-39.9761 17.6269 -1.41783 83 80 86
-39.9154 18.1154 -1.42231 88 84 90
-39.964 18.2869 -1.42643 111 114 127
-39.9652 18.4366 -1.42856 125 125 137
-39.9532 18.5805 -1.43016 98 93 99
-39.9364 18.7973 -1.43265 90 81 84
-39.9338 18.9467 -1.4347 89 85 91
-39.9128 19.0874 -1.43599 92 91 96
-39.8308 19.2735 -1.43582 85 82 90
-39.7712 19.3954 -1.43552 86 80 89
-39.6153 19.4682 -1.43112 98 88 96
-39.315 19.5419 -1.4217 102 96 96
-38.9234 19.4905 -1.40722 112 102 95
-22.2017 16.1243 -0.89595 72 81 96
-22.0556 16.1163 -0.890745 71 80 95
-21.9051 16.1039 -0.885294 71 80 95
-21.7642 16.0981 -0.880343 70 79 94
-21.5999 16.1248 -0.87537 70 80 92
-21.4517 16.1111 -0.870009 71 81 93
-21.307 16.0991 -0.864816 71 81 93
-21.1403 16.1202 -0.859686 70 80 92
-21.0008 16.1103 -0.854747 71 80 95
-20.8676 16.1048 -0.850141 70 79 94
-20.7048 16.1253 -0.845185 70 80 92
-20.5645 16.1119 -0.84017 71 81 93
-20.4321 16.1041 -0.835571 70 80 92
-20.0081 16.1037 -0.821518 73 81 94
-19.8857 16.101 -0.817424 71 81 93
-19.7338 16.1227 -0.812983 72 78 92
-19.6014 16.1092 -0.808314 72 78 92
-19.4752 16.1004 -0.803978 72 78 92
-19.324 16.1194 -0.799545 72 79 95
-19.1998 16.1105 -0.795295 74 80 96
-19.0758 16.101 -0.791047 72 78 94
-18.9565 16.0949 -0.787049 71 79 92
-18.8136 16.1171 -0.783039 74 75 87
-18.686 16.1015 -0.778549 78 71 82
-11.3182 16.0816 -0.570905 76 82 94
-11.2446 16.0777 -0.569063 77 81 92
-11.1439 16.0856 -0.566989 77 81 93
-11.0768 16.0911 -0.565636 78 81 94
-10.9995 16.0794 -0.563471 80 84 96
-10.9012 16.0893 -0.561564 76 82 94
-10.8273 16.0819 -0.559645 76 82 94
-10.7565 16.0794 -0.557971 78 83 95
-10.6546 16.0811 -0.555743 79 84 94
-10.5851 16.0796 -0.554152 81 83 94
-10.5147 16.0761 -0.55248 80 82 94
-10.4455 16.0741 -0.550891 81 83 96
-10.3501 16.0844 -0.549154 79 81 94
-10.2781 16.0765 -0.547324 79 83 95
-10.2102 16.0753 -0.545818 76 82 96
-10.1142 16.0825 -0.544004 79 83 96
-10.0445 16.0772 -0.542338 79 82 97
-9.97405 16.0698 -0.540592 77 82 95
-9.8794 16.0775 -0.538863 77 81 93
-9.81953 16.0888 -0.53801 81 85 97
-9.7466 16.0752 -0.536023 80 85 96
-9.67755 16.0684 -0.534362 81 88 98
-9.5843 16.0763 -0.532718 80 84 95
-9.51826 16.0741 -0.531301 80 82 95
-39.6618 11.4159 -1.33764 76 83 95
-39.6604 11.6127 -1.33928 73 81 92
-44.0332 15.0958 -1.53583 81 81 92
-42.1677 15.1633 -1.46756 48 48 71
-41.6972 15.1334 -1.4499 57 55 76
-41.2628 15.1141 -1.43369 55 52 71
-40.8108 15.1564 -1.41755 77 81 96
-25.3187 16.1142 -1.00565 72 79 95
-25.1349 16.1 -0.99873 71 78 94
-24.9345 16.1275 -0.992113 73 80 97
-24.7563 16.1144 -0.985451 75 83 100
-24.585 16.1049 -0.979126 72 81 96
-24.3904 16.132 -0.972769 72 81 96
-24.2132 16.1158 -0.966117 71 80 97
-24.0445 16.1045 -0.959883 71 80 95
-23.8507 16.1277 -0.953537 72 82 94
-23.6923 16.1214 -0.947808 71 80 95
-23.5326 16.113 -0.941999 72 81 96
-23.3602 16.0943 -0.935526 72 81 96
-23.1918 16.1305 -0.930441 77 84 100
-23.0233 16.1122 -0.924141 73 79 95
-22.8647 16.1002 -0.918342 71 78 94
-22.6891 16.127 -0.91285 74 83 98
-22.5279 16.1107 -0.906891 72 81 96
-22.3828 16.1057 -0.901764 73 82 97
-9.78551 11.3594 -0.477196 76 80 95
-9.73099 11.3622 -0.475654 75 81 95
-9.71826 11.4208 -0.477454 76 82 96
-9.45322 16.0735 -0.529966 79 83 95
-9.36029 16.0802 -0.528325 76 82 94
-9.29456 16.0772 -0.526911 78 81 96
-9.22981 16.0757 -0.525578 78 81 94
-9.13459 16.0758 -0.523699 77 84 95
-9.07357 16.0809 -0.522691 77 85 97
-9.00561 16.0714 -0.521037 76 82 94
-8.91513 16.0793 -0.519565 80 84 95
-8.85345 16.0818 -0.518479 79 83 95
-8.79268 16.0859 -0.517474 78 83 96
-8.7235 16.0717 -0.515662 78 84 96
-8.63846 16.0889 -0.514679 78 84 98
-8.5704 16.0759 -0.51295 79 85 97
-8.51157 16.0827 -0.512109 79 84 96
-8.41933 16.0824 -0.510402 80 82 95
-8.35899 16.0849 -0.509402 81 80 94
-44.715 11.4481 -1.52919 72 83 95
-48.3425 15.1357 -1.69682 74 80 94
-47.7537 15.1076 -1.67453 74 80 94
-47.1646 15.1554 -1.65297 72 81 93
-46.632 15.1376 -1.63292 72 82 94
-46.1132 15.1211 -1.61341 75 85 97
-28.3735 16.1351 -1.11816 107 108 115
-28.1697 16.1284 -1.11044 46 49 61
-27.9491 16.1102 -1.10189 59 63 75
-27.7325 16.15 -1.09463 73 81 92
-27.5127 16.1291 -1.08608 70 79 94
-26.6795 16.116 -1.05516 71 78 96
-26.4936 16.1094 -1.04822 71 78 94
-26.2709 16.1334 -1.04057 72 78 94
-26.0755 16.1179 -1.03314 76 79 95
-25.8922 16.109 -1.02629 78 78 90
-25.6838 16.1374 -1.01933 76 72 82
-25.4994 16.1252 -1.0124 79 81 94
-8.29548 16.08 -0.508079 79 82 94
-8.20602 16.084 -0.506617 78 85 95
-8.14273 16.0785 -0.505297 77 84 92
-8.08427 16.0837 -0.50446 81 85 94
-8.02195 16.0796 -0.503221 78 82 92
-7.93058 16.0767 -0.501522 78 82 93
-7.87153 16.0793 -0.500607 76 80 89
-7.81179 16.08 -0.499612 85 89 99
-7.72155 16.0777 -0.497996 77 81 89
-7.65972 16.0723 -0.496761 76 82 90
-7.59948 16.0703 -0.495688 79 83 92
-7.51257 16.0744 -0.494397 77 81 92
-43.9682 7.3166 -1.47679 83 83 96
-43.8187 7.49735 -1.47176 53 44 64
-43.934 7.79427 -1.47751 48 31 44
-43.8158 7.97987 -1.4738 42 50 66
-43.8309 8.12115 -1.47505 54 79 114
-43.8676 8.4058 -1.47786 58 78 114
-43.9792 8.63701 -1.48335 79 80 97
-52.7747 15.1447 -1.8635 75 83 94
-50.1382 15.1227 -1.76405 86 83 92
-49.5532 15.108 -1.74195 75 77 84
-48.9452 15.1645 -1.71966 70 78 89
-29.7547 11.4172 -1.09422 75 82 98
-29.6015 11.459 -1.08862 76 82 98
-31.2776 16.1236 -1.22762 106 97 88
-31.0226 16.107 -1.21759 104 88 80
-30.7533 16.141 -1.20793 105 98 98
-30.5061 16.125 -1.19825 78 82 94
-29.327 16.1121 -1.15344 73 82 99
-29.062 16.1343 -1.14389 74 83 98
-28.8366 16.1193 -1.13516 105 113 126
-28.6235 16.1101 -1.12701 98 105 114
-14.7695 11.3787 -0.651269 67 76 91
-14.7815 11.4622 -0.65421 73 83 98
-14.6751 11.4815 -0.650702 70 80 93
-7.45176 16.07 -0.493245 78 82 93
-7.39106 16.0654 -0.492093 79 83 92
-7.33327 16.0681 -0.491264 82 86 95
-7.24816 16.0745 -0.490138 81 84 94
-7.1877 16.0692 -0.488989 82 89 99
-7.1301 16.0712 -0.488162 82 86 95
-7.04455 16.0747 -0.486958 83 86 93
-6.98368 16.0668 -0.48573 85 85 94
-6.92559 16.0662 -0.484824 84 87 98
-6.84296 16.0762 -0.483945 82 86 97
-6.78435 16.0732 -0.482961 82 84 96
-51.0347 10.9637 -1.76753 71 75 87
-49.6283 11.3727 -1.7161 75 83 101
-49.56 11.597 -1.71493 72 84 98
-57.2096 15.1215 -2.03117 78 81 90
-56.4555 15.1037 -2.00242 77 81 93
-55.6496 15.1588 -1.97231 75 81 93
-54.9296 15.1398 -1.94489 77 83 95
-54.2063 15.1153 -1.91733 79 85 97
-53.4831 15.1751 -1.8905 75 81 93
-32.4655 11.0535 -1.19956 74 82 95
-32.0369 11.1735 -1.18351 81 81 92
-31.9278 11.2429 -1.17992 78 81 95
-31.9579 11.4184 -1.18331 105 102 115
-32.0668 16.1146 -1.25771 94 82 75
-31.7983 16.0962 -1.24708 98 94 79
-31.5207 16.1322 -1.23706 109 107 91
-6.7258 16.07 -0.481977 82 84 99
-6.64206 16.0752 -0.480939 81 85 94
-6.58304 16.0696 -0.479876 80 83 91
-6.52977 16.0809 -0.479537 81 85 94
-6.46774 16.0654 -0.478074 80 84 95
-6.38618 16.0751 -0.477281 80 84 93
-6.32626 16.0648 -0.47606 80 84 95
-6.27066 16.0676 -0.475402 82 84 97
-6.19281 16.0877 -0.475093 79 83 92
-54.7298 11.4268 -1.91213 84 93 106
-54.7164 11.5996 -1.91259 92 97 111
-63.4139 15.1345 -2.26759 74 75 92
-62.4383 15.1005 -2.23011 76 83 98
-61.5019 15.1707 -2.19486 73 82 94
-60.6266 15.1486 -2.16134 74 82 95
-59.7655 15.1246 -2.12837 71 79 92
-34.5965 11.4606 -1.2915 73 83 95
-34.5766 11.571 -1.29195 71 84 96
-37.9231 18.3912 -1.52237 95 81 83
-37.8092 18.4781 -1.5194 93 81 81
-37.7609 18.5981 -1.51954 91 80 78
-37.6668 18.7668 -1.51876 114 102 96
-37.545 18.8486 -1.51546 116 104 96
-4.73418 11.3374 -0.357127 81 83 96
-4.6774 11.3465 -0.356643 80 84 93
-4.6379 11.3479 -0.356104 81 85 94
-66.1241 15.0413 -2.37069 78 84 102
-40.6931 15.1847 -1.58508 75 79 91
-40.2596 15.1579 -1.5672 75 81 95
-40.0123 15.2018 -1.55779 77 83 98
-40.0137 15.3431 -1.5597 78 84 99
-40.0196 15.841 -1.56662 86 86 98
-39.9825 16.0392 -1.56785 81 78 89
-40.0067 16.1922 -1.57094 71 65 76
-40.0063 16.3355 -1.57294 91 88 95
-39.9943 16.5458 -1.57543 86 83 92
-39.9908 16.6886 -1.57734 91 89 94
-40.007 16.8403 -1.58017 92 91 93
-40.0153 16.9891 -1.58266 94 94 96
-39.9122 17.1614 -1.58111 85 84 88
-39.7973 17.2555 -1.57795 96 94 97
-39.7258 17.3689 -1.57682 101 96 100
-39.5068 17.9988 -1.57785 89 78 81
-39.4475 18.1178 -1.57739 118 118 130
-39.3465 18.2167 -1.575 101 100 108
-38.9972 18.1951 -1.561 85 80 79
-38.8279 18.332 -1.55659 102 88 79
-38.5385 18.3357 -1.54537 107 94 88
-38.3156 18.3707 -1.53727 100 86 81
-39.6209 11.4702 -1.49899 75 81 94
-39.5695 11.6516 -1.49865 75 81 95
-44.3832 15.1505 -1.73486 77 81 93
-41.5781 15.1645 -1.6207 91 89 101
-41.1137 15.1322 -1.60145 77 75 87
-21.0593 11.1409 -0.905933 76 79 88
-19.8579 11.4499 -0.860953 63 62 76
-19.6991 11.4323 -0.853746 58 60 74
-44.7907 11.3301 -1.71362 74 79 91
-44.7824 11.547 -1.71509 73 78 93
-48.104 15.1523 -1.88779 74 79 92
-47.5454 15.1316 -1.86452 75 81 93
-46.9768 15.1836 -1.84167 74 80 96
-46.4383 15.1617 -1.81927 73 80 96
-45.8871 15.1321 -1.7963 74 81 97
-21.1314 11.0585 -0.907303 113 99 92
-9.83153 11.405 -0.549706 76 82 96
-9.76504 11.3919 -0.546964 76 82 96
-9.74025 11.4346 -0.547906 77 83 95
-53.4736 0.992911 -1.84197 91 103 120
-52.4946 15.1679 -2.06985 76 80 91
-49.9063 15.1492 -1.96225 89 84 94
-49.3021 15.1259 -1.93701 73 75 88
-48.6766 15.174 -1.91165 78 81 96
-19.6623 16.1083 -0.979232 73 79 93
-19.5554 16.1171 -0.975455 72 78 92
-19.4307 16.1095 -0.970521 73 79 93
-19.2795 16.1282 -0.965394 73 80 96
-19.1509 16.1152 -0.960175 74 83 97
-19.0403 16.1176 -0.956115 71 77 93
-18.9062 16.098 -0.950514 74 77 95
-18.7663 16.1227 -0.946072 80 77 86
-18.6504 16.1178 -0.941632 78 73 80
-18.5318 16.1096 -0.937001 70 66 74
-18.3837 16.1237 -0.931987 73 79 93
-18.2655 16.1142 -0.92736 71 81 93
-18.1491 16.1055 -0.922832 75 84 95
-18.0061 16.1211 -0.918114 75 82 98
-17.9101 16.1305 -0.914937 72 79 95
-17.7843 16.1102 -0.90974 74 80 96
-17.6601 16.0907 -0.904641 77 83 97
-17.5323 16.1171 -0.900895 74 81 97
-17.4186 16.1061 -0.896474 75 82 98
-17.3164 16.1059 -0.892823 76 83 99
-17.1792 16.1202 -0.88841 78 85 101
-17.0718 16.1131 -0.884379 81 88 104
-16.966 16.1069 -0.880445 78 84 101
-16.835 16.1247 -0.876422 77 84 101
-16.7213 16.1087 -0.871915 78 85 101
-16.6064 16.0908 -0.867314 75 82 98
-16.5069 16.0882 -0.863771 76 83 99
-16.3946 16.1219 -0.861006 78 84 98
-16.2845 16.1066 -0.856698 78 81 96
-16.1896 16.1069 -0.853448 77 80 95
-16.0561 16.1153 -0.849151 78 81 98
-15.9588 16.1115 -0.845712 78 79 97
-15.8631 16.1088 -0.84237 74 77 94
-15.7302 16.1151 -0.83808 76 82 98
-15.6321 16.1083 -0.83455 75 81 97
-15.5369 16.1041 -0.831213 76 82 96
-15.4392 16.0965 -0.827685 75 81 95
-15.3191 16.1135 -0.824265 75 81 97
-15.2218 16.1048 -0.820741 74 80 96
-15.1273 16.0987 -0.817409 77 80 97
-15.0103 16.1168 -0.814187 77 82 96
-14.9123 16.1051 -0.810571 77 81 96
-14.8158 16.0945 -0.807052 80 83 98
-14.7044 16.1169 -0.804218 78 84 96
-14.5981 16.093 -0.799936 77 83 97
-14.5149 16.0963 -0.797379 76 79 94
-14.4053 16.1184 -0.794646 78 80 95
-14.3084 16.1039 -0.791039 80 80 97
-14.2194 16.0982 -0.788007 79 82 97
-14.1255 16.0859 -0.784593 77 83 95
-14.0189 16.1088 -0.782058 76 80 95
-13.9267 16.0971 -0.778743 76 82 94
-13.8358 16.0866 -0.775525 76 82 95
-13.7297 16.1078 -0.772994 77 83 95
-13.6392 16.0964 -0.769779 79 82 97
-13.5659 16.1067 -0.767903 77 80 95
-13.4492 16.112 -0.764517 75 81 95
-13.0856 16.1045 -0.753226 77 81 93
-13.0022 16.0981 -0.750497 76 80 92
-12.9203 16.093 -0.747865 76 79 94
-12.8167 16.1105 -0.745444 77 80 95
-12.735 16.1046 -0.742815 76 81 93
-12.65 16.0934 -0.7399 76 82 94
-12.5456 16.1078 -0.737388 77 81 93
-12.4667 16.104 -0.734952 78 81 94
-12.3868 16.0982 -0.732423 77 81 93
-12.2991 16.0805 -0.729226 78 84 96
-12.2009 16.1011 -0.727197 75 81 93
-12.126 16.1008 -0.725052 79 83 95
-45.0123 7.08231 -1.69598 72 81 98
-43.7689 7.5654 -1.64512 42 52 73
-43.7501 7.69964 -1.64501 45 47 67
-51.1335 11.0848 -1.97915 68 67 80
-49.7069 11.4865 -1.92171 83 85 97
-55.507 13.7726 -2.18355 85 87 99
-55.399 13.9261 -2.18025 83 85 98
-55.1313 14.8537 -2.1769 76 78 90
-54.9889 15.087 -2.17304 74 77 88
-54.5317 15.1387 -2.15442 71 75 84
-53.8734 15.1296 -2.12689 75 77 89
-53.1823 15.1951 -2.09872 75 78 90
-24.638 10.7026 -1.05755 91 88 86
-24.6053 10.7766 -1.05741 92 85 84
-23.2909 16.0893 -1.12155 73 80 96
-23.1323 16.1323 -1.11625 77 84 100
-22.9542 16.1067 -1.10836 67 78 92
-22.8053 16.1017 -1.10221 71 80 95
-22.6138 16.1162 -1.09489 74 81 97
-22.4718 16.1143 -1.08913 76 83 99
-22.3046 16.0921 -1.08183 74 84 96
-22.1505 16.1311 -1.07675 72 81 96
-21.9856 16.1083 -1.06955 72 80 95
-21.8587 16.1141 -1.06468 72 80 96
-21.6912 16.0872 -1.05729 71 80 95
-21.5379 16.1222 -1.05222 71 78 94
-21.3821 16.1022 -1.04551 72 77 96
-21.2467 16.0975 -1.04007 73 80 96
-21.0693 16.1095 -1.03345 73 79 95
-14.8157 11.4186 -0.7405 72 78 94
-20.9545 16.1196 -1.02927 71 77 93
-14.7926 11.4726 -0.741305 69 78 93
-20.7922 16.0899 -1.02209 71 78 94
-14.6999 11.5035 -0.738421 74 80 96
-20.6571 16.1331 -1.0181 74 80 96
-20.497 16.1028 -1.01102 72 78 94
-19.959 16.1095 -0.990562 73 81 92
-19.8427 16.1118 -0.986201 74 80 94
-12.0477 16.0951 -0.722621 76 80 92
-11.9433 16.1044 -0.720024 73 79 91
-11.8687 16.103 -0.717882 75 81 93
-11.7854 16.0879 -0.714979 79 81 94
-11.689 16.1073 -0.713052 76 73 82
-11.6083 16.0948 -0.710342 76 73 80
-11.5417 16.1038 -0.70887 81 83 93
-11.4624 16.0924 -0.706257 75 81 93
-11.3589 16.0982 -0.70367 74 80 94
-11.2884 16.0995 -0.70182 77 80 95
-11.2158 16.0971 -0.699781 77 80 94
-11.1129 16.1015 -0.697197 76 82 94
-11.0364 16.0916 -0.69478 75 81 95
-10.9653 16.0899 -0.692839 77 83 95
-10.8731 16.1099 -0.69121 76 82 94
-10.794 16.0938 -0.688511 75 81 95
-10.7293 16.1015 -0.687143 75 83 94
-10.6283 16.1048 -0.684662 77 83 95
-10.5537 16.0945 -0.682346 79 82 97
-10.4833 16.0909 -0.680411 79 81 96
-10.413 16.087 -0.678477 76 82 94
-47.8313 7.09312 -1.81676 89 98 115
-56.8699 11.545 -2.22533 51 49 57
-56.8326 11.7194 -2.22484 101 104 116
-54.8334 11.5593 -2.13903 99 101 116
-56.2463 12.6815 -2.20647 96 95 106
-55.6032 12.7123 -2.17952 89 90 102
-55.5258 13.3248 -2.18083 86 84 98
-55.6262 13.5307 -2.18665 84 82 93
-26.2066 16.1359 -1.24374 73 80 96
-25.9997 16.1127 -1.23444 78 80 92
-25.8281 16.1113 -1.22717 80 77 84
-25.5949 16.1229 -1.21765 78 78 90
-25.4538 16.1392 -1.21215 73 78 93
-25.235 16.1025 -1.20207 72 79 95
-25.0745 16.1037 -1.19541 72 79 95
-24.8626 16.1232 -1.18707 75 84 99
-24.6993 16.1201 -1.18021 74 81 97
-24.5002 16.0912 -1.17122 73 80 96
-24.3058 16.1178 -1.16387 72 81 96
-24.163 16.1256 -1.15818 71 80 97
-23.9699 16.0969 -1.1495 72 79 95
-23.7958 16.1337 -1.14332 71 80 96
-23.6115 16.1085 -1.13512 74 81 99
-23.468 16.1117 -1.12935 73 81 96
-10.3166 16.0954 -0.676381 75 83 96
-10.2465 16.0909 -0.674449 75 83 96
-10.1775 16.0878 -0.672612 76 84 97
-10.0844 16.1001 -0.670805 78 84 97
-10.0156 16.0964 -0.66897 76 82 94
-9.94314 16.0854 -0.666756 76 82 96
-9.85219 16.0999 -0.665142 75 83 96
-9.7819 16.0918 -0.663121 76 86 98
-9.71548 16.0904 -0.661479 78 86 99
-9.64732 16.0852 -0.659648 79 87 98
-9.55213 16.0894 -0.657565 78 86 97
-9.49429 16.1031 -0.656779 78 86 97
-9.41551 16.0757 -0.653813 77 85 98
-9.33248 16.1017 -0.652965 77 85 98
-9.26486 16.0951 -0.651139 78 84 98
-28.9635 16.12 -1.3617 65 72 88
-28.7451 16.1087 -1.35195 110 116 128
-28.5254 16.0953 -1.34211 103 108 112
-28.2841 16.125 -1.33234 100 100 108
-28.0719 16.1129 -1.3229 65 64 78
-27.8601 16.0997 -1.31346 56 57 75
-27.6233 16.1266 -1.3039 72 79 95
-26.8047 16.1268 -1.26889 70 80 92
-26.605 16.1125 -1.26006 71 80 95
-26.4007 16.0938 -1.25094 72 81 96
-9.20005 16.0935 -0.649598 78 84 100
-9.10913 16.1023 -0.6479 77 83 96
-9.04099 16.093 -0.645982 75 83 96
-8.97126 16.0798 -0.643875 76 82 96
-8.91291 16.0897 -0.643 76 82 96
-8.81899 16.0898 -0.640927 76 82 96
-8.75563 16.0884 -0.639486 76 82 96
-8.69235 16.0867 -0.638045 77 83 97
-8.60469 16.0983 -0.636638 78 84 98
-8.5391 16.0906 -0.634915 79 85 99
-8.47857 16.0936 -0.63376 78 84 96
-29.74 11.4532 -1.30631 79 84 99
-31.9624 16.1017 -1.49347 124 106 102
-31.7011 16.0868 -1.48153 110 95 88
-31.4185 16.1196 -1.46964 125 109 103
-31.1651 16.1051 -1.4581 121 110 108
-30.9296 16.0988 -1.44754 125 119 116
-30.6499 16.1266 -1.43576 69 69 80
-30.4012 16.1094 -1.42443 79 84 99
-29.5686 16.1759 -1.38934 75 85 97
-29.2404 16.1051 -1.37343 71 78 94
-19.7316 11.4661 -0.961774 79 80 98
-8.38952 16.1004 -0.632167 81 85 97
-8.32669 16.0974 -0.63073 78 84 96
-8.26312 16.0923 -0.629199 79 85 97
-8.17437 16.0979 -0.62761 81 86 98
-8.11499 16.1015 -0.626553 79 81 96
-8.04779 16.0864 -0.624552 81 82 97
-7.98932 16.0913 -0.623591 79 81 96
-7.90252 16.0992 -0.622194 79 82 96
-7.83803 16.0889 -0.620479 80 83 96
-7.77366 16.0783 -0.618765 81 83 95
-4.72386 11.4303 -0.419105 82 85 97
-4.66786 11.3785 -0.415608 81 85 97
-32.4785 11.0992 -1.42982 76 77 92
-32.0406 11.1067 -1.40918 84 83 89
-31.943 11.1805 -1.40564 79 79 90
-31.922 11.2821 -1.40613 69 72 87
-34.7731 17.4441 -1.64641 119 100 94
-21.2305 11.1305 -1.02451 120 114 116
-21.0972 11.1788 -1.01926 76 78 90
-19.8565 11.4629 -0.967541 69 68 82
-7.68868 16.0888 -0.61756 79 83 94
-7.63051 16.0925 -0.616602 80 84 95
-7.5687 16.0867 -0.615174 79 83 94
-7.48317 16.0943 -0.613877 78 85 95
-7.42445 16.0954 -0.612827 79 84 96
-7.36221 16.087 -0.611306 79 86 97
-7.30222 16.0839 -0.610069 80 87 97
-7.217 16.0902 -0.608776 81 88 98
-7.15716 16.0866 -0.60754 83 89 98
-7.09672 16.0809 -0.60621 80 87 97
-4.63586 11.4047 -0.416369 81 85 97
-34.6819 11.5307 -1.5405 73 76 89
-37.8914 16.4385 -1.76857 96 82 81
-37.8843 16.5739 -1.77067 99 84 77
-37.128 16.915 -1.74233 115 108 112
-36.847 16.9193 -1.72963 111 115 127
-36.7157 16.9937 -1.72507 109 109 118
-36.6022 17.0761 -1.72148 123 119 120
-36.3433 17.1553 -1.71127 112 104 95
-36.1401 17.1919 -1.7028 99 87 78
-35.8602 17.1892 -1.69011 109 93 80
-35.6873 17.3059 -1.68462 118 102 90
-35.4773 17.3352 -1.67576 121 106 97
-35.3154 17.3879 -1.66955 151 139 128
-35.0198 17.4379 -1.65731 141 126 120
-7.01518 16.0955 -0.605392 81 85 96
-6.95489 16.0894 -0.604064 81 87 98
-6.89605 16.0867 -0.602925 80 86 98
-6.81264 16.0947 -0.601826 79 86 96
-6.75788 16.1029 -0.601254 81 85 96
-6.69337 16.0826 -0.599269 82 84 96
-6.63934 16.0923 -0.598792 81 85 96
-53.5433 0.940433 -2.05661 56 67 84
-40.5353 15.1629 -1.87028 80 79 94
-40.1171 15.1416 -1.85032 77 79 94
-39.9999 15.2363 -1.8463 79 84 94
-40.0049 15.3791 -1.84879 78 84 95
-40.0123 15.8775 -1.85714 75 75 85
-39.9033 16.0457 -1.85483 68 67 82
-39.6073 16.0642 -1.84138 66 62 69
-39.2345 16.0483 -1.82381 97 92 99
-38.8755 16.1056 -1.80815 95 91 96
-38.6776 16.1601 -1.79993 99 93 97
-38.4541 16.2023 -1.79033 86 76 84
-38.3019 16.2747 -1.78457 91 80 83
-38.1021 16.3943 -1.77747 107 94 94
-19.9654 16.14 -1.11221 74 82 95
-19.8356 16.1303 -1.10647 72 82 94
-19.6853 16.1529 -1.10095 73 81 94
-19.5604 16.1457 -1.09554 73 80 96
-19.4418 16.1432 -1.09055 72 78 94
-19.2862 16.1578 -1.08461 74 80 95
-19.1695 16.1553 -1.07973 74 80 94
-19.0411 16.1415 -1.07401 72 80 93
-18.9175 16.131 -1.0686 73 80 93
-18.7717 16.1502 -1.06331 77 73 82
-18.6544 16.1438 -1.05834 74 69 76
-18.5388 16.1382 -1.05347 82 78 89
-18.3893 16.1507 -1.04787 74 77 93
-18.2698 16.1396 -1.04269 73 79 93
-18.1534 16.1307 -1.03772 76 82 97
-18.0191 16.1545 -1.03318 74 81 97
-17.8988 16.1401 -1.0279 72 82 94
-17.7874 16.1336 -1.02325 73 83 95
-17.6818 16.1321 -1.01904 79 89 99
-17.5384 16.143 -1.01377 77 83 101
-17.4276 16.1347 -1.00913 77 83 101
-17.3254 16.1343 -1.00513 75 82 98
-17.1869 16.1471 -1.00019 78 86 99
-17.0795 16.1398 -0.995763 78 85 101
-16.9737 16.1335 -0.991447 78 84 102
-16.8401 16.1483 -0.98683 78 84 102
-16.7278 16.1336 -0.981989 76 86 98
-16.6296 16.1329 -0.978208 74 86 98
-16.5287 16.1288 -0.974216 77 87 97
-16.4054 16.1509 -0.970348 77 83 99
-16.2968 16.1369 -0.965725 75 78 95
-16.1965 16.1312 -0.961738 76 79 94
-16.067 16.1439 -0.957348 76 79 94
-15.9752 16.146 -0.953998 78 80 95
-15.8647 16.1269 -0.94917 77 80 95
-15.7452 16.1478 -0.945526 77 80 97
-15.6486 16.1425 -0.941758 76 81 97
-15.5507 16.1352 -0.937886 76 82 96
-15.4558 16.1305 -0.934227 76 84 97
-15.3343 16.146 -0.930378 75 79 98
-15.2318 16.1311 -0.926088 78 79 98
-15.1426 16.131 -0.922856 79 78 95
-15.0204 16.143 -0.918907 79 78 96
-14.9225 16.1312 -0.914938 80 82 97
-14.8286 16.1236 -0.911288 78 81 96
-14.7147 16.1428 -0.907977 77 83 97
-14.6224 16.1358 -0.904435 76 82 98
-14.5278 16.1252 -0.900684 76 79 96
-14.441 16.1235 -0.897566 77 80 97
-14.3264 16.1388 -0.894157 78 80 95
-14.2361 16.1315 -0.890726 80 83 98
-14.1473 16.1254 -0.887401 77 81 96
-14.0332 16.1389 -0.883997 77 82 96
-13.9422 16.1288 -0.880465 79 82 97
-13.8576 16.126 -0.87746 77 80 93
-13.7477 16.1426 -0.874377 78 84 96
-13.6561 16.1295 -0.870743 79 83 95
-13.5743 16.1287 -0.867953 79 81 96
-13.4637 16.1419 -0.86477 78 82 94
-13.0978 16.131 -0.85218 77 79 92
-13.0192 16.131 -0.849608 78 81 96
-12.9326 16.1194 -0.8463 78 80 95
-12.8325 16.1418 -0.843969 76 79 94
-12.7485 16.1326 -0.840874 78 80 93
-12.6693 16.1295 -0.838201 76 82 94
-6.55299 16.0895 -0.597226 81 85 96
-6.49586 16.0893 -0.596279 80 84 95
-6.43629 16.0812 -0.594957 79 83 94
-6.354 16.0888 -0.593958 78 85 95
-6.29889 16.0936 -0.593295 79 86 96
-39.7186 11.5386 -1.78194 97 94 100
-43.0608 14.2075 -1.97603 82 82 92
-42.5652 14.5472 -1.95712 78 76 89
-41.8226 15.1504 -1.93068 65 73 87
-41.4289 15.1471 -1.91207 78 78 90
-40.9872 15.123 -1.89091 75 73 87
-24.7398 10.7744 -1.18926 123 113 112
-24.6291 10.8125 -1.1845 129 119 117
-23.7844 16.1589 -1.2787 74 83 98
-23.6036 16.1357 -1.26991 73 82 97
-23.4601 16.1385 -1.26359 75 82 100
-23.2992 16.1276 -1.25609 74 81 99
-23.0941 16.1359 -1.2472 73 80 98
-22.9578 16.1409 -1.2413 72 81 98
-22.809 16.1356 -1.23456 72 81 98
-22.6048 16.1402 -1.22568 76 85 100
-22.474 16.1464 -1.22012 74 83 98
-22.3006 16.1191 -1.21167 74 84 96
-22.1449 16.1566 -1.206 75 82 98
-21.9974 16.1469 -1.19927 73 80 96
-21.8298 16.1205 -1.19116 72 79 95
-21.7094 16.1303 -1.18624 71 80 95
-21.5436 16.1552 -1.17984 71 80 95
-21.3987 16.1436 -1.17322 72 79 96
