10.9881 0.833464 -1.75585 73 70 87
10.9848 0.777768 -1.75458 73 69 91
10.9959 0.741476 -1.75586 75 72 87
11.0226 0.706035 -1.75969 74 68 82
11.0236 0.669038 -1.75937 69 65 80
11.0254 0.613598 -1.75906 78 71 88
11.036 0.577076 -1.76034 75 71 88
11.0425 0.540326 -1.76097 76 71 91
11.0516 0.485144 -1.76194 70 65 85
11.0657 0.448591 -1.76386 75 72 91
11.054 0.411128 -1.76161 84 80 97
11.0547 0.355616 -1.7613 81 78 97
11.0546 0.318592 -1.76098 83 80 99
11.0504 0.281496 -1.76002 87 83 98
11.0485 0.225995 -1.75938 75 71 93
11.04 0.188914 -1.75778 83 80 98
11.0473 0.152058 -1.75873 83 82 98
11.0328 0.115003 -1.75617 83 82 100
11.0162 0.0596218 -1.7533 80 77 97
11.0053 0.0227925 -1.75138 81 80 94
11.0101 -0.0140249 -1.75201 74 71 90
11.0127 -0.069254 -1.75233 81 78 96
11.0708 -3.43691 -1.7215 94 83 94
11.0627 -3.4741 -1.7218 84 72 86
10.9448 -5.1638 -1.68216 91 79 89
10.9221 -5.19683 -1.68096 92 84 94
11.0056 4.90357 -1.80907 93 91 105
11.0126 4.86281 -1.80757 91 89 103
10.8406 1.63352 -1.74814 86 71 79
10.8236 1.57555 -1.74399 120 96 90
10.8449 1.54128 -1.74655 122 99 93
10.8446 1.50415 -1.74559 126 98 93
10.8576 1.41319 -1.7456 76 67 86
10.8452 1.37471 -1.74272 130 117 130
10.8602 1.32103 -1.744 122 109 120
10.8631 1.2844 -1.74368 120 107 121
10.8855 1.24984 -1.74656 113 105 122
11.0014 -0.105935 -1.75041 84 78 97
10.9919 -0.142569 -1.74881 80 73 93
10.9584 -0.197043 -1.74338 83 79 96
10.9448 -0.23337 -1.74113 84 80 96
10.9822 -0.270909 -1.74721 81 77 94
10.9875 -0.326141 -1.74817 76 72 90
10.9774 -0.36253 -1.74657 82 78 94
10.9652 -0.398782 -1.74464 79 74 94
10.9726 -0.435734 -1.74592 83 79 96
10.9633 -0.490374 -1.74464 87 85 101
10.9685 -0.527283 -1.7456 75 72 90
11.0337 -3.52501 -1.71967 83 69 82
11.0252 -3.5621 -1.71996 88 76 87
11.0035 -3.5951 -1.71814 90 78 90
10.8001 1.92548 -1.74972 83 79 94
10.7942 1.86859 -1.74717 74 70 84
10.8028 1.83265 -1.74749 73 71 85
10.8249 1.79878 -1.75005 84 79 93
10.8235 1.76128 -1.74877 82 70 95
10.8402 1.70792 -1.75006 90 86 100
10.8307 1.66932 -1.7475 85 76 95
10.9636 -0.563725 -1.74496 79 76 93
10.9596 -0.618549 -1.74464 82 77 100
10.9585 -0.655157 -1.74463 75 70 90
10.9453 -0.69103 -1.74271 81 76 98
10.9605 -0.747037 -1.74559 73 68 91
10.9451 -0.782681 -1.74334 78 75 96
10.9414 -0.819088 -1.74302 72 68 83
10.9835 -3.62857 -1.71662 90 80 91
10.9651 -3.68248 -1.71631 101 88 105
10.7754 2.18347 -1.75385 118 101 98
10.7708 2.12633 -1.7513 109 89 84
10.7744 2.08945 -1.75066 110 94 86
10.7875 2.05429 -1.75163 109 96 101
10.8068 1.964 -1.75196 77 74 91
10.9579 -0.87541 -1.74622 81 77 93
10.9441 -0.911044 -1.7443 83 80 96
10.9538 -0.948569 -1.74621 79 75 92
10.9418 -0.984281 -1.74461 74 71 88
10.9457 -1.03978 -1.74589 82 78 95
10.9353 -1.07557 -1.7446 81 76 96
10.9487 -3.71696 -1.71539 82 73 92
10.934 -3.75198 -1.71478 96 84 97
10.7533 2.38652 -1.75735 117 106 120
10.7537 2.34882 -1.75607 118 108 122
10.7599 2.31229 -1.75576 115 108 126
10.758 2.2178 -1.75225 79 70 88
10.9464 -1.11342 -1.74684 78 74 89
10.9517 -1.16922 -1.74843 84 80 96
10.9389 -1.20472 -1.74683 82 78 94
10.932 -1.24079 -1.74619 77 74 91
10.9327 -1.29617 -1.74714 73 69 84
10.9207 -3.80748 -1.71537 97 90 97
10.9001 -3.8405 -1.71385 93 82 90
10.746 2.55564 -1.76245 93 88 103
10.7355 2.51533 -1.75925 79 73 87
10.748 2.48007 -1.7599 80 70 86
10.7623 2.42627 -1.76023 128 121 130
10.9294 -1.33264 -1.74714 80 76 91
10.9357 -1.37028 -1.74873 75 70 92
10.9241 -1.42426 -1.74777 80 77 96
10.9184 -1.46045 -1.74745 77 74 91
10.9185 -1.49738 -1.74808 75 72 89
10.8775 -3.8728 -1.71203 95 83 93
10.8636 -3.92806 -1.71262 90 79 85
10.7263 2.74179 -1.76658 85 78 94
10.7283 2.685 -1.76467 97 86 100
10.7298 2.64717 -1.7634 90 83 101
10.7388 2.61108 -1.7634 93 86 101
10.9302 -1.5359 -1.75064 80 78 92
10.9276 -1.59111 -1.75127 79 76 93
10.935 -1.62922 -1.75319 77 74 93
10.9131 -1.66311 -1.7503 75 73 91
10.8483 -3.96273 -1.71201 94 78 93
10.8347 -3.99799 -1.7117 82 73 89
10.7023 2.90861 -1.76976 90 81 101
10.7103 2.87212 -1.76944 89 82 99
10.7015 2.81247 -1.76561 90 81 100
10.7111 2.77646 -1.76562 90 79 95
10.9157 -1.71915 -1.7519 81 77 94
10.8994 -1.75375 -1.74997 73 69 87
10.8868 -1.78886 -1.74869 71 68 87
10.8811 -1.84361 -1.74901 78 75 92
10.8128 -4.05044 -1.71108 78 69 87
10.7933 -4.08357 -1.70986 74 68 83
10.6664 3.07283 -1.77133 85 78 94
10.6787 3.03742 -1.77166 90 83 101
10.7051 2.98646 -1.77359 87 80 98
10.6981 2.94605 -1.77071 86 77 96
10.8702 -1.87891 -1.74804 73 67 87
10.8514 -1.91286 -1.7458 81 79 94
10.8567 -1.96947 -1.74803 70 66 91
10.8416 -2.00394 -1.74643 78 74 99
10.7701 -4.11527 -1.70804 72 65 83
10.743 -4.14552 -1.70561 75 68 86
10.6505 3.20408 -1.77483 90 83 99
10.648 3.16455 -1.7726 80 75 89
10.6674 3.11179 -1.77325 81 73 92
10.8438 -2.04147 -1.7477 72 68 91
10.8246 -2.07512 -1.74545 76 73 92
10.8039 -2.12705 -1.74353 77 75 89
10.7038 -4.19131 -1.70227 78 75 94
10.7025 -4.23089 -1.70408 72 68 85
10.6141 3.3299 -1.77513 85 78 94
10.631 3.29578 -1.77609 80 73 91
10.632 3.23777 -1.77355 89 83 97
10.8076 -2.16491 -1.74512 78 76 90
10.79 -2.19866 -1.7432 75 72 91
10.7706 -2.25067 -1.74159 81 78 97
10.688 -4.26562 -1.70377 77 69 90
10.6797 -4.3229 -1.70557 73 66 80
10.5971 3.46164 -1.77895 76 68 87
10.5955 3.42197 -1.77671 76 67 88
10.6274 3.37286 -1.77928 86 84 99
10.7721 -2.28813 -1.74287 74 71 92
10.7656 -2.32402 -1.74286 73 72 90
10.74 -2.37457 -1.7403 73 72 90
10.6687 -4.35896 -1.70586 79 67 81
10.641 -4.38854 -1.70343 95 87 98
10.5654 3.58931 -1.78052 88 79 97
10.5792 3.53471 -1.77989 89 82 98
10.5779 3.495 -1.77766 87 78 97
10.7101 -2.40541 -1.73645 74 73 89
10.7303 -2.44696 -1.74092 74 73 92
10.6983 -2.47719 -1.73676 70 68 89
10.6154 -4.43919 -1.70252 91 80 88
10.5523 3.66406 -1.78243 79 72 88
10.5589 3.62669 -1.78147 89 83 97
10.6758 -2.52805 -1.73483 75 72 89
10.6821 -2.56671 -1.73707 75 74 90
10.6518 -2.59695 -1.73322 73 70 88
10.6022 -4.47433 -1.70251 94 82 89
10.5815 -4.50648 -1.70129 93 81 91
10.5221 3.79268 -1.78464 88 83 101
10.5273 3.75472 -1.78337 86 79 97
10.5229 3.71369 -1.7805 87 81 95
10.6345 -2.64881 -1.73226 74 73 89
10.6384 -2.68702 -1.73417 78 76 90
10.6346 -2.7234 -1.7348 73 70 89
10.5536 -4.55603 -1.70007 96 85 98
10.5254 -4.58496 -1.69764 80 68 80
10.4904 3.92112 -1.78685 90 81 100
10.5016 3.88508 -1.78654 86 77 96
10.5089 3.84775 -1.78559 81 73 92
10.6205 -2.77605 -1.73447 72 71 89
10.5973 -2.80758 -1.73191 77 74 93
10.572 -2.83849 -1.72902 73 70 89
10.5227 -4.62435 -1.69944 87 76 90
10.4998 -4.65537 -1.69792 92 83 96
10.4577 4.00946 -1.78683 84 78 94
10.4711 3.97415 -1.78684 91 85 99
10.5708 -2.8943 -1.73093 71 70 86
10.5548 -2.92751 -1.72965 73 70 87
10.4767 -4.70673 -1.6976 92 81 89
10.441 4.10361 -1.78969 90 87 104
10.4517 4.04738 -1.78811 89 85 100
10.5464 -2.96267 -1.72964 71 70 88
10.5284 -2.99523 -1.72803 74 73 87
10.5207 -3.04941 -1.72899 73 70 89
10.4662 -4.74297 -1.6982 94 83 94
10.4448 -4.77449 -1.69698 97 87 98
10.405 4.21121 -1.79063 88 81 101
10.4245 4.17811 -1.7916 86 81 101
10.4365 4.14222 -1.79128 90 86 103
10.4322 1.34155 -1.7652 121 109 119
10.3883 1.30063 -1.75683 120 108 118
10.4108 1.25001 -1.75951 113 103 120
10.3945 1.17722 -1.75516 82 74 85
10.4341 1.12824 -1.76086 79 70 89
10.4423 1.09356 -1.76153 78 71 89
10.4798 1.0617 -1.76722 77 73 90
10.458 0.970851 -1.76187 87 79 95
10.4899 -0.2089 -1.75651 81 78 97
10.508 -3.08339 -1.72834 74 73 94
10.4839 -3.11411 -1.72577 72 73 91
10.4103 -4.82081 -1.69485 93 81 90
10.3848 4.30454 -1.79317 85 82 99
10.3972 4.26875 -1.79285 90 86 101
10.3795 1.65606 -1.76451 76 58 69
10.405 1.62401 -1.76786 122 99 91
10.3465 1.57967 -1.75681 123 100 92
10.3737 1.54787 -1.7605 120 97 89
10.3797 1.49524 -1.76017 113 96 92
10.4007 1.46241 -1.76285 79 68 84
10.3846 1.42461 -1.75916 72 64 80
10.4408 1.37835 -1.76754 121 110 118
10.4848 -0.490035 -1.75616 77 74 95
10.4813 -3.16976 -1.72768 72 74 91
10.4665 -3.20302 -1.72672 71 68 87
10.3995 -4.85688 -1.69544 94 83 97
10.3741 -4.8865 -1.69362 96 85 100
10.3601 4.39641 -1.79506 90 84 98
10.3741 4.34102 -1.7938 95 92 109
10.3473 1.90216 -1.7665 78 76 90
10.3385 1.86466 -1.76382 78 71 90
10.3703 1.83407 -1.76817 70 65 86
10.3971 1.78453 -1.77119 106 99 117
10.3724 1.74457 -1.76584 88 80 93
10.3864 1.71087 -1.76718 81 72 89
10.4534 -3.23677 -1.72607 73 70 89
10.4294 -3.28616 -1.72446 73 70 89
10.3554 -4.93963 -1.69421 83 75 86
10.338 4.46925 -1.79633 92 88 103
10.3418 4.42993 -1.79442 89 85 101
10.3055 2.11086 -1.76647 121 101 94
10.3148 2.0765 -1.76681 125 106 102
10.3427 2.02759 -1.76983 71 64 79
10.311 1.98567 -1.76314 79 74 89
10.3762 1.96134 -1.77318 79 75 92
10.4274 -3.32319 -1.72573 74 71 90
10.4102 -3.35562 -1.72445 73 70 91
10.3499 -3.39354 -1.71676 75 71 86
10.2992 4.55569 -1.79598 90 86 103
10.3161 4.52159 -1.79631 90 83 99
10.2922 2.30763 -1.77148 80 72 85
10.3599 2.19418 -1.77852 120 100 91
10.3134 2.14862 -1.76915 122 99 92
10.3475 -3.43039 -1.71803 76 72 84
10.3281 -3.46187 -1.71642 87 76 91
10.2841 2.48824 -1.77714 84 70 87
10.3311 2.44392 -1.78318 127 114 123
10.2606 2.39174 -1.76946 123 112 119
10.265 2.3563 -1.76879 123 108 119
10.3161 -3.49568 -1.7161 80 72 86
10.3041 -3.54845 -1.71673 89 78 93
10.2618 2.64821 -1.78014 90 82 95
10.2709 2.61359 -1.78014 95 89 101
10.2647 2.55709 -1.7768 87 78 93
10.3004 2.52868 -1.78149 94 84 102
10.2938 -3.58278 -1.71672 87 77 88
10.272 -3.61332 -1.71479 82 73 89
10.2392 2.77164 -1.78179 92 86 98
10.2625 2.72217 -1.78348 89 82 98
10.2565 2.68376 -1.7808 87 79 93
10.2539 -3.664 -1.71446 81 75 90
10.2413 -3.69753 -1.71413 84 74 90
10.2418 2.90204 -1.78813 89 83 98
10.22 2.84069 -1.78179 90 82 98
10.264 2.81504 -1.78781 87 81 95
10.2304 -3.73164 -1.71413 78 67 81
10.2117 -3.7821 -1.7138 93 81 88
10.2125 3.02443 -1.78912 88 80 95
10.2199 2.9706 -1.78779 89 85 99
10.2281 2.93557 -1.78746 86 81 95
10.1931 -3.81348 -1.71251 92 79 89
10.1708 -3.84344 -1.71058 82 70 80
10.18 3.14603 -1.78977 92 87 101
10.2031 3.09658 -1.79112 89 82 98
10.2117 3.06157 -1.79079 92 85 100
10.1552 -3.89493 -1.71089 87 76 84
10.1744 3.27589 -1.79544 79 75 90
10.1735 3.21924 -1.79244 77 71 88
10.192 3.18707 -1.79378 78 74 88
10.1364 -3.92604 -1.7096 92 84 95
10.123 -3.95912 -1.70927 77 66 82
10.0891 -3.98454 -1.70543 76 69 84
10.1482 3.38123 -1.79676 78 72 91
10.1652 3.34865 -1.79777 82 73 94
10.1708 3.31255 -1.79677 83 74 94
10.0785 -4.03775 -1.7067 75 69 81
10.1173 3.50412 -1.79841 87 77 94
10.1047 3.46205 -1.79407 83 74 93
10.1332 3.43324 -1.79708 90 82 97
10.0537 -4.06639 -1.70445 66 63 77
10.0472 -4.10202 -1.7054 72 70 88
10.0897 3.59016 -1.79873 85 78 94
10.1036 3.55663 -1.79907 82 74 97
10.0176 -4.14789 -1.70347 76 73 92
10.0559 3.6741 -1.79804 84 77 95
10.0907 3.62868 -1.80106 79 72 88
10.0035 -4.18055 -1.70314 74 73 91
9.98193 -4.21022 -1.70153 74 68 89
10.0459 3.74728 -1.8007 89 81 100
10.0398 3.70682 -1.79736 85 81 96
9.96099 -4.25935 -1.7012 73 71 85
9.95202 -4.29404 -1.70183 72 70 84
10.0294 3.87611 -1.8057 92 85 101
10.0108 3.83084 -1.80002 91 87 102
10.031 3.79956 -1.80136 91 87 102
9.93384 -4.32494 -1.70086 74 67 83
9.9915 3.95883 -1.80467 93 86 104
10.0219 3.91207 -1.8067 90 83 102
9.91965 -4.37686 -1.70181 76 69 87
9.89939 -4.40685 -1.70052 81 69 86
9.98141 4.03269 -1.80767 91 87 101
9.99851 4.00024 -1.80835 95 86 102
9.82565 1.02086 -1.74996 81 80 96
9.86096 0.990452 -1.75557 73 71 84
9.8354 0.954504 -1.75031 75 71 95
9.87249 0.924029 -1.75628 81 77 94
9.85399 0.872049 -1.75207 74 72 86
9.88885 0.841118 -1.75769 85 83 97
9.8844 0.807096 -1.75628 83 80 99
9.89674 0.757485 -1.75769 83 80 97
9.90771 0.724531 -1.75909 78 73 90
9.89896 0.690298 -1.75699 86 83 98
9.90683 0.640316 -1.75769 77 74 91
9.90761 0.60672 -1.75734 77 73 88
9.91615 0.573534 -1.75839 79 77 92
9.91364 0.522986 -1.75734 79 76 96
9.94355 0.490671 -1.76226 73 70 91
9.94584 0.457076 -1.76226 72 69 88
9.94803 0.423476 -1.76226 76 72 95
9.94481 0.372876 -1.76121 78 75 94
9.9428 0.339164 -1.7605 87 83 102
9.95839 0.305937 -1.76296 78 75 94
9.9487 0.255238 -1.76086 73 71 92
9.94632 0.221564 -1.76015 82 78 101
9.96155 0.188187 -1.76261 82 79 96
9.95327 0.137635 -1.76085 82 80 94
9.94462 0.103959 -1.7591 66 61 78
9.94571 0.070375 -1.75909 81 77 94
9.94869 0.0200117 -1.75945 74 71 86
9.93572 -0.01352 -1.75699 80 76 90
9.92856 -0.0470047 -1.75558 79 76 95
9.92326 -0.0804637 -1.75452 76 73 93
9.94718 -0.131053 -1.75874 75 71 88
9.93769 -0.164443 -1.75698 82 75 91
9.93595 -0.19794 -1.75663 72 71 89
9.88633 -4.43983 -1.70051 82 68 82
9.8641 -4.46888 -1.6989 85 74 88
9.95699 4.12067 -1.80933 92 85 99
9.95597 4.08127 -1.80665 93 84 102
9.8103 1.3734 -1.75556 119 103 114
9.80364 1.3387 -1.75345 119 103 116
9.81249 1.30596 -1.75415 118 104 117
9.81737 1.25588 -1.75381 123 113 129
9.82402 1.22285 -1.75416 76 67 84
9.82078 1.18872 -1.75275 76 67 86
9.83487 1.13966 -1.75416 84 77 95
9.80984 1.10337 -1.7489 78 74 92
9.83558 1.07228 -1.75276 75 72 87
9.92588 -0.247972 -1.75487 73 68 87
9.93569 -0.281744 -1.75663 77 72 91
9.91589 -0.314633 -1.75311 73 69 87
9.92493 -0.36518 -1.75487 79 76 94
9.91865 -0.398422 -1.75381 82 79 96
9.91028 -0.431539 -1.7524 81 77 94
9.91091 -0.481774 -1.75276 78 77 94
9.90623 -0.514998 -1.75205 75 74 91
9.90143 -0.548198 -1.75134 77 73 94
9.90438 -0.581811 -1.75204 90 86 106
9.8546 -4.5229 -1.70081 89 78 91
9.93919 4.21142 -1.81232 96 89 102
9.96339 4.16227 -1.813 89 81 95
9.79612 1.60913 -1.75975 119 99 88
9.77662 1.57221 -1.75519 121 99 88
9.77885 1.52167 -1.75414 119 96 88
9.77853 1.48771 -1.75309 96 81 82
9.79706 1.42244 -1.7545 84 76 87
9.89448 -0.631419 -1.75064 84 82 96
9.89718 -0.665035 -1.75134 82 77 99
9.89585 -0.698401 -1.75133 79 77 95
9.91092 -0.749725 -1.7545 84 81 99
9.90539 -0.78284 -1.75379 85 81 99
9.90762 -0.816534 -1.75449 89 85 100
9.83575 -4.55336 -1.69984 83 72 85
9.81682 -4.58373 -1.69887 74 68 82
9.91094 4.27873 -1.8123 95 93 107
9.93425 4.24875 -1.81398 99 88 105
9.75732 1.84176 -1.76043 88 80 95
9.76967 1.80965 -1.76149 91 85 99
9.77498 1.7593 -1.7608 71 63 76
9.76182 1.72302 -1.75728 87 79 94
9.7602 1.68869 -1.75588 79 71 84
9.78438 1.64143 -1.7587 136 115 119
9.8829 -0.864799 -1.75062 78 74 89
9.88878 -0.898794 -1.75203 74 71 88
9.88672 -0.932115 -1.75202 73 69 86
9.8889 -0.982644 -1.75307 74 71 92
9.86894 -1.01423 -1.74991 69 66 83
9.89197 -1.05007 -1.75447 73 69 84
9.79413 -4.63198 -1.69854 82 71 80
9.88815 4.36788 -1.81462 90 89 103
9.88985 4.32909 -1.81229 93 88 104
9.71031 2.02161 -1.75866 92 86 98
9.71546 1.98829 -1.75831 85 73 87
9.70697 1.95247 -1.75551 86 78 91
9.70416 1.91778 -1.75375 81 75 89
9.7565 1.87586 -1.76149 75 67 82
9.86987 -1.08134 -1.75095 81 78 100
9.88698 -1.13356 -1.75482 77 75 89
9.88222 -1.16664 -1.75446 75 71 88
9.8715 -1.19902 -1.75305 83 80 97
9.88618 -3.39874 -1.73301 73 71 87
9.77497 -4.66218 -1.69757 93 81 91
9.70493 2.19248 -1.76426 125 105 99
9.68122 2.13604 -1.75795 120 99 94
9.68866 2.10316 -1.75795 123 100 94
9.69794 2.07064 -1.7583 124 104 104
9.88217 -1.25077 -1.75586 81 77 94
9.879 -1.28404 -1.75585 77 73 88
9.86403 -1.31582 -1.75374 84 82 96
9.86437 -1.3664 -1.75479 80 77 94
9.8667 -1.4004 -1.75584 77 74 92
9.88001 -3.43299 -1.73367 72 68 84
9.88121 -3.46968 -1.73567 73 71 85
9.67013 2.30597 -1.76284 111 103 116
9.67794 2.22138 -1.76075 78 63 71
9.85721 -1.43281 -1.75478 76 73 90
9.84531 -1.48175 -1.75373 73 70 87
9.85311 -1.51659 -1.75583 76 73 92
9.85106 -1.55005 -1.75618 76 73 92
9.83367 -3.49031 -1.72897 77 70 87
9.84407 -3.54838 -1.73364 76 69 85
9.64484 2.4562 -1.76493 89 77 86
9.65522 2.42385 -1.76529 126 113 124
9.66731 2.37462 -1.76529 125 112 122
9.66782 2.34008 -1.76389 118 106 118
9.84889 -1.5835 -1.75652 79 74 94
9.8227 -1.63015 -1.75301 81 76 96
9.82612 -1.66446 -1.75441 75 72 89
9.84111 -3.58381 -1.73498 81 73 85
9.79709 -3.60517 -1.72894 81 73 84
9.62631 2.57354 -1.76702 92 81 97
9.65427 2.54543 -1.77054 83 71 91
9.64012 2.48986 -1.76563 88 77 94
9.81582 -1.69657 -1.75335 70 68 82
9.82404 -1.74873 -1.75616 72 69 86
9.80962 -1.78012 -1.75439 79 72 88
9.79897 -1.8121 -1.75333 76 68 90
9.78266 -3.65491 -1.72927 82 71 85
9.78865 -3.69349 -1.73227 77 70 86
9.63124 2.69718 -1.77368 86 77 94
9.63889 2.64661 -1.77263 87 79 92
9.63649 2.61099 -1.77053 83 74 91
9.78727 -1.86085 -1.75263 80 77 97
9.77446 -1.89237 -1.75122 78 74 91
9.7654 -1.92453 -1.75051 72 71 89
9.75554 -3.71828 -1.72824 76 66 83
9.6157 2.81619 -1.77682 89 83 97
9.62583 2.76612 -1.77613 93 87 101
9.62574 2.7309 -1.77437 94 88 102
9.75318 -1.97307 -1.7498 75 74 88
9.75162 -2.00663 -1.7505 73 70 91
9.74028 -2.03829 -1.74944 75 73 90
9.74799 -3.7705 -1.72991 82 72 84
9.72764 -3.7997 -1.72823 88 76 86
9.59124 2.93312 -1.77856 90 82 97
9.60002 2.88258 -1.77751 86 78 91
9.61362 2.85094 -1.77822 88 81 99
9.74236 -2.07261 -1.75084 75 74 91
9.71789 -2.11858 -1.74802 73 72 88
9.69659 -2.14805 -1.74521 78 75 92
9.70723 -3.8288 -1.72654 91 80 88
9.5786 3.00048 -1.77995 79 72 88
9.59255 2.96895 -1.78066 90 83 101
9.69061 -2.18067 -1.7452 73 70 89
9.67144 -2.22747 -1.74344 78 77 93
9.67865 -2.26297 -1.74589 75 74 90
9.68804 -3.87676 -1.7262 79 67 81
9.67661 -3.90913 -1.72619 77 65 77
9.54263 3.11438 -1.77993 88 82 96
9.57391 3.088 -1.7838 85 79 91
9.57489 3.05265 -1.78205 88 82 94
9.66654 -2.29424 -1.74483 74 71 92
9.65261 -2.34212 -1.74413 76 73 92
9.65037 -3.93586 -1.7235 83 75 88
9.63693 -3.96741 -1.72316 81 73 84
9.52796 3.23489 -1.78412 87 83 98
9.52946 3.19954 -1.78237 92 85 101
9.532 3.14684 -1.77993 82 75 91
9.63835 -2.37281 -1.74271 77 76 92
9.63933 -2.40703 -1.74411 74 72 93
9.61709 -4.01498 -1.72282 75 70 84
9.4913 3.31292 -1.78235 83 76 94
9.50194 3.2626 -1.78131 80 73 89
9.62297 -2.45427 -1.74305 73 70 91
9.60646 -2.4843 -1.74129 73 70 87
9.59179 -2.51472 -1.73988 71 68 88
9.5933 -4.07923 -1.7228 77 77 95
9.45748 3.37386 -1.78023 82 76 89
9.51563 3.35672 -1.78902 87 83 98
9.57512 -2.54459 -1.73812 80 79 93
9.56003 -2.59192 -1.73741 70 68 88
9.5698 -2.62852 -1.74056 75 72 89
9.57292 -4.12656 -1.72245 84 81 100
9.54247 -4.15115 -1.71909 74 71 88
9.46402 3.50225 -1.78899 90 83 101
9.4403 3.45809 -1.78232 89 82 98
9.48739 3.43765 -1.789 79 75 90
9.5471 -2.6567 -1.73774 74 71 90
9.54859 -2.70842 -1.7402 72 69 90
9.42349 3.57892 -1.78686 88 81 97
9.4392 3.54804 -1.78757 88 84 99
9.51427 -2.73332 -1.73527 75 72 91
9.51405 -2.76741 -1.73667 70 69 87
9.41779 3.6497 -1.79036 85 78 96
9.43369 3.61886 -1.79107 90 86 102
9.50551 -2.81645 -1.73737 71 68 87
9.49364 -2.84734 -1.73666 78 73 95
9.39464 3.73259 -1.79175 90 86 101
9.37377 3.68852 -1.78543 88 84 99
9.48169 -2.87819 -1.73595 72 69 89
9.45939 -2.92325 -1.73418 73 74 92
9.4864 -4.35042 -1.72273 75 72 89
9.43733 -4.3665 -1.71602 69 63 83
9.38763 3.76666 -1.79279 83 76 92
9.34035 0.833228 -1.7564 74 72 91
9.33786 0.80137 -1.75528 82 79 96
9.39784 0.774544 -1.76607 83 77 90
9.35917 0.723985 -1.75789 76 72 87
9.36024 0.692422 -1.75752 76 70 84
9.37492 0.661809 -1.75975 76 69 84
9.37581 0.630215 -1.75937 74 69 83
9.39122 0.583731 -1.76161 74 72 86
9.39578 0.552333 -1.76198 80 77 94
9.39436 0.520596 -1.76123 78 74 91
9.3975 0.473321 -1.76124 67 64 83
9.40955 0.442257 -1.76309 75 73 88
9.40973 0.410614 -1.76272 82 79 96
9.41236 0.36328 -1.76272 76 73 88
9.42014 0.33193 -1.76384 84 82 95
9.44547 0.301115 -1.7683 75 71 87
9.46719 0.254172 -1.77202 88 81 97
9.46286 0.222301 -1.77091 79 77 91
9.45256 0.19034 -1.76867 83 76 92
9.4539 0.158667 -1.76867 84 77 95
9.45143 0.111101 -1.76792 88 84 98
9.44666 0.0793756 -1.76681 82 79 97
9.45354 0.0477737 -1.76792 71 66 90
9.44662 0.000255658 -1.76643 83 80 97
9.43365 -0.031378 -1.76382 77 74 89
9.43429 -0.0629745 -1.76382 79 77 95
9.44254 -0.110434 -1.76531 70 66 83
9.42137 -0.141805 -1.76121 76 72 89
9.41774 -0.173298 -1.76047 75 71 88
9.45853 -2.95729 -1.73558 78 77 94
9.45002 -2.9891 -1.73557 78 76 95
9.43763 -3.01974 -1.73486 77 74 92
9.43341 -4.40198 -1.71769 74 68 82
9.34326 3.87856 -1.79277 89 83 95
9.35985 3.84801 -1.79348 92 85 99
9.35977 3.81124 -1.79102 109 101 116
9.31622 1.13217 -1.75863 80 71 90
9.30495 1.09908 -1.75565 86 77 93
9.31474 1.05258 -1.7564 81 74 90
9.32661 1.0221 -1.75788 80 74 87
9.31108 0.988759 -1.75416 83 79 94
9.35938 0.946004 -1.76235 77 73 90
9.3553 0.913828 -1.76086 77 72 92
9.33745 0.880447 -1.75677 73 68 88
9.42939 -0.220829 -1.7627 74 71 88
9.40985 -0.251958 -1.75897 78 74 89
9.41372 -0.283564 -1.75972 78 74 89
9.41947 -0.31525 -1.76083 74 70 85
9.4128 -0.362348 -1.75971 71 66 86
9.41045 -0.393784 -1.75934 78 74 91
9.40213 -0.42497 -1.75784 79 73 88
9.39886 -0.472084 -1.75747 77 73 89
9.39812 -0.50354 -1.75747 79 74 92
9.3875 -0.534493 -1.7556 80 76 92
9.42224 -3.06675 -1.73451 75 72 91
9.43296 -4.43906 -1.72002 76 68 83
9.33511 3.93061 -1.79486 102 95 110
9.297 1.41688 -1.76308 69 56 70
9.26532 1.38036 -1.75601 122 109 119
9.26459 1.34837 -1.7549 121 107 122
9.30082 1.30551 -1.76048 120 108 118
9.29986 1.27347 -1.75937 120 110 122
9.31434 1.24343 -1.76123 63 56 70
9.32091 1.19644 -1.76123 76 69 87
9.39155 -0.58194 -1.75672 75 68 84
9.39047 -0.613366 -1.75672 75 71 91
9.39713 -0.64527 -1.7582 81 78 92
9.38606 -0.676071 -1.75634 69 66 83
9.39138 -0.723716 -1.75782 78 72 87
9.38595 -0.754845 -1.75707 77 74 86
9.40211 -3.09494 -1.73239 75 71 93
9.39127 -3.12597 -1.73203 73 70 89
9.37675 -4.47032 -1.71331 73 67 82
9.31414 3.99645 -1.7959 100 93 109
9.32376 3.96318 -1.7952 101 93 106
9.26638 1.60458 -1.76344 121 96 91
9.25669 1.57088 -1.76047 119 96 90
9.26481 1.52413 -1.76047 118 95 88
9.26842 1.49265 -1.7601 104 87 88
9.29326 1.46436 -1.76382 78 67 83
9.3902 -0.786687 -1.75819 83 78 99
9.3813 -0.833318 -1.75707 77 70 88
9.38139 -0.864858 -1.75744 77 74 90
9.38725 -0.896913 -1.75892 81 78 95
9.38565 -0.944173 -1.75929 82 79 96
9.37953 -0.975183 -1.75854 72 67 87
9.38477 -3.17572 -1.73343 75 72 92
9.35684 -3.20124 -1.72991 79 76 93
9.28272 4.0766 -1.79623 88 79 100
9.29625 4.04486 -1.79624 87 83 100
9.22535 1.77448 -1.76195 77 66 83
9.24136 1.74512 -1.76381 82 74 87
9.22443 1.70991 -1.75934 87 77 86
9.24673 1.66561 -1.76196 81 68 83
9.24886 1.63382 -1.76121 125 102 98
9.36746 -1.00558 -1.75668 75 72 90
9.3712 -1.05336 -1.75816 74 71 88
9.37255 -1.0851 -1.7589 71 66 86
9.36405 -1.11579 -1.75778 70 68 82
9.38077 -1.14929 -1.7615 77 72 90
9.35504 -3.23515 -1.73131 72 69 86
9.33118 -3.27923 -1.72954 70 67 86
9.27821 4.112 -1.79798 89 80 99
9.18721 1.92849 -1.76082 81 78 91
9.18352 1.87941 -1.75822 69 62 78
9.20369 1.85101 -1.76082 75 69 83
9.22378 1.82252 -1.76343 91 85 99
9.36825 -1.1954 -1.76001 83 78 100
9.37302 -1.22765 -1.76149 74 70 87
9.36601 -1.25849 -1.76074 73 70 79
9.3666 -1.30618 -1.76186 78 74 89
9.32726 -3.31248 -1.73059 76 72 89
9.30643 -3.34007 -1.72847 67 66 82
9.1787 2.07255 -1.76527 124 106 103
9.18022 2.04038 -1.76416 87 81 85
9.20015 1.9959 -1.76602 80 73 89
9.19758 1.96294 -1.76417 80 74 88
9.36131 -1.33722 -1.76148 75 72 89
9.36951 -1.37007 -1.76371 73 70 87
9.35014 -1.41511 -1.7611 74 71 88
9.35809 -1.44802 -1.76333 75 71 88
9.31719 -3.37836 -1.73233 69 67 86
9.21026 2.19369 -1.77643 127 100 91
9.16768 2.13526 -1.76601 124 102 91
9.17515 2.10433 -1.76601 120 98 89
9.34652 -1.47814 -1.76183 73 69 87
9.34218 -1.52526 -1.7622 81 79 93
9.34395 -1.55736 -1.76331 67 64 81
9.28899 -3.42082 -1.72986 73 70 89
9.28272 -3.45336 -1.73055 70 65 85
9.23369 -3.47079 -1.72317 70 67 85
9.16589 2.29819 -1.77307 75 68 84
9.16998 2.2173 -1.7701 128 109 104
9.33011 -1.58704 -1.76145 75 71 87
9.322 -1.61758 -1.7607 70 66 84
9.33054 -1.66684 -1.76367 75 71 90
9.3125 -1.69571 -1.76106 72 69 88
9.21437 -3.51604 -1.72246 78 70 87
9.12613 2.40345 -1.77082 122 110 120
9.1439 2.3586 -1.77194 125 112 125
9.14826 2.32681 -1.7712 131 120 136
9.31179 -1.72747 -1.7618 73 71 88
9.31204 -1.77547 -1.76328 72 69 87
9.2821 -1.80204 -1.75844 71 67 88
9.19299 -3.543 -1.72034 73 67 83
9.19742 -3.57934 -1.72314 77 69 84
9.11941 2.51707 -1.77527 86 78 99
9.132 2.47084 -1.77528 95 81 93
9.1177 2.43425 -1.77082 124 112 122
9.28298 -1.8341 -1.75955 77 74 93
9.26345 -1.8784 -1.75731 73 70 87
9.25636 -1.90897 -1.75693 75 72 90
9.15915 -3.6175 -1.71892 75 66 85
9.10226 2.61191 -1.77713 82 75 91
9.11124 2.58114 -1.77713 78 74 91
9.11632 2.54936 -1.77639 77 70 87
9.25688 -1.941 -1.75804 75 74 88
9.24072 -1.98581 -1.75655 75 74 90
9.16883 -3.65591 -1.72278 77 70 86
9.13604 -3.67839 -1.71855 77 68 87
9.09313 2.72577 -1.78158 89 81 97
9.08735 2.69082 -1.7786 79 73 87
9.10603 2.66269 -1.78047 84 77 92
9.24483 -2.01862 -1.7584 75 72 91
9.23539 -2.04869 -1.75765 70 68 85
9.22778 -2.07911 -1.75727 74 70 87
9.15618 -3.73858 -1.72557 78 70 83
9.06976 2.80251 -1.78157 77 68 85
9.07179 2.76967 -1.78008 80 72 88
9.20714 -2.12284 -1.75504 71 68 87
9.19739 -2.15275 -1.75429 72 69 86
9.18946 -2.18302 -1.75391 74 71 90
9.11034 -3.75586 -1.71889 80 71 85
9.10666 -3.78937 -1.72028 77 69 84
9.0439 2.87852 -1.78118 89 81 96
9.06761 2.83538 -1.78305 78 70 85
9.17027 -2.22687 -1.75204 70 67 87
9.17358 -2.25967 -1.75389 72 69 89
9.09554 -3.82 -1.72027 76 68 83
9.02603 2.99065 -1.78451 83 79 94
9.04836 2.94711 -1.78601 91 82 99
9.02836 2.90739 -1.78006 83 75 91
9.14046 -2.28407 -1.74868 74 71 90
9.14181 -2.33255 -1.75091 74 71 90
9.13904 -2.36399 -1.75164 70 67 86
9.06364 -3.86002 -1.71745 79 72 88
9.06141 -3.89419 -1.7192 75 69 83
9.02409 3.05761 -1.78823 84 80 94
9.00454 3.01764 -1.78228 80 76 92
9.12093 -2.3917 -1.7494 72 71 87
9.09319 -2.43309 -1.74605 73 70 91
9.02445 -3.91428 -1.71428 77 73 88
8.98693 3.13021 -1.78598 85 79 94
8.99119 3.08094 -1.78376 87 80 98
9.10721 -2.46873 -1.75013 71 68 85
9.0964 -2.49815 -1.74938 70 67 83
8.99763 -3.95604 -1.71251 75 68 84
8.9987 -3.99161 -1.71496 74 72 86
8.96728 3.19162 -1.78635 87 80 96
8.95574 3.15386 -1.78188 84 78 93
9.08358 -2.52704 -1.74826 75 73 89
9.08563 -2.57602 -1.75086 75 72 89
8.9543 -4.00816 -1.70863 75 72 89
8.94768 3.27 -1.78782 81 77 89
8.93458 3.23148 -1.78299 75 69 82
9.05554 -2.60025 -1.74639 75 73 87
9.04621 -2.62996 -1.74601 75 73 87
8.94157 -4.05565 -1.70967 80 79 95
8.93323 -4.08729 -1.71036 72 69 86
8.92928 3.34894 -1.78967 83 79 96
8.94394 3.30287 -1.7893 88 82 96
9.0326 -2.67471 -1.74563 75 74 92
9.03061 -2.70645 -1.74674 75 73 89
9.00962 -2.73285 -1.74412 74 71 88
8.94645 -4.12831 -1.71527 77 74 91
8.91008 3.41072 -1.7904 90 84 99
8.92343 3.38115 -1.79078 86 79 97
8.98233 -2.77359 -1.74114 70 67 87
8.98753 -2.80742 -1.74374 73 72 89
8.92231 -4.17106 -1.71421 78 80 95
8.88869 3.48885 -1.79187 86 77 94
8.90229 3.45935 -1.79225 92 87 103
8.90056 0.725737 -1.76677 76 67 86
8.91532 0.696428 -1.76911 72 64 81
8.92125 0.651293 -1.76951 81 77 94
8.91428 0.620497 -1.76755 71 67 82
8.92871 0.591023 -1.76989 71 69 83
8.91569 0.559943 -1.76677 75 69 86
8.93466 0.515493 -1.7699 76 72 88
8.95659 0.486208 -1.7738 79 76 91
8.93932 0.455045 -1.76989 79 75 90
8.94018 0.409618 -1.7695 67 62 79
8.95397 0.379819 -1.77185 75 72 91
8.96571 0.349877 -1.7738 75 69 87
8.96021 0.304188 -1.77224 80 76 90
8.95802 0.2738 -1.77145 80 78 92
8.97138 0.243788 -1.7738 70 65 84
8.94582 0.197819 -1.76833 79 73 91
8.94133 0.167498 -1.76715 79 75 92
8.93478 0.137188 -1.76559 77 76 92
8.94379 0.10706 -1.76715 79 76 87
8.92934 0.0616697 -1.76402 77 73 88
8.9303 0.0314971 -1.76402 74 67 85
8.93702 0.00130912 -1.76519 75 65 87
8.91815 -0.0438365 -1.76128 76 71 91
8.92073 -0.0739858 -1.76167 75 68 84
8.92515 -0.104173 -1.76245 80 75 95
8.92145 -0.149319 -1.76167 72 64 85
8.91783 -0.179366 -1.76088 84 80 95
8.97003 -2.83464 -1.74187 73 72 90
8.8938 -4.19391 -1.71104 74 72 91
8.89938 -4.23186 -1.71454 72 71 89
8.86493 3.54906 -1.79186 88 85 96
8.88789 3.52307 -1.7941 91 85 100
8.80387 1.03516 -1.75465 80 75 88
8.80593 1.00512 -1.75426 71 66 87
8.86592 0.965716 -1.7652 71 67 90
8.86968 0.93568 -1.7652 74 69 89
8.86168 0.90455 -1.76286 85 82 99
8.86859 0.859688 -1.76325 81 78 95
8.86229 0.828828 -1.7613 78 75 91
8.88907 0.80071 -1.76599 82 80 94
8.88183 0.754667 -1.76364 76 72 89
8.91214 -0.209338 -1.75971 72 68 83
8.92556 -0.254882 -1.76244 85 82 97
8.92161 -0.28489 -1.76166 78 71 89
8.90777 -0.314522 -1.75892 71 67 84
8.89386 -0.344065 -1.75618 81 78 97
8.89881 -0.389358 -1.75735 69 66 82
8.91202 -0.420035 -1.76009 79 76 87
8.90756 -0.449918 -1.7593 77 73 91
8.90028 -0.494688 -1.75813 80 76 91
8.89166 -0.524272 -1.75656 76 72 91
8.96111 -2.88067 -1.74261 68 67 85
8.95092 -2.91 -1.74223 70 69 88
8.88865 -4.26261 -1.71488 73 70 89
8.83873 3.62555 -1.79259 95 91 108
8.85458 3.59693 -1.79334 94 88 102
8.78867 1.2761 -1.75855 122 112 121
8.79925 1.24704 -1.75972 72 64 77
8.79481 1.17052 -1.7566 79 73 87
8.79534 1.14023 -1.75582 83 74 91
8.79947 1.09527 -1.75543 75 69 80
8.79199 1.06415 -1.75309 80 73 91
8.8986 -0.554752 -1.75812 72 68 82
8.89864 -0.599914 -1.75851 66 60 79
8.89554 -0.6298 -1.75812 77 74 87
8.88847 -0.659388 -1.75694 87 83 100
8.89193 -0.704808 -1.75811 77 74 88
8.88266 -0.734176 -1.75654 85 81 98
8.93688 -2.93815 -1.7411 75 72 89
8.92464 -2.96681 -1.74035 77 76 93
8.82648 3.65553 -1.79259 92 86 102
8.78022 1.45795 -1.76284 79 75 87
8.75873 1.40898 -1.75698 87 73 91
8.86663 1.39397 -1.77769 119 104 120
8.77675 1.35059 -1.75855 119 107 117
8.78187 1.30565 -1.75816 119 107 117
8.87527 -0.76365 -1.75537 77 70 88
8.89704 -0.795599 -1.76005 77 70 88
8.89594 -0.84077 -1.76044 85 79 94
8.90381 -0.871679 -1.76239 78 74 89
8.90184 -0.901693 -1.76239 81 79 93
8.91133 -3.01148 -1.74034 72 69 88
8.90447 -3.04182 -1.74071 75 74 90
8.81039 3.73612 -1.79555 91 85 99
8.81561 3.70331 -1.79406 89 84 100
8.72647 1.61768 -1.75814 124 97 91
8.7439 1.58996 -1.76049 124 99 92
8.75208 1.5454 -1.76049 124 99 92
8.75962 1.51599 -1.76089 121 99 94
8.74966 1.48385 -1.75776 83 68 78
8.87491 -0.944313 -1.7577 66 63 80
8.8805 -0.975049 -1.75926 68 61 79
8.88599 -1.00582 -1.76081 80 76 93
8.88778 -1.0514 -1.76198 78 74 89
8.88136 -1.0809 -1.7612 70 66 83
8.90872 -3.07575 -1.7433 81 78 96
8.87999 -3.11544 -1.74032 76 73 92
8.81054 3.77112 -1.79815 90 84 99
8.72065 1.75477 -1.76243 80 71 89
8.7404 1.72757 -1.76517 84 76 88
8.74273 1.69719 -1.76439 71 63 77
8.74177 1.65096 -1.76244 103 86 84
8.8729 -1.11013 -1.76002 73 66 85
8.8857 -1.14193 -1.76314 82 78 95
8.88103 -1.18683 -1.76314 77 72 91
8.87418 -1.21623 -1.76235 75 71 88
8.87279 -3.1457 -1.74068 71 69 90
8.85806 -3.17344 -1.73956 79 77 97
8.76259 3.83912 -1.79478 93 89 103
8.78817 3.81448 -1.79739 90 86 101
8.7176 1.86211 -1.76633 79 76 91
8.72421 1.83248 -1.76633 73 71 84
8.74419 1.80536 -1.76907 86 77 89
8.86724 -1.24561 -1.76157 69 66 78
8.86402 -1.29067 -1.76196 76 73 88
8.86461 -1.32107 -1.76273 65 62 74
8.87671 -1.35318 -1.76585 77 73 88
8.84192 -3.21714 -1.73918 74 71 92
8.76236 3.87412 -1.79738 98 91 107
8.70567 1.96806 -1.76867 78 69 89
8.71261 1.93846 -1.76867 78 74 89
8.71178 1.9073 -1.76711 79 78 91
8.85556 -1.39568 -1.76272 74 70 87
8.84614 -1.42461 -1.76155 73 70 87
8.85983 -1.45712 -1.76506 79 76 93
8.82141 -3.24282 -1.73694 78 75 92
8.81011 -3.27162 -1.73656 74 73 89
8.65654 2.09723 -1.76514 128 104 92
8.66961 2.06903 -1.76631 109 90 86
8.69218 2.04281 -1.76944 85 75 92
8.84401 -1.50029 -1.7631 82 78 95
8.85166 -1.53197 -1.76544 73 70 85
8.83988 -1.56047 -1.76387 73 70 88
8.83767 -1.59056 -1.76426 74 72 86
8.78944 -3.29712 -1.73432 77 78 96
8.64387 2.20329 -1.76786 130 102 90
8.72596 2.19094 -1.7831 124 95 77
8.65339 2.14311 -1.7667 124 95 81
8.81932 -1.63313 -1.76191 67 64 83
8.82072 -1.66385 -1.76308 77 75 90
8.83552 -1.69705 -1.76698 80 76 89
8.78196 -3.34375 -1.7358 72 73 91
8.76665 -3.37107 -1.73467 77 69 93
8.63571 2.31077 -1.77176 75 67 83
8.66846 2.28732 -1.77684 88 83 99
8.80899 -1.73803 -1.76307 73 70 85
8.7966 -1.76621 -1.7615 75 68 84
8.80527 -1.79842 -1.76423 70 66 80
8.74942 -3.39765 -1.73317 76 72 90
8.70277 -3.42991 -1.72684 76 71 91
8.62137 2.38563 -1.77292 122 110 122
8.62772 2.35578 -1.77253 122 112 121
8.78023 -1.83942 -1.7607 82 78 95
8.77905 -1.86974 -1.76148 72 68 84
8.77011 -1.89848 -1.76069 75 70 90
8.69273 -3.45896 -1.72683 78 75 94
8.58083 2.48523 -1.77057 80 69 83
8.59513 2.44184 -1.77096 126 116 124
8.61683 2.41594 -1.7737 124 111 123
8.75038 -1.94032 -1.75834 76 73 90
8.74887 -1.97058 -1.75912 77 75 89
8.68627 -3.48936 -1.72757 73 70 88
8.70166 -3.54472 -1.73388 78 76 90
8.60125 2.55391 -1.77837 79 71 86
8.57977 2.51648 -1.77213 87 79 94
8.72838 -2.02732 -1.75715 76 73 90
8.65829 -3.56108 -1.72718 69 66 84
8.55326 2.65152 -1.77484 82 70 90
8.5944 2.63132 -1.78149 82 76 90
8.60152 2.60149 -1.7811 86 80 94
8.73672 -2.07523 -1.76066 69 62 78
8.72525 -2.10331 -1.75949 67 64 81
8.69652 -2.12735 -1.75479 74 71 88
8.65333 -3.59211 -1.72829 71 72 90
8.63523 -3.63471 -1.7279 71 68 86
8.56064 2.73312 -1.78108 88 80 96
8.53987 2.69524 -1.77484 88 80 96
8.71196 -2.17709 -1.75987 74 73 89
8.69447 -2.20365 -1.75751 74 72 86
8.61361 -3.65919 -1.72566 69 65 82
8.53167 2.80432 -1.7799 92 86 100
8.53806 2.75842 -1.77834 83 77 91
8.70163 -2.23613 -1.76024 75 71 87
8.6728 -2.27529 -1.75633 74 73 89
8.61742 -3.69379 -1.72863 74 69 89
8.58834 -3.71519 -1.7249 75 71 88
8.50479 2.86018 -1.77833 88 81 97
8.51827 2.83228 -1.77911 84 76 91
8.67592 -2.30685 -1.75828 75 74 91
8.67513 -2.33747 -1.75944 74 71 90
8.58421 -3.7634 -1.7275 74 70 85
8.48979 2.9356 -1.78027 87 83 97
8.50243 2.89151 -1.77989 88 81 97
8.63829 -2.37433 -1.75397 71 70 88
8.64107 -2.40587 -1.75591 72 70 89
8.62483 -2.4324 -1.75395 77 76 94
8.57311 -3.79206 -1.72749 73 69 86
8.53295 -3.80858 -1.72152 75 72 89
8.47329 2.9947 -1.78104 83 77 96
8.48718 2.96694 -1.78183 87 83 100
8.52131 0.306473 -1.76508 81 78 97
8.5289 0.277714 -1.76629 75 72 90
8.53481 0.234372 -1.76711 87 83 98
8.52459 0.205092 -1.76467 69 65 80
8.52991 0.176229 -1.76548 81 77 94
8.59904 -2.4563 -1.75004 74 71 90
8.54277 -3.86277 -1.7271 70 66 83
8.44977 3.06756 -1.78142 90 88 102
8.46761 3.04112 -1.78299 87 82 99
8.4571 0.810309 -1.76061 77 75 93
8.46162 0.76713 -1.76061 82 78 94
8.4979 0.741107 -1.76752 82 80 95
8.47566 0.710165 -1.76223 77 72 92
8.48166 0.667062 -1.76264 76 69 85
8.49815 0.639196 -1.76549 71 67 82
8.48727 0.609351 -1.76264 65 60 80
8.49865 0.566562 -1.76427 80 75 95
8.51289 0.538384 -1.76671 65 60 80
8.50949 0.509106 -1.76549 71 66 86
8.50283 0.465192 -1.76345 81 77 94
8.51871 0.436982 -1.7663 70 65 84
8.51694 0.407846 -1.76548 79 76 97
8.51313 0.378649 -1.76426 79 75 98
8.52537 0.335646 -1.7663 80 77 94
8.52752 0.132715 -1.76467 70 67 84
8.50524 0.103429 -1.75979 72 69 88
8.5122 0.0746123 -1.761 78 75 92
8.51324 0.0312616 -1.761 79 75 92
8.50824 0.00234182 -1.75978 82 80 94
8.50315 -0.0265413 -1.75856 84 79 98
8.50968 -0.0554237 -1.75978 76 69 87
8.49449 -0.0986232 -1.75652 74 70 85
8.50276 -0.12754 -1.75815 77 73 89
8.49921 -0.156339 -1.75733 77 73 87
8.49525 -0.199525 -1.75652 71 66 84
8.49735 -0.228393 -1.75692 75 72 88
8.49738 -0.257222 -1.75692 75 72 89
8.49102 -0.300284 -1.7557 74 69 90
8.51038 -0.329733 -1.75976 83 80 100
8.4886 -0.357816 -1.75529 69 65 82
8.58488 -2.5296 -1.75081 75 73 87
8.57958 -2.559 -1.75119 75 72 89
8.5061 -3.8805 -1.72188 73 71 85
8.42567 3.14026 -1.7818 88 84 99
8.44672 3.0989 -1.78298 87 83 98
8.42801 1.06942 -1.76142 78 75 96
8.41075 1.03821 -1.75694 84 82 96
8.41635 0.995221 -1.75695 75 71 90
8.42996 0.967612 -1.75898 78 73 94
8.44541 0.940139 -1.76142 80 77 95
8.42915 0.894837 -1.75695 76 72 89
8.43856 0.866708 -1.75817 79 77 91
8.4615 0.839819 -1.76223 82 79 96
8.49154 -0.401159 -1.7561 80 76 93
8.49495 -0.430127 -1.75691 74 67 85
8.49826 -0.459115 -1.75772 83 79 96
8.47415 -0.486747 -1.75284 73 68 88
8.48233 -0.530382 -1.75487 72 68 83
8.48141 -0.559137 -1.75487 71 64 80
8.48237 -0.588007 -1.75527 85 79 94
8.55883 -2.59957 -1.74923 72 71 89
8.56836 -2.63326 -1.75274 75 72 93
8.49644 -3.90968 -1.72224 72 69 86
8.41156 3.20036 -1.78335 84 82 98
8.42607 3.17285 -1.78414 83 79 93
8.41963 1.24388 -1.76507 104 98 110
8.40489 1.19796 -1.7606 74 70 84
8.41135 1.16957 -1.76101 78 69 89
8.39056 1.13767 -1.75572 73 68 85
8.42573 1.09836 -1.76182 76 73 90
8.48031 -0.63113 -1.75527 92 91 105
8.46933 -0.659194 -1.75323 74 71 90
8.47191 -0.68818 -1.75404 69 66 83
8.46354 -0.730789 -1.75282 81 75 93
8.47369 -0.760408 -1.75526 81 76 96
8.46622 -0.788628 -1.75403 76 71 91
8.5458 -2.65765 -1.74961 70 69 85
8.5415 -2.70299 -1.75116 75 72 89
8.46069 -3.94437 -1.71851 73 72 90
8.44903 -3.97262 -1.7185 73 72 88
8.40113 3.2454 -1.78451 79 76 95
8.36961 1.39785 -1.76018 132 123 129
8.38636 1.37108 -1.76262 121 108 119
8.39544 1.32846 -1.76303 124 112 122
8.39843 1.29955 -1.76263 123 112 120
8.40327 1.27091 -1.76263 122 114 129
8.46516 -0.831821 -1.75444 74 70 85
8.47109 -0.861209 -1.75606 71 67 84
8.45748 -0.888795 -1.75362 73 66 84
8.4574 -0.917632 -1.75402 70 66 81
8.45961 -0.961191 -1.75524 85 81 98
8.51847 -2.7581 -1.74959 79 76 93
8.43189 -3.99845 -1.71737 76 74 94
8.39002 3.30676 -1.78685 85 76 92
8.40116 3.27805 -1.78685 76 74 88
8.37078 1.53046 -1.76546 136 112 107
8.37635 1.50189 -1.76546 95 76 79
8.38947 1.43041 -1.76547 84 71 85
8.45152 -0.989221 -1.75401 75 71 85
8.46084 -1.01911 -1.75645 70 65 79
8.44897 -1.06119 -1.75482 75 69 91
8.45029 -1.09025 -1.75563 64 57 79
8.43987 -1.11792 -1.754 70 65 86
8.47815 -2.79233 -1.74372 79 76 97
8.36218 3.37839 -1.78683 78 74 89
8.36775 3.33143 -1.7845 101 96 111
8.35396 1.67522 -1.76789 75 66 83
8.37408 1.63455 -1.77033 135 111 104
8.35689 1.60181 -1.76545 130 108 102
8.35883 1.5726 -1.76464 130 107 99
8.45664 -1.16344 -1.75847 81 77 92
8.44598 -1.19107 -1.75683 72 70 84
8.44689 -1.22016 -1.75764 75 72 87
8.48696 -2.82613 -1.74723 70 68 89
8.48071 -2.85525 -1.74761 82 79 97
8.37035 3.44725 -1.79347 78 71 87
8.34889 3.4063 -1.78644 85 79 93
8.34879 1.76335 -1.77073 78 72 86
8.34356 1.73259 -1.76829 83 79 92
8.34208 1.70263 -1.76667 73 61 81
8.44184 -1.26303 -1.75764 77 72 87
8.43476 -1.29106 -1.75682 78 72 86
8.42954 -1.31932 -1.75641 65 63 79
8.42615 -1.34784 -1.75641 73 69 83
8.47065 -2.88317 -1.74721 79 76 97
8.46151 -2.92709 -1.74799 76 73 91
8.32759 3.48041 -1.78799 92 88 103
8.29584 1.85661 -1.76422 78 75 92
8.32349 1.83259 -1.76869 65 62 77
8.32999 1.80415 -1.76869 75 69 88
8.41665 -1.39002 -1.75559 76 72 86
8.41885 -1.41938 -1.7568 71 68 85
8.42867 -1.44999 -1.75964 77 70 90
8.44006 -2.95124 -1.74524 79 75 94
8.43899 -2.98209 -1.7468 71 66 88
8.3131 3.5409 -1.78993 82 78 93
8.34688 3.52085 -1.79462 90 86 101
8.30112 1.96203 -1.7703 79 75 90
8.30421 1.93281 -1.76949 80 77 96
8.30531 1.9032 -1.76828 79 76 93
8.40518 -1.48993 -1.75598 69 64 82
8.40512 -1.519 -1.75679 77 76 92
8.41846 -1.55034 -1.76044 72 70 85
8.41639 -3.02149 -1.74484 75 73 94
8.31738 3.59218 -1.7946 86 82 97
8.28041 2.06209 -1.77111 77 71 86
8.28954 2.0342 -1.77152 74 71 88
8.28525 2.00327 -1.76908 82 79 98
8.39646 -1.59037 -1.75719 76 74 87
8.39801 -1.61978 -1.7584 74 71 86
8.3956 -1.64852 -1.7588 65 61 76
8.4058 -3.04915 -1.74444 75 73 94
8.3933 -3.07613 -1.74365 76 75 90
8.29668 3.65053 -1.79538 91 83 97
8.27977 3.61052 -1.78913 89 80 97
8.25479 2.16106 -1.7711 81 76 96
8.27374 2.13555 -1.77354 78 72 90
8.25457 2.10092 -1.76785 76 70 87
8.37579 -1.6741 -1.75555 69 65 82
8.38399 -1.71946 -1.75879 75 71 86
8.37358 -1.7467 -1.75757 74 70 88
8.37213 -3.11585 -1.74208 79 76 93
8.23946 2.26267 -1.77352 81 77 94
8.22266 2.22824 -1.76824 77 74 91
8.23007 2.18506 -1.76744 79 77 91
8.36311 -1.77389 -1.75634 76 74 88
8.35163 -1.81553 -1.75552 72 69 86
8.36678 -3.14531 -1.74285 75 74 89
8.35768 -3.17344 -1.74284 77 74 91
8.22171 2.33359 -1.77392 84 80 94
8.35243 -1.84493 -1.75674 75 72 89
8.33975 -1.87158 -1.75511 73 71 85
8.32973 -1.91346 -1.7547 74 71 90
8.34713 -3.21691 -1.74362 74 72 93
8.21093 2.39137 -1.77513 78 76 90
8.22487 2.36476 -1.77636 73 70 87
8.35698 -1.94857 -1.7616 77 74 91
8.35545 -1.97764 -1.76241 77 74 91
8.31388 -3.23619 -1.73853 78 76 97
8.31551 -3.26823 -1.74087 73 71 92
8.19675 2.49389 -1.77837 82 75 91
8.19216 2.46211 -1.77553 79 72 90
8.1931 2.43196 -1.77391 80 73 93
8.33731 -2.01786 -1.76037 74 71 88
8.29739 -2.03829 -1.75305 81 80 96
8.28032 -2.06371 -1.7506 75 72 91
8.28951 -3.29001 -1.73734 74 71 88
8.19032 2.56838 -1.78161 81 74 90
8.1653 2.53058 -1.7743 83 74 91
8.28032 -2.09302 -1.75181 60 59 75
8.30731 -2.14356 -1.75953 110 110 121
8.27654 -3.3325 -1.73772 76 73 90
8.28514 -3.36733 -1.74162 69 66 83
8.16302 2.62167 -1.77958 82 76 91
8.14763 2.5865 -1.77429 79 72 87
8.29753 -2.17071 -1.75871 120 117 127
8.30478 -2.20199 -1.76155 112 110 116
8.24976 -3.38529 -1.73614 73 72 88
8.15552 2.69613 -1.78282 92 83 101
8.15914 2.66645 -1.7816 82 75 88
8.27803 -2.23981 -1.75789 117 114 121
8.26987 -2.2673 -1.75748 66 63 78
8.23817 -3.42831 -1.73692 72 69 86
8.22453 -3.45457 -1.73613 74 71 88
8.14553 2.77008 -1.78565 85 77 92
8.14994 2.72525 -1.78362 85 76 92
8.26352 -2.29523 -1.75747 75 74 88
8.21935 -2.32822 -1.75015 77 73 90
8.20718 -3.47932 -1.73456 72 71 89
8.1338 2.82829 -1.78727 86 81 98
8.1248 2.79444 -1.78321 79 71 88
8.21092 -2.3555 -1.74973 75 71 88
8.2024 -2.38273 -1.74932 76 73 91
8.20602 -3.52657 -1.73767 67 64 83
8.10844 2.86648 -1.78482 92 84 101
8.18562 0.678286 -1.78134 71 66 86
8.17487 0.64932 -1.77838 71 67 84
8.17669 0.607237 -1.77796 85 78 94
8.20274 0.580722 -1.78303 71 67 83
8.19558 0.552095 -1.78092 81 78 96
8.19304 0.509727 -1.77965 75 73 88
8.20514 0.482211 -1.78176 74 71 91
8.18205 0.452941 -1.77627 77 74 90
8.20832 0.411986 -1.78134 76 74 87
8.20841 0.383851 -1.78092 76 73 94
8.21624 0.35601 -1.78218 78 74 89
8.20444 0.327471 -1.77922 76 73 90
8.20668 0.285411 -1.77922 86 79 95
8.22396 0.257777 -1.7826 78 74 89
8.21577 0.22946 -1.78049 77 72 87
8.20973 0.187221 -1.7788 75 71 87
8.20913 0.15914 -1.77838 83 81 94
8.20649 0.131055 -1.77753 78 73 93
8.23125 0.0891809 -1.7826 72 69 88
8.22057 0.0610266 -1.78006 79 76 97
8.20004 0.032941 -1.77541 77 74 93
8.20676 -0.00908566 -1.77668 85 81 97
8.19968 -0.0370492 -1.77499 78 74 91
8.20424 -0.0650862 -1.77583 70 67 86
8.20283 -0.0930649 -1.77541 74 70 85
8.18553 -0.134744 -1.77161 91 87 102
8.17805 -0.162519 -1.76992 73 71 85
8.20172 -0.191009 -1.77498 72 68 83
8.19568 -0.232818 -1.77371 67 63 78
8.19571 -0.260783 -1.77371 71 67 82
8.1937 -0.288677 -1.77329 80 73 89
8.1881 -2.42327 -1.7485 71 70 88
8.20765 -2.45821 -1.75418 70 67 86
8.18846 -3.5512 -1.7361 66 66 82
8.17446 -3.57724 -1.73531 73 72 90
8.09791 2.92517 -1.78684 87 80 96
8.10786 2.89736 -1.78685 88 81 97
8.139 0.928223 -1.77754 89 87 101
8.13296 0.899386 -1.77542 79 75 92
8.14042 0.871892 -1.77627 80 76 93
8.15107 0.830602 -1.77754 72 68 82
8.15054 0.802353 -1.77669 84 80 95
8.17133 0.775927 -1.78049 70 63 81
8.16674 0.747322 -1.7788 71 67 86
8.16512 0.704943 -1.77754 77 73 91
8.18524 -0.330292 -1.7716 74 67 83
8.17522 -0.357795 -1.76948 78 74 91
8.20021 -0.386859 -1.77497 77 74 93
8.18155 -0.427909 -1.77117 76 71 89
8.19658 -0.456658 -1.77454 73 69 84
8.1842 -0.483935 -1.77201 84 80 95
8.16785 -0.510897 -1.76862 74 70 84
8.16031 -0.552291 -1.76736 86 79 98
8.2007 -2.48593 -1.75418 72 70 84
8.20494 -2.51682 -1.75661 76 74 88
8.15854 -3.60246 -1.73413 73 72 86
8.08047 2.99712 -1.78846 92 85 101
8.08324 2.96684 -1.78683 86 79 93
8.10195 1.1219 -1.77542 68 65 81
8.11206 1.09483 -1.77669 70 66 82
8.10848 1.0661 -1.775 78 74 89
8.11421 1.02441 -1.775 67 68 84
8.12402 0.997238 -1.77627 72 69 88
8.12401 0.968988 -1.77542 69 68 86
8.18272 -0.581716 -1.77242 73 66 86
8.18361 -0.609748 -1.77284 72 67 87
8.16585 -0.650396 -1.76946 80 77 98
8.17041 -0.678694 -1.77072 75 71 86
8.16321 -0.706057 -1.76945 84 79 96
8.15476 -0.747274 -1.76818 81 76 92
8.1844 -2.55567 -1.75457 72 70 91
8.17527 -2.58277 -1.75416 69 68 86
8.13147 -3.63903 -1.73178 75 72 91
8.05803 3.05192 -1.78804 92 86 98
8.07206 3.0255 -1.78886 89 82 98
8.03751 1.2406 -1.7657 74 72 85
8.05061 1.18592 -1.76655 79 77 91
8.08802 1.16255 -1.77373 65 63 77
8.15706 -0.775417 -1.76902 90 86 101
8.15539 -0.803212 -1.76902 81 76 96
8.16205 -0.845846 -1.77113 76 69 85
8.1446 -0.872071 -1.76775 77 73 88
8.14846 -0.900429 -1.76901 77 70 88
8.17167 -2.61148 -1.75496 76 75 92
8.14063 -3.6748 -1.73607 74 74 87
8.12265 -3.69908 -1.73449 74 72 90
8.04827 3.09538 -1.78925 97 90 105
8.08964 1.41863 -1.78343 77 70 86
8.0157 1.37863 -1.76612 76 69 84
8.02675 1.33791 -1.76696 70 66 85
8.02978 1.31007 -1.76654 70 68 79
8.02691 1.2814 -1.76485 79 75 93
8.16194 -0.929864 -1.77239 86 82 99
8.15244 -0.970897 -1.77112 66 63 82
8.17151 -1.00114 -1.77576 72 68 85
8.16914 -1.02896 -1.77575 75 71 89
8.15819 -2.65231 -1.75455 75 73 94
8.14315 -2.67759 -1.75292 73 72 89
8.11672 -3.74471 -1.73683 72 68 83
8.04544 3.15729 -1.79331 87 79 94
8.03586 3.12236 -1.78884 89 83 96
8.0037 1.50429 -1.76864 79 77 90
8.01876 1.43582 -1.76907 85 78 94
8.15724 -1.06971 -1.77406 81 77 93
8.13333 -1.09477 -1.76941 73 70 87
8.13646 -1.12321 -1.77067 73 70 89
8.15317 -1.16764 -1.77532 78 76 90
8.12988 -2.70337 -1.75169 75 79 92
8.11973 -2.74513 -1.75209 79 79 97
8.09856 -3.76886 -1.73526 68 67 83
8.0206 3.22701 -1.7937 82 78 93
8.03517 3.20076 -1.79452 86 79 97
8.06099 1.64302 -1.78679 71 67 82
7.98809 1.60111 -1.76948 81 75 89
7.99003 1.57297 -1.76864 75 67 82
8.01161 1.53409 -1.7716 80 74 88
8.14447 -1.19458 -1.77404 75 74 89
8.1473 -1.22312 -1.77531 67 63 81
8.14031 -1.26442 -1.77488 73 71 84
8.10255 -2.76962 -1.75005 73 69 89
8.11511 -2.80351 -1.75451 80 78 99
8.04986 -3.77946 -1.72704 77 76 92
8.02061 3.25869 -1.79613 78 76 89
7.97673 1.72746 -1.77285 75 68 84
7.98483 1.7004 -1.77327 74 72 82
7.98202 1.65705 -1.77074 73 67 81
8.11392 -1.28865 -1.76981 72 71 79
8.13189 -1.31951 -1.77445 66 62 77
8.14202 -1.34928 -1.7774 76 72 87
8.11709 -1.38772 -1.77317 78 74 90
8.09146 -2.84099 -1.75207 83 86 103
8.05781 -3.83125 -1.7325 80 78 92
7.99498 3.32824 -1.79652 91 89 103
8.00619 3.30072 -1.79653 86 82 97
7.99119 1.83084 -1.78086 78 70 91
7.9977 1.80336 -1.78086 76 69 86
8.00496 1.76171 -1.78045 78 72 86
8.11929 -1.41629 -1.77444 86 82 99
8.11946 -1.44455 -1.77528 71 68 87
8.10375 -1.48431 -1.77316 77 73 90
8.07773 -2.86649 -1.75084 68 67 83
8.07505 -2.89561 -1.75205 75 74 88
7.97822 3.35361 -1.7953 89 82 99
7.95967 1.89619 -1.77748 74 72 85
7.97313 1.8559 -1.77833 70 66 81
8.1191 -1.51525 -1.77738 77 73 88
8.10741 -1.54149 -1.77568 74 70 87
8.06302 -2.92164 -1.75123 70 67 84
7.95 3.42215 -1.79528 79 75 90
7.96152 3.39475 -1.79529 86 79 96
7.95116 1.99536 -1.78084 71 68 87
7.96126 1.9543 -1.78085 79 75 90
7.96242 1.92564 -1.77958 76 72 86
8.09511 -1.58178 -1.77441 74 72 88
8.1005 -1.6111 -1.77652 67 66 82
8.0866 -1.63682 -1.7744 74 72 86
8.03886 -2.95869 -1.74878 73 71 93
8.02292 -2.98331 -1.74715 70 69 83
7.93297 3.44732 -1.79406 83 77 91
7.89155 2.06838 -1.77239 79 76 93
7.91358 2.01572 -1.77409 72 70 84
8.06236 -1.67469 -1.7706 72 68 87
8.07895 -1.70629 -1.77524 70 67 83
8.07436 -1.73375 -1.77523 57 50 69
8.01802 -3.01168 -1.74796 72 69 90
7.91583 3.48826 -1.79405 88 82 98
7.87915 2.13766 -1.77365 80 77 94
7.89421 2.11233 -1.77534 81 77 94
8.0716 -1.76159 -1.77565 81 78 97
8.06402 -1.80274 -1.77564 80 79 93
8.00824 -3.05358 -1.74876 73 75 90
7.99388 -3.07866 -1.74753 77 76 90
7.92869 2.2227 -1.78884 71 67 84
7.87539 2.16574 -1.77449 81 78 95
8.05721 -1.82975 -1.77522 69 65 82
8.0637 -1.85961 -1.77774 77 75 94
7.9868 -3.10632 -1.74793 73 76 91
7.89817 2.24417 -1.78377 77 74 89
8.04422 -1.89818 -1.77521 69 67 80
8.01805 -1.92081 -1.77056 71 70 86
8.00136 -1.94546 -1.76802 73 71 85
7.9637 -3.14342 -1.74589 72 73 93
7.95826 -3.17166 -1.7467 70 71 89
7.83413 2.35874 -1.77742 78 74 89
7.84984 2.33373 -1.77911 79 77 90
8.00624 -1.98936 -1.77097 77 76 90
8.00836 -2.01836 -1.77265 73 72 88
7.9399 -3.19513 -1.74466 81 85 102
7.83634 2.43253 -1.78248 88 80 95
7.82966 2.40133 -1.7791 81 78 91
8.0009 -2.04512 -1.77222 72 71 87
8.00853 -2.07554 -1.77517 73 72 90
7.93106 -3.23741 -1.74587 68 66 87
7.85873 2.49785 -1.79134 79 75 90
7.87485 2.47286 -1.79303 79 71 86
7.98429 -2.11259 -1.77179 131 118 134
7.98033 -2.1402 -1.7722 120 110 119
7.91799 -3.2628 -1.74505 77 75 95
7.87017 -3.27483 -1.7365 76 75 91
7.8279 2.56278 -1.78922 81 77 91
7.82545 2.53247 -1.78669 71 67 82
7.82549 0.576208 -1.7692 72 68 85
7.82891 0.535905 -1.7692 84 80 99
7.82942 0.508903 -1.76876 78 74 91
7.84538 0.482836 -1.77182 76 72 89
7.83864 0.441917 -1.76964 78 74 92
7.84663 0.415316 -1.77095 78 77 94
7.84285 0.388111 -1.76963 82 77 97
7.84539 0.347749 -1.76964 73 66 84
7.84531 0.320757 -1.7692 72 67 87
7.84707 0.293839 -1.76919 77 73 90
7.84332 0.253277 -1.76788 72 69 88
