-11.4516 15.3134 0.167412 68 68 70
-11.3828 15.3153 0.167333 70 69 72
-11.3107 15.312 0.167267 67 66 71
-11.2103 15.3172 0.167135 66 65 70
-11.1363 15.3098 0.167081 68 66 71
-11.0603 15.2986 0.167036 65 64 69
-10.9734 15.3227 0.166858 63 62 69
-10.9051 15.3227 0.166786 66 65 73
-10.8349 15.319 0.166724 67 66 72
-10.7396 15.3282 0.166585 68 67 73
-10.6664 15.3188 0.166538 68 67 72
-10.5965 15.3141 0.16648 68 68 70
-10.5017 15.322 0.166346 68 67 72
-10.431 15.315 0.166295 67 66 71
-10.3636 15.3128 0.166232 67 66 71
-10.2922 15.3035 0.166187 67 66 71
-17.6557 15.2574 0.174682 89 85 95
-17.5588 15.2636 0.174549 86 88 101
-17.4235 15.2808 0.174329 88 90 106
-17.311 15.2706 0.174232 80 83 100
-17.2116 15.2724 0.174111 77 85 98
-17.0741 15.2845 0.173905 79 83 96
-16.9708 15.281 0.173798 70 74 93
-16.852 15.2615 0.173724 78 85 102
-16.3881 15.2819 0.17311 78 86 97
-16.2943 15.2835 0.172997 79 87 98
-16.191 15.2747 0.172907 76 84 97
-16.0948 15.2726 0.172804 66 73 89
-15.9734 15.2917 0.172596 76 82 96
-15.8734 15.2842 0.172507 77 83 95
-15.7736 15.2762 0.172419 76 83 94
-15.6487 15.2888 0.172229 76 82 94
-15.5493 15.2798 0.172145 73 79 91
-15.4637 15.2849 0.172031 70 76 90
-15.3366 15.2926 0.171855 70 75 90
-15.2486 15.2938 0.171752 69 78 91
-15.1419 15.2739 0.171696 72 78 92
-15.0302 15.2958 0.171491 72 67 74
-14.94 15.2927 0.1714 74 68 72
-14.8486 15.2876 0.171313 75 69 73
-14.7573 15.2821 0.171228 80 78 85
-14.6331 15.2867 0.171067 74 78 90
-14.558 15.2983 0.170945 72 74 89
-14.4528 15.2748 0.170903 77 81 93
-14.3435 15.2941 0.170712 76 80 92
-14.2558 15.2893 0.170629 77 79 92
-14.1733 15.2902 0.170534 74 78 90
-14.0593 15.3016 0.170363 75 78 90
-13.9759 15.3001 0.170275 71 73 86
-13.8811 15.2844 0.170221 70 73 85
-13.7892 15.3203 0.169995 71 70 84
-13.6897 15.2975 0.169959 72 73 87
-13.6044 15.2912 0.169885 76 76 88
-13.5204 15.2862 0.169808 73 73 85
-13.4201 15.3092 0.169616 71 72 84
-13.3365 15.3033 0.169543 70 70 83
-51.0412 8.80953 0.239586 66 66 68
-51.0655 8.97499 0.239028 81 69 76
-51.0854 9.13997 0.238467 123 100 113
-51.0734 9.29931 0.237884 85 69 85
-50.9832 9.52462 0.236982 136 138 162
-48.0538 10.1858 0.2308 73 74 84
-23.8086 15.2189 0.182251 69 77 98
-23.6477 15.2129 0.182074 82 91 108
-23.4565 15.2362 0.181759 79 88 105
-23.2911 15.2248 0.181594 77 84 102
-23.131 15.2159 0.181428 82 90 107
-22.9646 15.2016 0.181272 82 92 108
-22.7909 15.2316 0.180957 86 98 112
-22.6267 15.2165 0.180807 82 91 106
-22.4742 15.2086 0.180647 79 86 102
-22.3062 15.2387 0.180339 65 71 87
-22.1429 15.2208 0.1802 76 85 101
-21.9879 15.2079 0.180054 72 80 98
-21.8303 15.2419 0.179747 77 85 98
-21.6759 15.2272 0.179609 76 83 99
-21.5314 15.2189 0.179461 76 85 100
-21.3696 15.2461 0.179172 78 87 104
-21.2304 15.2398 0.179025 80 89 106
-21.093 15.2339 0.178878 80 89 103
-20.9621 15.2322 0.178726 80 89 106
-20.8012 15.2555 0.178452 77 86 103
-20.6724 15.2536 0.178303 80 90 102
-20.539 15.2472 0.178164 78 88 100
-20.3851 15.2725 0.177892 89 98 115
-14.3264 10.8186 0.113023 86 94 113
-20.2444 15.2583 0.17777 73 81 100
-14.2058 10.7874 0.113463 86 93 111
-20.1087 15.2472 0.177644 87 96 111
-14.2409 10.9216 0.112569 80 89 104
-19.957 15.2709 0.17738 77 86 101
-19.8372 15.2709 0.177238 80 87 103
-19.1654 15.2458 0.176516 83 91 104
-19.0154 15.2632 0.176277 85 91 107
-18.8971 15.2584 0.176153 80 85 104
-18.773 15.2479 0.176041 83 90 106
-18.6297 15.2678 0.175801 85 92 110
-18.5046 15.2545 0.175697 78 85 103
-18.3917 15.2511 0.175575 80 88 107
-18.2624 15.2806 0.175322 79 88 104
-18.1425 15.2693 0.175218 79 84 101
-18.0198 15.2547 0.175122 120 119 130
-17.8822 15.2736 0.174894 130 127 131
-17.7747 15.2712 0.174776 99 91 93
-12.8597 11.4738 0.111812 78 85 97
-12.7846 11.4718 0.111964 78 84 97
-12.7519 11.512 0.111769 69 75 92
-68.4944 9.09076 0.261602 77 80 86
-63.4035 9.59657 0.2531 69 71 74
-63.3979 9.79538 0.252381 87 85 87
-58.2715 9.81353 0.245553 71 76 79
-51.1167 9.87479 0.235913 152 147 159
-51.1159 10.1185 0.235065 123 89 105
-51.1281 10.2839 0.234494 133 86 95
-47.9233 10.3108 0.230184 73 75 87
-37.3726 14.5746 0.201607 142 141 112
-37.0386 14.6356 0.200971 90 97 107
-36.7093 14.6307 0.200562 87 96 108
-36.4098 14.6363 0.200156 84 92 107
-36.0831 14.6284 0.199762 87 94 111
-35.7762 14.6907 0.199158 90 99 114
-35.4447 14.6763 0.19878 84 93 108
-35.1797 14.6885 0.198397 81 90 105
-34.8461 14.7319 0.197823 85 94 111
-34.5798 14.7398 0.197454 87 96 113
-34.2827 14.7323 0.197098 80 88 107
-34.003 14.7924 0.196537 82 93 107
-33.6976 14.777 0.196198 82 95 111
-33.4562 14.789 0.195847 83 94 112
-33.1678 14.7779 0.195516 78 87 104
-32.8965 14.8332 0.194983 84 93 108
-32.6071 14.8175 0.194667 84 94 109
-32.374 14.8268 0.194336 81 90 107
-32.0837 14.8666 0.193833 80 89 106
-31.8547 14.8746 0.193513 83 92 109
-31.5973 14.8673 0.19321 80 91 108
-31.3259 14.9099 0.192722 87 95 115
-31.0996 14.9144 0.192418 82 90 108
-30.8539 14.9078 0.192128 82 91 108
-30.6083 14.9574 0.191649 78 87 104
-30.381 14.9568 0.191363 87 96 113
-30.1399 14.9476 0.191088 81 90 105
-29.9274 14.9518 0.190804 81 93 109
-29.6705 14.9881 0.190357 76 84 103
-29.4409 14.9802 0.190094 80 89 106
-29.2399 14.9861 0.189819 77 86 103
-29.0137 15.0333 0.189375 81 90 105
-28.8026 15.0309 0.189117 79 88 103
-28.5953 15.0293 0.188861 80 89 106
-28.363 15.0679 0.188438 74 83 101
-28.1527 15.0617 0.188194 69 78 97
-27.9515 15.0592 0.18795 65 75 93
-27.7408 15.1049 0.187531 72 83 101
-27.5315 15.095 0.187301 75 87 104
-27.338 15.0929 0.187066 84 93 110
-27.1586 15.0978 0.186824 84 93 110
-26.9231 15.1226 0.186446 94 102 123
-26.7408 15.1231 0.186216 83 91 112
-26.5673 15.1278 0.185983 84 92 111
-26.3651 15.1677 0.185596 81 92 112
-26.1853 15.1661 0.185377 78 86 105
-26.0159 15.1697 0.185154 85 93 112
-25.7941 15.193 0.184799 83 92 109
-25.6184 15.1902 0.18459 89 96 114
-25.4599 15.1972 0.18437 80 87 105
-25.278 15.1883 0.184174 89 96 114
-25.0725 15.2157 0.183826 65 72 91
-24.9013 15.2111 0.183629 80 87 105
-24.7236 15.2011 0.183443 82 89 107
-24.509 15.2179 0.18312 91 100 119
-24.3403 15.2113 0.182934 84 93 110
-24.1835 15.2114 0.18274 82 90 108
-23.9947 15.2408 0.182407 83 91 111
-63.0635 13.2539 0.23974 75 74 84
-60.5429 13.2978 0.236256 74 74 85
-59.786 13.4174 0.234855 74 75 84
-59.0291 13.4346 0.233795 71 77 89
-58.2765 13.4481 0.232754 70 76 88
-57.5149 13.548 0.231417 73 79 91
-56.8253 13.5664 0.230443 73 78 93
-56.1265 13.5781 0.229481 75 79 95
-55.4359 13.6778 0.228238 74 82 93
-54.771 13.6885 0.227324 74 82 93
-54.1123 13.6966 0.226428 76 81 95
-53.4885 13.7973 0.22527 74 82 97
-52.8636 13.8054 0.224419 74 81 97
-52.2294 13.807 0.223579 72 79 95
-51.669 13.8249 0.222779 70 77 95
-51.0526 13.9078 0.221693 69 81 95
-50.4756 13.9131 0.220917 73 79 95
-49.903 13.9159 0.220155 74 80 94
-49.3262 13.9957 0.219132 75 81 95
-48.7909 14.0015 0.218409 76 82 95
-48.2446 14.0007 0.217696 78 82 94
-47.715 14.0809 0.216734 78 84 96
-47.2078 14.0845 0.216057 77 83 95
-46.7087 14.0875 0.215393 78 82 94
-46.1775 14.0772 0.214733 82 86 98
-45.7466 14.1721 0.21385 76 82 96
-45.2716 14.1728 0.213226 75 82 98
-44.8103 14.1751 0.212615 75 83 96
-44.3272 14.2419 0.211762 77 87 99
-43.9065 14.2512 0.21118 83 91 104
-43.4767 14.2548 0.210606 82 89 104
-43.0004 14.3128 0.209793 81 88 105
-42.6074 14.323 0.209245 84 93 108
-42.1675 14.3143 0.208702 79 89 103
-41.7527 14.383 0.207932 84 94 106
-41.3589 14.3848 0.207413 79 91 107
-40.9617 14.3829 0.206903 82 92 109
-40.6099 14.3951 0.206403 87 95 113
-38.0292 14.5723 0.202464 78 106 112
-37.7174 14.5811 0.20203 67 97 108
-8.03452 15.2607 0.0923103 71 69 72
-7.97765 15.2638 0.0923297 71 69 72
-7.89128 15.2642 0.0923765 73 73 73
-7.83694 15.2722 0.0923565 73 73 73
-7.77079 15.2525 0.0925425 73 73 73
-7.70953 15.2436 0.0926475 71 71 73
-7.63298 15.2647 0.092535 71 71 71
-7.57037 15.2516 0.0926695 71 71 71
-7.51476 15.2548 0.0926814 73 73 73
-7.43751 15.2731 0.092586 71 71 72
-7.37673 15.2629 0.0926959 73 73 74
-7.32127 15.2655 0.0927103 72 72 74
-7.23751 15.2662 0.0927423 73 73 74
-7.17782 15.257 0.0928414 70 69 71
-7.12329 15.2608 0.0928442 73 71 74
-7.04555 15.2754 0.0927693 72 72 74
-6.98472 15.2618 0.0928989 72 72 74
-6.93243 15.2705 0.092863 72 72 73
-6.84858 15.2672 0.0929163 73 73 75
-6.79156 15.2623 0.0929794 70 70 72
-6.73462 15.2572 0.0930432 72 72 74
-6.68047 15.2594 0.0930517 74 74 74
-6.59974 15.2624 0.0930546 73 73 72
-6.54569 15.2642 0.0930653 71 70 71
-6.48842 15.2563 0.093146 71 71 72
-6.40732 15.2564 0.0931665 75 75 75
-6.35599 15.2651 0.0931235 75 75 77
-6.30152 15.2641 0.0931508 74 74 76
-6.22253 15.269 0.0931327 73 71 74
-6.17002 15.2732 0.0931195 71 71 73
-6.11207 15.2602 0.0932335 72 72 76
-6.0345 15.2679 0.0931906 72 71 76
-5.98033 15.2658 0.0932225 73 72 77
-5.92683 15.2655 0.0932405 79 77 80
-12.0692 15.26 0.0881847 76 76 84
-11.9689 15.2714 0.0882364 71 71 79
-11.8915 15.2638 0.0883916 71 71 77
-11.812 15.2527 0.0885731 74 77 80
-11.7122 15.2626 0.0886305 77 76 81
-11.6353 15.2539 0.0887901 74 73 78
-11.563 15.2516 0.0888998 70 68 74
-11.5031 15.2672 0.0888711 68 67 72
-11.4004 15.2703 0.0889733 72 72 74
-11.3307 15.2703 0.0890614 71 70 74
-11.2654 15.2767 0.0890998 71 70 76
-11.1675 15.2851 0.0891565 67 66 74
-11.0906 15.2724 0.0893382 68 67 73
-11.0191 15.2678 0.0894572 68 68 70
-10.9303 15.2882 0.0894164 67 68 70
-10.8538 15.2744 0.0896022 66 67 69
-10.7838 15.2706 0.0897122 71 70 75
-10.6889 15.2795 0.0897537 71 70 75
-10.6233 15.2818 0.0898143 69 68 73
-10.5547 15.2786 0.0899151 69 69 71
-10.4821 15.2684 0.0900689 68 68 70
-10.3867 15.2739 0.0901296 68 67 72
-10.3256 15.2819 0.090143 69 68 73
-10.2494 15.2638 0.0903526 70 69 74
-9.8052 15.2764 0.0907211 67 68 71
-9.71782 15.2902 0.0907042 67 68 73
-9.64871 15.28 0.0908458 68 67 72
-9.58167 15.2729 0.0909622 69 68 74
-9.52619 15.2867 0.0909205 69 68 73
-9.42875 15.2797 0.0910552 70 69 74
-9.3677 15.2824 0.0910954 70 69 74
-9.30486 15.2813 0.0911628 69 69 71
-9.21904 15.2943 0.0911428 69 69 69
-9.15454 15.2891 0.091239 69 69 70
-9.08287 15.2694 0.0914428 70 70 70
-8.99918 15.2848 0.0914005 72 72 70
-8.93773 15.284 0.0914603 71 71 73
-8.87816 15.2867 0.0914938 68 68 69
-8.78226 15.2759 0.0916431 69 69 71
-8.72287 15.278 0.0916792 70 70 74
-8.66007 15.2726 0.0917696 71 70 75
-8.60082 15.2743 0.0918074 71 70 75
-8.51509 15.2817 0.0918147 75 73 74
-8.456 15.2828 0.0918542 77 72 77
-8.39104 15.271 0.0919894 75 71 72
-8.30562 15.2773 0.0920008 78 73 70
-8.25345 15.2922 0.0919349 73 70 70
-8.18966 15.2814 0.0920598 71 71 73
-8.10287 15.2831 0.0921019 70 70 72
-29.6046 10.5661 0.0766291 85 92 110
-29.2281 10.5249 0.0778501 89 96 114
-29.0334 10.5508 0.0782434 81 88 105
-28.6842 10.565 0.0791157 85 94 109
-16.8961 15.2474 0.0804519 71 77 89
-16.796 15.2457 0.0806497 68 75 89
-16.3524 15.2366 0.0815218 65 70 83
-16.2265 15.2529 0.0816422 78 82 96
-16.1303 15.2509 0.0818294 69 73 88
-16.0371 15.2513 0.0819947 72 76 92
-15.909 15.2627 0.0821464 72 74 89
-15.8037 15.249 0.0824217 79 83 94
-15.7096 15.2465 0.0826047 74 78 89
-15.5849 15.2587 0.0827411 74 78 90
-15.487 15.2507 0.0829637 73 76 88
-15.3962 15.2496 0.083129 78 80 95
-15.2694 15.2568 0.0832968 79 78 92
-15.1829 15.2591 0.0834307 77 80 93
-15.0872 15.2507 0.0836492 76 75 88
-14.9769 15.2255 0.0840006 72 66 76
-14.867 15.2479 0.0840358 73 68 73
-14.7785 15.2455 0.0842005 66 60 69
-14.6928 15.2456 0.0843431 72 74 86
-14.5819 15.2648 0.0843968 71 75 87
-14.49 15.2565 0.0846027 70 73 88
-14.3981 15.2478 0.0848106 71 75 87
-14.2865 15.2637 0.0848832 72 76 88
-14.2002 15.2601 0.0850464 73 77 86
-14.1038 15.2439 0.0853082 72 76 85
-13.9952 15.261 0.0853631 71 72 84
-13.9171 15.2654 0.0854587 70 69 83
-13.8213 15.2478 0.0857261 72 76 88
-13.7346 15.2406 0.0859101 70 72 84
-13.6217 15.2493 0.0860224 72 74 87
-13.5528 15.263 0.0860388 73 73 85
-13.4541 15.2389 0.0863503 70 72 84
-13.338 15.2411 0.0865061 72 75 84
-13.2695 15.2537 0.0865268 73 76 83
-13.1789 15.2377 0.0867702 74 74 84
-13.0939 15.2777 0.0866241 69 69 81
-13.0049 15.2624 0.0868587 72 72 83
-12.927 15.261 0.0869834 71 71 79
-12.824 15.2757 0.0870282 73 71 82
-12.7415 15.2671 0.0872058 70 68 81
-12.6617 15.2614 0.0873597 71 71 83
-12.5784 15.2504 0.0875524 67 67 79
-12.4819 15.2712 0.0875428 73 72 83
-12.4025 15.2643 0.0877015 71 70 81
-12.3267 15.2619 0.0878238 68 66 78
-12.2212 15.2683 0.08792 74 73 79
-12.1434 15.2619 0.0880707 75 74 80
-23.0418 15.2026 0.067959 76 84 103
-22.8869 15.1957 0.0683489 81 89 107
-22.6954 15.2121 0.0686813 79 88 105
-22.5476 15.2079 0.0690367 79 91 105
-22.3984 15.2018 0.0694058 83 93 107
-22.2304 15.2312 0.0696044 77 85 102
-22.0752 15.2185 0.0700226 75 84 99
-21.9332 15.2145 0.0703594 75 83 101
-21.7579 15.2347 0.0706233 79 90 107
-21.6036 15.2194 0.071052 80 91 109
-21.4719 15.2202 0.0713347 80 91 111
-21.3182 15.2033 0.0717696 73 84 104
-21.1551 15.2278 0.0719751 84 94 112
-21.0242 15.2262 0.0722669 72 81 100
-20.8886 15.2203 0.0725935 76 83 102
-20.7263 15.2418 0.0728104 74 86 102
-20.5865 15.2305 0.073176 71 80 97
-20.458 15.2273 0.0734684 70 79 96
-20.298 15.247 0.073686 71 78 96
-20.173 15.2448 0.0739628 72 81 98
-20.0358 15.2318 0.0743292 71 80 97
-19.875 15.2473 0.0745689 69 76 94
-19.7538 15.2455 0.0748323 56 61 80
-19.212 15.2305 0.0760376 75 82 100
-19.0904 15.224 0.0763253 72 84 100
-18.9436 15.2434 0.0765014 75 81 97
-18.8269 15.2395 0.0767611 68 76 92
-18.7075 15.2323 0.0770456 66 75 92
-18.5703 15.257 0.0771648 75 84 101
-18.4498 15.2472 0.0774656 77 86 103
-18.331 15.2382 0.0777578 66 77 94
-18.1974 15.2631 0.0778639 69 82 97
-18.0835 15.2567 0.0781274 90 99 108
-17.9639 15.2444 0.0784385 105 111 108
-17.8593 15.2451 0.0786389 132 133 128
-17.7162 15.2574 0.0788359 101 93 102
-17.6002 15.2459 0.0791319 86 84 98
-17.4976 15.2461 0.0793278 68 75 88
-17.3581 15.2587 0.0795114 78 82 96
-17.253 15.2551 0.0797348 74 81 96
-17.148 15.2509 0.0799601 70 78 93
-17.0121 15.2639 0.0801298 77 83 95
-50.9357 9.63591 0.0209338 66 66 81
-48 10.2849 0.0264772 74 73 87
-33.0057 14.7732 0.0459805 83 95 111
-32.7216 14.8209 0.0464656 79 91 107
-32.4682 14.821 0.0471167 82 91 108
-32.2098 14.817 0.047801 91 100 117
-31.9446 14.8674 0.0482159 82 91 108
-31.6796 14.8566 0.0489502 83 92 107
-31.458 14.8656 0.0494665 85 93 109
-31.1829 14.905 0.0499587 70 76 94
-30.9815 14.921 0.0503832 82 89 108
-30.709 14.8996 0.0511879 83 90 108
-30.485 14.9013 0.0517443 86 93 114
-30.2467 14.9516 0.0520754 95 104 121
-30.0037 14.9403 0.052747 89 97 117
-29.8071 14.9518 0.0531768 79 87 106
-29.5431 14.9831 0.0536697 79 88 103
-29.3223 14.9788 0.0542434 82 91 106
-29.1106 14.978 0.0547741 85 94 111
-28.8845 15.024 0.0550853 87 97 114
-28.6628 15.0147 0.0556839 78 87 105
-28.466 15.0179 0.0561523 84 96 112
-28.2319 15.0543 0.0565295 82 94 110
-28.0165 15.044 0.0571144 77 89 105
-27.824 15.0455 0.0575774 74 86 100
-27.6525 15.0578 0.0579274 82 93 108
-27.4091 15.0821 0.0583864 81 90 107
-27.2451 15.0962 0.0587058 82 90 109
-27.0467 15.0892 0.0592255 79 87 106
-26.8129 15.1138 0.0596529 84 92 111
-26.6443 15.1217 0.0600142 86 97 115
-26.4468 15.1111 0.0605475 82 93 111
-26.2686 15.1646 0.0606739 82 91 106
-26.0717 15.1516 0.0612164 75 87 103
-25.9092 15.1587 0.0615631 76 88 104
-25.6907 15.183 0.0619439 80 90 108
-25.5168 15.1805 0.0623692 75 85 104
-25.3499 15.1813 0.0627577 86 96 114
-25.1596 15.1662 0.0632913 84 94 112
-24.9828 15.211 0.0634501 76 84 103
-24.8082 15.2034 0.063901 86 98 114
-24.6055 15.1763 0.0645287 77 90 107
-24.426 15.2151 0.064722 80 92 109
-24.2457 15.2 0.0652262 78 90 106
-24.079 15.1928 0.0656522 75 84 101
-23.9019 15.2291 0.0658489 71 82 102
-23.7209 15.2098 0.0663755 76 87 105
-23.555 15.1996 0.066813 81 92 110
-23.3779 15.1807 0.0673265 78 89 107
-23.2019 15.2122 0.0675413 80 91 109
-63.4579 9.76793 -0.0158498 70 70 79
-58.267 9.95793 -0.00163125 67 67 74
-48.5258 14.038 0.00766207 77 80 95
-48.0191 14.0465 0.00902977 79 82 97
-47.4658 14.1167 0.0102431 78 84 96
-46.9619 14.1189 0.0116284 79 85 97
-46.4698 14.1217 0.0129766 79 85 97
-45.9763 14.1209 0.0143439 80 88 101
-45.5257 14.2072 0.0151823 75 83 95
-45.0369 14.2012 0.0165579 82 88 102
-44.5884 14.2054 0.0177706 78 84 98
-44.1161 14.2734 0.0187481 80 90 102
-43.7045 14.2837 0.0198258 82 92 104
-43.2705 14.2838 0.0210127 80 87 103
-42.8201 14.3484 0.0219375 81 91 103
-42.4021 14.348 0.0230795 84 94 106
-41.9977 14.3498 0.0241716 80 89 104
-41.6144 14.3566 0.0251798 77 86 101
-41.1975 14.4196 0.026009 73 82 97
-40.8037 14.4172 0.0270879 81 88 104
-40.4234 14.4172 0.0281159 80 87 103
-38.2092 14.5273 0.0335327 105 126 131
-37.8498 14.5844 0.0342102 93 110 111
-37.4988 14.5758 0.0351888 105 113 115
-37.1871 14.5811 0.0359911 87 89 84
-36.874 14.5837 0.0368092 83 93 103
-36.5326 14.6375 0.0374454 82 91 108
-36.2109 14.6321 0.0383234 84 92 109
-35.9006 14.6296 0.0391555 84 91 107
-35.5731 14.6813 0.0397573 87 96 109
-35.2985 14.6898 0.0404347 81 90 107
-35.0112 14.6912 0.0411811 85 93 110
-34.6811 14.7343 0.041827 90 97 115
-34.3982 14.7334 0.0425698 82 89 108
-34.1266 14.7359 0.0432648 94 101 119
-33.8085 14.777 0.0438823 81 90 107
-33.5484 14.7808 0.0445362 87 96 112
-33.2742 14.7765 0.0452691 80 89 104
-7.96389 11.5374 0.0237554 70 68 74
-7.91074 11.5307 0.0240873 69 67 72
-7.87659 11.5567 0.0238993 71 69 72
-7.83994 11.6206 0.0232123 68 67 73
-69.0114 10.8622 -0.0366292 75 74 81
-67.8754 12.3998 -0.0399645 68 71 83
-66.2682 13.0506 -0.0381936 66 68 82
-65.304 13.1697 -0.0359343 75 77 90
-64.2433 13.1566 -0.0328396 77 75 88
-63.4984 13.2041 -0.0309223 78 78 88
-62.6157 13.3177 -0.0288866 76 72 86
-60.9637 13.3501 -0.0243216 80 79 93
-60.1814 13.3685 -0.0221766 75 75 87
-59.361 13.4691 -0.0202765 74 76 88
-58.6264 13.4877 -0.0182747 74 77 90
-57.8708 13.4967 -0.016172 76 80 92
-57.1334 13.598 -0.0145245 74 80 94
-56.4002 13.602 -0.0124682 75 84 96
-55.7588 13.6245 -0.0107582 74 82 95
-55.0342 13.7115 -0.00909395 71 81 93
-54.4169 13.731 -0.00744394 72 82 94
-53.7555 13.7351 -0.00559999 75 84 97
-53.1719 13.7558 -0.00405364 75 83 97
-52.5206 13.8407 -0.00260248 75 84 99
-51.932 13.8517 -0.00100273 72 82 94
-51.3516 13.8612 0.000579468 75 83 95
-50.7344 13.9404 0.00195043 76 82 96
-50.1607 13.9437 0.00353858 76 82 96
-49.597 13.9463 0.00509982 76 84 97
-49.0349 14.027 0.00629841 77 83 97
-14.3861 10.8227 -0.00768216 87 96 112
-14.3098 10.829 -0.00717749 95 103 120
-14.2841 10.8774 -0.00750657 83 94 112
-12.9299 11.4589 -0.00424842 78 85 101
-12.866 11.4685 -0.00391991 77 84 100
-12.8026 11.5142 -0.00401213 78 85 98
-12.7979 11.5828 -0.00476943 74 81 94
-7.98919 11.5848 -0.0233206 69 69 71
-7.92906 11.566 -0.0226372 70 71 71
-7.88895 11.5817 -0.022641 69 69 72
-7.85668 11.6111 -0.0229194 68 67 73
-28.9477 10.5401 -0.131677 77 86 101
-14.377 10.9009 -0.0672819 71 82 99
-14.2853 10.8941 -0.066267 71 82 99
-12.9495 11.5668 -0.0624083 67 76 93
-12.8081 11.535 -0.0606551 81 91 103
-12.7921 11.5923 -0.0613111 75 85 97
-15.2871 15.2501 -0.0641099 67 70 87
-15.1699 15.2669 -0.0635519 73 77 89
-15.0715 15.2555 -0.0627808 75 70 82
-14.9786 15.2495 -0.062113 75 65 74
-14.8607 15.2629 -0.0615213 74 68 72
-14.7708 15.259 -0.0609018 69 67 75
-14.6785 15.2516 -0.0602283 69 73 85
-14.561 15.2631 -0.0596294 69 76 89
-14.4769 15.2638 -0.0591099 71 76 90
-14.3851 15.255 -0.0584308 70 73 86
-14.2708 15.2677 -0.0578775 73 75 88
-14.1807 15.2594 -0.0572207 73 77 88
-14.0959 15.2569 -0.0566681 71 75 87
-14.0035 15.2448 -0.0559551 72 76 88
-13.895 15.2613 -0.0554985 69 70 83
-13.8119 15.259 -0.0549673 72 76 87
-13.7277 15.2549 -0.0544078 72 74 86
-13.6222 15.2728 -0.053998 71 73 85
-13.5371 15.2662 -0.0534088 73 72 84
-13.4533 15.2608 -0.0528444 74 73 84
-13.3445 15.2723 -0.0523485 71 71 81
-13.2623 15.2676 -0.0518075 69 72 81
-13.1765 15.2578 -0.0511849 71 71 83
-13.0719 15.2725 -0.0507628 69 69 81
-12.9951 15.2729 -0.0503237 67 67 79
-12.9098 15.2618 -0.049696 70 70 82
-12.8308 15.2584 -0.0492004 69 69 80
-12.7256 15.2694 -0.0487437 70 68 79
-12.6516 15.2715 -0.048352 70 68 79
-12.5659 15.2573 -0.0476912 68 68 78
-12.4682 15.2764 -0.0473893 66 69 78
-12.3887 15.2694 -0.0468592 68 70 79
-12.3059 15.2572 -0.0462471 65 65 75
-12.2097 15.2764 -0.0459665 68 67 78
-12.133 15.2715 -0.0454856 69 67 78
-12.0587 15.2695 -0.0450572 70 69 75
-11.9572 15.2791 -0.0446366 67 66 72
-11.882 15.2748 -0.0441783 70 69 75
-11.8048 15.2669 -0.043665 69 66 74
-11.7299 15.2619 -0.0432044 69 68 76
-11.6334 15.2762 -0.0428842 63 62 70
-11.5577 15.2688 -0.0423933 65 65 70
-11.4811 15.2595 -0.0418745 64 67 74
-11.3861 15.274 -0.0415759 62 65 70
-11.3108 15.2656 -0.0410808 66 67 71
-11.2412 15.2652 -0.0407203 66 65 70
-11.1465 15.2784 -0.0404166 62 61 69
-11.076 15.2757 -0.040026 64 65 70
-11.0067 15.2743 -0.0396617 63 65 70
-10.9071 15.2777 -0.039217 64 65 69
-10.8348 15.2706 -0.0387681 64 63 68
-10.7679 15.2717 -0.0384544 65 64 72
-10.6949 15.2623 -0.0379758 65 65 75
-10.6063 15.281 -0.0377972 67 66 72
-10.5304 15.2658 -0.0372343 67 67 70
-10.4671 15.2708 -0.0369975 69 69 71
-10.3778 15.2865 -0.0367867 68 67 72
-10.3054 15.2754 -0.0363018 69 68 73
-10.2403 15.2762 -0.0360069 68 67 72
-9.85514 15.2804 -0.0343193 67 66 71
-9.78573 15.2707 -0.0338802 68 67 72
-9.72422 15.2746 -0.0336599 65 64 70
-9.63204 15.2793 -0.0333242 69 69 71
-9.56877 15.2791 -0.0330466 67 67 69
-9.50655 15.2805 -0.032796 69 68 73
-9.41191 15.2786 -0.032373 70 70 73
-9.3508 15.2812 -0.0321473 69 69 73
-9.2851 15.2747 -0.0317826 69 68 73
-9.19924 15.2875 -0.0316035 69 68 73
-9.13744 15.2875 -0.0313471 68 67 72
-9.06751 15.2712 -0.0308408 69 69 72
-8.98646 15.2918 -0.0307958 70 70 70
-8.91952 15.2803 -0.0303701 69 68 73
-8.86168 15.2864 -0.0302204 69 68 74
-8.79323 15.2708 -0.0297375 69 68 73
-8.70712 15.2792 -0.0295206 71 68 75
-8.64335 15.2719 -0.0291736 72 70 76
-8.58492 15.2753 -0.0289928 70 69 75
-8.49995 15.2843 -0.0287995 79 76 77
-8.43993 15.2835 -0.0285611 78 76 76
-8.37745 15.2771 -0.0282382 79 75 72
-8.29106 15.2814 -0.0279852 75 69 71
-8.22963 15.2762 -0.0276876 74 72 73
-8.17079 15.2762 -0.0274732 71 69 70
-8.08228 15.274 -0.0271323 71 71 73
-8.01872 15.2625 -0.0267479 70 70 72
-7.96179 15.2654 -0.0265863 70 70 72
-7.90329 15.2645 -0.0263677 71 71 73
-7.81769 15.2663 -0.0261052 71 71 71
-7.76016 15.2667 -0.0259129 69 69 71
-7.70189 15.265 -0.0256915 73 73 73
-7.61971 15.2731 -0.0255371 71 69 70
-7.56161 15.2709 -0.0253141 69 67 70
-7.50205 15.2648 -0.0250338 69 68 73
-7.41787 15.2664 -0.0247918 68 67 72
-7.36228 15.269 -0.0246503 70 68 73
-7.30227 15.2603 -0.024339 74 72 75
-7.22059 15.2664 -0.0241771 72 72 74
-7.16445 15.2665 -0.0240048 70 69 74
-7.10836 15.2664 -0.0238314 73 73 78
-7.05018 15.2605 -0.0235727 71 70 75
-6.97024 15.269 -0.0234628 72 71 76
-6.91015 15.257 -0.0231177 72 72 74
-6.85503 15.2579 -0.0229691 70 70 72
-6.77327 15.2598 -0.0227709 70 70 72
-6.71692 15.2565 -0.022564 73 71 74
-6.66133 15.2548 -0.0223846 72 71 73
-6.58183 15.2614 -0.0222677 72 72 73
-6.52637 15.2592 -0.0220865 71 71 73
-6.47491 15.2682 -0.0220748 73 72 74
-6.39684 15.2777 -0.0220112 73 73 73
-6.34026 15.2711 -0.021771 74 74 76
-6.28124 15.2568 -0.0214165 77 76 78
-6.20589 15.2728 -0.0214629 75 75 75
-6.14895 15.2637 -0.0211917 75 75 75
-6.09518 15.2638 -0.0210616 77 75 78
-6.04026 15.26 -0.0208744 75 73 76
-5.96141 15.2635 -0.0207459 75 73 78
-5.91253 15.2783 -0.0208409 75 75 77
-22.036 15.2111 -0.112902 71 80 97
-21.8861 15.2011 -0.111612 83 92 109
-21.7237 15.1808 -0.110119 83 92 109
-21.5633 15.2106 -0.109161 70 79 96
-21.4143 15.198 -0.107861 81 90 108
-21.2798 15.1955 -0.106783 83 92 109
-21.1106 15.2149 -0.105663 76 85 100
-20.9908 15.2218 -0.104803 72 81 98
-20.8538 15.2147 -0.103666 75 84 101
-20.6885 15.2334 -0.102585 79 91 107
-20.5583 15.2296 -0.101541 81 89 108
-20.4267 15.2238 -0.100469 70 78 97
-20.259 15.2371 -0.0993266 78 87 102
-20.1342 15.2348 -0.0983496 73 85 102
-20.0064 15.2293 -0.0973196 70 82 98
-19.8805 15.2245 -0.0963124 77 86 103
-19.1939 15.2365 -0.0912889 74 83 101
-19.0632 15.2222 -0.0901634 72 80 98
-18.9256 15.2492 -0.08944 79 88 105
-18.7999 15.2374 -0.0883847 77 87 104
-18.6941 15.2421 -0.087658 78 88 106
-18.542 15.2535 -0.0866704 82 90 109
-18.426 15.2476 -0.08576 79 87 106
-18.3118 15.2425 -0.084873 68 80 95
-18.1829 15.2234 -0.0837281 73 80 98
-18.0585 15.2555 -0.0831873 119 119 121
-17.9419 15.2458 -0.0822417 126 124 126
-17.8358 15.245 -0.0814729 126 124 123
-17.6899 15.2545 -0.0805392 96 93 103
-17.5857 15.2538 -0.0797914 77 80 95
-17.4715 15.2431 -0.0788615 73 80 96
-17.3335 15.2569 -0.0780466 73 79 96
-17.227 15.2518 -0.0772405 71 78 96
-17.1177 15.2434 -0.0763805 67 76 93
-17.0005 15.2743 -0.0759176 79 89 101
-16.8846 15.2577 -0.0749241 77 87 99
-16.3339 15.2395 -0.0709397 74 79 94
-16.2052 15.2529 -0.0702251 69 75 90
-16.1021 15.2436 -0.0694224 66 73 88
-16.0089 15.2439 -0.0687999 71 77 93
-15.8864 15.2609 -0.0681813 66 71 88
-15.7921 15.2587 -0.0675285 69 77 90
-15.6788 15.2358 -0.066509 69 79 91
-15.5665 15.2609 -0.066065 74 77 94
-15.466 15.25 -0.0652757 69 72 89
-15.3833 15.2576 -0.0648241 70 73 90
-29.741 14.9374 -0.175237 83 92 109
-29.5038 14.9826 -0.173545 84 92 111
-29.2797 14.9765 -0.171523 80 89 108
-29.0595 14.971 -0.169545 79 91 107
-28.8442 15.0226 -0.168121 78 88 105
-28.6264 15.0153 -0.166155 85 94 111
-28.4315 15.0194 -0.164497 82 91 108
-28.2108 15.0079 -0.162474 89 98 115
-27.9912 15.0506 -0.160955 80 92 108
-27.7971 15.0511 -0.159283 79 91 107
-27.612 15.0555 -0.157726 83 95 111
-27.3862 15.0897 -0.156095 80 91 109
-27.2033 15.0928 -0.154553 80 91 109
-27.0052 15.0857 -0.15279 85 94 111
-26.794 15.1236 -0.151335 86 95 113
-26.6084 15.1213 -0.149732 80 88 108
-26.43 15.1221 -0.148222 79 88 107
-26.2008 15.1443 -0.146484 89 97 115
-26.0399 15.1532 -0.145208 72 83 101
-25.8588 15.1487 -0.143637 81 92 112
-25.6899 15.1506 -0.142232 74 86 102
-25.494 15.1873 -0.140935 76 87 105
-25.3273 15.1882 -0.139546 77 88 106
-25.1456 15.1785 -0.137935 77 89 105
-24.9437 15.207 -0.136525 76 88 104
-24.7543 15.1896 -0.134782 78 87 104
-24.5852 15.1843 -0.133329 80 89 107
-24.3943 15.2154 -0.132051 85 97 113
-24.2208 15.2047 -0.130516 83 92 109
-24.0393 15.1875 -0.128855 76 81 101
-23.8459 15.2125 -0.127513 77 85 104
-23.6617 15.1908 -0.125793 78 86 104
-23.4994 15.1829 -0.12439 72 82 99
-23.3373 15.174 -0.122984 76 89 105
-23.1631 15.2065 -0.121894 77 88 106
-22.9983 15.1935 -0.120431 74 85 103
-22.8371 15.1818 -0.119013 81 89 108
-22.6604 15.2086 -0.11786 68 77 94
-22.5144 15.2055 -0.116658 76 83 101
-22.3572 15.1934 -0.115279 75 82 101
-22.1765 15.2133 -0.114039 66 75 92
-51.0086 9.41566 -0.338612 68 67 81
-48.0239 10.3007 -0.314343 72 76 88
-38.8199 14.5141 -0.254508 82 93 104
-38.446 14.5035 -0.250935 79 90 106
-38.1171 14.5083 -0.247907 92 101 115
-37.7959 14.5142 -0.244963 80 88 97
-37.4505 14.574 -0.24221 84 94 105
-37.0967 14.5621 -0.238834 86 94 110
-36.7969 14.5701 -0.23612 85 94 111
-36.4488 14.6207 -0.233292 85 92 108
-36.1552 14.627 -0.230633 85 92 110
-35.8233 14.6152 -0.22748 79 88 105
-35.5092 14.6724 -0.225041 78 87 103
-35.2001 14.6659 -0.22215 79 88 105
-34.9243 14.672 -0.219672 78 87 104
-34.6021 14.7182 -0.21709 79 88 103
-34.3306 14.7222 -0.214644 78 87 102
-34.0393 14.7157 -0.211935 80 89 104
-33.7703 14.7174 -0.2095 80 89 104
-33.473 14.7655 -0.207189 81 88 106
-33.2046 14.7637 -0.204741 75 84 101
-32.9456 14.7646 -0.202403 89 98 113
-32.6601 14.8114 -0.20021 84 93 108
-32.4053 14.8106 -0.197907 82 91 108
-32.1778 14.8214 -0.195951 85 94 111
-31.8878 14.8596 -0.193664 94 103 120
-31.6303 14.8524 -0.191296 81 91 109
-31.4073 14.8605 -0.18937 80 88 107
-31.1343 14.9008 -0.187273 82 90 109
-30.8958 14.8979 -0.185124 80 88 107
-30.6807 14.9054 -0.183276 81 89 108
-30.4391 14.8981 -0.181069 81 90 105
-30.2012 14.9484 -0.179396 81 92 110
-29.9674 14.9417 -0.177271 82 93 110
-58.2787 9.77806 -0.412852 74 74 80
-50.5483 13.8976 -0.361986 77 83 97
-49.9736 13.9004 -0.356447 78 86 97
-49.3918 13.8975 -0.350805 80 84 98
-48.8385 13.9802 -0.346008 77 83 95
-48.3227 13.9888 -0.341097 78 84 95
-47.8073 13.9944 -0.336174 80 87 98
-47.3211 14.0056 -0.331574 79 83 94
-46.7827 14.0758 -0.326874 83 87 99
-46.2972 14.0803 -0.32225 80 84 96
-45.8236 14.0856 -0.317748 84 90 102
-45.3302 14.1576 -0.313521 82 86 100
-44.8727 14.1614 -0.309176 81 84 101
-44.4174 14.163 -0.304843 84 87 102
-43.9782 14.2415 -0.301206 84 90 102
-43.5143 14.2339 -0.296738 77 85 96
-43.1038 14.2417 -0.292892 79 87 98
-42.66 14.3079 -0.289149 80 89 104
-42.2521 14.3107 -0.285306 81 89 106
-41.8541 14.3145 -0.281566 87 92 110
-41.4564 14.3159 -0.277818 80 89 105
-41.031 14.3751 -0.274232 84 91 109
-40.6548 14.3787 -0.270714 83 91 106
-40.2939 14.3857 -0.26737 81 91 104
-39.8865 14.4419 -0.263955 86 93 111
-39.5581 14.4559 -0.260982 78 87 105
-68.4722 9.26114 -0.511815 75 79 93
-63.3856 9.75426 -0.463591 102 81 90
-66.9235 12.9656 -0.516798 121 123 125
-66.0065 12.9956 -0.507907 72 75 90
-65.048 13.1154 -0.499119 70 76 88
-64.1848 13.1436 -0.490767 74 76 91
-63.3044 13.1628 -0.482199 75 77 92
-62.4577 13.1837 -0.473982 74 77 92
-59.9486 13.3182 -0.450094 77 77 89
-59.1881 13.4322 -0.443308 76 78 90
-58.4121 13.4411 -0.435752 76 78 90
-57.6559 13.4498 -0.428397 78 81 93
-56.9063 13.5477 -0.421654 75 83 94
-56.2404 13.5682 -0.415272 74 82 95
-55.5439 13.5768 -0.408523 76 84 95
-54.8634 13.6745 -0.402487 74 84 96
-54.2143 13.6857 -0.396232 72 82 94
-53.5753 13.6955 -0.390073 74 82 98
-52.9831 13.7137 -0.38443 73 81 96
-52.3466 13.8021 -0.378804 75 82 100
-51.7379 13.8074 -0.372931 76 83 101
-51.1662 13.8192 -0.367466 75 82 98
-29.0058 10.604 -0.234811 79 88 104
-14.7682 15.2855 -0.131815 73 75 84
-14.6771 15.2795 -0.130946 68 74 88
-14.5689 15.3015 -0.130345 70 72 85
-14.4782 15.2946 -0.129472 74 73 87
-14.3903 15.2903 -0.128664 72 74 87
-14.2974 15.2795 -0.127721 72 74 86
-14.191 15.3007 -0.127145 68 74 86
-14.0946 15.2844 -0.126098 69 75 87
-14.0163 15.2891 -0.125517 70 74 86
-13.9091 15.3071 -0.124901 68 73 85
-13.8133 15.2894 -0.123848 69 72 84
-13.7341 15.2913 -0.123229 69 71 84
-13.6298 15.3108 -0.122673 74 75 87
-13.5409 15.2994 -0.121783 72 75 84
-13.4572 15.294 -0.121025 72 75 84
-13.3434 15.2992 -0.120194 71 69 85
-13.2661 15.3007 -0.1196 72 74 86
-13.1804 15.2909 -0.11877 72 74 86
-13.0998 15.287 -0.118072 69 70 82
-12.9929 15.2979 -0.117402 74 74 86
-12.9258 15.3107 -0.117071 70 70 82
-12.8371 15.2945 -0.116133 70 72 84
-12.7342 15.3086 -0.115558 71 71 81
-12.6579 15.3076 -0.114954 71 71 81
-12.5829 15.3078 -0.114382 70 70 80
-12.4745 15.3123 -0.113631 69 69 79
-12.3985 15.3102 -0.113023 70 70 80
-12.3157 15.2979 -0.11221 72 72 84
-12.2218 15.3204 -0.11186 70 70 82
-12.1393 15.3074 -0.111044 70 70 80
-12.0662 15.307 -0.110497 68 68 77
-11.9909 15.3031 -0.109881 69 69 79
-11.8895 15.3123 -0.109286 69 68 76
-11.8111 15.3027 -0.108566 69 70 74
-11.7363 15.2977 -0.107946 63 64 69
-11.6431 15.3169 -0.107583 71 72 76
-11.5619 15.3013 -0.106756 71 73 78
-11.4896 15.2986 -0.1062 69 72 77
-11.4013 15.3231 -0.105969 68 69 74
-11.3227 15.3097 -0.105205 67 68 73
-11.2519 15.3077 -0.104679 68 67 72
-11.1562 15.3192 -0.104204 70 69 74
-11.0749 15.2996 -0.103334 68 67 73
-11.0024 15.2932 -0.102736 70 68 75
-10.9375 15.2983 -0.102375 68 66 73
-10.8434 15.3097 -0.101927 69 69 71
-10.7765 15.3108 -0.101496 69 69 71
-10.7077 15.3083 -0.100995 70 68 73
-10.6097 15.3116 -0.100406 70 67 74
-10.5411 15.3083 -0.0999019 67 66 74
-10.4695 15.2997 -0.0992947 69 68 72
-10.3823 15.3188 -0.0990426 71 71 73
-10.3191 15.3232 -0.098707 69 69 71
-10.2469 15.3119 -0.0980616 70 70 72
-9.85208 15.2988 -0.0953876 69 69 72
-9.79054 15.303 -0.095079 70 69 74
-9.73679 15.3209 -0.0950448 68 67 72
-22.5013 15.2344 -0.207089 74 82 99
-22.3473 15.2243 -0.205308 70 77 96
-22.1617 15.2402 -0.203509 73 80 98
-22.0115 15.2307 -0.201785 69 76 94
-21.876 15.231 -0.200344 75 80 99
-21.7343 15.2259 -0.198773 74 82 99
-21.5562 15.2422 -0.197084 77 86 103
-21.4278 15.245 -0.195762 78 89 106
-21.2869 15.2375 -0.194182 72 84 100
-21.108 15.2493 -0.192448 78 87 104
-20.9581 15.2327 -0.190669 77 86 103
-20.8416 15.2412 -0.189559 73 82 99
-20.7013 15.2795 -0.188582 76 84 103
-20.5381 15.2493 -0.186504 74 83 100
-20.4159 15.2508 -0.185258 72 81 97
-20.2799 15.2403 -0.18372 77 86 103
-20.1326 15.2687 -0.182569 71 83 99
-20.0002 15.2592 -0.181089 67 76 93
-19.8633 15.2453 -0.179509 75 82 100
-19.7259 15.2786 -0.178541 76 85 102
-19.1813 15.2598 -0.172794 79 88 105
-19.0597 15.2531 -0.171488 75 82 100
-18.9295 15.2865 -0.170629 82 91 106
-18.8053 15.2758 -0.169253 79 88 102
-18.6709 15.2552 -0.167647 83 90 107
-18.5562 15.2512 -0.16646 67 74 92
-18.4178 15.2735 -0.165394 82 89 107
-18.2961 15.2615 -0.16404 81 90 105
-18.1776 15.2515 -0.162748 70 76 97
-18.0502 15.2807 -0.1619 124 128 137
-17.9365 15.2736 -0.1607 118 118 127
-17.8261 15.2685 -0.159564 101 98 102
-17.6903 15.2873 -0.158512 85 85 97
-17.5671 15.2687 -0.157077 79 82 97
-17.4617 15.266 -0.156031 80 83 100
-17.3338 15.2893 -0.155133 74 77 95
-17.2229 15.2799 -0.153951 78 84 98
-17.1108 15.2685 -0.152735 79 86 101
-17.0147 15.272 -0.151876 76 83 99
-16.8776 15.2826 -0.150738 74 81 99
-16.7662 15.2695 -0.149515 76 82 100
-16.327 15.2636 -0.145368 71 78 92
-16.2095 15.2882 -0.14464 73 79 94
-16.1078 15.2803 -0.1436 69 75 91
-16.0062 15.2718 -0.142558 72 78 94
-15.885 15.2902 -0.141724 70 78 91
-15.7825 15.2792 -0.140644 68 76 89
-15.6789 15.2663 -0.13953 69 76 92
-15.6055 15.285 -0.13914 68 74 90
-15.4768 15.2919 -0.138098 71 73 88
-15.3846 15.2892 -0.137242 69 73 89
-15.279 15.2713 -0.136053 71 75 90
-15.1605 15.2865 -0.135234 74 76 89
-15.0688 15.2824 -0.134372 73 68 82
-14.988 15.2897 -0.133774 73 67 79
-14.8686 15.3016 -0.132915 75 70 76
-9.64648 15.3291 -0.0946402 71 71 73
-9.57749 15.3185 -0.0940524 71 72 74
-9.51053 15.3111 -0.0935321 69 70 72
-9.42344 15.3233 -0.0932264 71 71 73
-9.36047 15.3224 -0.0928423 70 69 74
-9.29109 15.3088 -0.0922149 69 68 73
-9.21349 15.3376 -0.0922508 70 70 72
-9.14803 15.3305 -0.0917598 70 70 72
-9.0836 15.325 -0.0913019 72 72 74
-9.01836 15.3174 -0.0908085 73 71 74
-8.93194 15.327 -0.0904932 69 70 73
-8.86429 15.3134 -0.0898932 72 70 71
-8.79859 15.3032 -0.0893619 70 70 72
-8.7134 15.3134 -0.0890769 69 70 72
-8.64621 15.299 -0.0884734 70 70 72
-8.59472 15.3167 -0.0884945 69 70 72
-8.51231 15.3313 -0.0883099 79 79 77
-8.44719 15.3196 -0.0877726 81 77 76
-8.38895 15.3222 -0.0875129 81 75 72
-8.30423 15.3303 -0.0872199 75 71 71
-8.23866 15.316 -0.0866445 70 68 69
-8.17901 15.3142 -0.086312 71 69 72
-8.11864 15.3104 -0.0859442 71 71 73
-8.02948 15.3061 -0.0854361 72 71 76
-7.96852 15.2999 -0.0850308 72 72 74
-7.90847 15.2953 -0.0846599 71 71 73
-7.82453 15.3008 -0.0843571 70 70 72
-7.76937 15.3067 -0.084194 70 69 73
-7.7096 15.3014 -0.0838201 70 70 72
-7.63127 15.3188 -0.0837585 71 69 72
-7.56631 15.3 -0.0831372 71 69 74
-7.5144 15.3124 -0.0831108 72 70 73
-7.42646 15.3047 -0.08259 69 69 71
-7.36271 15.287 -0.0820004 70 69 74
-7.31681 15.3136 -0.0822523 71 70 73
-7.24963 15.2861 -0.0814854 72 72 73
-7.1681 15.2919 -0.08124 71 69 72
-7.11281 15.2937 -0.0810331 72 69 76
-7.05968 15.3009 -0.0809306 72 70 76
-6.97484 15.2964 -0.0805058 69 68 73
-6.91693 15.29 -0.0801557 70 70 74
-6.86187 15.2909 -0.0799451 72 72 74
-6.78152 15.2966 -0.079728 74 75 75
-6.72525 15.2933 -0.0794456 72 73 73
-6.66836 15.2879 -0.0791268 69 73 72
-6.59022 15.2983 -0.0790115 72 73 73
-6.53678 15.3018 -0.0788676 72 72 72
-6.4827 15.3033 -0.0786874 74 74 76
-6.42931 15.3065 -0.0785418 76 76 78
-6.34942 15.31 -0.0783167 74 72 78
-6.29361 15.3052 -0.0780281 74 72 77
-6.23539 15.2926 -0.0775973 75 73 76
-6.15825 15.3027 -0.0775101 75 73 78
-6.10329 15.2991 -0.0772543 74 72 77
-6.04841 15.2953 -0.0769977 75 73 78
-29.7235 14.9782 -0.286281 80 89 104
-29.4736 15.0161 -0.283722 86 95 110
-29.2617 15.0159 -0.281222 85 98 114
-29.0607 15.0203 -0.278903 87 99 114
-28.8047 15.0493 -0.276202 84 93 108
-28.6129 15.0559 -0.274027 90 98 114
-28.3743 15.0352 -0.271012 89 96 112
-28.1813 15.0385 -0.268797 84 91 107
-27.9702 15.0855 -0.266845 67 75 94
-27.7968 15.0974 -0.264961 83 92 109
-27.5769 15.0814 -0.262237 80 89 104
-27.3733 15.1281 -0.260392 82 91 108
-27.1886 15.1297 -0.258278 78 87 104
-26.9868 15.1201 -0.25585 81 90 107
-26.7788 15.1595 -0.253896 80 88 106
-26.5931 15.1567 -0.251738 86 97 115
-26.4094 15.1539 -0.249607 88 96 115
-26.2174 15.1449 -0.247317 79 91 107
-26.0224 15.1861 -0.24556 80 91 109
-25.8412 15.1811 -0.243448 80 91 109
-25.6722 15.1826 -0.241551 77 88 106
-25.4812 15.222 -0.239842 80 91 108
-25.2856 15.2043 -0.237435 77 89 105
-25.1055 15.1951 -0.235306 74 84 102
-24.9153 15.2306 -0.233583 73 84 103
-24.7342 15.2182 -0.231414 72 83 103
-24.56 15.2092 -0.229367 77 84 103
-24.3606 15.2342 -0.22744 76 81 100
-24.1954 15.2286 -0.225542 82 89 107
-24.0238 15.2176 -0.223514 81 89 108
-23.8574 15.2091 -0.221577 77 84 103
-23.6642 15.2325 -0.219725 96 102 124
-23.5017 15.2242 -0.217843 85 93 114
-23.3428 15.2173 -0.216022 76 85 104
-23.1504 15.2369 -0.214155 84 92 111
-22.9839 15.2223 -0.212167 78 85 103
-22.8373 15.2207 -0.210556 82 89 107
-22.6556 15.2436 -0.208866 84 93 110
-5.96904 15.2969 -0.0767657 74 74 74
-5.91607 15.2984 -0.0766136 77 77 77
-37.7681 14.5696 -0.38042 90 84 100
-37.3998 14.6193 -0.376274 75 80 100
-37.0735 14.6176 -0.372196 77 85 100
-36.7733 14.6247 -0.368532 84 93 109
-36.4375 14.6796 -0.364868 79 88 104
-36.1325 14.6804 -0.361098 78 85 103
-35.7929 14.6645 -0.356749 82 89 106
-35.4802 14.7214 -0.353418 80 89 104
-35.1964 14.7252 -0.349958 78 87 102
-34.9148 14.7281 -0.346522 76 85 100
-34.6316 14.7286 -0.343049 87 96 111
-34.3239 14.7783 -0.339746 79 86 104
-34.0341 14.7718 -0.336137 81 88 107
-33.7556 14.7686 -0.332704 81 88 104
-33.4797 14.8259 -0.329892 83 90 108
-33.1928 14.8149 -0.326293 82 89 107
-32.9263 14.8117 -0.323023 83 90 108
-32.6675 14.8705 -0.320462 84 93 110
-32.4069 14.8665 -0.317269 81 90 107
-32.1522 14.8637 -0.314163 82 89 107
-31.8905 14.9151 -0.311519 89 98 113
-31.6472 14.9143 -0.308583 77 85 104
-31.4095 14.9148 -0.305734 93 101 120
-31.1596 14.9076 -0.302665 77 85 104
-30.908 14.9563 -0.300146 81 93 108
-30.6695 14.9514 -0.297249 84 95 111
-30.4384 14.9489 -0.294469 83 92 109
-30.2125 15.0051 -0.29236 86 95 110
-29.943 14.9793 -0.288893 80 89 106
-51.0735 9.52656 -0.514031 88 75 83
-48.1285 10.4142 -0.48096 73 77 90
-47.7656 14.0727 -0.503389 79 85 97
-47.2481 14.0729 -0.496717 79 83 96
-46.7164 14.1434 -0.490421 81 85 97
-46.2341 14.1475 -0.484252 82 88 100
-45.7713 14.1547 -0.478366 84 90 102
-45.2733 14.2238 -0.472526 80 86 100
-44.8189 14.2272 -0.466734 81 86 101
-44.3706 14.2299 -0.46102 82 86 102
-43.9136 14.301 -0.455758 83 91 104
-43.4927 14.3067 -0.450436 84 94 106
-43.0703 14.3092 -0.445074 84 94 106
-42.6463 14.3086 -0.439673 81 91 103
-42.2267 14.3788 -0.434924 81 87 103
-41.8055 14.3733 -0.429531 92 100 114
-41.4092 14.374 -0.424514 93 100 113
-41.0151 14.4435 -0.420116 84 90 104
-40.6196 14.439 -0.415079 80 88 101
-40.2527 14.4427 -0.41048 80 88 101
-39.8652 14.5052 -0.406138 86 96 108
-39.5532 14.5247 -0.402387 83 93 105
-38.7747 14.5654 -0.392968 80 90 104
-38.4245 14.5631 -0.388564 92 100 110
-38.0971 14.5677 -0.38451 66 63 71
-58.3729 9.91363 -0.613598 99 76 83
-56.7299 13.6194 -0.616702 75 80 94
-52.7661 13.76 -0.565893 75 83 97
-52.1441 13.8496 -0.558445 76 85 100
-51.5848 13.8663 -0.551294 73 84 96
-50.9911 13.8698 -0.543605 76 85 98
-50.4684 13.973 -0.537593 77 83 97
-49.8738 13.9682 -0.529845 76 84 97
-49.3353 13.9761 -0.522932 75 84 95
-48.7868 14.0584 -0.516463 77 83 95
-48.2664 14.0642 -0.509785 78 85 95
-8.00776 11.5547 -0.153068 70 69 78
-7.95642 11.5517 -0.152418 70 70 78
-7.899 11.5797 -0.152472 68 69 73
-7.87464 11.6231 -0.153275 70 69 74
-4.3185 11.135 -0.110413 75 74 76
-14.3639 10.8392 -0.231993 70 81 99
-14.2936 10.8507 -0.230974 73 84 102
-14.2938 10.9209 -0.232339 76 86 105
-12.9161 11.4862 -0.220328 67 74 90
-12.8578 11.5015 -0.219701 73 80 96
-12.8055 11.5587 -0.220046 70 76 92
-14.3562 10.8365 -0.293876 78 87 102
-14.2416 10.8107 -0.290971 79 89 106
-14.2572 10.8937 -0.293098 72 81 98
-12.9002 11.4721 -0.27952 68 77 93
-12.8774 11.5225 -0.280277 74 80 97
-12.7757 11.5302 -0.278547 74 80 96
-7.96316 11.5467 -0.201249 71 70 78
-7.89392 11.554 -0.200554 70 71 76
-7.86368 11.587 -0.201087 71 72 77
-28.9886 10.5792 -0.525072 81 90 105
-23.3464 15.2154 -0.478176 81 90 106
-23.1607 15.2402 -0.47507 79 86 104
-22.9926 15.2249 -0.47161 82 89 107
-22.846 15.2237 -0.468814 75 82 100
-22.6947 15.2183 -0.465862 84 91 110
-22.5019 15.2325 -0.462481 81 88 106
-22.3496 15.224 -0.45947 68 75 93
-22.2056 15.2206 -0.456712 75 80 99
-22.0283 15.2419 -0.453781 77 85 103
-21.896 15.245 -0.451377 79 87 106
-21.7239 15.2177 -0.447683 82 89 107
-21.5666 15.25 -0.445357 84 91 107
-21.4159 15.2363 -0.442326 79 86 104
-21.2782 15.2315 -0.439703 76 84 104
-21.1072 15.2498 -0.436902 81 89 108
-20.9684 15.2422 -0.434222 83 92 109
-20.8283 15.2326 -0.431487 77 86 101
-20.7057 15.2358 -0.429317 85 92 108
-20.5264 15.2426 -0.426191 82 89 107
-20.4011 15.2418 -0.423912 70 77 93
-20.2682 15.2342 -0.421372 77 86 101
-20.1256 15.2667 -0.419423 83 92 109
-19.9885 15.2537 -0.416722 85 94 111
-19.8502 15.2387 -0.413967 82 91 108
-19.1712 15.2573 -0.402313 74 81 97
-19.0481 15.2495 -0.400007 73 81 98
-18.9282 15.2438 -0.397803 80 87 103
-18.7786 15.2597 -0.39551 73 81 98
-18.6667 15.2591 -0.39356 76 84 98
-18.552 15.2554 -0.391504 77 86 99
-18.3956 15.262 -0.388941 76 84 102
-18.3022 15.2755 -0.387608 78 88 106
-18.1688 15.2525 -0.384868 76 86 104
-18.031 15.2726 -0.38292 124 129 140
-17.9217 15.2696 -0.381007 117 118 124
-17.8156 15.2689 -0.379198 97 94 100
-17.6784 15.2866 -0.377241 78 81 91
-17.5624 15.2751 -0.375061 73 81 94
-17.438 15.2548 -0.372565 77 85 98
-17.3414 15.26 -0.37106 74 81 97
-17.2094 15.2787 -0.369248 73 79 97
-17.103 15.2731 -0.367372 74 80 97
-17.001 15.2712 -0.365652 72 79 95
-16.8567 15.275 -0.36336 74 80 96
-16.3213 15.2726 -0.354614 75 76 94
-16.1897 15.2832 -0.352724 68 70 87
-16.0977 15.2854 -0.351301 73 76 92
-15.9989 15.2801 -0.349614 77 80 94
-15.8905 15.2642 -0.347558 77 79 92
-15.7599 15.2719 -0.345658 72 76 89
-15.6644 15.2679 -0.344069 74 77 92
-15.5731 15.2678 -0.342637 74 76 89
-15.4608 15.2924 -0.341413 72 74 89
-15.3631 15.284 -0.339714 72 74 89
-15.2709 15.281 -0.338224 73 76 89
-15.1536 15.2979 -0.336782 70 70 80
-15.0484 15.2791 -0.334761 72 69 76
-14.9501 15.2672 -0.333001 73 68 72
-14.8427 15.2926 -0.331922 68 65 71
-14.7501 15.2857 -0.330369 72 72 85
-14.659 15.2798 -0.328868 71 75 87
-14.5589 15.263 -0.326995 68 72 84
-14.4534 15.2876 -0.32596 71 73 88
-14.3576 15.2743 -0.324241 74 73 89
-14.2737 15.2743 -0.322997 75 75 91
-14.1634 15.291 -0.321744 73 77 88
-14.0811 15.2916 -0.320549 75 77 89
-13.9822 15.2719 -0.318665 74 74 86
-13.8775 15.2931 -0.317617 70 70 83
-13.7981 15.2955 -0.316524 74 74 86
-13.7037 15.279 -0.314793 73 72 85
-13.6018 15.3017 -0.313845 71 71 83
-13.5116 15.2889 -0.312269 78 76 90
-13.4353 15.2929 -0.311276 76 75 89
-13.3466 15.2809 -0.309751 73 75 88
-13.2341 15.2873 -0.308317 72 72 80
-13.1508 15.2807 -0.307 72 71 80
-13.0774 15.2863 -0.306107 73 71 82
-12.968 15.2942 -0.304774 71 71 81
-12.8924 15.2959 -0.303772 73 73 83
-12.8072 15.2845 -0.302343 72 72 83
-12.7018 15.2956 -0.301162 71 70 83
-12.6266 15.2962 -0.300156 72 70 83
-12.5456 15.2884 -0.298882 72 70 84
-12.4336 15.2882 -0.297376 71 71 83
-12.3553 15.2828 -0.296205 71 69 82
-12.2864 15.29 -0.29546 75 73 84
-12.2037 15.2775 -0.294073 71 69 80
-12.1064 15.2947 -0.2932 71 70 79
-12.0286 15.2879 -0.292023 70 68 79
-11.9567 15.2889 -0.291112 69 67 78
-11.8586 15.303 -0.29018 68 68 78
-11.7767 15.2886 -0.288786 68 68 78
-11.7007 15.282 -0.287658 69 67 78
-11.6097 15.3046 -0.287041 70 68 79
-11.5283 15.289 -0.285642 66 66 74
-11.4616 15.2946 -0.284938 68 71 77
-11.3643 15.3059 -0.283995 69 69 77
-11.2867 15.2941 -0.282753 68 68 76
-11.2071 15.2787 -0.281401 69 69 77
-11.1495 15.2965 -0.281121 65 68 77
-11.0451 15.2942 -0.279797 65 70 76
-10.979 15.298 -0.279085 67 70 79
-10.9011 15.2829 -0.277782 69 71 81
-10.8101 15.2994 -0.277096 72 72 80
-10.741 15.2972 -0.27622 68 67 73
-10.671 15.2929 -0.275289 70 69 75
-10.5813 15.3099 -0.274652 70 69 77
-10.5095 15.3016 -0.273611 71 70 78
-10.4213 15.2656 -0.271708 70 71 76
-10.335 15.2863 -0.271228 70 70 75
-10.2616 15.2736 -0.270075 72 71 75
-9.90102 15.2674 -0.265879 69 68 73
-9.8124 15.2801 -0.265227 71 70 75
-9.74592 15.2756 -0.264389 69 68 73
-9.67567 15.2638 -0.263334 69 69 74
-29.2821 15.0088 -0.592647 85 94 111
-29.0848 15.0157 -0.58871 86 95 112
-28.8596 15.0063 -0.583962 86 95 112
-28.6304 15.049 -0.579935 83 91 110
-28.4268 15.0483 -0.575783 88 97 114
-28.2374 15.0543 -0.57203 87 94 110
-28.0107 15.0934 -0.568038 91 99 116
-27.7941 15.0812 -0.563466 83 94 112
-27.5951 15.0777 -0.559396 88 98 116
-27.4275 15.0911 -0.556234 89 98 115
-27.1847 15.1141 -0.551712 83 92 109
-27.021 15.1273 -0.548644 83 92 108
-26.8248 15.1204 -0.544607 90 99 114
-26.6121 15.1561 -0.540931 86 95 110
-26.4336 15.1569 -0.537393 95 104 121
-26.24 15.1475 -0.533395 81 90 107
-26.0434 15.1884 -0.53016 84 93 108
-25.8639 15.185 -0.526559 87 96 111
-25.6865 15.1817 -0.523006 86 95 112
-25.5007 15.225 -0.520062 81 88 106
-25.3254 15.2206 -0.516551 78 86 106
-25.142 15.2099 -0.512782 86 98 117
-24.969 15.2047 -0.509315 79 89 107
-24.759 15.2267 -0.505588 83 90 107
-24.5949 15.2248 -0.502367 75 81 98
-24.406 15.2055 -0.498377 88 95 113
-24.2137 15.2344 -0.495146 83 94 112
-24.0487 15.2284 -0.491863 81 90 107
-23.8741 15.2148 -0.48827 74 82 101
-23.6776 15.2365 -0.48487 82 91 106
-23.502 15.2196 -0.481218 85 94 109
-9.58544 15.2719 -0.26257 69 70 74
-9.52317 15.2735 -0.261945 69 70 74
-9.46097 15.2748 -0.261319 69 70 73
-9.36821 15.2764 -0.260387 71 70 75
-9.30524 15.2755 -0.259705 70 69 74
-9.23864 15.2671 -0.258805 72 71 74
-9.15001 15.2746 -0.258086 70 70 70
-9.08827 15.2745 -0.257455 71 71 72
-9.0275 15.276 -0.256876 71 70 73
-8.96317 15.2702 -0.256081 73 68 74
-8.87588 15.2779 -0.25541 114 61 71
-8.81357 15.275 -0.25472 122 56 66
-8.75135 15.2719 -0.25403 130 58 71
-8.66172 15.2731 -0.253193 125 54 69
-8.60059 15.2713 -0.252554 125 61 73
-8.53954 15.2692 -0.251915 110 66 76
-8.45202 15.2728 -0.251182 81 79 76
-8.39118 15.2701 -0.25054 82 80 75
-8.33127 15.2691 -0.249952 87 75 72
-8.24157 15.2661 -0.249052 118 67 78
-8.18434 15.2699 -0.248625 127 65 76
-8.12386 15.2663 -0.24798 128 65 75
-8.06512 15.2661 -0.247442 128 63 76
-7.98081 15.2726 -0.246863 127 61 76
-7.91978 15.2664 -0.24616 128 62 76
-35.2154 14.7015 -0.712852 77 84 102
-34.9232 14.7005 -0.70659 76 83 101
-34.6423 14.7027 -0.700621 77 84 102
-34.3422 14.7567 -0.694945 79 87 100
-34.0674 14.7576 -0.689111 79 87 100
-33.7838 14.7529 -0.683022 78 88 100
-33.5064 14.8103 -0.677922 77 86 103
-33.1981 14.7902 -0.67112 83 93 105
-32.9681 14.8047 -0.666462 80 89 103
-32.6931 14.7965 -0.660547 81 90 108
-32.4331 14.8537 -0.655869 80 87 103
-32.1696 14.8473 -0.650242 82 89 105
-31.9334 14.8525 -0.645362 83 92 108
-31.6311 14.8828 -0.639459 76 84 105
-31.417 14.8955 -0.635169 73 80 99
-31.1495 14.8802 -0.629368 84 91 109
-30.9268 14.9439 -0.625653 78 90 106
-30.6654 14.928 -0.619991 80 89 106
-30.4559 14.9371 -0.615781 77 86 103
-30.2147 14.9286 -0.610661 79 88 105
-29.9875 14.983 -0.606772 78 86 103
-29.7363 14.9658 -0.601338 86 93 109
-29.5402 14.9763 -0.597462 93 101 118
-7.85888 15.2599 -0.245457 127 63 77
-7.77805 15.2727 -0.245091 126 62 76
-7.71576 15.262 -0.244277 126 62 78
-7.65829 15.2622 -0.243789 130 62 78
-7.57765 15.2739 -0.243419 128 61 76
-7.518 15.268 -0.242765 125 64 72
-7.45845 15.2619 -0.242111 126 64 74
-7.37578 15.2671 -0.241575 128 61 72
-7.31866 15.2661 -0.241082 126 60 70
-7.25867 15.2574 -0.24037 123 61 73
-7.1995 15.2503 -0.239712 125 62 73
-7.12374 15.2709 -0.239662 127 61 74
-7.06259 15.2578 -0.238838 125 61 70
-7.00515 15.2537 -0.238286 128 62 73
-6.92521 15.2622 -0.237905 127 62 73
-6.86865 15.2595 -0.237406 129 63 75
-6.81214 15.2566 -0.236906 127 61 72
-6.73239 15.2642 -0.236522 131 63 74
-41.4883 14.3554 -0.844856 84 91 107
-41.0723 14.3478 -0.835618 79 86 102
-40.6698 14.4124 -0.82754 87 94 110
-40.309 14.4194 -0.819714 80 87 103
-39.9373 14.4202 -0.811584 80 89 104
-39.5657 14.4871 -0.804266 80 89 104
