-6.39954 -13.0026 0.413926 101 89 71
-6.44626 -12.9446 0.413478 100 77 65
-9.0689 -12.5487 0.490671 63 76 57
-9.18739 -12.5916 0.492632 55 74 62
-9.33922 -11.7348 0.48172 62 76 60
-12.0422 -12.7724 0.597374 99 106 76
-12.1641 -12.7837 0.599467 85 89 69
-12.1664 -12.7067 0.598257 56 61 47
-12.1944 -12.6575 0.597906 75 77 62
-12.2924 -12.6821 0.599859 75 75 56
-12.3858 -12.6611 0.601003 88 80 69
-12.4677 -12.6673 0.602414 108 88 77
-12.5441 -12.6675 0.603644 97 80 70
-12.6532 -12.6606 0.605284 100 87 78
-8.10159 -7.275 0.362114 100 102 74
-8.13202 -7.23488 0.362063 113 122 82
-8.15241 -7.20852 0.36204 90 93 60
-8.19792 -7.20485 0.362513 76 80 46
-28.7624 -16.3206 1.19856 91 82 77
-28.8632 -16.2591 1.20032 100 90 80
-29.4797 -13.8099 1.18341 139 123 76
-29.8453 -13.6981 1.19204 84 83 88
-30.6793 -13.0499 1.2073 139 113 79
-30.981 -13.0071 1.21521 143 112 78
-31.4791 -12.6986 1.22564 102 84 66
-3.18838 -7.25439 0.199403 82 95 75
-3.25148 -7.12584 0.199517 78 90 69
-6.59073 -13.9111 0.427036 123 113 97
-6.73784 -12.3042 0.407248 91 93 61
-6.79435 -12.3191 0.407844 80 84 46
-6.84257 -12.3179 0.408177 82 81 45
-6.89125 -12.2709 0.407931 106 110 73
-9.32194 -12.6145 0.494488 68 80 66
-9.33479 -12.5504 0.493678 68 85 66
-9.40832 -12.5284 0.494181 71 88 67
-9.4539 -12.5092 0.494417 55 70 48
-9.49349 -12.4818 0.494467 44 56 43
-9.51232 -12.3068 0.492102 61 71 57
-9.39684 -11.9994 0.486255 92 105 88
-9.67013 -12.2373 0.492927 81 94 69
-12.7462 -12.5977 0.605801 72 78 58
-12.8414 -12.5752 0.60699 79 88 64
-12.9608 -12.6156 0.609575 88 97 68
-13.2296 -12.604 0.61381 85 93 68
-13.038 -12.3411 0.606589 99 101 79
-13.0543 -12.2799 0.60592 79 76 59
-30.2601 -18.9661 1.27807 225 186 150
-6.79085 -14.4725 0.435674 75 85 64
-6.8651 -14.2221 0.432867 146 140 134
-6.79201 -13.4562 0.422422 96 75 54
-7.03109 -13.0107 0.41834 96 88 52
-7.19126 -12.3199 0.410766 61 73 53
-7.18193 -12.2145 0.409378 80 93 69
-7.26939 -12.2355 0.410298 63 76 52
-7.15944 -11.957 0.405992 56 67 46
-7.21923 -11.975 0.406675 71 84 64
-9.71942 -12.6617 0.499718 45 50 44
-9.98471 -12.8482 0.505538 93 108 98
-10.0373 -12.5505 0.501813 55 69 50
-10.0397 -12.4337 0.500147 81 97 71
-10.0878 -12.4153 0.500457 75 90 64
-10.1108 -12.3656 0.50002 78 92 73
-9.99582 -12.1062 0.494912 46 61 40
-10.1062 -12.1653 0.497093 79 95 71
-10.1434 -12.1343 0.497104 93 106 84
-10.2435 -11.9136 0.495207 90 103 71
-10.3077 -11.8769 0.495484 82 87 68
-13.8231 -12.735 0.625702 110 113 82
-7.42686 -13.0707 0.421954 70 81 49
-7.41894 -12.9125 0.4199 80 95 66
-7.58257 -12.0774 0.410767 61 71 55
-7.61239 -12.0423 0.410575 68 80 63
-7.70061 -12.1025 0.412016 74 89 64
-7.56927 -11.7649 0.406836 70 88 63
-10.0697 -13.7385 0.519708 57 77 58
-10.6972 -12.7286 0.512301 75 87 67
-10.439 -11.9559 0.498226 75 66 52
-14.3589 -13.915 0.652743 85 90 58
-14.4264 -12.7297 0.635843 72 74 54
-14.7762 -12.7595 0.642291 84 95 62
-15.1182 -12.9775 0.651386 90 104 65
-14.8554 -12.5489 0.640603 81 87 51
-14.9167 -12.5222 0.641289 101 102 70
-38.7011 -21.6512 1.53888 104 90 82
-18.2708 -7.07683 0.645406 135 111 71
-18.1654 -6.97062 0.642332 107 86 49
-18.1957 -6.91741 0.642558 107 91 60
-7.55467 -14.9163 0.446452 96 70 57
-8.06174 -12.4724 0.419426 82 98 70
-8.05219 -12.3716 0.418125 74 91 64
-8.13106 -12.3684 0.418724 46 62 45
-7.89003 -11.9075 0.411175 71 84 66
-10.8143 -12.669 0.51289 77 89 62
-11.0698 -12.6119 0.515259 82 58 52
-11.0691 -12.4929 0.513591 112 74 75
-11.0956 -12.4453 0.513265 105 70 67
-11.3705 -12.6792 0.519973 108 71 69
-11.3802 -12.6113 0.519161 107 69 68
-11.4012 -12.5169 0.518128 106 70 72
-11.3874 -12.4239 0.51668 99 68 65
-11.404 -12.3651 0.516092 64 52 46
-15.167 -14.6199 0.676976 88 96 65
-16.1201 -13.4626 0.675835 88 91 53
-45.8395 -37.834 1.99325 124 120 81
-15.6956 -12.8968 0.660304 93 82 53
-15.8352 -12.9309 0.663251 96 82 73
-15.8178 -12.7936 0.661002 91 73 70
-15.713 -12.627 0.656805 109 82 83
-15.7315 -12.5618 0.656225 104 72 72
-15.7834 -12.4834 0.656056 137 91 87
-15.7904 -12.4093 0.655159 132 81 76
-15.7642 -12.3094 0.653313 144 89 80
-13.2777 -7.09167 0.484212 78 74 59
-13.2673 -7.03343 0.483541 75 72 56
-13.2955 -6.99587 0.483694 65 66 39
-63.9839 -20.1506 2.22576 77 84 63
-63.1625 -19.5661 2.19686 68 65 27
-63.4785 -18.2554 2.19472 114 144 114
-63.4148 -17.9146 2.19006 128 122 61
-63.5258 -17.7312 2.1918 124 126 58
-63.7827 -17.5875 2.19811 131 118 62
-67.4769 -18.2642 2.311 125 106 69
-67.3959 -18.0157 2.3067 147 127 95
-7.73166 -14.6947 0.444799 77 59 41
-7.72881 -14.5768 0.443269 76 64 52
-4.14326 -6.66695 0.199877 65 72 63
-4.17343 -6.67194 0.199871 76 83 72
-4.20298 -6.65166 0.199883 60 71 57
-4.22508 -6.64264 0.199888 80 93 74
-8.18644 -12.2866 0.418192 66 82 66
-8.2969 -12.331 0.419637 75 92 74
-8.35013 -12.329 0.420057 78 94 79
-8.37479 -12.2835 0.419718 62 79 63
-11.346 -13.3867 0.529561 79 94 68
-11.4586 -12.3093 0.516032 105 111 74
-11.4733 -12.249 0.515406 81 87 64
-11.9092 -12.6426 0.526381 91 95 71
-12.0005 -12.6224 0.527294 108 113 86
-12.0392 -12.5853 0.527305 68 77 46
-16.0634 -14.1087 0.684263 92 88 77
-16.4958 -14.0444 0.690772 89 99 67
-16.504 -12.8126 0.67353 153 97 84
-16.6641 -12.8141 0.676435 108 81 54
-16.8314 -12.8613 0.680104 108 115 78
-16.8772 -12.8138 0.680292 89 99 69
-16.9127 -12.7168 0.679625 109 112 68
-16.9198 -12.64 0.678728 78 78 41
-17.0352 -12.645 0.680905 78 82 54
-17.1627 -12.6166 0.68286 64 76 50
-17.3009 -12.6369 0.68567 79 92 67
-17.4009 -12.6279 0.687395 91 99 64
-63.2594 -24.7157 2.25075 128 103 73
-63.8246 -23.1101 2.24972 106 92 53
-63.8359 -22.8883 2.24778 106 96 67
-21.2648 -6.39138 0.704852 130 157 139
-21.4355 -6.33368 0.708197 115 144 121
-21.6767 -6.33203 0.713438 126 130 81
-21.8605 -6.31216 0.717324 127 121 60
-22.0809 -6.30169 0.722068 144 146 75
-22.3402 -6.26313 0.727492 123 107 49
-8.71005 -12.5775 0.426051 43 55 45
-8.75877 -12.5657 0.426325 60 72 55
-8.79965 -12.5422 0.426394 59 74 53
-8.85219 -12.4934 0.426263 83 95 78
-8.86783 -12.4334 0.42569 75 89 70
-8.89804 -12.3947 0.425497 62 73 55
-12.159 -12.6337 0.529523 91 93 73
-12.2377 -12.638 0.530619 68 68 50
-12.3337 -12.62 0.531644 86 75 62
-12.417 -12.6278 0.532852 102 85 73
-12.499 -12.6337 0.534023 86 69 62
-12.6023 -12.6212 0.535235 108 94 82
-17.4425 -14.4443 0.713053 71 68 39
-18.7485 -13.5291 0.724071 83 92 55
-18.2589 -13.0423 0.708663 85 91 52
-18.0977 -12.8408 0.703063 92 103 60
-18.5015 -12.6174 0.707759 76 89 52
-18.3407 -12.423 0.702293 96 111 71
-18.5225 -12.4637 0.706233 81 95 56
-18.5507 -12.3992 0.705967 85 89 50
-18.5134 -12.249 0.703399 94 98 68
-18.7483 -12.2391 0.707751 59 57 35
-18.7932 -12.1437 0.707443 113 103 94
-18.6845 -11.9904 0.703514 111 104 100
-23.3464 -7.10199 0.754586 135 172 155
-3.12824 -7.1199 0.166925 81 93 78
-3.14364 -7.0961 0.167016 88 102 87
-3.1738 -7.07697 0.167059 62 72 61
-3.19202 -7.06045 0.167109 79 88 71
-9.2754 -13.5561 0.442501 59 71 54
-9.09817 -12.5563 0.429133 69 80 64
-9.0628 -12.424 0.427274 36 48 38
-9.19846 -12.5329 0.429738 57 73 59
-9.21598 -12.4754 0.429224 55 67 57
-9.28208 -12.4442 0.429442 47 64 47
-9.34506 -12.4496 0.430066 69 87 63
-9.38921 -12.4289 0.430223 85 103 75
-9.46592 -12.4112 0.430705 82 98 70
-9.53633 -12.4253 0.431504 64 79 55
-12.8812 -12.5487 0.538049 81 96 66
-12.9126 -12.5018 0.537872 91 100 68
-12.981 -12.4911 0.538667 85 97 72
-12.9934 -12.2341 0.535556 84 87 69
-13.127 -12.2464 0.537553 125 127 95
-18.9586 -13.3703 0.725904 98 107 64
-19.0074 -13.2724 0.725553 93 95 56
-19.0018 -13.0932 0.723168 86 97 63
-19.6753 -12.5469 0.729205 171 154 135
-19.7097 -12.4397 0.72858 223 183 148
-19.6431 -12.3119 0.725781 231 183 147
-19.9276 -12.1913 0.729869 163 143 120
-20.0331 -12.1709 0.731682 166 150 120
-20.0072 -12.0699 0.730014 53 56 65
-20.092 -11.9937 0.73079 89 93 79
-26.8331 -6.81349 0.829044 90 88 93
-26.7315 -6.69856 0.826191 90 96 101
-26.7128 -6.60509 0.825283 205 194 189
-26.4303 -6.40318 0.818001 138 125 122
-26.6354 -6.27704 0.821878 110 103 97
-26.584 -6.1332 0.820021 84 70 69
-26.5341 -6.03421 0.818434 112 84 78
-3.22727 -7.08439 0.166936 73 83 65
-9.75849 -12.438 0.433671 70 89 70
-9.94243 -12.5169 0.436263 77 92 60
-9.95373 -12.4111 0.435167 70 85 56
-9.92388 -12.294 0.43357 77 86 65
-10.0096 -12.1289 0.432522 77 90 73
-9.95129 -11.98 0.430311 77 92 72
-10.1207 -12.0732 0.432954 90 103 90
-13.4712 -13.4193 0.557328 112 103 91
-13.5844 -13.4497 0.559247 93 96 75
-14.2215 -12.5545 0.55673 62 64 59
-14.3946 -12.6297 0.560108 59 62 57
-14.4785 -12.5851 0.560758 98 103 77
-20.6088 -14.3077 0.768697 79 88 51
-21.0779 -13.1292 0.763139 75 52 28
-21.7724 -13.4719 0.780599 111 127 106
-21.833 -12.8594 0.774709 82 85 54
-21.9338 -12.7813 0.775802 93 94 51
-22.5721 -12.4127 0.784382 118 101 62
-22.365 -12.2073 0.778053 146 126 80
-23.5713 -11.6108 0.796271 141 128 100
-23.5405 -11.4588 0.794151 146 125 90
-10.3178 -13.3847 0.449597 52 69 46
-10.1334 -13.0123 0.443652 56 70 62
-10.0919 -12.4279 0.436648 60 70 56
-10.5114 -12.8339 0.445135 75 88 71
-10.2885 -12.2009 0.435974 71 84 72
-10.2915 -12.1277 0.435194 87 90 69
-10.2891 -12.0483 0.434298 81 87 69
-10.4067 -12.0741 0.435714 80 98 75
-10.2746 -11.7679 0.431085 73 76 65
-10.3773 -11.7764 0.432179 113 76 80
-10.5534 -11.906 0.435316 108 72 70
-10.4783 -11.7454 0.43284 102 67 65
-14.6791 -14.4114 0.586512 88 99 74
-14.9749 -14.2104 0.587955 101 108 75
-14.4062 -13.3705 0.56946 81 91 65
-14.8214 -13.6746 0.579053 103 107 84
-14.9567 -13.672 0.580902 98 103 80
-14.9104 -12.5238 0.566235 107 91 68
-14.9228 -12.4556 0.565607 98 85 61
-23.6122 -12.3728 0.804797 91 83 51
-23.8181 -12.3397 0.808602 74 70 46
-23.7654 -12.2183 0.806298 80 74 56
-23.8108 -12.0078 0.805084 122 110 67
-23.7761 -11.8974 0.803277 130 106 68
-23.5999 -11.7166 0.797898 122 107 79
-23.9222 -11.5539 0.80288 118 107 50
-24.4235 -11.7041 0.814594 110 96 44
-24.4053 -11.555 0.812789 128 114 65
-18.2327 -7.06944 0.569126 135 112 82
-18.142 -6.9694 0.566879 135 111 78
-18.1629 -6.91268 0.566879 101 75 49
-11.1253 -12.3704 0.445978 109 71 70
-15.2345 -14.5495 0.595844 76 85 54
-16.181 -13.9917 0.602143 102 104 64
-16.2149 -13.9335 0.601928 66 71 42
-16.0991 -13.703 0.597486 46 55 35
-15.8872 -13.1426 0.587752 85 87 65
-15.5722 -12.7986 0.57911 79 85 59
-15.6654 -12.7947 0.580429 122 119 109
-15.6271 -12.6421 0.578082 95 85 84
-15.7279 -12.6438 0.579588 90 80 81
-15.9083 -12.709 0.583004 84 74 67
-16.0702 -12.717 0.585488 124 85 80
-16.0637 -12.6311 0.58441 124 78 76
-16.2453 -12.6936 0.587826 126 78 74
-16.0859 -12.4879 0.583115 133 82 75
-16.3554 -12.5769 0.588145 114 89 73
-16.6298 -12.7076 0.593734 72 74 53
-13.2773 -7.08269 0.423772 70 62 50
-13.3408 -7.06398 0.424476 91 83 56
-13.304 -6.9914 0.423512 79 76 49
-26.7882 -12.5897 0.87158 109 83 56
-27.4287 -12.322 0.882303 101 96 101
-27.3159 -12.1174 0.878101 138 124 95
-27.3146 -12.0148 0.877151 153 131 92
-27.247 -11.8835 0.874573 135 109 82
-27.245 -11.7309 0.873174 145 116 81
-28.829 -12.2045 0.91039 147 119 72
-28.598 -11.9482 0.903338 181 144 120
-29.2006 -12.0946 0.917219 173 140 119
-28.1131 -11.5386 0.889679 244 225 195
-30.0696 -11.2081 0.928334 122 102 77
-29.233 -10.7905 0.907305 138 116 83
-30.3364 -11.0926 0.933121 104 88 55
-29.7676 -10.7253 0.9182 83 77 56
-29.5615 -10.5463 0.912454 83 70 61
-29.7547 -10.3541 0.915164 100 85 68
-29.7032 -10.232 0.913171 92 77 60
-11.4467 -12.6561 0.452243 108 71 70
-11.4045 -12.5297 0.450469 103 69 68
-11.4069 -12.4543 0.449689 98 67 65
-11.352 -12.2004 0.446436 98 101 71
-11.4083 -12.1859 0.446854 89 91 70
-11.4702 -12.1388 0.446983 74 80 54
-11.9282 -12.5552 0.456027 96 101 77
-16.7259 -12.6996 0.595089 68 67 49
-16.9089 -12.7156 0.598023 92 88 58
-16.8744 -12.6077 0.596307 99 99 69
-16.9803 -12.6054 0.597888 63 67 43
-17.1333 -12.5963 0.600109 74 87 65
-17.2508 -12.6009 0.601951 55 65 49
-17.383 -12.6156 0.604131 88 92 75
-17.6949 -12.7598 0.610468 96 102 76
-28.1523 -14.3809 0.917007 98 83 60
-28.5901 -13.3335 0.915672 123 100 79
-28.6408 -13.1941 0.915405 75 71 70
-30.3166 -13.8565 0.956151 118 116 117
-29.6993 -13.4606 0.939735 89 83 85
-28.9401 -12.3586 0.914054 143 113 74
-29.4203 -11.9713 0.920789 225 196 161
-30.648 -12.3067 0.949415 109 83 70
-30.2609 -12.0406 0.939057 109 87 75
-30.4388 -12.0018 0.942492 117 93 70
-21.2397 -6.38439 0.618608 83 119 109
-21.4315 -6.3327 0.621791 119 152 131
-21.6652 -6.32828 0.625984 98 107 66
-21.878 -6.31636 0.629765 129 127 59
-22.1025 -6.30646 0.63377 134 137 61
-22.3196 -6.25537 0.63744 132 107 63
-5.49778 -13.3064 0.296105 69 80 64
-4.16896 -6.65785 0.16703 69 80 65
-4.17044 -6.61462 0.167219 72 80 65
-4.19236 -6.60565 0.167208 70 79 63
-12.1793 -14.0913 0.475005 67 85 65
-11.994 -12.5474 0.45662 87 96 67
-12.1304 -12.5744 0.458299 78 80 56
-12.22 -12.5903 0.45939 66 69 50
-12.3249 -12.6218 0.460802 87 82 66
-12.408 -12.6296 0.461746 101 86 77
-12.507 -12.6134 0.462607 92 77 69
-12.5918 -12.6217 0.46358 91 78 68
-8.09957 -7.23354 0.274702 77 89 68
-8.1184 -7.20584 0.274682 64 69 47
-8.15502 -7.19408 0.274817 105 108 81
-18.4306 -13.1634 0.6261 92 100 56
-17.9977 -12.7681 0.615206 102 106 63
-18.0173 -12.6982 0.614763 85 92 59
-18.2755 -12.754 0.619344 82 92 60
-18.8521 -13.072 0.631638 93 105 75
-18.4997 -12.7413 0.622691 72 84 46
-18.4317 -12.5677 0.619817 84 92 51
-18.2655 -12.3708 0.615178 84 91 51
-18.4093 -12.3855 0.617582 96 106 66
-18.9596 -12.6726 0.629164 92 98 54
-19.0049 -12.575 0.628874 125 130 72
-18.7183 -12.3009 0.621575 114 119 66
-19.1653 -12.5112 0.630759 106 107 65
-18.9047 -12.2147 0.62365 123 115 93
-19.1537 -12.2922 0.628376 101 92 83
-18.6529 -11.8875 0.616393 183 163 137
-19.4959 -12.2999 0.633898 223 182 146
-19.498 -12.2168 0.633117 240 190 158
-31.4109 -18.6847 1.0284 80 90 59
-31.3104 -18.0334 1.01906 92 97 61
-31.3867 -17.9473 1.01961 108 111 75
-31.5586 -17.8502 1.02193 95 84 83
-30.2985 -17.0084 0.98774 114 103 96
-23.3213 -7.08928 0.659774 117 140 130
-5.64104 -13.546 0.29788 62 75 56
-5.82399 -13.8793 0.300307 60 72 58
-6.11558 -12.9576 0.295837 81 80 65
-6.2758 -12.2416 0.292287 83 62 37
-6.30796 -12.2118 0.292223 121 95 72
-12.7987 -13.8753 0.478791 79 57 60
-12.688 -12.641 0.464787 122 114 98
-13.3073 -13.1458 0.476439 75 82 51
-13.318 -13.0748 0.475833 56 61 40
-13.3582 -13.0335 0.475841 75 84 52
-12.9799 -12.5398 0.466845 86 95 61
-12.9255 -12.4087 0.464952 91 107 75
-12.9263 -12.3324 0.4642 90 104 72
-13.1874 -12.314 0.46683 97 110 70
-13.0581 -12.1153 0.463473 66 81 52
-8.17387 -7.34593 0.275535 87 101 70
-20.3334 -12.6549 0.650768 52 13 4
-20.5657 -12.7116 0.655044 76 67 56
-19.9179 -12.1812 0.639505 124 102 89
-19.9433 -12.1117 0.639248 90 70 53
-19.9496 -12.0309 0.638578 76 73 62
-20.0428 -11.96 0.639411 71 77 48
-34.1759 -19.0588 1.08701 103 88 70
-26.6195 -6.56928 0.716995 180 169 163
-26.4065 -6.38545 0.712311 122 109 100
-26.5474 -6.24399 0.714286 88 75 71
-26.5192 -6.10612 0.713197 94 74 72
-6.03322 -13.374 0.297973 69 80 62
-6.17786 -13.5919 0.299635 73 85 65
-6.13475 -13.3813 0.298308 76 93 67
-6.1156 -13.2277 0.297377 71 88 68
-6.21891 -13.2929 0.298047 72 76 58
-6.40347 -13.209 0.29812 142 138 129
-6.42496 -12.9926 0.296963 100 87 68
-6.4449 -12.9317 0.296682 102 80 58
-6.67626 -12.3698 0.29428 111 95 72
-6.66381 -12.254 0.293601 74 60 37
-6.77381 -12.2786 0.2941 82 97 66
-6.80972 -12.209 0.293835 72 88 62
-13.9306 -12.3069 0.47491 80 88 65
-14.1772 -12.4105 0.478636 95 101 69
-14.311 -12.4511 0.480515 98 99 55
-21.6245 -12.7263 0.672277 84 93 60
-21.6643 -12.6139 0.671874 86 94 57
-21.7893 -12.5963 0.673751 79 89 56
-22.5375 -12.8441 0.688259 89 83 78
-22.6647 -12.7768 0.689728 96 86 77
-22.6725 -12.6883 0.689058 96 84 66
-22.6991 -12.6107 0.688799 112 106 87
-22.4284 -12.3229 0.681763 71 71 41
-22.6887 -12.3746 0.686525 56 66 34
-22.6598 -12.2675 0.685104 66 71 42
-23.768 -11.7885 0.699568 146 120 71
-23.2683 -11.4498 0.688367 146 126 82
-23.2097 -11.2863 0.68605 162 148 103
-23.1092 -11.1485 0.683242 107 91 49
-23.4423 -11.2197 0.689463 123 108 69
-23.5373 -11.1303 0.690368 133 121 78
-23.6436 -11.0907 0.691868 152 130 77
-23.6394 -10.999 0.691082 146 119 75
-26.7682 -6.6948 0.720257 100 106 108
-6.88546 -12.2585 0.29436 65 83 60
-6.93462 -12.2585 0.294526 50 70 58
-7.05232 -12.2474 0.294863 67 80 60
-7.03249 -12.0375 0.293657 66 82 56
-7.31259 -11.436 0.291428 81 96 77
-7.40815 -11.4317 0.291758 71 87 61
-14.3728 -13.652 0.49287 79 94 62
-14.3509 -13.5035 0.491157 94 104 69
-14.4933 -12.5332 0.483331 97 101 56
-14.5679 -12.4799 0.483663 94 106 68
-15.0917 -12.573 0.490451 118 112 80
-15.0599 -12.4669 0.489112 59 56 31
-15.1104 -12.4303 0.489352 79 85 51
-23.9259 -12.288 0.706374 140 128 90
-23.7607 -12.1095 0.702105 84 70 33
-24.1857 -12.1845 0.709867 92 97 64
-23.9068 -11.9504 0.703238 100 96 48
-18.1667 -7.04775 0.489175 113 100 66
-18.2027 -6.99666 0.489407 127 108 75
-18.2178 -6.90475 0.489144 128 101 74
-6.67011 -14.0596 0.303738 108 99 82
-6.78678 -14.1398 0.304537 145 136 131
-6.99009 -13.117 0.299435 90 73 47
-7.37974 -12.7393 0.298656 67 79 57
-7.32134 -12.4108 0.296673 50 63 46
-7.49964 -12.6306 0.29848 82 91 74
-7.42217 -12.2769 0.296303 78 85 73
-7.57879 -11.9863 0.295314 70 80 64
-15.5742 -14.266 0.511931 66 74 51
-15.7717 -13.3575 0.505443 81 91 57
-15.9477 -13.3809 0.507648 123 121 91
-16.358 -13.3435 0.511979 90 95 67
-15.5391 -12.5064 0.494963 66 53 53
-15.6886 -12.3489 0.495277 129 117 101
-16.0694 -12.1731 0.498179 98 95 77
-15.8192 -11.9038 0.492888 51 54 36
-28.7248 -13.0987 0.794196 71 62 67
-27.2516 -12.068 0.761119 97 77 65
-28.8812 -12.4152 0.79177 119 95 64
-29.3027 -12.219 0.797655 198 178 121
-28.9696 -11.7627 0.788661 170 130 109
-28.7531 -11.518 0.783194 120 98 83
-28.6991 -11.3925 0.781395 124 101 80
-28.6985 -11.2887 0.780682 112 87 64
-29.3056 -10.794 0.788096 92 73 47
-29.4285 -10.735 0.789892 86 71 47
-29.2523 -10.5155 0.785398 115 102 76
-29.6654 -10.2992 0.791387 104 87 59
-29.6306 -10.1835 0.790073 116 97 71
-63.7506 -20.2567 1.71616 92 102 68
-63.07 -19.8222 1.69851 98 116 74
-63.5757 -19.6535 1.70832 86 82 43
-7.1515 -14.2836 0.306457 118 96 59
-7.22096 -14.3138 0.306842 136 111 81
-7.33925 -14.1649 0.306379 115 87 66
-7.40189 -14.0181 0.305759 123 96 67
-7.54242 -12.6146 0.298544 77 88 71
-7.65681 -12.5859 0.298791 49 65 52
-7.95015 -11.8776 0.296112 56 71 50
-16.3607 -13.9512 0.517636 73 84 52
-16.6426 -13.1944 0.513909 92 73 64
-17.4084 -13.5896 0.526331 93 66 53
-16.6835 -12.9334 0.512058 104 67 58
-16.7263 -12.8838 0.512122 111 81 71
-16.6016 -12.7044 0.509085 105 106 80
-16.8888 -12.6373 0.511885 101 107 64
-16.9856 -12.5871 0.512596 67 66 20
-17.0386 -12.5448 0.512864 105 109 74
-17.2231 -12.5999 0.515532 90 95 70
-17.3453 -12.6077 0.517059 70 74 56
-18.0549 -12.247 0.522641 103 107 57
-30.0057 -13.7971 0.821472 80 61 44
-30.0317 -13.5827 0.820274 93 83 85
-30.303 -13.5918 0.824995 108 99 90
-29.553 -12.4864 0.803909 127 106 84
-30.2982 -12.5237 0.817099 150 145 94
-30.4604 -12.4796 0.819608 233 207 186
-21.8983 -6.29701 0.537761 123 120 56
-8.08465 -12.5865 0.300334 55 70 49
-8.161 -12.4923 0.300118 57 74 53
-8.1268 -12.3547 0.29927 70 86 67
-8.13097 -12.2778 0.298883 75 89 64
-8.38824 -12.4623 0.300811 39 54 33
-8.36785 -12.3483 0.300142 71 84 64
-8.34461 -12.2312 0.299447 68 86 64
-8.37215 -12.1497 0.299128 78 92 75
-17.7834 -14.4297 0.53823 84 81 61
-18.1543 -13.0733 0.530675 89 96 60
-18.031 -12.8984 0.527724 95 97 48
-17.9018 -12.7209 0.524685 92 91 43
-18.0127 -12.6741 0.52563 81 95 56
-18.2962 -12.7908 0.530024 87 100 64
-18.4254 -12.6695 0.530592 69 80 46
-18.2966 -12.4962 0.527611 98 107 59
-18.3119 -12.3402 0.526537 103 108 58
-18.5891 -12.4029 0.530436 96 103 56
-18.7929 -12.456 0.533367 110 115 63
-19.0289 -12.529 0.536853 121 123 77
-19.1002 -12.4486 0.537094 84 92 61
-18.4899 -11.9647 0.525743 104 81 60
-18.7793 -12.0713 0.530165 79 61 39
-18.563 -11.8083 0.52543 184 160 126
-19.0703 -12.0512 0.533628 221 184 149
-18.5793 -11.6569 0.524471 237 187 158
-19.4953 -12.1533 0.539722 65 19 12
-19.6073 -12.0967 0.540693 108 71 70
-30.9573 -17.7883 0.871315 93 102 80
-8.84891 -12.7703 0.304163 42 52 43
-8.8147 -12.6359 0.30334 48 56 45
-8.77658 -12.4555 0.302263 52 64 49
-8.84105 -12.4662 0.30257 61 69 54
-8.78752 -12.3081 0.301553 54 67 51
-8.81216 -12.2218 0.301208 66 77 61
-8.86354 -12.2143 0.301373 75 86 72
-9.11715 -12.2863 0.302747 66 75 67
-19.2669 -13.388 0.546709 90 96 63
-19.7632 -12.109 0.542745 99 58 58
-19.9006 -12.1089 0.544475 137 90 83
-19.9753 -12.027 0.544802 136 83 71
-20.0394 -11.981 0.545273 131 83 74
-20.1291 -11.9502 0.546183 88 83 59
-23.2636 -7.08883 0.560204 166 166 130
-23.3206 -6.98686 0.560581 150 157 140
-23.3282 -6.90971 0.560372 142 149 127
-3.14143 -7.09981 0.112913 81 95 78
-3.15995 -7.08343 0.113021 71 83 75
-3.17763 -7.06515 0.113153 59 68 60
-3.20276 -7.06533 0.113041 67 79 63
-9.36713 -12.8367 0.306527 77 92 76
-9.18063 -12.4951 0.304057 78 92 75
-9.25894 -12.4001 0.30389 92 104 90
-9.35994 -12.4567 0.304582 54 67 53
-9.42839 -12.4279 0.304713 71 86 67
-9.42928 -12.3493 0.304325 62 75 54
-9.49126 -12.3521 0.304593 66 80 54
-21.438 -12.5993 0.567552 70 79 60
-21.6125 -12.6123 0.569866 88 96 73
-21.6838 -12.5639 0.570424 70 79 50
-21.8656 -12.5792 0.572855 90 97 72
-22.0639 -12.5571 0.57523 94 86 83
-22.2897 -12.5948 0.578393 102 89 83
-22.5889 -12.6726 0.582784 106 91 85
-22.8547 -12.6825 0.586271 94 98 76
-23.0803 -12.7147 0.589404 62 72 48
-23.0895 -12.6261 0.588908 70 79 55
-23.0864 -12.4842 0.587887 89 97 68
-22.8596 -11.7676 0.58011 89 87 57
-23.0808 -11.7458 0.582864 105 103 64
-22.9117 -11.4796 0.578914 106 104 61
-22.8949 -11.3372 0.577775 148 118 71
-23.2372 -11.4179 0.582808 162 132 77
-23.5426 -11.4781 0.587227 145 118 58
-23.1954 -11.218 0.580994 149 132 77
-23.1949 -11.0839 0.580147 140 127 82
-23.2737 -11.0328 0.580878 101 80 49
-23.4174 -11.012 0.582663 127 104 62
-23.5259 -10.929 0.5836 166 147 82
-23.7511 -10.9445 0.586701 104 86 56
-24.0762 -10.8682 0.590593 105 90 85
-26.4849 -6.42831 0.603308 109 95 87
-26.4052 -6.32131 0.601811 106 87 73
-3.25507 -7.09958 0.112418 76 90 70
-9.98459 -12.7971 0.308825 80 95 64
-9.74739 -12.4089 0.305928 69 84 52
-9.79035 -12.3852 0.30599 71 85 59
-9.79088 -12.2675 0.305412 66 84 60
-9.79747 -12.1981 0.305101 71 86 60
-10.0865 -12.4838 0.307711 52 67 48
-10.0102 -12.2703 0.306348 64 79 56
-9.9275 -12.0147 0.304759 78 93 67
-9.92343 -11.8961 0.304168 73 87 64
-10.1766 -12.1272 0.306367 65 77 53
-10.2688 -12.1619 0.30693 74 83 59
-10.2071 -12.0122 0.305949 81 90 68
-10.3067 -12.0167 0.3064 76 81 59
-10.3785 -12.0259 0.306757 55 63 43
-10.3737 -11.9453 0.306355 79 86 66
-23.4741 -12.2725 0.591493 78 78 47
-23.4975 -12.1916 0.591259 80 74 46
-23.7767 -12.0096 0.593721 105 97 63
-10.4983 -11.9773 0.307051 104 112 95
-10.8961 -12.3594 0.310603 93 80 73
-10.9499 -12.3437 0.310767 96 72 70
-13.2327 -7.04869 0.301943 72 74 52
-13.2539 -7.00736 0.301945 70 68 40
-13.3302 -6.96843 0.302272 72 59 28
-27.1543 -12.0646 0.638957 97 74 57
-27.2167 -11.9908 0.639365 130 100 72
-28.5917 -12.3345 0.659873 165 133 94
-28.6752 -12.2646 0.660602 140 108 83
-29.127 -11.6057 0.6631 122 99 83
-29.0857 -11.4311 0.661606 121 93 72
-29.532 -11.0247 0.665625 108 86 69
-29.4509 -10.7324 0.663043 107 97 89
-64.2022 -22.6333 1.47894 96 90 90
-29.886 -10.5225 0.668033 98 97 95
-64.7015 -22.0145 1.48401 94 88 86
-64.8888 -21.7383 1.48569 94 88 86
-65.0563 -21.5679 1.48767 90 84 87
-65.2102 -21.3924 1.48938 89 84 84
-63.4062 -20.2516 1.45063 91 96 69
-63.5848 -20.0893 1.4529 108 116 81
-63.2443 -19.7639 1.44499 77 81 51
-63.7177 -19.5834 1.45247 97 85 77
-66.3675 -17.8064 1.49104 169 152 126
-4.1458 -6.6463 0.112742 80 91 62
-4.15878 -6.622 0.112921 53 59 37
-11.0282 -12.3168 0.310987 107 75 70
-11.1949 -12.4275 0.312246 109 74 68
-11.5333 -12.7278 0.315155 108 73 67
-11.4639 -12.5719 0.314121 101 68 61
-11.409 -12.3944 0.313051 92 68 63
-11.3372 -12.1633 0.311665 64 68 50
-11.4602 -12.1823 0.312309 75 82 56
-11.4197 -12.0636 0.311584 55 57 38
-11.4786 -12.0515 0.311799 82 90 67
-11.6791 -12.1502 0.313165 84 89 66
-8.12781 -7.34832 0.198323 66 73 58
-8.1544 -7.32739 0.198325 73 86 61
-8.1515 -7.27935 0.198355 72 80 57
-8.19223 -7.24842 0.198356 60 72 52
-8.23041 -7.23794 0.198347 73 86 64
-29.5288 -13.5158 0.679398 117 109 92
-30.056 -13.4752 0.686214 113 89 81
-30.0769 -13.0911 0.684248 142 106 72
-31.1881 -13.1732 0.699719 147 125 99
-31.2431 -13.0816 0.69995 133 115 68
-30.1281 -12.5014 0.681602 192 173 108
-29.3954 -11.9269 0.66849 168 101 105
-29.38 -11.8137 0.667667 111 85 80
-4.18685 -6.62353 0.112735 72 84 67
-4.22026 -6.61014 0.112673 63 79 69
-12.1561 -12.5732 0.317274 98 104 76
-12.2515 -12.5946 0.317812 80 86 63
-12.3556 -12.624 0.318427 88 83 71
-6.21789 -12.2584 0.195189 96 72 55
-6.30633 -12.2477 0.195193 107 80 59
-12.4658 -12.6193 0.318916 97 82 76
-12.5592 -12.6362 0.319428 95 80 73
-12.6261 -12.6256 0.319695 96 84 75
-12.8911 -12.3445 0.319714 70 79 57
-12.9203 -12.2962 0.319645 81 90 65
-12.8946 -12.1574 0.318922 80 94 68
-12.9632 -12.0717 0.318886 81 93 69
-3.12453 -7.16486 0.0858955 74 84 60
-3.14532 -7.15407 0.085937 66 78 58
-5.84236 -13.2728 0.19437 60 76 58
-3.16381 -7.13767 0.0860727 59 76 58
-3.1845 -7.12676 0.0861142 64 76 61
-5.91648 -13.2759 0.194365 68 79 64
-6.08198 -13.5504 0.194135 91 103 83
-6.07632 -13.422 0.194242 84 98 75
-6.11793 -13.3469 0.194301 67 82 60
-6.11477 -13.2279 0.1944 79 92 74
-6.19921 -13.3081 0.194332 81 97 72
-6.19041 -13.1782 0.19444 89 98 70
-6.33667 -13.1215 0.194479 145 139 134
-6.41835 -13.0319 0.194547 83 86 77
-6.49824 -12.3946 0.195059 94 66 50
-6.54171 -12.3857 0.195063 92 71 57
-6.62736 -12.4112 0.195033 82 63 60
-6.6289 -12.3201 0.195107 89 79 69
-6.66674 -12.3 0.19512 91 83 67
-6.73588 -12.2927 0.195118 90 93 74
-7.24468 -11.4345 0.195723 66 78 65
-13.3027 -13.1845 0.325343 96 90 72
-13.18 -12.9811 0.323869 76 79 60
-13.2739 -12.9936 0.324368 86 93 77
-13.3564 -12.5182 0.322697 96 111 78
-13.898 -12.2034 0.324016 76 89 67
-13.9294 -12.1549 0.323972 62 75 49
-14.1815 -12.1836 0.325346 97 109 87
-3.2201 -7.1204 0.0860015 86 100 77
-3.24616 -7.1222 0.0858231 82 97 74
-6.3452 -13.2477 0.194375 144 134 124
-6.85489 -12.426 0.195 68 81 58
-6.86017 -12.3435 0.195065 74 88 62
-6.88108 -12.291 0.195105 74 88 63
-6.92855 -12.2421 0.195137 53 66 57
-7.0486 -12.3719 0.195021 56 70 55
-7.15458 -12.3374 0.195035 73 85 56
-7.23452 -12.3906 0.194983 78 92 64
-7.39046 -11.8799 0.195358 77 88 68
-7.34559 -11.5198 0.195642 52 62 56
-14.1448 -13.7242 0.331694 61 75 54
-14.2587 -13.7499 0.332348 80 95 67
-14.3976 -12.4876 0.327671 84 93 73
-14.5541 -12.4275 0.328206 55 63 50
-15.1564 -12.5036 0.331549 93 94 78
-6.8005 -13.5705 0.194084 100 80 50
-7.42991 -12.9734 0.194502 57 68 52
-7.46437 -12.7077 0.194705 77 93 68
-7.49457 -12.6233 0.194765 76 86 60
-7.57323 -12.6698 0.194719 60 72 49
-7.5366 -11.9965 0.195244 65 76 56
-7.68148 -11.9834 0.195231 75 87 76
-15.3901 -14.2155 0.339788 94 107 69
-15.4265 -14.1608 0.339732 87 100 66
-15.7429 -13.2384 0.337467 72 85 61
-15.9336 -13.3155 0.33874 77 92 62
-15.4503 -12.4676 0.332903 81 76 61
-15.5236 -12.4078 0.333042 85 61 71
-15.7508 -12.2335 0.333536 112 87 66
-16.1561 -12.1915 0.335487 79 87 61
-18.2338 -7.03256 0.331516 135 106 83
-18.1873 -6.91702 0.330975 120 101 90
-63.7264 -23.0733 1.19694 111 103 96
-63.9008 -22.9101 1.19853 105 95 101
-64.4207 -22.3016 1.20276 94 89 95
-64.6032 -22.0248 1.20398 91 85 96
-64.7769 -21.8575 1.2056 87 82 93
-64.9179 -21.6785 1.20672 88 84 91
-65.1092 -21.4023 1.20811 83 79 77
-65.2623 -21.226 1.20944 102 101 84
-65.4206 -21.0508 1.21086 95 95 64
-62.7855 -19.9834 1.16931 93 96 68
-62.8207 -19.6692 1.16842 84 80 52
-65.9326 -20.4193 1.21522 70 62 53
-63.9709 -18.0625 1.17784 127 128 63
-63.9205 -17.8318 1.17622 121 122 57
-64.4434 -17.6513 1.1829 120 113 63
-66.3811 -17.9597 1.21147 117 107 72
-6.87791 -14.1231 0.19363 137 137 129
-6.99565 -14.1464 0.193605 64 56 45
-7.12554 -14.0249 0.193694 103 78 58
-7.3192 -14.1424 0.193583 112 84 61
-4.14511 -6.68724 0.0857954 70 84 61
-4.19453 -6.65474 0.085847 71 82 65
-4.21859 -6.64915 0.0857305 44 52 45
-8.11721 -12.5565 0.194718 68 83 62
-8.17067 -12.5554 0.194709 60 75 54
-8.22098 -12.549 0.194705 56 71 48
-8.03998 -12.1377 0.195048 68 82 58
-8.21365 -12.3248 0.194875 65 79 56
-8.02733 -11.9545 0.195189 65 78 57
-8.2822 -12.2217 0.194938 51 65 52
-8.35604 -12.2514 0.194901 66 81 64
-8.35823 -12.1726 0.19496 65 82 58
-8.09714 -7.2587 0.152578 63 73 49
-8.11994 -7.21188 0.152657 73 85 64
-8.15805 -7.20153 0.152553 71 85 61
-16.8939 -13.8127 0.345595 71 62 57
-16.673 -13.2465 0.34223 94 63 65
-16.6745 -13.1634 0.341914 127 92 82
-17.212 -13.4596 0.345837 118 91 74
-16.8393 -12.9992 0.34213 127 101 75
-16.876 -12.9443 0.342111 107 100 56
-16.7658 -12.7355 0.340738 79 81 54
-16.8422 -12.6295 0.340737 85 93 57
-16.9423 -12.5818 0.341082 84 91 59
-17.0532 -12.5825 0.341669 58 63 43
-17.1772 -12.5921 0.342359 106 113 82
-17.229 -12.5069 0.342317 68 73 46
-17.4618 -12.5939 0.343872 100 109 68
-4.19061 -6.71793 0.0850212 74 82 64
-8.66347 -12.4213 0.194711 33 45 36
-8.72071 -12.4228 0.194698 51 68 60
-8.79614 -12.4505 0.194661 39 54 41
-8.83583 -12.2216 0.194819 60 71 59
-8.92828 -12.2314 0.19479 56 70 55
-8.97741 -12.2203 0.194786 60 66 54
-8.1268 -7.33083 0.152222 80 85 74
-17.2989 -14.0559 0.348624 64 51 49
-18.2327 -13.0659 0.349704 97 106 63
-18.7009 -13.3147 0.353107 82 92 49
-18.1747 -12.8114 0.348464 54 57 35
-18.4218 -12.9006 0.35011 76 78 56
-18.3958 -12.7973 0.349599 93 97 66
-18.4402 -12.7009 0.34949 84 94 59
-18.1279 -12.3197 0.346451 112 122 72
-18.1309 -12.2396 0.346184 76 84 48
-18.7907 -12.3905 0.350296 102 104 47
-18.9166 -12.3473 0.350833 122 126 74
-18.8958 -12.25 0.350385 107 97 48
-18.4157 -11.8569 0.34641 254 251 194
-19.1093 -12.1786 0.351314 173 154 111
-18.7362 -11.8586 0.348178 190 161 104
-18.8436 -11.8448 0.348724 178 145 100
-19.1088 -11.9291 0.350472 119 90 52
-18.9683 -11.7184 0.348992 90 64 45
-21.7739 -6.27411 0.351698 124 123 61
-8.90618 -12.4856 0.19461 72 81 63
-8.98678 -12.519 0.194568 36 44 34
-9.19676 -12.4459 0.194571 74 84 67
-9.24901 -12.4371 0.194565 99 115 89
-9.32314 -12.4171 0.19456 57 63 56
-9.37901 -12.4126 0.19455 76 85 67
-9.40759 -12.371 0.194572 66 78 57
-9.45654 -12.3164 0.194598 53 64 51
-9.51596 -12.3161 0.194583 54 65 56
-9.55979 -12.2948 0.194586 75 83 72
-9.8141 -11.8848 0.1948 63 75 55
-19.1289 -13.0891 0.354586 93 98 57
-19.9935 -13.3649 0.360236 103 108 64
-19.9546 -13.2492 0.35962 98 98 47
-19.6722 -12.0697 0.354061 87 54 44
-19.9208 -12.1374 0.355666 151 103 95
-19.9786 -12.045 0.355686 141 91 80
-20.0172 -11.9836 0.355701 139 90 82
-19.9852 -11.88 0.355188 98 81 63
-20.9914 -12.3466 0.362326 111 109 90
-23.3949 -7.01775 0.363074 92 92 76
-23.3411 -6.92224 0.362567 100 104 56
-6.28989 -12.233 0.136966 105 73 61
-9.29268 -13.4869 0.193791 80 92 73
-9.78179 -12.4666 0.194405 40 51 34
-9.79447 -12.4032 0.194446 65 83 56
-9.84231 -12.3857 0.194446 80 96 69
-9.78694 -12.2357 0.194566 77 91 65
-9.87206 -12.2266 0.194547 82 96 68
-9.89714 -12.1806 0.194572 49 62 45
-10.1363 -12.4032 0.19435 48 56 41
-9.926 -11.9477 0.194724 59 74 55
-10.1748 -12.1773 0.194493 47 62 39
-10.2705 -12.1781 0.194463 84 98 72
-10.4666 -11.8053 0.194651 94 86 69
-10.4253 -11.6842 0.194745 102 81 75
-21.6077 -12.6193 0.366657 61 61 49
-21.6844 -12.5738 0.366944 71 67 56
-21.8408 -12.5739 0.367826 70 64 50
-22.0293 -12.5456 0.3688 96 87 82
-22.1304 -12.5122 0.369268 94 81 75
-23.2087 -11.8169 0.373354 170 133 83
-22.9678 -11.5145 0.371095 157 127 73
-22.874 -11.3337 0.370038 120 79 28
-22.9643 -11.2895 0.370439 159 121 72
-22.9952 -11.2158 0.370414 109 73 42
-23.1693 -11.0779 0.37105 113 108 54
-23.2321 -11.019 0.371257 139 130 74
-23.387 -11.0033 0.372122 92 83 43
-23.6327 -10.8945 0.373274 107 91 67
-5.59831 -13.4527 0.132416 66 73 65
-5.68135 -13.5398 0.131864 58 65 56
-6.05245 -13.0985 0.133346 70 76 53
-6.12455 -13.1514 0.132965 71 83 60
-6.15507 -13.1111 0.133102 57 65 44
-6.46066 -12.3369 0.136139 130 103 73
-6.49125 -12.3031 0.136233 93 65 46
-6.55374 -12.2842 0.13619 83 63 61
-6.69883 -12.239 0.136093 86 80 69
-6.80646 -12.169 0.136183 82 97 67
-7.36827 -11.3774 0.138415 60 73 55
-10.5182 -12.4003 0.194237 54 65 49
-10.6333 -12.188 0.194343 77 92 73
-10.5653 -12.0324 0.194469 78 89 70
-23.3855 -12.983 0.377841 53 46 25
-23.1241 -12.7436 0.375621 60 58 47
-23.2386 -12.7126 0.376178 68 73 55
-23.8304 -12.892 0.380098 79 84 52
-23.958 -12.8647 0.380745 74 74 49
-13.3179 -7.10878 0.195799 80 81 51
-13.29 -7.04083 0.19584 147 130 77
-13.3394 -7.01444 0.19582 148 111 54
-23.5163 -12.2054 0.376257 161 117 65
-23.8382 -12.2784 0.378325 157 122 76
-23.559 -11.903 0.375629 158 128 70
-23.9261 -10.9394 0.375121 137 127 105
-26.4225 -6.414 0.380903 134 117 110
-26.4768 -6.33941 0.381129 133 117 102
-6.05407 -13.6089 0.130912 78 90 73
-6.0777 -13.5485 0.13116 79 91 69
-6.23969 -13.807 0.129646 83 97 69
-6.22482 -13.5995 0.130658 60 72 56
-6.30796 -13.177 0.132508 142 133 125
-6.2768 -13.004 0.133382 145 139 133
-6.89594 -12.4254 0.134818 77 88 64
-6.86954 -12.1502 0.13613 81 97 71
-6.93383 -12.1784 0.135861 68 82 69
-7.08096 -12.3547 0.134734 74 85 73
-7.08724 -12.2318 0.135276 72 85 65
-7.44477 -11.8609 0.136099 75 89 72
-10.9282 -12.7332 0.193886 46 56 48
-10.9795 -12.6734 0.193909 64 74 58
-11.1549 -12.326 0.19408 108 74 72
-11.3011 -12.3358 0.194024 106 73 75
-11.3938 -12.3617 0.193976 91 67 65
-11.369 -12.2187 0.194076 86 91 68
-11.3632 -12.1365 0.194131 57 63 45
-11.3679 -12.0661 0.194174 83 91 67
-11.4155 -12.0046 0.194196 83 92 69
-11.4428 -11.9591 0.194215 73 85 63
-11.4506 -11.8932 0.194254 83 98 72
-11.8433 -12.1946 0.19392 75 83 60
-27.1855 -12.0717 0.397325 133 104 73
-6.78148 -13.9194 0.128124 140 137 128
-6.98867 -13.0287 0.131854 99 83 72
-7.19837 -13.3315 0.130021 85 83 68
-7.40652 -12.7076 0.132407 76 89 71
-7.33853 -12.4976 0.133508 67 79 62
-7.5133 -12.6666 0.132347 52 65 45
-7.57025 -12.6748 0.132179 76 92 64
-7.38499 -12.2688 0.134428 74 92 72
-7.64372 -12.0193 0.134916 49 60 51
-7.75452 -12.0723 0.13441 62 75 55
-8.01384 -11.9465 0.134306 73 88 67
-11.4406 -13.4281 0.193259 51 57 48
-11.6926 -12.8523 0.193555 107 70 70
-12.3438 -12.6412 0.193456 94 98 76
-12.4727 -12.6964 0.193373 90 83 68
-12.5562 -12.7037 0.193338 96 83 74
-29.9418 -13.4073 0.417089 82 65 33
-29.0098 -12.5036 0.409244 133 111 90
-28.5955 -12.2194 0.406064 131 110 89
-30.0751 -12.5743 0.415761 153 147 94
-29.1972 -11.9403 0.408965 159 98 90
-29.5856 -11.8838 0.411155 118 90 79
-29.2576 -11.6461 0.408621 136 107 85
-29.2722 -11.4932 0.408349 113 95 86
-29.3054 -11.4007 0.408332 116 95 78
-30.6301 -11.422 0.416376 114 98 90
-29.3823 -10.6964 0.407204 97 90 86
-30.6928 -10.956 0.415728 97 92 99
-6.886 -14.0289 0.127411 109 114 98
-6.95503 -14.0621 0.127123 86 82 59
-7.1597 -14.3182 0.125526 109 92 72
-6.98544 -13.8493 0.128057 76 56 48
-7.2813 -13.2396 0.130265 65 64 58
-7.95917 -12.2308 0.133207 74 84 64
-8.08819 -12.3496 0.132365 88 97 77
-8.15625 -12.3292 0.132281 59 68 49
-8.18097 -12.2842 0.132414 57 71 48
-8.36037 -12.3498 0.131668 50 64 48
-8.32689 -12.1358 0.132677 35 50 38
-8.32271 -12.049 0.133061 49 63 49
-12.426 -13.8912 0.192631 103 88 81
-12.6584 -12.6895 0.193307 97 83 76
-13.1399 -13.0181 0.19292 94 88 74
-13.1734 -12.9301 0.19296 50 63 45
-13.1989 -12.8752 0.192984 73 87 62
-12.9878 -12.3155 0.193402 73 88 59
-13.0443 -12.2932 0.193393 91 109 82
-13.0157 -12.1514 0.193488 59 72 51
-13.1633 -12.2152 0.193389 58 71 53
-13.1017 -12.0815 0.193493 65 79 53
-7.38207 -14.2676 0.125319 114 83 65
-8.87194 -12.734 0.128677 74 89 69
-8.86121 -12.6343 0.129131 73 87 70
-8.73285 -12.3654 0.13062 59 73 56
-9.00075 -12.462 0.129485 72 88 75
-8.95616 -12.2775 0.130384 58 72 55
-8.91205 -12.1364 0.131098 58 67 50
-8.95161 -12.1123 0.13109 88 99 83
-13.5235 -13.4883 0.192485 96 82 76
-13.6168 -13.2074 0.192618 69 81 61
-13.4793 -12.95 0.192827 81 94 64
-13.9592 -13.3354 0.192404 84 96 66
-13.8722 -12.1785 0.193108 84 93 71
-13.9734 -12.1536 0.193077 93 108 80
-14.3203 -12.3043 0.192839 73 88 60
-14.3333 -12.1997 0.192891 83 91 72
-14.495 -12.2618 0.192784 62 72 51
-9.38099 -13.0848 0.125818 38 56 41
-9.2149 -12.3949 0.129175 62 67 59
-9.27468 -12.3556 0.12917 54 62 47
-9.34235 -12.3673 0.128931 60 70 54
-9.36113 -12.3129 0.129103 61 78 54
-9.43259 -12.2889 0.128998 58 71 44
-9.45457 -12.2391 0.12914 85 92 77
-9.51878 -12.245 0.12893 43 54 40
-9.69144 -12.3515 0.127993 54 63 51
-9.7428 -12.339 0.127894 51 61 51
-9.7646 -12.0942 0.128823 89 101 70
-9.83536 -12.1063 0.128564 94 108 70
-9.85366 -12.0526 0.128725 92 107 71
-15.0851 -12.568 0.192349 58 68 44
-15.1833 -12.5712 0.192302 82 94 70
-15.4213 -12.4903 0.192234 81 63 66
-15.4193 -12.4095 0.192277 80 61 54
-9.22729 -13.5685 0.124163 61 75 57
-10.1224 -12.2693 0.127047 51 63 44
-10.2916 -12.3991 0.126016 76 89 71
-10.1214 -12.1142 0.127669 77 92 70
-10.1698 -12.0581 0.127744 75 90 71
-10.2132 -12.0344 0.127704 67 79 63
-10.5125 -12.315 0.125672 44 46 41
-10.4056 -11.7377 0.128264 85 77 66
-10.4072 -11.6665 0.128535 99 78 73
-10.4601 -11.6539 0.128414 102 77 73
-10.6552 -11.7635 0.127367 105 71 70
-16.1879 -13.6287 0.191272 66 77 61
-15.7262 -12.863 0.191894 74 67 58
-16.3964 -12.9972 0.191507 108 84 69
-16.5893 -13.0682 0.191377 125 86 80
-16.1768 -12.658 0.191786 138 99 99
-16.0876 -12.4665 0.191927 115 88 76
-16.0187 -12.3328 0.192028 97 88 53
-16.9093 -12.9437 0.191284 106 105 59
-16.8999 -12.8532 0.191334 89 94 40
-16.6702 -12.5538 0.191596 88 98 46
-16.7055 -12.4994 0.191605 103 109 66
-16.7613 -12.4606 0.191596 64 70 39
-13.2488 -7.07334 0.132154 81 89 54
-13.2241 -7.00762 0.132416 65 63 36
-13.2611 -6.97478 0.132329 77 68 36
-18.1694 -7.05267 0.192795 114 93 79
-18.2073 -7.00232 0.192782 122 104 93
-10.4498 -13.082 0.122795 71 83 63
-10.9791 -12.7892 0.122359 55 58 52
-11.2901 -12.3967 0.122895 109 76 74
-11.308 -12.3395 0.123056 106 72 70
-11.4104 -12.3755 0.122586 79 59 57
-11.347 -12.0407 0.124059 83 97 73
-11.3261 -11.9064 0.124633 82 85 64
-11.3406 -11.8482 0.124802 66 76 57
-11.3658 -11.8015 0.124892 70 81 57
-8.1072 -7.27296 0.0763377 63 78 53
-8.11738 -7.23727 0.0765387 78 93 67
-8.15104 -7.22314 0.076351 58 70 47
-8.20786 -7.20702 0.0759714 56 68 42
-17.2889 -13.8459 0.190641 81 62 57
-17.1762 -12.6484 0.191296 66 70 42
-17.2952 -12.6543 0.191233 74 79 44
-17.4467 -12.6832 0.191142 110 117 76
-17.5747 -12.6521 0.191092 75 89 44
-17.8873 -12.7115 0.190902 103 101 55
-18.2986 -12.9214 0.19059 60 65 36
-18.36 -12.8369 0.190598 69 71 27
-18.391 -12.6891 0.190649 130 128 64
-18.0074 -12.2977 0.19103 50 55 26
-18.0335 -12.2337 0.191045 66 73 37
-18.1915 -12.2595 0.190949 101 102 62
-18.4127 -11.8347 0.191015 171 151 90
-18.7204 -11.8295 0.190848 224 209 167
-18.4174 -11.5561 0.19113 128 110 39
-18.4899 -11.522 0.191104 69 51 20
-11.6856 -13.3276 0.118041 74 84 64
-12.2071 -12.5678 0.119227 68 79 57
-18.504 -12.8531 0.190515 89 87 30
-18.6075 -12.4167 0.190657 111 116 69
-18.6688 -12.3742 0.190642 94 99 53
-18.8115 -12.3856 0.19056 100 108 58
-18.906 -12.3643 0.190517 96 104 52
-19.1354 -12.3884 0.190383 177 153 100
-18.7829 -11.9927 0.190744 168 142 91
-19.3365 -11.9714 0.190445 102 105 62
-19.4054 -11.8892 0.190441 80 60 28
-19.84 -12.0733 0.190122 131 88 71
-20.0202 -12.0987 0.190009 129 81 66
-63.9405 -23.4871 0.645001 102 94 90
-63.9497 -23.0368 0.644045 98 93 96
-64.2724 -22.5857 0.645016 94 87 95
-64.4273 -22.4135 0.645583 90 85 91
-64.5685 -22.2361 0.646059 98 92 96
-64.7835 -21.9699 0.64681 91 86 90
-64.9614 -21.8035 0.647543 94 89 95
-65.0915 -21.6204 0.647954 96 90 89
-65.3364 -21.3611 0.648923 95 88 78
-65.4651 -21.1764 0.649333 104 100 78
-62.9028 -20.1307 0.631522 99 106 71
-62.9962 -19.6178 0.631081 104 94 87
-63.0586 -19.4206 0.631078 90 79 75
-21.8609 -6.40147 0.190454 128 130 81
-63.7196 -18.1034 0.632685 109 110 67
-21.8091 -6.31225 0.190502 116 118 73
-63.9237 -17.9449 0.63366 125 124 71
-64.0985 -17.7774 0.634442 123 121 69
-66.6036 -18.1344 0.650612 143 132 95
-66.7502 -17.9497 0.651199 123 111 88
-12.0408 -13.8244 0.114987 83 96 73
-12.1414 -13.0556 0.117619 78 85 67
-12.0947 -12.9241 0.118269 54 63 43
-12.3526 -12.6407 0.118467 69 77 56
-12.4388 -12.6511 0.118137 91 83 71
-12.5335 -12.6698 0.117747 95 82 76
-12.633 -12.6527 0.117471 97 82 77
-12.9721 -12.9156 0.115352 101 88 80
-12.9735 -12.8372 0.115631 94 89 77
-12.9425 -12.6087 0.116563 77 87 63
-12.964 -12.5518 0.116692 82 95 73
-12.8628 -12.1096 0.11862 73 87 57
-12.9697 -12.0976 0.118283 80 94 66
-13.1178 -12.1612 0.117533 77 91 68
-13.0481 -12.0211 0.11827 88 101 72
-13.0846 -11.9427 0.118412 102 117 82
-21.0586 -12.5088 0.189256 95 94 63
-20.9974 -12.3838 0.18934 84 88 60
-21.5934 -12.6024 0.188913 54 54 32
-21.7854 -12.6246 0.188793 69 72 61
-23.4127 -7.13853 0.189274 118 115 65
-23.3176 -7.02972 0.189356 182 157 100
-3.1306 -7.12056 0.0118214 74 77 64
-13.1097 -12.8527 0.115105 67 74 56
-13.654 -13.0224 0.1126 87 97 73
-13.7358 -13.0201 0.112319 65 75 58
-13.877 -12.0546 0.115144 75 87 65
-13.9366 -12.0311 0.115002 74 86 64
-14.2855 -12.1425 0.113335 74 83 69
-21.9606 -12.6357 0.188687 57 60 54
-22.0754 -12.6109 0.188629 89 87 82
-22.1111 -12.4945 0.188653 88 77 73
-22.1493 -12.4253 0.188656 119 107 96
-23.4221 -12.1538 0.187994 81 73 44
-22.9818 -11.6069 0.188443 70 51 20
-22.9816 -11.517 0.188472 101 73 32
-23.9614 -11.9184 0.187741 121 100 59
-24.0056 -11.8005 0.187753 123 101 66
-23.1994 -11.2222 0.188431 117 93 57
-23.2265 -11.1461 0.188437 111 97 39
-23.5499 -11.167 0.188232 117 101 53
-23.9125 -11.2489 0.18798 122 107 52
-23.6287 -11.0246 0.188224 123 109 58
-3.11268 -7.13882 0.0115571 73 83 62
-3.17311 -7.13107 0.01117 85 103 78
-3.18566 -7.09969 0.0117912 67 79 60
-3.22312 -7.12929 0.0107297 74 85 65
-6.23746 -12.1805 0.0409143 131 101 71
-6.31311 -12.1447 0.0409173 94 64 54
-13.9313 -13.3721 0.110383 86 98 71
-14.6151 -12.3469 0.111428 57 65 52
-15.2283 -12.4293 0.108846 87 84 65
-15.3665 -12.4238 0.108339 83 62 67
-15.4232 -12.3911 0.108227 81 61 63
-23.6975 -13.2039 0.18746 52 48 42
-24.2876 -13.3864 0.187047 66 69 62
-23.9542 -13.1041 0.187345 64 72 60
-24.1915 -12.4605 0.187424 68 59 25
-24.0218 -12.2778 0.187587 85 76 40
-24.2837 -11.8442 0.187567 105 83 60
-26.402 -6.41229 0.187306 126 109 102
-26.4754 -6.34253 0.18726 120 109 103
-5.52235 -13.4063 0.0304011 61 72 54
-6.44365 -12.2645 0.0389096 90 63 50
-6.51552 -12.3129 0.0379957 89 60 52
-6.57657 -12.1978 0.0389307 84 58 40
-6.62691 -12.2028 0.0386026 101 85 52
-6.69675 -12.2448 0.0377621 117 115 79
-6.76478 -12.1447 0.0384767 89 105 69
-6.84974 -12.123 0.0382351 72 87 56
-4.16062 -6.67591 0.0104221 80 84 69
-4.1757 -6.65493 0.0106848 86 93 77
-4.1958 -6.64251 0.0106927 52 60 47
-4.2271 -6.64891 0.0101404 52 61 42
-7.26803 -11.2975 0.0445302 58 70 51
-7.3722 -11.3475 0.0433522 49 60 46
-8.11311 -7.32751 0.0385547 72 76 54
-8.12188 -7.29044 0.0388427 64 72 50
-8.13048 -7.25337 0.0391307 63 74 52
-15.7101 -13.7891 0.102547 68 82 56
-8.16658 -7.21847 0.0390776 76 90 64
-8.2316 -7.2319 0.0381788 57 71 48
-15.5904 -13.386 0.104343 74 83 65
-15.4821 -12.7987 0.106686 70 77 62
-16.1902 -13.3036 0.102365 79 82 64
-16.2157 -12.9493 0.103407 63 54 45
-16.0317 -12.3191 0.106103 103 94 63
-15.9791 -12.1998 0.106678 104 107 67
-16.4615 -12.2892 0.104508 82 92 64
-16.6483 -12.3491 0.103588 99 107 66
-26.5564 -14.4307 0.185326 72 81 63
-28.5619 -13.18 0.184496 118 110 68
-27.1954 -12.0849 0.18567 108 96 93
-18.5299 -7.27252 0.107773 124 105 89
-18.1471 -7.02455 0.109998 131 112 103
-18.1962 -6.97849 0.109848 126 107 101
-5.98947 -13.6012 0.0261447 79 95 76
-5.93689 -13.3585 0.029142 66 82 65
-5.99742 -13.3281 0.0292112 74 83 63
-6.00058 -13.222 0.0303995 68 77 56
-6.12707 -13.4021 0.0277756 88 97 79
-6.18603 -13.2554 0.0291548 84 96 74
-6.16255 -12.9849 0.0323117 100 98 82
-6.41766 -13.3844 0.0265912 141 131 122
-6.36704 -13.1654 0.029293 146 137 130
-6.90098 -12.4936 0.0339251 49 61 40
-7.11553 -12.7089 0.0303905 88 107 69
-6.97112 -12.2112 0.036594 66 78 56
-7.01246 -12.1971 0.0365098 67 80 60
-7.0819 -12.2335 0.0357181 67 79 57
-7.23605 -12.2858 0.0342614 67 83 58
-7.43262 -11.8497 0.0377135 78 85 69
-7.52911 -11.884 0.0367554 53 61 47
-7.72069 -11.8242 0.0361759 71 82 65
-16.4437 -13.6853 0.100165 71 83 63
-17.1567 -13.5745 0.0978042 93 80 65
-16.7168 -13.1403 0.100873 107 72 72
-16.8814 -13.1858 0.100093 110 72 67
-17.3071 -13.3905 0.0978006 106 72 58
-16.8671 -12.799 0.101351 88 94 53
-16.8593 -12.6694 0.10178 49 58 39
-17.1832 -12.624 0.100638 67 69 30
-17.3074 -12.6331 0.100116 82 89 62
-17.5773 -12.7476 0.0986968 73 83 52
-17.779 -12.7683 0.0978298 83 85 51
-17.7954 -12.6965 0.0979755 101 107 72
-17.8633 -12.5785 0.0980474 67 73 44
-17.9542 -12.5178 0.0978576 61 69 32
-17.937 -12.3409 0.0984371 100 108 57
-17.9875 -12.2524 0.0984862 75 78 50
-18.0069 -12.1839 0.0986013 84 90 52
-18.3589 -11.4882 0.0990594 158 122 83
-29.5529 -13.5282 0.183769 142 134 124
-28.8221 -13.083 0.184357 94 78 69
-28.7678 -12.8958 0.184446 93 82 74
-29.1485 -12.7407 0.184243 90 76 65
-29.5192 -12.6297 0.184036 133 113 88
-30.8875 -12.9336 0.183077 109 92 60
-30.0792 -12.483 0.183712 201 181 122
-29.4714 -12.1215 0.184196 198 167 125
-31.0324 -12.5972 0.183066 188 141 122
-29.4786 -11.8558 0.184258 115 93 79
-29.4795 -11.7493 0.184281 113 91 73
-30.645 -11.4453 0.183584 114 97 97
-30.6367 -11.0614 0.183671 101 97 96
-6.3789 -13.8063 0.0220296 88 101 84
-6.34412 -13.4996 0.025652 62 71 52
-6.69242 -13.7608 0.0210283 144 137 129
-6.76656 -13.7522 0.0207557 96 104 87
-6.98677 -13.6131 0.0211781 87 64 45
-6.9444 -13.0628 0.027466 88 60 48
-7.38783 -12.6458 0.0295168 63 78 51
-7.51783 -12.6929 0.0282514 65 80 61
-7.59069 -12.6829 0.0279281 62 72 56
-7.87943 -12.6797 0.0262198 53 60 47
-7.89056 -12.0117 0.0331424 58 70 52
-8.09389 -12.2489 0.0293784 64 77 57
-8.17123 -12.2438 0.0289324 65 81 60
-8.2284 -12.249 0.0285064 59 73 55
-8.27314 -12.111 0.0296318 40 53 48
-8.2871 -12.0508 0.0301555 50 60 52
-8.3274 -12.0305 0.0300947 66 75 54
-8.43573 -12.0702 0.0289665 66 82 51
-18.7466 -13.2906 0.0924006 76 80 36
-18.2176 -12.6183 0.0964982 68 76 37
-18.3641 -12.3436 0.0966836 74 85 51
-18.501 -12.311 0.0962142 109 116 75
-18.3742 -12.0622 0.0974301 90 106 68
-18.458 -12.0356 0.0971561 69 82 46
-19.1213 -12.3427 0.093558 146 141 81
-19.2853 -12.3641 0.0928156 56 43 8
-18.4367 -11.7376 0.0980607 151 128 56
-18.8949 -11.9066 0.0956877 247 238 159
-18.8132 -11.6923 0.0966032 74 64 28
-19.6502 -12.0872 0.0920284 102 88 54
-19.0562 -11.6392 0.0957185 119 90 66
-6.96015 -14.0515 0.0164487 82 83 63
-7.00001 -14.0232 0.0165618 86 72 53
-6.93315 -13.7179 0.0202936 105 84 57
-8.12766 -12.7775 0.0236561 55 64 46
-8.44734 -12.5017 0.024475 54 67 49
-8.51997 -12.1138 0.0279557 71 87 62
-8.74793 -12.3664 0.0238523 63 78 55
-8.91603 -12.0419 0.025954 73 81 68
-9.15669 -12.2167 0.0225208 73 79 63
-19.9051 -12.0745 0.0909808 135 95 78
-19.9747 -12.032 0.0907956 126 82 68
-20.9268 -12.386 0.0858261 98 99 68
-20.8855 -12.274 0.0862881 77 79 46
-20.8679 -12.1327 0.0867235 74 73 62
-21.0418 -12.1466 0.08594 64 62 55
-21.7424 -6.3337 0.0940012 117 113 75
-9.07866 -12.4721 0.020521 69 83 60
-9.11793 -12.4043 0.020927 74 82 67
-9.18112 -12.3305 0.0212188 65 72 56
-9.29846 -12.2906 0.0207844 73 86 61
-9.36467 -12.3007 0.020212 63 78 47
-9.39884 -12.2672 0.0202968 73 92 56
-9.51248 -12.2204 0.019935 59 67 51
-9.53182 -12.1674 0.0203115 49 60 43
-9.70753 -12.2787 0.0179426 52 59 48
-9.83935 -12.3706 0.0160805 52 54 47
-9.71796 -12.0584 0.0199962 68 75 56
-9.80978 -12.0591 0.019306 83 93 66
-9.83557 -12.0149 0.0195361 71 80 53
-10.263 -11.597 0.0201769 73 72 55
-10.3088 -11.5406 0.020337 99 88 75
-10.4008 -11.5735 0.0193017 101 79 73
-21.9583 -12.5859 0.0808933 69 63 55
-22.0195 -12.5302 0.0807671 102 92 89
-22.0304 -12.4003 0.0810426 100 92 83
-22.1138 -12.3569 0.0807867 71 72 64
-23.2413 -11.1041 0.0786672 150 119 56
-23.5674 -11.1249 0.0771569 134 118 76
-23.336 -7.07457 0.085349 121 109 26
-23.2997 -6.98423 0.0856451 220 188 106
-3.0769 -7.13467 -0.0157327 75 84 67
-3.11708 -7.17213 -0.017182 87 96 77
-3.12282 -7.09203 -0.0150697 67 74 61
-3.14269 -7.07931 -0.0149436 85 91 77
