8.94883 -2.88932 -1.75074 66 63 82
8.90282 -4.26462 -1.727 75 77 97
8.6627 3.37703 -1.76068 77 78 96
8.68451 0.93691 -1.74233 68 65 85
8.69548 0.893242 -1.74348 72 71 89
8.71852 0.865484 -1.74739 72 69 90
8.7103 0.834904 -1.74499 75 75 95
8.71494 0.790589 -1.74495 67 64 85
8.71427 0.760729 -1.74413 74 71 90
8.73108 0.732205 -1.74686 69 70 88
8.73718 0.687942 -1.74722 68 66 87
8.744 0.658587 -1.74797 63 61 80
8.76936 -0.231639 -1.74386 78 75 92
8.76938 -0.261288 -1.74382 76 73 90
8.77911 -0.291262 -1.74575 59 56 74
8.77649 -0.335694 -1.74531 69 64 83
8.7625 -0.364787 -1.74252 77 76 94
8.76993 -0.394752 -1.74406 79 76 95
8.77269 -0.439395 -1.7448 67 63 85
8.76816 -0.468831 -1.74397 74 74 89
8.77526 -0.498891 -1.74551 77 74 93
8.76971 -0.543115 -1.74467 71 68 86
8.93862 -2.91862 -1.75031 58 61 76
8.92554 -2.96336 -1.75025 65 65 77
8.62686 3.44777 -1.75921 71 69 89
8.63664 3.41775 -1.75882 69 70 89
8.63492 1.17014 -1.739 71 70 86
8.6528 1.12752 -1.74134 70 69 86
8.65905 1.09836 -1.7417 82 80 101
8.65935 1.06852 -1.74088 73 71 91
8.66931 1.03975 -1.74203 72 73 91
8.68075 0.996219 -1.74318 71 72 90
8.67877 0.966172 -1.74197 80 78 99
8.78047 -0.573485 -1.747 79 76 95
8.76771 -0.602356 -1.74459 78 73 95
8.78511 -0.648165 -1.74848 73 69 84
8.75845 -0.675932 -1.74333 83 80 97
8.78441 -0.707636 -1.7488 69 65 80
8.7771 -0.736817 -1.74758 78 74 89
8.78407 -0.782092 -1.74949 80 76 94
8.91134 -2.99139 -1.74908 58 57 71
8.90268 -3.02114 -1.74903 64 66 79
8.61252 3.50985 -1.76112 74 73 89
8.62065 3.47916 -1.76035 74 71 88
8.5628 1.3247 -1.7297 78 75 93
8.57354 1.29639 -1.73085 86 86 103
8.58418 1.26802 -1.732 66 66 85
8.62773 1.22901 -1.73946 69 66 84
8.63235 1.1997 -1.73943 80 77 96
8.75899 -0.809659 -1.74473 80 76 91
8.77475 -0.840842 -1.74823 69 67 83
8.76954 -0.885067 -1.74779 68 67 85
8.77726 -0.915635 -1.74972 73 74 92
8.76736 -0.944446 -1.7481 74 73 91
8.89098 -3.06631 -1.74934 65 64 82
8.84664 -3.08444 -1.74218 68 65 84
8.56104 3.57442 -1.75663 72 70 84
8.59685 3.55445 -1.7615 83 82 100
8.5438 1.50095 -1.7322 83 81 97
8.54345 1.47098 -1.731 65 64 80
8.55882 1.42855 -1.73254 65 63 84
8.566 1.39973 -1.73291 69 70 88
8.57115 1.3706 -1.73288 71 72 93
8.75777 -0.988181 -1.74687 75 72 89
8.78461 -1.02097 -1.75273 76 74 87
8.78023 -1.05038 -1.7523 77 75 92
8.76625 -1.09364 -1.75028 72 68 94
8.78106 -1.12534 -1.75378 74 72 90
8.85632 -3.12011 -1.74587 74 77 95
8.57632 3.6143 -1.76228 72 71 89
8.5146 1.63089 -1.73152 58 55 75
8.51662 1.60125 -1.73071 63 61 81
8.53644 1.55969 -1.73305 69 66 83
8.53823 1.53001 -1.73223 65 62 81
8.77829 -1.15495 -1.75373 67 66 82
8.77542 -1.18455 -1.75369 74 71 88
8.76279 -1.22789 -1.75207 76 74 91
8.77521 -1.25955 -1.75517 71 70 88
8.83484 -3.16195 -1.74431 81 87 103
8.83121 -3.19333 -1.74538 80 81 98
8.5496 3.68861 -1.76305 69 70 88
8.55834 3.65803 -1.76229 77 76 92
8.5028 1.76403 -1.73478 69 68 82
8.51103 1.73543 -1.73515 69 68 87
8.54034 1.71066 -1.73985 71 71 86
8.51248 1.66055 -1.73234 59 61 76
8.76232 -1.28777 -1.75316 68 65 84
8.76278 -1.33291 -1.75429 63 60 77
8.76516 -1.36331 -1.75543 72 74 87
8.76551 -1.39343 -1.75617 63 60 77
8.82377 -3.22344 -1.7457 79 80 98
8.79996 -3.2644 -1.74377 78 81 98
8.53351 3.71622 -1.76232 79 81 101
8.48813 1.86678 -1.73643 79 76 96
8.48899 1.83673 -1.73523 73 69 89
8.50897 1.81041 -1.73796 65 63 84
8.75579 -1.43713 -1.75533 71 68 87
8.76364 -1.46848 -1.75765 75 72 86
8.75785 -1.49769 -1.75721 56 52 71
8.79599 -3.29572 -1.74484 81 79 100
8.78082 -3.32312 -1.74367 80 78 99
8.51504 3.75976 -1.76232 79 77 97
8.4455 1.96379 -1.73257 72 73 87
8.45051 1.9346 -1.73215 69 67 86
8.46119 1.90659 -1.73291 78 76 98
8.75922 -1.54323 -1.75873 69 68 85
8.74357 -1.57076 -1.75632 66 61 81
8.76251 -1.60424 -1.761 64 61 81
8.76017 -1.63409 -1.76135 67 64 81
8.77481 -3.35375 -1.74436 77 78 96
8.4248 2.06527 -1.73343 65 60 80
8.43969 2.03822 -1.73498 79 74 90
8.45573 1.99627 -1.73614 64 61 80
8.74163 -1.67623 -1.75893 68 67 83
8.7275 -1.70389 -1.75692 59 58 76
8.746 -1.73763 -1.7616 68 66 87
8.75044 -3.39433 -1.74243 78 77 95
8.7442 -3.42489 -1.74312 84 83 101
8.43725 2.17463 -1.74138 69 67 86
8.41242 2.13834 -1.73466 71 69 87
8.41747 2.09398 -1.73345 73 71 87
8.72315 -1.77882 -1.7584 66 67 87
8.72984 -1.81046 -1.76071 62 61 79
8.73049 -3.45272 -1.74232 80 83 98
8.38188 2.26817 -1.73553 73 70 88
8.41829 2.24649 -1.74142 66 63 81
8.43148 2.20385 -1.74179 74 74 92
8.72492 -1.83985 -1.76067 69 69 85
8.7093 -1.88233 -1.75904 65 61 78
8.71947 -1.91484 -1.76214 64 62 79
8.71855 -3.49779 -1.74301 82 81 99
8.70463 -3.52551 -1.74221 79 77 98
8.37547 2.34299 -1.73833 76 72 89
8.36633 2.29486 -1.73398 71 67 84
8.68933 -1.93892 -1.75698 66 67 85
8.6943 -1.98569 -1.75968 65 62 81
8.68117 -2.01327 -1.75806 72 69 88
8.69245 -3.55386 -1.74178 81 79 100
8.36762 2.43317 -1.74194 71 69 92
8.38738 2.40756 -1.74429 79 77 91
8.36347 2.37058 -1.73757 69 67 81
8.68135 -2.04377 -1.75919 72 69 90
8.66233 -2.06996 -1.75639 68 70 84
8.67819 -3.59808 -1.74209 83 85 100
8.66214 -3.62491 -1.74092 81 82 100
8.34288 2.50348 -1.7412 85 85 100
8.38171 2.48314 -1.74748 77 76 90
8.66662 -2.11677 -1.75909 68 67 85
8.64905 -2.17372 -1.75782 65 66 84
8.64966 -3.6531 -1.74049 84 84 103
8.34017 2.57996 -1.74518 71 67 88
8.36246 2.5398 -1.74713 70 72 86
8.6319 -2.21552 -1.75619 65 64 82
8.63522 -2.24691 -1.7581 68 69 87
8.62217 -3.69202 -1.73818 83 84 105
8.62403 -3.72595 -1.74075 78 80 100
8.32407 2.63744 -1.74561 72 70 91
8.32558 2.60683 -1.74401 68 67 85
8.63083 -2.27644 -1.75845 64 67 84
8.6265 -2.32143 -1.75957 67 65 84
8.60942 -3.75326 -1.73995 80 81 101
8.31087 2.74248 -1.74961 74 76 95
8.3165 2.71294 -1.7488 80 79 96
8.33891 2.68836 -1.75154 77 76 94
8.6105 -2.34801 -1.75756 64 63 81
8.59821 -2.3755 -1.75633 60 65 82
8.5934 -2.40492 -1.75668 64 64 82
8.5929 -3.77976 -1.73877 84 82 103
8.57937 -3.82428 -1.73945 79 80 100
8.2856 2.81285 -1.74925 76 75 93
8.29892 2.78564 -1.75002 83 80 99
8.59791 -2.45235 -1.75976 65 64 78
8.56448 -3.8514 -1.73865 77 78 98
8.27174 2.87124 -1.75046 76 73 92
8.27404 2.84059 -1.74887 84 83 104
8.56265 -2.47354 -1.75382 67 64 81
8.56695 -2.50548 -1.75613 63 62 78
8.54407 -3.87616 -1.73673 76 77 95
8.24918 2.9425 -1.75089 75 78 94
8.25918 2.91426 -1.75087 67 68 84
8.33205 0.673885 -1.74505 71 68 89
8.33494 0.645494 -1.74502 75 72 89
8.36793 0.60495 -1.75113 69 67 88
8.33548 0.574124 -1.74372 76 73 95
8.3478 0.546357 -1.74574 71 68 89
8.34913 0.503607 -1.74529 83 80 98
8.35342 0.475292 -1.74567 66 64 85
8.35177 0.44665 -1.74482 74 73 91
8.35589 0.418315 -1.7452 63 62 80
8.3566 0.375574 -1.74475 72 71 88
8.35853 0.347138 -1.74471 79 76 95
8.36039 0.318698 -1.74468 66 63 82
8.35868 0.275896 -1.74382 66 61 81
8.35836 0.2474 -1.74338 78 74 91
8.36771 0.219178 -1.74498 79 76 93
8.36944 0.176489 -1.74494 80 77 96
8.36099 0.147837 -1.74286 84 83 101
8.3505 0.119214 -1.74037 72 70 92
8.35566 0.0766627 -1.74115 74 71 92
8.3684 0.0483466 -1.74357 76 75 93
8.3654 0.0198767 -1.74272 68 65 86
8.3584 -0.00857646 -1.74104 77 74 95
8.35907 -0.0511941 -1.741 68 65 84
8.36163 -0.0796183 -1.74138 69 66 85
8.35822 -0.108001 -1.74052 67 63 86
8.36036 -0.150631 -1.74089 72 69 88
8.36261 -0.179072 -1.74126 73 70 87
8.35303 -0.207288 -1.73918 70 72 85
8.35472 -0.249902 -1.73955 71 67 84
8.37424 -0.278831 -1.7436 72 69 88
8.37802 -0.307393 -1.74439 75 72 91
8.36166 -0.349503 -1.74107 83 82 100
8.55775 -2.54922 -1.75647 62 63 84
8.53922 -2.57479 -1.75406 65 64 82
8.54316 -2.60677 -1.75637 64 66 80
8.53007 -3.92048 -1.73741 78 80 95
8.51848 -3.94896 -1.73736 79 78 96
8.23351 2.96889 -1.74973 76 74 95
8.27577 0.9261 -1.73957 71 69 90
8.28722 0.898676 -1.74118 75 72 92
8.28107 0.869443 -1.7391 80 79 96
8.30012 0.842711 -1.74235 69 66 87
8.30869 0.800622 -1.74313 70 67 84
8.31195 0.7723 -1.7431 73 70 89
8.3132 0.743807 -1.74266 68 65 85
8.31936 0.701472 -1.74303 65 63 77
8.39453 -0.379194 -1.74799 76 73 94
8.36089 -0.406289 -1.74099 78 73 95
8.36624 -0.434942 -1.74218 70 68 81
8.3649 -0.47754 -1.74214 69 66 83
8.37001 -0.506245 -1.74333 76 73 90
8.36528 -0.534432 -1.74247 73 70 89
8.35762 -0.576654 -1.7412 71 70 88
8.37412 -0.606145 -1.74484 66 62 79
8.36322 -0.633899 -1.74276 90 87 106
8.53723 -2.65151 -1.75749 69 68 86
8.49241 -3.97111 -1.73432 81 83 103
8.22504 3.04489 -1.7533 70 68 89
8.26136 3.02539 -1.7588 71 68 89
8.23873 1.12216 -1.7377 76 73 88
8.24108 1.09379 -1.73726 65 63 82
8.2472 1.0659 -1.73764 68 65 84
8.25099 1.02345 -1.7372 71 68 87
8.28216 0.998392 -1.74291 62 61 80
8.26273 0.967555 -1.73796 70 67 86
8.36484 -0.676737 -1.74353 73 70 89
8.37516 -0.705995 -1.74595 66 65 82
8.36202 -0.733483 -1.74345 73 69 85
8.36123 -0.776183 -1.74381 78 77 94
8.36344 -0.804876 -1.74459 62 60 78
8.53342 -2.68133 -1.75823 70 68 85
8.51263 -2.70609 -1.75543 68 69 84
8.47616 -4.01442 -1.73462 68 66 87
8.19371 3.11329 -1.75215 70 73 89
8.20906 3.07115 -1.75214 72 69 88
8.21004 1.29037 -1.73744 72 69 86
8.23225 1.26485 -1.7411 72 71 85
8.22731 1.22105 -1.73861 66 63 82
8.21835 1.1911 -1.73571 68 65 84
8.24222 1.16561 -1.73978 80 80 96
8.36946 -0.833935 -1.74619 78 76 90
8.36177 -0.86177 -1.74492 70 67 84
8.36425 -0.904859 -1.7461 75 75 93
8.36606 -0.933605 -1.74688 69 66 85
8.36389 -0.961963 -1.74684 69 70 88
8.48375 -2.74387 -1.75183 64 62 83
8.49835 -2.77934 -1.7565 63 65 81
8.46428 -4.04272 -1.73457 71 70 91
8.21666 3.18501 -1.76164 75 73 94
8.22558 3.1562 -1.76123 76 77 95
8.19735 1.41799 -1.73959 68 67 85
8.2045 1.39028 -1.73998 72 69 88
8.20209 1.34673 -1.7379 74 71 88
8.20127 1.31782 -1.73664 73 70 87
8.36589 -1.00511 -1.74802 71 68 85
8.36544 -1.03368 -1.74839 73 72 88
8.35908 -1.06158 -1.74753 73 70 89
8.37224 -1.10616 -1.75116 76 75 93
8.36758 -1.13428 -1.75071 69 67 84
8.48851 -2.80734 -1.75606 68 71 88
8.47672 -2.8347 -1.75522 60 58 80
8.20814 3.22983 -1.76323 75 74 92
8.1655 1.54252 -1.73806 65 67 79
8.17111 1.5146 -1.73804 65 64 80
8.16893 1.48534 -1.73637 65 64 80
8.17469 1.44312 -1.73593 66 65 79
8.34927 -1.16067 -1.7474 73 72 88
8.35613 -1.20461 -1.7498 70 66 83
8.34924 -1.23239 -1.74894 71 67 81
8.34614 -1.26067 -1.7489 72 71 89
8.46036 -2.87625 -1.75438 61 60 78
8.45953 -2.90712 -1.7559 60 60 78
8.14378 3.27056 -1.75419 70 71 89
8.16585 3.24661 -1.75654 75 72 89
8.14368 1.63979 -1.73773 64 66 81
8.14959 1.61192 -1.7377 74 76 91
8.15157 1.58334 -1.73686 86 88 103
8.36422 -1.29193 -1.75336 77 76 90
8.34918 -1.333 -1.75127 68 65 82
8.36123 -1.36357 -1.7545 63 62 80
8.43629 -2.93068 -1.75271 67 70 85
8.15289 3.354 -1.7621 81 79 100
8.15501 3.32261 -1.76011 79 76 97
8.12407 1.76653 -1.73947 69 70 90
8.11695 1.73604 -1.73657 70 72 88
8.12701 1.709 -1.73737 57 59 79
8.12163 1.67896 -1.73489 59 63 78
8.35576 -1.39158 -1.75405 66 62 83
8.3422 -1.43279 -1.75236 70 68 86
8.35005 -1.46289 -1.75477 71 70 88
8.42691 -2.97446 -1.75343 69 72 89
8.39977 -2.99655 -1.74945 63 65 83
8.13785 3.38056 -1.76133 76 73 90
8.09599 1.86251 -1.73831 65 65 81
8.11024 1.8364 -1.73993 68 64 86
8.09571 1.80424 -1.73539 74 71 91
8.34813 -1.49146 -1.75514 69 67 81
8.33797 -1.53319 -1.75426 67 66 85
8.33584 -1.56174 -1.75463 68 67 83
8.40781 -3.03047 -1.75294 64 65 84
8.39796 -3.07414 -1.75366 64 63 81
8.12221 3.45518 -1.76411 76 71 93
8.1392 3.41334 -1.7641 75 74 90
8.07638 1.9603 -1.7392 77 78 96
8.07566 1.93091 -1.73754 75 77 95
8.08631 1.90408 -1.73833 76 79 96
8.32977 -1.58961 -1.75418 70 70 82
8.31528 -1.6305 -1.75249 71 68 85
8.32054 -1.66039 -1.75449 71 68 85
8.38535 -3.10109 -1.75283 60 61 79
8.07951 3.47092 -1.75742 73 71 90
8.0591 2.02941 -1.73924 74 76 90
8.06815 2.00222 -1.73963 77 73 90
8.31993 -1.68926 -1.75527 72 71 86
8.30963 -1.71632 -1.754 70 69 83
8.31377 -1.76071 -1.7564 66 61 84
8.33945 -3.11627 -1.74492 66 68 86
8.34392 -3.16492 -1.74879 68 69 87
8.05222 3.54088 -1.75783 74 76 91
8.07325 3.5008 -1.75861 72 74 94
8.03575 2.12642 -1.73972 71 68 85
8.04509 2.09932 -1.74011 69 66 87
8.0595 2.05882 -1.74091 64 63 81
8.30516 -1.78808 -1.75553 69 66 88
8.29264 -1.81463 -1.75385 68 67 83
8.29055 -1.85788 -1.75503 67 69 84
8.34394 -3.19631 -1.7507 74 74 91
8.33283 -3.22369 -1.75026 83 82 96
8.02251 2.18197 -1.74017 71 68 87
8.02254 2.15254 -1.73851 71 68 85
8.27399 -1.88352 -1.75253 69 69 86
8.27458 -1.91272 -1.75371 68 66 87
8.32531 -3.25238 -1.7506 81 81 99
8.0107 2.28214 -1.74351 71 70 84
7.99783 2.2492 -1.73898 71 68 85
8.00186 2.22077 -1.73814 73 72 88
8.26055 -1.95345 -1.75243 68 68 84
8.25326 -1.98097 -1.75197 70 71 89
8.25162 -2.00973 -1.75275 67 69 84
8.30703 -3.29298 -1.74976 77 80 97
8.2883 -3.31746 -1.74774 79 84 99
8.00224 2.35387 -1.74601 73 70 86
8.01227 2.3269 -1.7464 78 78 89
8.23906 -2.05071 -1.75187 62 64 80
8.24289 -2.08077 -1.75387 65 65 83
8.28963 -3.34951 -1.75005 86 84 105
7.95365 2.41452 -1.7399 88 87 101
7.99399 2.38132 -1.74603 78 75 92
8.2314 -2.1073 -1.7526 60 57 76
8.27309 -2.14647 -1.76278 71 70 84
8.26359 -3.38707 -1.74763 82 83 101
7.94422 2.47127 -1.74158 79 76 93
7.96966 2.44878 -1.74525 80 77 94
8.26368 -2.1884 -1.76272 62 65 82
8.24619 -2.21352 -1.76023 68 70 85
8.24643 -3.41201 -1.74601 81 79 100
8.24195 -3.44189 -1.74714 81 79 100
7.93231 2.5422 -1.74366 81 78 95
7.95793 2.51988 -1.74734 81 78 95
8.23431 -2.23997 -1.75895 63 66 83
8.22825 -2.28267 -1.75971 64 66 81
8.21735 -3.47981 -1.74511 86 84 104
7.92355 2.61426 -1.74657 77 78 92
7.93658 2.57338 -1.74655 75 73 91
8.22753 -2.31194 -1.76089 60 63 78
8.21158 -2.33727 -1.7588 61 62 80
8.21808 -3.51183 -1.74742 83 82 100
8.19331 -3.53356 -1.74422 79 77 98
7.91468 2.6716 -1.74865 72 73 91
7.92384 2.64437 -1.74864 77 76 90
8.19938 -2.37838 -1.75834 65 69 84
8.19079 -2.40558 -1.75788 62 65 82
8.18023 -2.43222 -1.75702 64 67 84
8.17917 -3.57562 -1.74455 82 83 103
7.89928 2.74193 -1.75033 75 73 94
7.90544 2.6988 -1.74867 77 78 98
8.0534 0.519735 -1.7626 74 71 92
8.04995 0.491843 -1.76129 72 71 88
8.07053 0.451342 -1.76508 83 82 99
8.0727 0.423712 -1.76505 70 71 90
8.05919 0.395416 -1.76162 75 73 94
8.08264 0.368663 -1.76626 74 73 91
8.07727 0.326902 -1.76452 69 70 85
8.07516 0.299135 -1.76364 76 76 92
8.07491 0.271449 -1.76318 79 86 102
8.09446 0.230415 -1.76697 80 77 94
8.09009 0.20261 -1.76566 75 74 90
8.07588 0.174665 -1.76223 84 81 100
8.08326 0.133302 -1.76346 89 86 103
8.06491 0.105481 -1.75918 80 79 95
8.08163 0.0779882 -1.76254 83 82 100
8.08856 0.036541 -1.76378 67 64 85
8.06796 0.00892879 -1.75907 72 69 90
8.07266 -0.0186818 -1.75988 73 69 90
8.07335 -0.0462844 -1.75985 73 71 91
8.08557 -0.0878305 -1.76236 67 64 82
8.07042 -0.115212 -1.75892 73 72 89
8.063 -0.142645 -1.75719 61 60 73
8.07476 -0.184264 -1.7597 84 82 96
8.0769 -0.21191 -1.76009 72 69 89
8.0887 -0.239861 -1.7626 74 71 92
8.1337 -2.4637 -1.74919 64 66 79
8.16148 -3.60012 -1.74293 78 83 103
7.90072 2.80292 -1.75487 77 74 95
7.8954 2.7709 -1.75157 75 74 92
8.01065 0.80776 -1.75991 80 78 99
8.02757 0.781466 -1.76286 74 72 93
8.03196 0.740182 -1.76282 73 75 96
8.04866 0.71372 -1.76577 65 67 89
8.04193 0.685401 -1.76361 73 72 88
8.04392 0.643923 -1.76315 73 70 91
8.05449 0.616887 -1.76482 73 72 93
8.0377 0.588044 -1.76054 68 66 88
8.05093 0.547319 -1.76263 70 68 86
8.06877 -0.280621 -1.75831 72 69 88
8.07061 -0.30826 -1.7587 69 66 87
8.07625 -0.33607 -1.75994 72 69 88
8.08123 -0.37771 -1.76117 79 80 98
8.09057 -0.405785 -1.76326 66 64 85
8.06079 -0.431876 -1.75684 72 71 89
8.06801 -0.459835 -1.75851 76 73 94
8.0919 -0.502675 -1.76399 69 67 87
8.06964 -0.528934 -1.75928 67 64 85
8.1399 -2.49491 -1.75201 64 67 83
8.12343 -2.51974 -1.74992 60 58 79
8.15275 -3.62832 -1.74327 81 84 103
8.15112 -3.65955 -1.74519 82 83 101
7.88847 2.84427 -1.75529 77 73 93
7.97434 0.998507 -1.75753 68 66 84
7.98558 0.95807 -1.75878 73 68 91
7.99518 0.931272 -1.76003 72 71 86
7.99885 0.903842 -1.76 74 73 94
7.99993 0.862301 -1.75911 82 78 97
8.017 0.836122 -1.76206 69 66 85
8.07264 -0.556738 -1.76009 86 83 100
8.07267 -0.5982 -1.76047 70 67 88
8.0735 -0.625894 -1.76086 71 68 89
8.07425 -0.653593 -1.76124 80 75 97
8.08356 -0.695872 -1.76375 80 76 94
8.08019 -0.72328 -1.76329 87 84 102
8.11815 -2.54774 -1.75028 68 69 87
8.10685 -2.58888 -1.75022 65 68 82
8.11481 -3.69215 -1.7408 77 77 98
7.85587 2.8941 -1.75246 80 77 98
7.87684 2.87078 -1.7549 82 81 98
7.94211 1.14761 -1.75555 62 60 79
7.94454 1.12008 -1.7551 71 70 88
7.96237 1.09446 -1.75805 68 65 82
7.95854 1.0523 -1.75589 67 65 83
7.96261 1.02498 -1.75586 69 66 83
8.06896 -0.749979 -1.76112 76 73 92
8.08753 -0.793256 -1.76575 79 77 90
8.09552 -0.821774 -1.76784 66 64 77
8.09371 -0.849374 -1.7678 82 79 96
8.08015 -0.875766 -1.76521 79 77 93
8.09387 -2.61461 -1.74895 67 69 84
8.09015 -2.64309 -1.74972 59 60 81
8.11476 -3.72411 -1.74311 76 77 97
7.85342 2.96934 -1.7574 77 78 96
7.84688 2.93655 -1.7537 78 79 97
7.89089 1.26579 -1.74885 70 70 86
7.91496 1.24138 -1.75308 76 73 91
7.93897 1.21682 -1.75731 64 60 77
7.93774 1.18877 -1.756 64 62 82
8.07479 -0.916872 -1.76474 72 72 90
8.07074 -0.944183 -1.76427 74 71 92
8.08795 -0.973908 -1.76848 79 75 97
8.08213 -1.01502 -1.76801 76 73 94
8.07584 -1.04208 -1.76712 71 69 86
8.07281 -2.68237 -1.74843 57 63 79
8.06702 -2.71023 -1.74879 63 67 79
8.111 -3.75452 -1.74463 80 78 102
7.83218 2.99248 -1.75496 70 69 85
7.8552 1.3994 -1.7464 64 62 79
7.86056 1.35855 -1.74595 70 67 84
7.85979 1.33063 -1.74465 67 66 82
7.87438 1.30502 -1.74675 64 61 77
8.08107 -1.07057 -1.76878 75 72 91
8.0748 -1.11161 -1.76831 58 56 75
8.07208 -1.13912 -1.76827 69 68 85
8.07508 -1.16741 -1.7695 67 65 84
8.06113 -2.73807 -1.74916 63 69 81
8.08687 -3.79225 -1.74299 80 83 102
8.07752 -3.82024 -1.74333 75 78 97
7.81784 3.06381 -1.75744 78 75 94
7.82271 3.03489 -1.7562 74 75 92
7.8369 1.49389 -1.74648 60 59 73
7.83885 1.45246 -1.74518 65 63 77
7.83454 1.4239 -1.74303 66 65 79
8.06061 -1.2073 -1.76733 73 71 89
8.06146 -1.23531 -1.76814 72 71 85
8.06415 -1.26363 -1.76937 68 66 80
8.07059 -1.29254 -1.77145 75 74 90
8.04522 -2.77774 -1.74828 63 66 81
8.04099 -2.80612 -1.74905 60 61 80
8.06627 -3.8474 -1.74328 77 80 97
7.80049 3.11898 -1.75829 71 70 88
7.80186 3.08873 -1.75623 67 66 87
7.80796 1.58644 -1.74443 83 82 98
7.82958 1.54848 -1.74738 63 65 85
7.81982 1.51884 -1.74395 67 68 86
8.04979 -1.33135 -1.768 75 72 92
8.07531 -1.36336 -1.77434 76 73 87
8.06986 -1.39054 -1.77387 72 71 87
8.03293 -2.83329 -1.749 66 71 83
8.01737 -2.85799 -1.74732 69 71 84
7.79039 3.16133 -1.75953 72 71 89
7.79215 1.6674 -1.74493 55 56 75
7.78854 1.63873 -1.74277 65 62 79
7.79445 1.61189 -1.74275 69 66 83
8.05247 -1.4298 -1.77127 67 70 85
8.0526 -1.45787 -1.77208 59 60 73
8.05648 -1.48661 -1.77373 66 65 81
8.00833 -2.89985 -1.74808 61 62 82
7.77058 3.21568 -1.75997 79 78 95
7.78144 3.18886 -1.75996 83 81 100
7.77856 1.76281 -1.7467 70 73 90
7.78485 1.73599 -1.74668 65 68 84
7.76232 1.70349 -1.74027 83 82 99
8.0329 -1.52465 -1.76986 61 58 75
8.03463 -1.55303 -1.77109 67 64 81
8.04396 -1.58286 -1.77402 58 55 74
8.00924 -2.93004 -1.75007 59 61 79
7.98415 -2.95142 -1.74635 59 62 78
7.75453 3.25585 -1.75998 78 78 96
7.77347 1.86023 -1.7506 59 62 81
7.75905 1.82897 -1.74589 68 68 92
7.76746 1.80261 -1.7463 77 76 96
8.02955 -1.62245 -1.77227 68 70 90
8.02331 -1.6494 -1.7718 69 66 82
7.97466 -2.99316 -1.7471 65 65 81
7.73596 3.31072 -1.76082 78 75 96
7.74711 3.284 -1.76081 75 72 91
7.73869 1.95132 -1.74811 72 71 87
7.7265 1.92036 -1.74383 79 79 93
7.7333 1.89369 -1.74381 69 72 91
8.04955 -1.68272 -1.77856 70 67 86
8.0278 -1.70666 -1.77469 66 63 80
8.01666 -1.74683 -1.77379 66 71 82
7.96047 -3.01817 -1.74583 66 65 83
7.95544 -3.04637 -1.7466 63 64 82
7.72127 3.35146 -1.76124 87 86 104
7.71389 2.01622 -1.74645 65 64 84
8.01385 -1.7745 -1.77417 63 64 84
8.00714 -1.80135 -1.7737 68 74 88
7.96573 -3.09525 -1.75185 66 63 80
7.70082 3.37445 -1.7592 74 73 88
7.71139 2.08641 -1.7499 70 67 84
7.70293 2.04193 -1.74562 67 64 84
8.01465 -1.84549 -1.77705 62 62 79
8.00198 -1.87107 -1.7753 65 66 86
8.0045 -1.89998 -1.77696 62 64 79
7.94389 -3.1175 -1.74894 73 72 88
7.9367 -3.14501 -1.7493 80 83 100
7.706 2.17049 -1.75379 69 65 80
7.71547 2.14435 -1.75419 71 68 85
7.71158 2.11489 -1.75162 70 69 84
7.98485 -1.9382 -1.77436 72 69 88
7.97952 -1.96535 -1.77431 70 70 85
7.91527 -3.18249 -1.74761 84 82 103
7.71545 2.24437 -1.76021 75 74 88
7.69867 2.21136 -1.75466 73 69 86
7.96842 -1.99115 -1.77299 65 65 80
7.96165 -2.03224 -1.77336 67 66 82
7.9042 -3.20855 -1.74715 71 70 91
7.91501 -3.24286 -1.75159 78 76 98
7.63565 2.29462 -1.74663 76 74 95
7.66415 2.2595 -1.75044 73 72 88
7.93895 -2.05517 -1.7695 65 66 82
7.95034 -2.08636 -1.77328 67 68 83
7.93508 -2.11103 -1.77111 65 64 82
7.88915 -3.26332 -1.74787 82 80 101
7.659 2.35831 -1.75561 77 76 92
7.67282 2.33337 -1.75686 71 70 86
7.93342 -2.15341 -1.77275 67 66 84
7.94824 -2.18574 -1.77738 64 67 84
7.87995 -3.3054 -1.74903 80 78 99
7.62737 2.42122 -1.75309 75 72 91
7.62256 2.39111 -1.75009 77 74 92
7.71428 0.358936 -1.7528 69 67 85
7.71033 0.332184 -1.75145 79 79 98
7.71455 0.292517 -1.75186 80 78 100
7.71817 0.266084 -1.75226 70 69 87
7.70808 0.239207 -1.74959 75 76 94
7.71739 0.212953 -1.75132 70 67 88
7.723 0.17329 -1.75216 77 77 95
7.7243 0.146773 -1.75213 73 75 88
7.72553 0.120251 -1.7521 73 72 86
7.72876 0.0804931 -1.7525 75 74 92
7.72392 0.05391 -1.75115 79 80 98
7.71123 0.0273135 -1.74803 70 67 84
7.71792 -0.0123765 -1.74931 81 80 96
7.72253 -0.0388765 -1.75016 66 66 80
7.7076 -0.0653013 -1.7466 69 68 86
7.7158 -0.105044 -1.74832 64 62 83
7.72207 -0.131587 -1.74961 74 73 89
7.72437 -0.15811 -1.75002 69 67 88
7.85941 -3.32775 -1.74653 78 76 97
7.85337 -3.35574 -1.7473 82 85 104
7.59828 2.44163 -1.74842 72 69 86
7.67902 0.689352 -1.75183 70 67 88
7.68001 0.662773 -1.75136 72 70 87
7.6848 0.636498 -1.75177 77 76 92
7.68561 0.609918 -1.7513 70 69 88
7.68532 0.569992 -1.75038 75 76 96
7.68787 0.543562 -1.75035 72 70 91
7.69227 0.517248 -1.75076 72 71 89
7.69737 0.47769 -1.75117 67 64 83
7.69964 0.45123 -1.75114 72 71 87
7.70764 0.425077 -1.75243 76 75 91
7.69869 0.384771 -1.74975 64 61 80
7.72073 -0.184528 -1.7491 71 68 86
7.71473 -0.224107 -1.74774 70 69 86
7.72453 -0.250827 -1.74991 72 66 85
7.73035 -0.277485 -1.75119 78 72 93
7.72196 -0.316961 -1.74939 76 75 89
7.71979 -0.343357 -1.74891 72 70 84
7.72921 -0.370223 -1.75108 85 82 103
7.73011 -0.410039 -1.75148 77 76 94
7.71987 -0.43605 -1.74924 75 72 89
7.72316 -0.462704 -1.75009 72 70 84
7.90979 -2.24721 -1.77218 69 69 79
7.92425 -2.27968 -1.77681 62 65 82
7.90279 -2.3025 -1.77336 66 67 83
7.83463 -3.39407 -1.74642 82 83 101
7.57977 2.53688 -1.75103 70 69 87
7.62032 2.52009 -1.75825 74 71 88
7.60088 2.48545 -1.75184 78 74 89
7.64155 0.872423 -1.74848 62 59 80
7.6528 0.846911 -1.75022 69 67 82
7.6601 0.820953 -1.75107 77 72 94
7.66079 0.78102 -1.75016 74 77 92
7.66401 0.75465 -1.75013 64 63 81
7.67489 0.728967 -1.75186 73 71 92
7.7178 -0.502172 -1.74916 72 74 93
7.71116 -0.528262 -1.7478 66 65 79
7.71805 -0.555171 -1.74953 75 75 91
7.72289 -0.581995 -1.75081 64 65 83
7.72864 -0.622211 -1.75253 80 79 95
7.70996 -0.647378 -1.74853 66 64 82
7.72228 -0.674827 -1.75158 72 68 88
7.8889 -2.34174 -1.77246 64 66 81
7.82655 -3.42127 -1.74678 83 84 102
7.57843 2.56539 -1.75275 79 80 98
7.60416 1.02817 -1.7451 74 76 88
7.60622 1.00172 -1.74463 66 65 80
7.62131 0.96354 -1.7468 72 74 91
7.62123 0.936833 -1.74589 74 77 93
7.63268 0.911444 -1.74763 74 76 91
7.71788 -0.714324 -1.75109 72 70 84
7.71834 -0.74091 -1.7515 74 71 92
7.71096 -0.766814 -1.75014 67 66 82
7.71194 -0.80676 -1.75097 73 72 87
7.73537 -0.83558 -1.75666 60 58 79
7.87104 -2.36538 -1.76987 63 67 80
7.85875 -2.39053 -1.76855 70 69 83
7.8202 -3.44918 -1.74755 86 84 105
7.56018 2.63207 -1.75363 68 69 90
7.56547 2.60472 -1.75276 76 77 97
7.54703 1.14055 -1.73639 75 72 91
7.55138 1.11451 -1.73636 70 69 87
7.54962 1.0744 -1.73457 74 71 90
7.59429 1.05362 -1.7438 79 77 93
7.71413 -0.860116 -1.75222 68 66 87
7.7108 -0.899702 -1.75217 68 65 82
7.70488 -0.925667 -1.75125 73 72 90
7.72401 -0.954381 -1.75606 76 74 92
7.72566 -0.981238 -1.7569 65 62 81
7.85946 -2.43385 -1.77104 66 63 84
7.84697 -2.45892 -1.76972 64 66 81
7.79923 -3.48656 -1.74626 80 81 99
7.78181 -3.5099 -1.74458 84 83 101
7.54882 2.70104 -1.75621 83 80 100
7.56224 2.66178 -1.7562 77 78 97
7.53267 1.25849 -1.73782 68 66 85
7.57202 1.23777 -1.74573 77 78 97
7.54394 1.20676 -1.73821 76 75 93
7.54069 1.16631 -1.73597 68 66 87
7.71402 -1.01994 -1.75509 73 72 90
7.71931 -1.04726 -1.75681 71 68 89
7.73031 -1.07535 -1.75986 74 72 92
7.82877 -2.48226 -1.76713 63 63 78
7.83858 -2.51392 -1.7709 65 62 79
7.78057 -3.53998 -1.74657 78 81 100
7.54323 2.72839 -1.75708 76 76 96
7.50633 1.34782 -1.73569 73 73 91
7.52284 1.32377 -1.73831 72 71 88
7.522 1.29686 -1.73696 71 68 85
7.71823 -1.11398 -1.75805 64 63 78
7.72707 -1.1419 -1.76065 60 65 76
7.71461 -1.167 -1.75841 66 67 83
7.71562 -1.20735 -1.75968 68 68 80
7.81626 -2.55044 -1.76829 64 65 83
7.7538 -3.57479 -1.74406 81 84 101
7.53663 2.79923 -1.76094 76 75 91
7.52825 2.75269 -1.75582 83 82 100
7.4867 1.43812 -1.73532 64 64 81
7.50155 1.41393 -1.7375 64 61 80
7.52211 1.39064 -1.74101 68 70 85
7.70488 -1.23261 -1.75788 70 68 82
7.70563 -1.25951 -1.75872 75 73 91
7.71775 -1.30163 -1.76263 65 64 81
7.80715 -2.57643 -1.76782 63 65 80
7.7905 -2.60006 -1.76566 62 65 80
7.75053 -3.60408 -1.74564 81 87 103
7.52098 2.85268 -1.76182 80 79 95
7.50664 2.81848 -1.75627 76 73 90
7.47954 1.55771 -1.73939 78 77 97
7.46799 1.52858 -1.73539 71 68 87
7.47928 1.50382 -1.73669 65 62 83
7.48094 1.47726 -1.73579 66 63 80
7.70288 -1.3262 -1.75995 67 68 85
7.70717 -1.35374 -1.76167 77 76 94
7.69793 -1.37913 -1.76031 71 69 86
7.78643 -2.64213 -1.7673 64 63 81
7.80309 -2.67634 -1.77277 63 66 83
7.74177 -3.63104 -1.746 89 88 107
7.71858 -3.65172 -1.74309 84 87 102
7.49744 2.88857 -1.7597 77 74 91
7.46335 1.64889 -1.74034 83 84 102
7.47501 1.62421 -1.74164 81 83 98
7.45221 1.59269 -1.735 65 62 83
7.6979 -1.41953 -1.76158 69 66 84
7.69998 -1.4468 -1.76286 67 66 82
7.69237 -1.47243 -1.76194 65 64 78
7.78987 -2.70105 -1.77145 62 66 78
7.49779 2.94769 -1.76442 77 74 93
7.49306 2.9165 -1.761 77 75 89
7.45808 1.71538 -1.74259 66 62 80
7.46231 1.68918 -1.74212 64 61 78
7.68998 -1.5125 -1.76277 65 64 82
7.68217 -1.53806 -1.76185 67 64 83
7.68193 -1.565 -1.76269 67 66 82
7.76675 -2.73707 -1.76884 61 60 78
7.75152 -2.761 -1.7671 65 64 80
7.48586 2.97303 -1.764 79 80 100
7.43822 1.806 -1.74309 72 68 83
7.43704 1.77857 -1.74131 78 74 91
7.44423 1.73953 -1.74084 72 69 85
7.681 -1.60542 -1.76396 62 63 82
7.67482 -1.63127 -1.76347 72 70 85
7.65328 -1.6541 -1.75947 67 66 84
7.72509 -2.78112 -1.76281 65 67 82
7.45149 3.03454 -1.7619 78 79 97
7.44709 3.00333 -1.75848 76 79 96
7.42028 1.86987 -1.74269 75 74 92
7.4298 1.83131 -1.74267 66 62 79
7.6691 -1.69788 -1.7647 68 67 85
7.66454 -1.72406 -1.76466 68 65 84
7.73676 -2.82869 -1.76826 66 68 83
7.72311 -2.85307 -1.76694 75 77 90
7.44846 3.0631 -1.76362 77 76 94
7.37837 1.91442 -1.73612 65 62 79
7.38515 1.88885 -1.7361 69 70 87
7.64275 -1.74665 -1.76066 68 68 86
7.64755 -1.77475 -1.76281 60 60 80
7.70569 -2.8761 -1.76478 63 66 81
7.68638 -2.8984 -1.76218 62 61 79
7.42583 3.09913 -1.76192 76 79 94
7.36527 1.97921 -1.73704 67 64 83
7.36584 1.93861 -1.73482 67 64 83
7.64562 -1.81512 -1.76408 63 69 85
7.62928 -1.83871 -1.7614 62 66 85
7.61476 -1.86263 -1.75916 61 62 78
7.71575 -2.95268 -1.77188 64 65 83
7.41921 3.15625 -1.76535 73 74 92
7.43717 3.13321 -1.76704 77 77 95
7.35107 2.03023 -1.73708 70 67 84
7.34499 2.00142 -1.73398 73 70 87
7.61811 -1.90419 -1.76174 66 71 88
7.611 -1.92974 -1.76126 67 70 84
7.68887 -2.97227 -1.76759 61 63 78
7.39254 3.19066 -1.7628 80 77 96
7.32588 2.11931 -1.73714 68 68 86
7.33895 2.09537 -1.73844 73 75 90
7.3444 2.06942 -1.73798 69 68 82
7.60381 -1.95527 -1.76078 59 65 77
7.58017 -1.99055 -1.7572 65 64 82
7.66012 -2.99104 -1.76288 63 66 81
7.66325 -3.03617 -1.76664 62 63 81
7.39437 3.25131 -1.76836 79 78 96
7.3835 3.21705 -1.76324 77 74 93
7.33368 2.19 -1.74335 69 66 84
7.30561 2.15487 -1.73495 76 74 91
7.58604 -2.01917 -1.7598 66 64 85
7.57856 -2.04458 -1.75932 64 64 82
7.66546 -3.0663 -1.76914 59 62 81
7.34096 2.2196 -1.7469 76 73 90
7.58666 -2.08762 -1.76322 64 67 82
7.5771 -2.11254 -1.7623 64 63 80
7.65113 -3.09028 -1.76782 58 59 77
7.31928 2.31024 -1.74827 83 82 98
7.30859 2.27946 -1.74384 81 80 95
7.31276 2.25301 -1.74294 80 77 95
7.55614 -2.1345 -1.75874 66 70 82
7.55963 -2.16273 -1.76089 68 71 86
7.60629 -3.1174 -1.76054 56 57 75
7.59908 -3.14396 -1.76092 73 75 93
7.30372 2.33344 -1.74653 81 81 97
7.56334 -2.20489 -1.76392 67 70 85
7.53274 -2.22411 -1.75815 64 65 85
7.57907 -3.16553 -1.75832 77 76 94
7.24812 2.3861 -1.73818 83 81 97
7.28997 2.37091 -1.7461 78 79 95
7.53968 -2.25339 -1.76119 64 67 82
7.56809 -3.19058 -1.75785 78 78 96
7.23685 2.45188 -1.74041 78 74 92
7.24352 2.41241 -1.73908 78 77 95
7.41189 0.494111 -1.76295 62 62 82
7.42587 0.46907 -1.76565 68 67 83
7.42489 0.430306 -1.76471 72 70 86
7.42118 0.404322 -1.76331 70 70 88
7.42905 0.378879 -1.76465 81 78 95
7.44321 0.340749 -1.76735 66 68 83
7.42365 0.314234 -1.7623 67 64 85
7.4215 0.28841 -1.76136 73 71 92
7.43718 0.250255 -1.76451 74 72 93
7.44068 0.22457 -1.76494 78 74 91
7.43437 0.198656 -1.76308 74 71 90
7.44743 0.173147 -1.76579 88 84 98
7.44507 0.13446 -1.76484 80 83 100
7.43653 0.108614 -1.76253 77 74 91
7.45709 0.0830271 -1.76705 76 78 93
7.44847 0.0443322 -1.76474 75 71 85
7.43186 0.0185971 -1.7606 61 59 83
7.44824 -0.00716227 -1.76422 68 65 87
7.45088 -0.0457984 -1.76463 71 67 88
7.44177 -0.0714326 -1.76232 68 69 87
7.44814 -0.0972392 -1.76366 77 76 92
7.45035 -0.135887 -1.76407 77 76 93
7.45458 -0.161716 -1.76495 68 67 85
7.44704 -0.187264 -1.76309 69 63 83
7.43944 -0.21276 -1.76124 69 68 82
7.43722 -0.251241 -1.76074 71 69 85
7.44302 -0.277145 -1.76207 74 72 89
7.44098 -0.302773 -1.76158 64 61 82
7.43055 -0.340877 -1.75926 66 65 80
7.44385 -0.36719 -1.76242 76 75 93
7.52979 -2.29194 -1.76113 62 65 82
7.52523 -2.31815 -1.76153 60 65 81
7.55559 -3.22987 -1.75822 82 79 98
7.54623 -3.25555 -1.75817 79 80 98
7.23387 2.47879 -1.74175 89 86 107
7.40958 0.726754 -1.7682 69 67 88
7.34277 0.695295 -1.75176 73 70 89
7.36125 0.671055 -1.75538 68 70 85
7.36124 0.632471 -1.75443 65 62 82
7.37757 0.607913 -1.7576 54 52 73
7.40161 0.583799 -1.76258 72 69 88
7.39644 0.557644 -1.76073 71 69 87
7.41532 0.520132 -1.76434 75 76 95
7.44153 -0.392787 -1.76193 71 69 90
7.44234 -0.431422 -1.76234 68 67 83
7.44563 -0.457346 -1.76322 75 72 89
7.44109 -0.482798 -1.76227 74 71 91
7.44536 -0.521699 -1.7636 72 70 92
7.46002 -0.548477 -1.76721 61 58 76
7.45131 -0.573642 -1.76535 71 68 90
7.51872 -2.34381 -1.76148 63 66 83
7.48409 -2.37522 -1.75571 60 66 83
7.52592 -3.27679 -1.75558 78 79 97
7.21629 2.54279 -1.74267 75 72 89
7.2401 2.50864 -1.7453 85 82 99
7.3614 0.87767 -1.76151 67 66 85
7.36686 0.852316 -1.76193 73 72 91
7.36577 0.813406 -1.76054 75 77 89
7.37296 0.788214 -1.76142 73 70 89
7.37813 0.762814 -1.76185 72 70 91
7.43668 -0.598302 -1.76212 80 79 97
7.44815 -0.637883 -1.76527 71 68 85
7.42947 -0.662097 -1.76113 71 70 84
7.44949 -0.689589 -1.76611 78 79 97
7.44502 -0.72793 -1.76561 83 80 97
7.42994 -0.7523 -1.76238 73 70 89
7.48487 -2.40293 -1.75742 62 63 81
7.47436 -2.42735 -1.7565 65 64 83
7.50759 -3.31366 -1.75466 82 81 99
7.23185 2.6039 -1.75064 74 72 87
7.21486 2.57029 -1.74445 72 70 84
7.30054 0.987222 -1.75113 73 74 93
7.34499 0.966565 -1.76068 76 73 94
7.34686 0.940841 -1.76019 82 82 102
7.34039 0.901327 -1.75743 72 73 92
7.4516 -0.780218 -1.76781 62 61 79
7.44671 -0.818535 -1.76731 80 76 93
7.42749 -0.842339 -1.76317 79 76 93
7.43336 -0.868789 -1.76496 70 69 83
7.48042 -2.47063 -1.7604 62 67 81
7.49436 -3.33769 -1.75377 82 80 100
7.19838 2.63482 -1.7458 73 70 89
7.27486 1.10021 -1.74941 70 69 87
7.27908 1.07492 -1.74938 79 83 94
7.2832 1.04961 -1.74936 71 70 86
7.28534 1.02405 -1.74888 70 68 88
7.43965 -0.908319 -1.76719 70 68 89
7.43951 -0.934178 -1.76761 68 66 88
7.43349 -0.959343 -1.76666 76 73 90
7.44089 -0.986154 -1.7689 65 63 82
7.46597 -2.49386 -1.7586 64 70 86
7.45519 -2.51817 -1.75767 63 67 83
7.49185 -3.36618 -1.75542 81 79 98
7.18191 2.68551 -1.74627 80 79 95
7.21139 2.66734 -1.7511 78 75 92
7.25341 1.22652 -1.74951 72 72 85
7.24641 1.18671 -1.74629 60 59 77
7.2586 1.16259 -1.74809 69 64 84
7.26686 1.13787 -1.74898 74 71 87
7.43505 -1.02434 -1.7684 74 73 91
7.43452 -1.0502 -1.76882 65 63 84
7.44549 -1.07763 -1.77197 66 63 82
7.43922 -1.11581 -1.77146 67 63 84
7.45549 -2.54591 -1.75939 62 65 82
7.4839 -3.40742 -1.75705 82 82 101
7.465 -3.42901 -1.75488 81 84 101
7.20945 2.7232 -1.7551 75 74 90
7.23129 1.31382 -1.74822 71 72 90
7.22472 1.27396 -1.745 68 69 87
7.23334 1.24939 -1.74589 65 64 82
7.43649 -1.14142 -1.77143 75 76 91
7.43752 -1.16759 -1.7723 65 62 81
7.43853 -1.20686 -1.77362 56 55 73
7.44607 -2.58462 -1.75977 65 66 86
7.43873 -2.61 -1.75973 64 70 84
7.4568 -3.45516 -1.75526 82 83 101
7.14217 2.77026 -1.74454 81 80 96
7.16081 2.74858 -1.74673 73 70 87
7.21205 1.40151 -1.74783 68 64 81
7.21553 1.36318 -1.7469 74 76 90
7.22825 1.3393 -1.7487 81 83 101
7.4259 -1.23097 -1.7713 69 67 88
7.4401 -1.25926 -1.77536 75 73 94
7.42337 -1.29578 -1.77258 61 57 74
7.43131 -2.63536 -1.75968 68 70 85
7.44483 -3.49473 -1.75605 78 80 97
7.13996 2.79777 -1.74632 79 78 94
7.21142 1.47958 -1.75155 63 60 80
7.20725 1.45273 -1.74925 76 73 90
7.21833 1.42863 -1.75059 66 63 80
7.42584 -1.32228 -1.7739 66 67 85
7.43781 -1.35043 -1.77751 68 68 86
7.41516 -1.37271 -1.77291 63 62 80
7.40851 -2.6697 -1.75698 59 62 76
7.41568 -2.69987 -1.76046 69 68 84
7.41855 -3.51295 -1.75218 79 82 99
7.15884 2.84701 -1.75427 83 81 99
7.19611 1.56814 -1.75253 75 72 91
7.19224 1.54124 -1.75023 66 63 80
7.18062 1.51295 -1.7461 65 64 80
7.41518 -1.41199 -1.77423 69 66 83
7.42301 -1.43957 -1.77692 64 61 80
7.40778 -1.46299 -1.77415 64 63 81
7.39505 -2.72081 -1.75733 67 70 89
7.42079 -3.54373 -1.7551 83 82 98
7.14285 2.89819 -1.75518 77 75 96
7.12712 2.8639 -1.74899 77 76 94
7.18199 1.63079 -1.75258 67 66 80
7.17258 1.60272 -1.74891 63 62 78
7.41308 -1.50336 -1.77683 64 63 79
7.40148 -1.52739 -1.77497 62 63 82
7.40319 -1.55396 -1.7763 74 76 91
7.38111 -2.75798 -1.75683 64 66 82
7.36034 -2.7787 -1.75371 61 63 80
7.11554 2.93072 -1.7521 77 80 97
7.14639 1.68895 -1.7476 61 57 74
7.1684 1.65426 -1.75077 69 65 82
7.39852 -1.59252 -1.7767 68 67 84
7.38665 -1.6164 -1.77484 62 63 81
7.37997 -2.81341 -1.76026 62 63 83
7.09721 2.981 -1.75256 80 81 99
7.12554 2.96312 -1.75696 80 79 97
7.14778 1.78115 -1.75314 73 72 84
7.14925 1.74207 -1.75129 64 62 80
7.14787 1.71549 -1.74945 64 62 80
7.37854 -1.64101 -1.77389 66 65 86
7.38488 -1.68188 -1.77702 64 65 81
7.36192 -2.84918 -1.75888 63 64 84
7.10406 3.02656 -1.75786 76 73 90
7.13293 1.83057 -1.75272 71 70 84
7.13565 1.8048 -1.75179 72 74 87
7.38037 -1.70727 -1.77698 63 66 81
7.37008 -1.73139 -1.77557 63 64 83
7.36352 -1.75631 -1.77508 71 73 88
7.34091 -2.86969 -1.75576 59 58 76
7.33449 -2.89538 -1.75615 62 65 80
7.07015 3.04211 -1.75214 74 73 89
7.094 1.8874 -1.74729 74 75 90
7.12636 1.85546 -1.75274 82 83 97
7.36357 -1.79598 -1.77685 66 68 81
7.36819 -1.82347 -1.77908 62 64 79
7.31701 -2.91705 -1.75391 62 65 82
7.08149 3.07536 -1.75745 85 84 100
7.08419 1.93785 -1.74824 67 66 85
7.08724 1.91217 -1.74731 69 71 85
7.34239 -1.84393 -1.77403 68 67 85
7.34579 -1.88448 -1.77671 64 63 82
7.30583 -2.95513 -1.75429 56 58 72
7.30462 -2.98276 -1.756 66 65 83
7.06714 1.99968 -1.74828 84 81 95
7.06662 1.97309 -1.74643 72 67 88
7.32552 -1.90607 -1.77303 62 63 81
7.3203 -1.93125 -1.77299 64 66 81
7.29601 -3.00766 -1.75596 65 68 85
7.05717 2.06334 -1.75014 71 70 86
7.06192 2.02486 -1.74875 63 65 77
7.34026 -1.97605 -1.77976 67 66 82
7.31219 -1.99554 -1.77426 63 61 82
7.28075 -3.04426 -1.75546 59 62 79
7.04059 2.11217 -1.74972 75 72 91
7.03291 2.08356 -1.74605 76 78 90
7.30104 -2.01921 -1.77285 66 68 83
7.28105 -3.07258 -1.75761 66 70 82
7.01842 2.17265 -1.74884 75 74 90
7.02224 2.14706 -1.74791 69 68 86
7.17801 0.38903 -1.77119 75 72 89
7.17419 0.364281 -1.76974 71 68 87
7.18968 0.340479 -1.77304 69 68 86
7.17796 0.315396 -1.76968 81 79 101
7.18017 0.278726 -1.76965 67 67 84
7.17795 0.254136 -1.76867 85 85 103
7.19503 0.230205 -1.77244 81 78 99
7.19684 0.193469 -1.77241 81 80 98
7.19434 0.168878 -1.77143 67 64 84
7.18595 0.144182 -1.76902 76 75 90
7.19705 0.107669 -1.77137 76 73 90
7.19815 0.0831834 -1.77134 73 70 89
7.1953 0.0586547 -1.77035 84 82 103
7.16525 0.0217537 -1.76271 90 89 107
7.19325 -0.00254122 -1.76934 71 68 87
7.1979 -0.0270038 -1.77026 78 75 89
7.18305 -0.0514271 -1.76642 78 80 93
7.17965 -0.0880317 -1.76544 66 65 81
7.1879 -0.112531 -1.76731 75 71 88
7.1883 -0.136966 -1.76728 66 62 79
7.15928 -0.173063 -1.76011 73 68 88
7.15562 -0.197318 -1.75912 69 66 85
7.19261 -0.222578 -1.76813 70 69 80
7.18646 -0.259063 -1.76667 73 71 84
7.18253 -0.283354 -1.76568 78 76 90
7.18433 -0.30783 -1.76613 64 61 80
7.29414 -2.05733 -1.77325 65 68 82
7.29035 -2.08289 -1.77366 62 63 83
7.29587 -2.11097 -1.77635 65 66 84
7.24312 -3.08609 -1.75053 66 63 83
7.05176 2.23546 -1.76074 75 72 89
7.04828 2.20764 -1.75798 76 73 90
7.12158 0.618241 -1.76286 80 79 96
7.16878 0.59751 -1.77378 71 70 86
7.16074 0.55996 -1.77089 68 68 86
7.15166 0.534699 -1.76801 70 68 89
7.16766 0.511248 -1.77131 75 73 91
7.16887 0.47447 -1.7708 78 77 93
7.17113 0.450033 -1.77078 77 75 96
7.17914 0.425931 -1.77218 74 71 90
7.19521 -0.344917 -1.76894 68 65 84
7.19877 -0.369529 -1.76986 63 58 76
7.20223 -0.394162 -1.77078 71 70 86
7.19788 -0.418424 -1.7698 73 71 89
7.18887 -0.454655 -1.76786 57 53 70
7.19206 -0.479293 -1.76878 62 58 77
7.19325 -0.503831 -1.76922 79 74 92
7.29001 -2.13603 -1.77631 68 69 87
7.23294 -3.12455 -1.75135 61 59 80
7.23838 -3.15498 -1.75482 70 72 91
7.02725 2.26869 -1.75756 84 82 96
7.12107 0.753353 -1.7668 68 66 81
7.13195 0.729792 -1.76868 65 64 81
7.13888 0.705809 -1.7696 68 70 85
7.11483 0.67897 -1.76291 69 68 84
7.11878 0.642538 -1.76288 63 61 82
7.18771 -0.540201 -1.76823 69 71 84
7.18482 -0.564467 -1.76772 73 72 85
7.18188 -0.588716 -1.76721 68 66 80
7.18367 -0.625579 -1.76812 67 66 84
7.18439 -0.650116 -1.76857 72 71 87
7.19663 -0.675631 -1.77186 64 59 79
7.28632 -2.17514 -1.77762 66 70 83
7.29339 -2.20384 -1.78076 67 70 85
7.22381 -3.17748 -1.75345 69 66 84
7.00005 2.31458 -1.75485 74 73 89
7.0193 2.29329 -1.75758 74 73 91
7.11483 0.900709 -1.77026 69 66 85
7.1088 0.875271 -1.76786 77 78 99
7.12332 0.839914 -1.77021 72 74 94
7.11711 0.814531 -1.7678 72 70 84
7.12431 0.790629 -1.76873 66 65 79
7.19222 -0.712081 -1.77134 76 75 96
7.18879 -0.736305 -1.77084 78 78 90
7.17949 -0.759961 -1.7689 66 63 80
7.18172 -0.784696 -1.76982 75 72 91
7.17677 -0.821035 -1.7693 71 68 85
7.27975 -2.22677 -1.7789 67 65 86
7.25878 -2.26102 -1.77611 66 70 89
7.20055 -3.21073 -1.75119 76 73 92
7.00133 2.35523 -1.75806 76 75 89
7.08455 1.00819 -1.76703 75 74 91
7.08082 0.982954 -1.7651 67 63 81
7.08661 0.958986 -1.76556 74 71 90
7.0938 0.922877 -1.766 73 72 88
7.18652 -0.846606 -1.77212 73 70 89
7.18076 -0.870557 -1.77113 66 65 83
7.1889 -0.908397 -1.77394 71 68 85
7.17138 -0.930967 -1.77011 59 57 76
7.24311 -2.28323 -1.77379 61 67 81
7.19484 -3.23676 -1.75203 74 75 95
6.95315 2.39458 -1.75034 76 71 91
6.9987 2.38143 -1.75945 75 75 87
7.01821 1.10996 -1.75523 67 64 84
7.05897 1.09124 -1.76425 74 72 93
7.06128 1.06681 -1.76375 67 64 82
7.07886 1.04452 -1.76706 67 65 81
7.18847 -0.957603 -1.77483 73 72 90
7.18078 -0.99367 -1.77383 69 67 84
7.17841 -1.01801 -1.7738 67 63 78
7.17788 -1.0426 -1.77424 64 63 79
7.23671 -2.30811 -1.77375 62 67 81
7.22472 -2.34483 -1.77324 65 70 89
7.18544 -3.26129 -1.75198 84 87 102
7.17957 -3.28729 -1.75281 85 80 100
6.9726 2.44093 -1.75811 78 76 90
7.00303 1.19398 -1.7553 71 70 86
7.00183 1.16909 -1.75385 60 59 74
7.0063 1.1451 -1.75383 71 70 85
7.17749 -1.07961 -1.77515 70 72 87
7.18638 -1.10555 -1.77796 69 67 86
7.16828 -1.1277 -1.77412 67 66 84
7.21813 -2.36964 -1.77319 63 66 83
7.21145 -2.39444 -1.77315 65 64 82
6.92586 2.48036 -1.75084 74 72 86
6.95111 2.46129 -1.75493 79 76 93
6.99265 1.27885 -1.7568 65 65 77
6.98025 1.25198 -1.75249 68 66 80
6.99647 1.22995 -1.75533 78 76 90
7.17507 -1.1534 -1.77647 75 77 92
7.1799 -1.19131 -1.7788 63 62 78
7.17882 -1.21593 -1.77924 66 65 81
7.19906 -2.431 -1.77264 63 66 84
7.15762 -3.32095 -1.75099 82 83 101
7.14795 -3.34535 -1.75094 79 81 101
6.92627 2.52097 -1.75404 77 72 87
6.95462 1.35881 -1.75163 68 65 80
6.96923 1.33667 -1.75399 59 58 75
6.9685 1.31176 -1.75254 66 64 79
7.17764 -1.24055 -1.77968 69 71 86
7.18206 -1.27856 -1.78201 71 70 84
7.1807 -1.3032 -1.78245 66 65 83
7.17921 -2.45163 -1.76941 56 59 76
7.18898 -2.48162 -1.77346 66 65 83
7.13286 -3.36741 -1.74958 79 80 100
6.9161 2.57197 -1.7559 74 73 91
6.91568 2.54466 -1.7536 83 79 96
6.94393 1.41877 -1.75215 69 66 84
6.94919 1.39493 -1.75213 74 72 91
7.16585 -1.32559 -1.77956 68 70 85
7.16984 -1.36364 -1.78189 68 65 82
7.17394 -1.38927 -1.78376 68 65 84
7.18382 -2.5069 -1.77387 65 64 80
7.11594 -3.4031 -1.74908 83 81 102
6.91049 2.61084 -1.75773 77 74 93
6.95005 1.50708 -1.7584 68 63 84
6.9389 1.46752 -1.75362 70 71 87
6.95954 1.44666 -1.75741 67 64 79
7.16266 -1.41219 -1.78182 66 65 81
7.17805 -1.43993 -1.78654 67 63 80
7.16351 -2.54087 -1.77154 63 62 80
7.17478 -2.5716 -1.77605 65 67 82
6.89973 2.66183 -1.75959 83 80 99
6.89409 2.63259 -1.75592 84 80 97
6.92356 1.55158 -1.75464 65 61 78
6.94443 1.53093 -1.75843 74 71 82
7.16431 -1.47494 -1.78459 62 60 76
7.15088 -1.49737 -1.78218 64 62 79
7.15453 -1.52306 -1.78404 67 68 86
7.15087 -2.59067 -1.77191 66 67 87
6.90709 2.69177 -1.76371 70 63 84
6.90943 1.61098 -1.75468 71 69 86
6.9172 1.58763 -1.75513 61 58 75
7.14802 -1.55938 -1.78399 70 69 87
7.14385 -1.58358 -1.78396 66 64 85
7.13204 -2.62499 -1.77003 62 61 79
-6.0696 15.2732 0.750218 149 131 91
-6.54782 14.8702 0.74435 136 116 89
-6.46336 14.7858 0.740484 135 117 82
-6.43908 14.8664 0.742645 148 135 91
-6.40528 15.1491 0.750987 145 126 87
-6.44876 15.4298 0.760393 148 129 87
-6.38486 15.4831 0.761162 146 128 90
-6.3742 15.7792 0.770315 149 131 94
-7.01515 14.1597 0.729638 128 111 84
-6.84904 15.1662 0.758036 136 120 85
-6.81179 15.214 0.75896 137 121 87
-7.3405 13.4121 0.712418 122 107 73
-7.27493 13.3826 0.710394 121 106 77
-7.08766 14.0802 0.728383 131 114 82
-7.05345 14.1246 0.729182 126 109 81
-7.04705 15.0353 0.757025 134 116 83
-6.9661 14.9702 0.753763 134 115 85
-6.97118 15.3402 0.765275 137 121 88
-6.85318 15.5479 0.769943 137 117 89
-8.66878 10.116 0.645484 94 86 76
-8.81333 10.4134 0.656769 104 95 90
-8.80926 10.4776 0.658389 98 90 80
-8.80018 10.5355 0.659726 99 93 82
-8.7753 10.607 0.661066 101 90 86
-8.5959 10.4277 0.652127 93 83 81
-8.59586 10.4982 0.654027 109 99 98
-8.57307 10.5723 0.655509 102 91 88
-8.5698 10.7121 0.659231 102 93 88
-8.56137 10.7732 0.660704 100 92 90
-8.55926 10.8805 0.663584 109 103 98
-7.63633 14.5906 0.753025 129 114 72
-7.53772 14.4941 0.748439 129 113 74
-7.61407 14.9855 0.764622 131 116 77
-7.54082 14.9471 0.762243 132 116 82
-7.4518 15.3408 0.772811 135 114 89
-7.25496 15.3465 0.769856 134 115 85
-7.18475 15.6736 0.778851 133 114 85
-8.74377 10.8886 0.667949 112 103 99
-7.93336 14.2693 0.74852 122 107 74
-8.11817 14.776 0.766946 130 117 75
-8.06664 14.7888 0.766423 124 109 77
-7.75123 14.7212 0.758924 130 115 72
-7.67878 15.0035 0.766246 133 117 81
-7.55561 15.8031 0.788636 131 111 86
-7.52686 15.877 0.790447 131 111 84
-8.59673 14.8008 0.776326 118 105 70
-8.58165 14.8884 0.778641 124 114 78
-8.52745 14.9574 0.779689 120 107 72
-8.50871 15.0396 0.781793 117 104 70
-8.45186 15.0448 0.780919 121 107 72
-8.35227 15.0215 0.778437 123 107 73
-8.10314 15.3056 0.782586 129 114 73
-8.97044 14.7178 0.780914 113 102 74
-8.71255 14.7382 0.776634 116 103 72
-8.7765 15.0371 0.786629 120 107 72
-6.24185 15.3374 0.695305 142 124 88
-6.13944 15.438 0.696829 147 130 86
-10.6993 11.1668 0.722212 101 92 88
-10.653 11.1844 0.721485 98 87 81
-10.4911 11.1365 0.716202 101 91 89
-10.4671 11.2155 0.717602 102 92 92
-10.4895 11.3155 0.720702 94 84 82
-10.4138 11.2968 0.718347 98 88 86
-9.47431 14.8573 0.794778 103 93 68
-9.35355 15.7345 0.817944 116 105 73
-9.27562 15.707 0.815669 118 104 73
-6.64982 15.4089 0.702614 138 121 80
-6.52455 15.2878 0.69759 144 126 87
-6.47639 15.3067 0.697479 141 121 88
-6.44707 15.3801 0.699138 138 117 86
-6.31693 15.3988 0.697977 141 121 84
-8.62937 10.2006 0.600707 95 84 67
-8.62581 10.2644 0.602145 101 87 86
-8.60106 10.3336 0.603265 99 88 82
-8.59561 10.3959 0.604637 97 85 83
-8.58062 10.4453 0.605505 95 84 81
-8.58262 10.5192 0.607317 106 97 92
-10.3705 14.7602 0.810421 102 106 129
-10.2369 14.7016 0.805947 61 89 136
-10.2779 15.0871 0.817671 60 93 146
-10.0569 14.8815 0.807265 61 94 145
-9.86525 15.156 0.811174 101 104 125
-9.93058 15.438 0.820575 106 95 74
-9.9699 16.0345 0.838557 107 95 75
-7.26064 13.312 0.654372 124 111 77
-7.19483 13.2803 0.652485 120 106 74
-7.06116 14.2294 0.676035 128 112 86
-7.06363 14.3644 0.679739 130 113 85
-7.01467 14.4403 0.681087 139 116 86
-7.0553 15.0173 0.69743 130 110 83
-7.00005 15.0172 0.696644 133 113 85
-7.01836 15.2071 0.702109 134 113 85
-6.96366 15.2814 0.703381 131 112 80
-6.90496 15.2735 0.702348 136 115 84
-6.82888 15.2186 0.699787 136 116 89
-6.78998 15.2627 0.70047 133 116 86
-6.71663 15.4402 0.704378 136 117 84
-60.4806 8.4198 2.44911 137 130 76
-60.4395 8.69864 2.44858 100 103 75
-60.3875 8.88091 2.44728 95 102 79
-12.8259 10.8644 0.772155 94 91 73
-12.7633 10.8749 0.770623 100 96 76
-12.6981 10.9168 0.769734 99 90 81
-12.6702 10.9597 0.769923 108 93 85
-12.6796 11.0386 0.771974 93 83 74
-8.75907 10.3092 0.606022 125 117 78
-8.56531 10.6016 0.608935 93 87 82
-8.5596 10.6659 0.610366 104 95 91
-8.55581 10.7336 0.611921 109 97 97
-8.53697 10.8162 0.613535 106 98 96
-10.9707 14.5138 0.816668 103 93 81
-10.9656 14.7566 0.823208 105 96 84
-10.8842 14.7356 0.82084 105 93 81
-10.8239 14.7461 0.819805 101 92 77
-10.8232 14.8986 0.824005 106 99 79
-10.7333 14.8634 0.821079 104 97 78
-10.6566 14.848 0.818995 103 94 79
-10.4733 14.7155 0.811363 102 92 82
-10.4315 14.7532 0.811522 92 87 82
-10.7333 15.613 0.842028 64 93 141
-10.4094 15.1947 0.823453 61 93 145
-10.6178 15.9305 0.848598 63 94 146
-10.3227 15.5475 0.831651 61 93 141
-10.2577 15.606 0.831988 70 91 146
-10.2449 15.6985 0.83437 94 101 129
-10.4276 16.9907 0.875211 111 99 73
-10.3857 17.0425 0.875903 113 102 74
-10.3187 17.1123 0.876633 109 100 70
-10.3544 17.4432 0.886973 117 103 75
-7.57385 14.9895 0.704304 129 114 75
-7.44156 14.8111 0.697485 130 114 80
-7.42349 14.966 0.701408 131 115 89
-7.17161 14.9628 0.697616 130 109 82
-7.14011 15.0225 0.698792 132 111 84
-60.8184 9.13698 2.46438 90 97 82
-60.0758 9.30708 2.43725 93 97 83
-60.221 9.52003 2.44353 100 102 81
-59.0375 9.51557 2.39921 90 95 71
-60.3142 10.0116 2.4491 90 94 79
-60.5926 10.2507 2.46055 91 94 77
-59.2124 10.2001 2.40874 88 89 73
-55.8798 9.87976 2.28286 95 95 83
-55.8084 10.044 2.28097 96 90 76
-45.2504 9.61221 1.88598 97 101 75
-40.3174 9.24543 1.70116 118 116 92
-40.202 9.34749 1.69758 97 93 81
-39.9997 9.49228 1.69111 115 112 79
-15.9943 10.497 0.859175 92 86 70
-15.9004 10.5003 0.856305 103 98 78
-15.9492 10.6058 0.859822 117 113 87
-12.0042 13.8524 0.82311 112 105 78
-11.8695 14.2294 0.829731 98 89 85
-12.0143 14.5172 0.840748 99 88 84
-11.2366 15.0085 0.836123 94 85 76
-10.6937 16.8995 0.877829 107 96 69
-10.9194 17.6216 0.903118 110 98 76
-7.98293 14.3406 0.693343 124 110 71
-8.01983 14.5373 0.699163 121 110 65
-8.06911 14.7633 0.705967 120 107 72
-7.98864 14.774 0.704964 125 112 81
-7.82102 14.8431 0.704163 125 108 80
-7.90124 15.1505 0.713663 124 108 79
-7.79631 15.0438 0.70917 124 106 74
-7.70418 15.1599 0.710883 132 117 74
-7.37087 17.0795 0.758555 138 120 84
-55.8112 10.2219 2.28193 138 131 109
-55.6369 10.3662 2.27614 128 124 99
-55.8042 10.6647 2.28392 124 122 92
-55.7971 10.8414 2.28457 127 126 97
-55.7953 11.0193 2.28545 95 98 75
-50.1972 10.4507 2.07433 109 112 119
-45.2485 9.75674 1.88677 106 106 68
-50.1726 11.0093 2.07676 120 120 83
-40.0755 9.64028 1.69492 126 123 80
-40.2283 9.80833 1.70171 125 124 67
-40.266 10.0135 1.70457 124 124 76
-40.1408 10.1118 1.70068 118 118 77
-40.081 10.5535 1.7018 124 124 60
-12.7966 14.5291 0.859927 113 99 86
-12.1271 14.4285 0.841095 97 86 84
-7.95466 15.6024 0.726641 137 123 77
-7.51373 18.7542 0.806925 149 134 91
