-6.73989 -1.69774 -1.83702 72 84 106
-6.74325 -1.66534 -1.8359 74 87 108
-7.02098 -1.28446 -1.83643 68 83 106
-7.02236 -1.25095 -1.83534 70 82 104
-7.21615 -0.899545 -1.82289 79 94 117
-7.51112 -0.547552 -1.83361 68 84 110
-7.70421 -0.2463 -1.83104 77 91 117
-2.63887 -6.2666 -1.6148 138 136 141
-2.94023 -6.10354 -1.66155 137 126 123
-3.43332 -6.07537 -1.77419 124 115 113
-3.71265 -5.7607 -1.78977 122 119 128
-3.72989 -5.74981 -1.78977 122 119 128
-4.27415 -4.99221 -1.79817 91 88 117
-4.29143 -4.98224 -1.79932 86 90 117
-4.3087 -4.97221 -1.80048 89 88 119
-4.32838 -4.96506 -1.80279 92 90 121
-6.12755 -2.50098 -1.82871 74 82 103
-6.1328 -2.48116 -1.82813 74 81 101
-6.13798 -2.46133 -1.82755 75 84 101
-6.74575 -1.64389 -1.83534 71 84 102
-6.74632 -1.62199 -1.83422 69 82 99
-7.02167 -1.22838 -1.83425 73 85 108
-7.21048 -0.875975 -1.82078 76 91 114
-7.50512 -0.511551 -1.83156 70 85 109
-7.69497 -0.216111 -1.82806 78 92 118
-2.62535 -6.2885 -1.61889 136 134 139
-2.91565 -6.09784 -1.65733 136 126 122
-3.39575 -6.09342 -1.77365 122 113 114
-3.41147 -6.07844 -1.77202 122 114 114
-3.66313 -5.77778 -1.78643 119 116 123
-3.69044 -5.76332 -1.78698 120 117 124
-4.24601 -5.03624 -1.8028 93 88 118
-4.24899 -5.00853 -1.79701 91 86 116
-5.11108 -3.80828 -1.80867 79 86 114
-5.12217 -3.79258 -1.80867 81 87 113
-5.14086 -3.78253 -1.81167 72 76 101
-5.15776 -3.75882 -1.81167 80 84 111
-5.1687 -3.74296 -1.81167 80 84 109
-5.19038 -3.73492 -1.81587 77 84 112
-5.1858 -3.70778 -1.80987 78 88 113
-5.21164 -3.69049 -1.81347 76 87 109
-5.22548 -3.67667 -1.81466 81 92 114
-5.23304 -3.65838 -1.81346 75 85 110
-5.2478 -3.63311 -1.81286 75 82 108
-5.24583 -3.60824 -1.80806 80 86 110
-6.13983 -2.42905 -1.82465 75 83 102
-6.16794 -2.41844 -1.8316 73 81 100
-6.15869 -2.39287 -1.82639 73 82 99
-6.75679 -1.59134 -1.83534 71 82 102
-6.72915 -1.56297 -1.82585 76 87 109
-7.03035 -1.2075 -1.83588 75 87 111
-7.02948 -1.17365 -1.83425 69 81 107
-7.21237 -0.853319 -1.82078 77 91 117
-7.49432 -0.487142 -1.82848 73 87 113
-7.51234 -0.464687 -1.83309 68 82 108
-7.71003 -0.196611 -1.83286 77 92 115
-7.69647 -0.176337 -1.82868 75 90 113
-2.58275 -6.29052 -1.61532 139 137 148
-2.60103 -6.2814 -1.6148 137 134 142
-2.87436 -6.1038 -1.65417 133 123 125
-2.89424 -6.09909 -1.65522 135 125 124
-3.36696 -6.08261 -1.76714 119 110 111
-3.64578 -5.78845 -1.78643 121 119 124
-4.18218 -5.06721 -1.79759 88 86 110
-4.19372 -5.05009 -1.79586 90 86 113
-4.2274 -5.04453 -1.80106 89 86 115
-4.89215 -4.08937 -1.80749 81 85 112
-4.90413 -4.07439 -1.80749 81 86 112
-4.91314 -4.05693 -1.80629 83 87 114
-4.92402 -4.02826 -1.80329 85 87 115
-4.94021 -4.01682 -1.80509 93 94 122
-4.95048 -4.00047 -1.80449 90 91 119
-4.97434 -3.98252 -1.80689 77 81 110
-4.98745 -3.96847 -1.80748 82 86 115
-4.99459 -3.9496 -1.80568 83 87 114
-5.00931 -3.92424 -1.80448 78 82 111
-5.02375 -3.91123 -1.80568 77 84 110
-5.03667 -3.897 -1.80628 86 90 117
-5.04504 -3.8792 -1.80508 90 91 119
-5.06692 -3.85945 -1.80688 74 78 105
-5.08271 -3.84738 -1.80868 72 76 103
-5.10001 -3.83639 -1.81107 77 81 108
-5.26256 -3.59642 -1.81046 81 87 111
-5.28645 -3.57747 -1.81346 83 89 113
-5.3063 -3.5676 -1.81706 82 90 109
-5.31664 -3.55125 -1.81706 78 84 106
-5.32059 -3.53061 -1.81466 78 84 110
-5.32519 -3.49862 -1.81046 76 84 107
-5.35759 -3.49688 -1.81885 76 84 105
-5.35335 -3.47096 -1.81345 79 87 108
-5.37679 -3.45135 -1.81645 78 86 109
-5.39477 -3.43991 -1.81945 82 90 113
-5.39186 -3.41505 -1.81465 83 94 114
-5.41187 -3.39313 -1.81645 80 88 109
-5.4265 -3.37946 -1.81825 81 87 109
-5.4233 -3.35463 -1.81345 80 82 107
-6.16358 -2.37297 -1.82581 77 84 100
-6.18459 -2.34828 -1.82928 72 81 98
-6.73133 -1.54158 -1.82529 71 83 108
-7.03233 -1.15174 -1.83425 70 85 108
-7.22505 -0.820377 -1.82342 71 85 111
-7.19807 -0.7946 -1.81549 77 91 117
-7.70787 -0.146674 -1.83228 82 94 118
-2.55323 -6.29955 -1.61481 139 137 147
-2.83884 -6.09834 -1.64889 134 128 131
-3.31636 -6.09811 -1.76442 123 115 113
-3.33301 -6.08508 -1.76334 125 117 114
-3.60911 -5.8063 -1.78532 124 119 125
-3.63523 -5.81063 -1.79034 123 121 126
-4.13098 -5.11403 -1.79876 91 94 111
-4.15558 -5.11369 -1.80339 92 95 114
-4.16705 -5.07979 -1.79759 86 90 115
-4.76774 -4.22318 -1.8045 84 83 114
-4.79666 -4.21022 -1.8087 83 84 114
-4.80761 -4.1943 -1.8081 81 84 114
-4.81134 -4.17204 -1.8045 76 81 110
-4.83008 -4.14996 -1.8045 73 79 105
-4.84657 -4.13895 -1.8063 81 85 112
-4.84861 -4.1154 -1.8021 81 85 114
-4.87576 -4.10058 -1.80569 76 81 109
-5.44469 -3.3335 -1.81584 79 81 102
-5.46241 -3.32165 -1.81884 83 89 109
-5.46383 -3.29982 -1.81584 78 84 106
-5.46357 -3.27702 -1.81224 86 90 115
-5.4879 -3.25753 -1.81584 82 88 110
-5.48906 -3.2357 -1.81284 74 80 102
-5.50822 -3.22453 -1.81644 79 86 105
-5.52413 -3.19992 -1.81704 71 73 98
-6.18576 -2.32693 -1.82754 75 84 101
-6.1958 -2.309 -1.8287 77 84 100
-6.2058 -2.28 -1.8287 72 84 100
-6.73957 -1.51052 -1.82585 75 86 106
-6.73971 -1.4887 -1.82473 81 92 114
-7.04457 -1.13139 -1.83697 71 86 109
-7.04538 -1.10911 -1.83642 73 88 111
-7.23225 -0.775354 -1.82447 68 82 109
-7.49052 -0.427818 -1.82694 77 91 117
-7.49679 -0.404571 -1.82848 78 92 118
-7.70367 -0.126657 -1.8311 77 90 115
-2.53228 -6.30125 -1.61327 139 135 148
-2.8175 -6.09931 -1.64678 136 128 130
-3.28778 -6.08693 -1.75791 122 114 112
-3.56988 -5.84074 -1.78811 128 122 127
-3.58353 -5.82367 -1.78588 124 119 122
-4.09116 -5.14342 -1.79818 90 98 116
-4.11686 -5.12796 -1.79934 91 97 115
-4.6898 -4.32071 -1.80631 87 88 119
-4.69972 -4.30381 -1.80511 81 82 113
-4.71657 -4.29337 -1.80691 93 92 124
-4.71659 -4.26734 -1.80151 93 92 123
-4.73999 -4.2496 -1.80331 87 88 116
-4.76235 -4.24411 -1.8075 82 85 114
-5.53331 -3.18283 -1.81703 80 83 106
-5.55402 -3.17235 -1.82123 76 81 103
-5.54982 -3.1362 -1.81463 80 82 105
-5.58037 -3.13119 -1.82243 78 82 104
-5.57439 -3.10553 -1.81703 79 84 106
-5.5866 -3.09012 -1.81823 79 84 106
-6.22467 -2.2653 -1.83275 71 83 99
-6.22376 -2.24324 -1.83043 74 85 101
-6.74352 -1.46769 -1.82473 70 82 105
-6.7848 -1.45464 -1.83589 76 88 111
-7.04783 -1.07586 -1.83588 72 84 110
-7.23766 -0.753005 -1.82552 68 82 109
-7.51456 -0.381907 -1.83308 74 88 114
-7.6956 -0.106611 -1.82871 78 92 118
-2.51199 -6.30469 -1.61225 138 135 144
-2.7984 -6.10552 -1.64625 138 132 132
-3.23391 -6.09482 -1.75303 123 115 112
-3.25479 -6.09068 -1.75465 122 114 111
-3.54952 -5.8461 -1.78644 126 122 131
-4.0415 -5.17548 -1.79645 89 97 120
-4.05465 -5.16025 -1.79529 88 96 114
-4.07463 -5.15417 -1.7976 87 94 115
-4.59336 -4.41426 -1.80392 86 83 114
-4.6009 -4.39495 -1.80152 84 80 113
-4.62206 -4.38891 -1.80511 82 81 112
-4.64319 -4.3691 -1.80571 77 76 107
-4.65329 -4.35232 -1.80451 83 80 110
-4.66888 -4.34077 -1.80571 81 81 107
-5.5969 -3.06232 -1.81703 80 86 107
-5.60733 -3.04589 -1.81763 81 86 106
-5.61268 -3.0267 -1.81643 82 84 107
-5.61929 -2.997 -1.81403 74 75 96
-5.63123 -2.98138 -1.81522 81 83 104
-5.64647 -2.96747 -1.81762 76 81 100
-6.22806 -2.21214 -1.82869 72 80 101
-6.23056 -2.19141 -1.82753 75 83 102
-6.78886 -1.42251 -1.83533 72 84 108
-7.04466 -1.05299 -1.83424 70 84 108
-7.04712 -1.03102 -1.83424 76 88 112
-7.23456 -0.71832 -1.82394 80 92 116
-7.23405 -0.695396 -1.82341 74 89 112
-7.71047 -0.0768461 -1.83352 72 86 112
-2.48623 -6.3243 -1.61481 139 136 143
-2.74401 -6.10564 -1.64045 142 137 140
-2.76307 -6.09961 -1.64097 140 134 135
-3.20639 -6.085 -1.74705 123 115 112
-3.4996 -5.86168 -1.78309 128 124 121
-3.52373 -5.86319 -1.787 126 122 120
-4.00685 -5.21184 -1.79877 89 95 117
-4.01335 -5.18745 -1.79413 89 97 120
-4.50579 -4.44816 -1.79133 81 82 105
-4.52024 -4.43582 -1.79193 76 74 101
-4.55352 -4.44228 -1.80092 86 83 112
-4.56932 -4.43112 -1.80212 83 78 110
-5.65952 -2.9412 -1.81762 82 85 105
-5.66452 -2.9219 -1.81642 72 74 96
-5.67113 -2.90346 -1.81582 78 80 104
-5.68278 -2.88759 -1.81702 77 80 104
-6.28886 -2.19053 -1.84433 73 82 97
-6.21912 -2.14424 -1.82 69 82 101
-6.23737 -2.11823 -1.8229 131 139 157
-6.79998 -1.40288 -1.83756 74 87 108
-6.79038 -1.37902 -1.83366 66 81 102
-7.04159 -0.996649 -1.83153 71 83 105
-7.22387 -0.671619 -1.82024 80 96 120
-7.7232 -0.0569373 -1.83772 73 87 113
-7.70158 -0.0368838 -1.83114 78 90 116
-2.46274 -6.31846 -1.61123 137 134 143
-2.71909 -6.09735 -1.6357 139 135 138
-3.15026 -6.08693 -1.74054 128 118 114
-3.17434 -6.09004 -1.74434 126 117 112
-3.48109 -5.87014 -1.78254 126 122 119
-3.96184 -5.23396 -1.79587 92 98 117
-3.99464 -5.22849 -1.8005 92 99 116
-4.43726 -4.54182 -1.79673 99 98 116
-4.45989 -4.53799 -1.80093 101 100 117
-4.46977 -4.50671 -1.79613 101 99 119
-4.48572 -4.49586 -1.79733 104 105 126
-4.49497 -4.47815 -1.79553 106 107 129
-5.69547 -2.86113 -1.81702 74 79 99
-5.70529 -2.84431 -1.81762 74 82 101
-5.70994 -2.8249 -1.81641 75 84 101
-5.73946 -2.80669 -1.82241 80 82 103
-5.74055 -2.78553 -1.82001 81 83 107
-6.23777 -2.09689 -1.82116 128 130 142
-6.24352 -2.07741 -1.82116 125 123 135
-6.25424 -2.04876 -1.82173 130 129 142
-6.81478 -1.35094 -1.83924 73 87 113
-6.77108 -1.32061 -1.82528 73 85 109
-7.05148 -0.97577 -1.8337 72 86 112
-7.2223 -0.637214 -1.81918 73 89 114
-7.71229 -0.0169165 -1.83474 77 89 115
-2.44555 -6.3308 -1.61277 139 136 143
-2.68903 -6.10348 -1.63411 141 134 141
-3.12946 -6.09069 -1.73891 126 118 115
-3.44025 -5.90194 -1.78477 129 120 121
-3.45332 -5.88354 -1.78198 129 120 119
-3.93934 -5.27011 -1.80051 94 96 108
-3.94397 -5.2427 -1.79472 96 98 111
-4.3922 -4.59139 -1.79794 102 102 119
-4.40706 -4.57946 -1.79853 100 100 118
-4.42382 -4.55524 -1.79673 100 98 116
-5.74328 -2.76522 -1.81821 74 78 98
-5.77088 -2.74583 -1.82361 78 85 102
-5.77864 -2.7279 -1.82361 78 85 103
-5.77426 -2.70428 -1.81941 79 86 105
-6.26346 -2.03042 -1.82289 130 128 141
-6.29082 -2.01799 -1.82984 125 123 135
-6.78003 -1.30055 -1.82695 73 85 109
-7.05369 -0.953768 -1.8337 79 93 119
-7.23496 -0.615434 -1.82235 79 93 119
-2.41281 -6.33 -1.6097 139 137 142
-2.64946 -6.1114 -1.63201 136 132 142
-2.66711 -6.10211 -1.63148 138 133 142
-3.06874 -6.08139 -1.72914 131 122 115
-3.09427 -6.08832 -1.73403 128 118 115
-3.42163 -5.91019 -1.78422 127 120 122
-3.8738 -5.29692 -1.7953 104 106 118
-3.8918 -5.28845 -1.79646 107 109 129
-3.90648 -5.27521 -1.79588 91 95 109
-4.33028 -4.65075 -1.79794 105 107 122
-4.33375 -4.62637 -1.79314 101 100 116
-4.36882 -4.62209 -1.79974 102 101 119
-4.37861 -4.60466 -1.79794 102 101 117
-5.78264 -2.67575 -1.81821 74 81 100
-5.79191 -2.65857 -1.8188 75 83 102
-5.79939 -2.64056 -1.8188 74 81 100
-6.26848 -1.97853 -1.81999 148 145 157
-6.31759 -1.97287 -1.83389 81 82 97
-6.7777 -1.26742 -1.82472 73 85 107
-7.06682 -0.922033 -1.83641 70 84 110
-7.04983 -0.897462 -1.83098 78 93 116
-7.23604 -0.592676 -1.82234 79 93 119
-7.54382 -0.140228 -1.82511 79 93 119
-2.39431 -6.33852 -1.61022 140 138 144
-2.6117 -6.09744 -1.62462 137 136 143
-3.04485 -6.07785 -1.72534 132 123 115
-3.37323 -5.928 -1.78199 125 121 118
-3.3946 -5.92499 -1.78422 126 121 122
-3.86443 -5.31794 -1.79878 94 97 112
-4.27639 -4.69057 -1.79555 93 94 111
-4.29279 -4.68048 -1.79674 97 97 117
-4.32285 -4.6709 -1.80094 108 107 123
-5.80683 -2.62253 -1.8188 76 84 101
-5.83045 -2.60086 -1.823 72 82 100
-5.8238 -2.57656 -1.8182 77 85 102
-5.83803 -2.5615 -1.8206 71 79 96
-6.31566 -1.95082 -1.83157 77 85 102
-6.31483 -1.91836 -1.82868 75 83 102
-6.81479 -1.25243 -1.83477 72 84 106
-6.81032 -1.22981 -1.83253 72 84 106
-7.05751 -0.876191 -1.8326 74 89 114
-7.24562 -0.559089 -1.82446 69 84 107
-7.21387 -0.533992 -1.81547 69 85 110
-7.54342 -0.120929 -1.82512 77 91 117
-2.59545 -6.11014 -1.6262 136 135 140
-2.99078 -6.08178 -1.71992 134 125 116
-3.0265 -6.0865 -1.72535 133 123 116
-3.33936 -5.95078 -1.78311 134 126 121
-3.35544 -5.93772 -1.78199 128 122 119
-3.80176 -5.34852 -1.79531 88 86 91
-3.82417 -5.34666 -1.79878 84 84 95
-3.83262 -5.32414 -1.79473 89 92 107
-4.23336 -4.74267 -1.79855 100 99 115
-4.24614 -4.72844 -1.79795 99 98 114
-4.26247 -4.70345 -1.79555 95 94 110
-4.81452 -3.90175 -1.79968 77 81 108
-4.83788 -3.88468 -1.80214 79 83 110
-4.84781 -3.86877 -1.80152 77 81 107
-4.86647 -3.8601 -1.80459 91 97 121
-4.87631 -3.84409 -1.80398 77 88 110
-4.90242 -3.82904 -1.80767 83 87 114
-4.89444 -3.79859 -1.79967 77 81 110
-4.91444 -3.79084 -1.80336 79 83 112
-4.93294 -3.76958 -1.80397 80 86 112
-4.94397 -3.75457 -1.80397 79 85 111
-4.96391 -3.74656 -1.80766 77 83 109
-4.96572 -3.7122 -1.80151 77 84 110
-4.97958 -3.6994 -1.80274 84 90 114
-4.9949 -3.6877 -1.80458 82 86 113
-5.01445 -3.66716 -1.80581 79 86 112
-5.01457 -3.64385 -1.8015 75 82 110
-5.03734 -3.63769 -1.80643 78 85 113
-5.04642 -3.62119 -1.80581 75 85 110
-5.05807 -3.5947 -1.80396 80 90 115
-5.07466 -3.58376 -1.80642 72 82 107
-5.08202 -3.56603 -1.80519 74 81 107
-5.10723 -3.54943 -1.80888 87 93 115
-5.11447 -3.53162 -1.80765 78 84 106
-5.12319 -3.51489 -1.80703 78 84 106
-5.13736 -3.49031 -1.80642 79 85 107
-5.14905 -3.4757 -1.80703 83 91 114
-5.1607 -3.46105 -1.80765 82 88 110
-5.17233 -3.44636 -1.80826 82 88 110
-5.19241 -3.42584 -1.8101 75 79 104
-5.18664 -3.39928 -1.80395 84 90 112
-5.20596 -3.38979 -1.80764 81 87 111
-5.2274 -3.37011 -1.8101 76 84 107
-5.22766 -3.34781 -1.80641 72 80 101
-5.24529 -3.33704 -1.80948 77 85 106
-5.24743 -3.30463 -1.80456 77 85 108
-5.26177 -3.29166 -1.80641 79 85 107
-5.27608 -3.27863 -1.80825 79 85 107
-5.85617 -2.53728 -1.823 77 86 103
-5.85451 -2.5153 -1.82 73 83 102
-5.85805 -2.49558 -1.81879 77 85 104
-6.33098 -1.90198 -1.83215 68 79 98
-6.34344 -1.8844 -1.83446 69 78 97
-6.78121 -1.20294 -1.82304 74 86 111
-6.78029 -1.17021 -1.82137 70 84 110
-7.06324 -0.854639 -1.83369 71 84 110
-7.232 -0.512451 -1.82023 76 90 117
-7.5488 -0.0920886 -1.82698 70 85 108
-2.57294 -6.10663 -1.62304 137 134 141
-2.96933 -6.08321 -1.71775 133 124 115
-3.306 -5.95324 -1.77921 131 122 114
-3.7602 -5.37513 -1.79473 105 93 87
-3.77732 -5.36549 -1.79531 98 90 88
-4.17859 -4.78125 -1.79615 107 104 123
-4.25208 -4.83825 -1.82494 103 104 122
-4.2143 -4.74964 -1.79615 101 102 117
-4.66718 -4.05687 -1.79477 80 87 115
-4.69817 -4.04711 -1.8003 81 81 112
-4.71432 -4.03668 -1.80215 80 79 110
-4.72476 -4.02113 -1.80153 78 82 111
-4.73659 -4.0068 -1.80153 83 87 116
-4.75749 -3.98775 -1.80276 87 93 119
-4.76633 -3.97082 -1.80153 82 87 116
-4.77082 -3.95014 -1.79845 80 84 113
-4.79725 -3.93583 -1.80214 78 85 111
-4.81313 -3.92496 -1.80398 78 84 110
-5.28395 -3.26144 -1.80763 78 86 109
-5.30167 -3.23918 -1.80886 82 84 107
-5.30782 -3.22091 -1.80763 77 82 104
-5.32033 -3.20665 -1.80886 77 82 106
-5.34104 -3.18616 -1.81132 82 86 111
-5.35185 -3.17078 -1.81193 83 89 109
-5.35287 -3.14942 -1.80886 83 90 109
-5.36848 -3.12575 -1.80947 76 83 102
-5.37586 -3.1083 -1.80886 79 86 105
-5.88119 -2.47338 -1.82299 77 87 104
-5.88105 -2.45214 -1.82059 77 86 103
-5.89142 -2.43528 -1.82179 77 86 103
-6.35218 -1.86566 -1.83562 71 82 100
-6.34723 -1.83207 -1.83157 74 86 102
-6.77935 -1.14841 -1.82025 73 86 111
-7.07019 -0.822018 -1.83478 69 85 111
-7.07003 -0.799715 -1.83423 78 92 118
-7.2316 -0.478187 -1.81969 76 90 117
-7.54447 -0.0727064 -1.82576 71 84 108
-2.54774 -6.09582 -1.61776 138 135 144
-2.94715 -6.08281 -1.71503 134 124 114
-3.27369 -5.97902 -1.78144 125 117 113
-3.28726 -5.96104 -1.77865 128 119 114
-3.74723 -5.39113 -1.79647 136 118 109
-4.12953 -4.82648 -1.79676 98 99 117
-4.15625 -4.81364 -1.79915 113 110 128
-4.17174 -4.80256 -1.79975 107 105 124
-4.58847 -4.16124 -1.79785 85 81 114
-4.60589 -4.13911 -1.79723 88 87 118
-4.61808 -4.12518 -1.79723 81 83 114
-4.62605 -4.10732 -1.79538 80 83 114
-4.65576 -4.09662 -1.80031 84 83 114
-4.66081 -4.0761 -1.79723 78 81 112
-5.39623 -3.0986 -1.81316 78 84 108
-5.40349 -3.08106 -1.81254 81 85 110
-5.40896 -3.05138 -1.80947 78 82 106
-5.42593 -3.03953 -1.81254 77 82 104
-5.43465 -3.02286 -1.81254 79 84 105
-5.43814 -2.99217 -1.80885 75 80 102
-5.89644 -2.41621 -1.82119 74 83 100
-5.91221 -2.39079 -1.82299 74 83 100
-5.90649 -2.36741 -1.81879 76 85 100
-6.36501 -1.81595 -1.83562 69 80 98
-6.36068 -1.79339 -1.83272 72 83 103
-6.82753 -1.13467 -1.83364 70 82 105
-7.05453 -0.775667 -1.82934 73 87 110
-7.22648 -0.455082 -1.81811 78 89 113
-7.55714 -0.0535703 -1.83007 78 93 116
-7.53563 -0.024374 -1.82333 74 89 112
-2.51648 -6.09746 -1.61512 137 134 141
-2.89404 -6.08761 -1.71015 136 123 115
-2.91693 -6.08998 -1.71341 137 124 116
-3.24635 -5.99309 -1.78144 119 111 109
-3.70537 -5.41728 -1.79589 109 97 95
-3.72676 -5.41424 -1.79879 122 105 98
-4.07158 -4.86079 -1.79316 80 86 112
-4.10081 -4.85124 -1.79676 68 70 92
-4.11397 -4.83742 -1.79616 88 89 109
-4.5158 -4.23281 -1.79601 89 86 116
-4.54186 -4.23246 -1.80216 84 81 112
-4.5446 -4.196 -1.79478 89 85 118
-4.55699 -4.18227 -1.79478 89 88 120
-4.57343 -4.17244 -1.79662 83 82 114
-5.45167 -2.97826 -1.81069 80 84 106
-5.45687 -2.95965 -1.80946 81 85 107
-5.48326 -2.94184 -1.81438 75 78 101
-5.48168 -2.91949 -1.81069 75 80 104
-5.49336 -2.90445 -1.81192 75 79 104
-5.93432 -2.35743 -1.82598 74 83 100
-5.91966 -2.31997 -1.81759 74 83 100
-6.36825 -1.76353 -1.83272 69 80 100
-6.37112 -1.74309 -1.83214 72 83 101
-6.83196 -1.10267 -1.83364 66 81 104
-6.83079 -1.08074 -1.83252 65 79 105
-7.07447 -0.744499 -1.83423 72 88 114
-7.24628 -0.43341 -1.82339 79 91 115
-7.53677 -0.00509734 -1.82395 77 92 115
-2.47912 -6.10961 -1.6146 138 135 144
-2.5008 -6.11169 -1.61724 139 137 143
-2.86821 -6.07806 -1.70472 132 120 112
-3.23177 -6.00926 -1.78368 121 112 112
-3.66467 -5.42631 -1.79127 93 87 92
-3.6881 -5.42667 -1.79532 94 83 83
-4.06526 -4.91345 -1.80456 76 86 113
-4.0619 -4.87894 -1.79556 75 84 110
-4.43915 -4.31372 -1.79602 85 80 112
-4.46132 -4.29634 -1.79725 89 86 117
-4.47804 -4.28693 -1.79909 85 82 113
-4.4907 -4.27343 -1.79909 87 82 114
-4.50731 -4.25041 -1.79786 90 87 118
-5.50285 -2.87729 -1.81069 77 82 102
-5.5144 -2.86216 -1.81192 77 82 101
-5.52088 -2.8443 -1.8113 80 83 102
-5.53573 -2.83085 -1.81376 80 82 103
-5.53978 -2.80089 -1.81068 77 82 101
-5.94742 -2.30977 -1.82478 71 80 98
-5.95558 -2.29191 -1.82538 72 80 101
-6.37759 -1.72365 -1.83272 66 77 95
-6.83333 -1.0594 -1.83252 73 85 109
-7.07023 -0.721791 -1.8326 67 81 107
-7.06594 -0.699109 -1.83096 76 90 113
-7.24488 -0.410494 -1.82286 77 92 115
-2.84029 -6.09015 -1.70472 127 117 111
-3.21116 -6.01336 -1.78201 120 111 113
-3.62253 -5.45178 -1.79069 140 139 147
-3.64394 -5.44908 -1.79358 110 109 118
-3.99946 -4.93787 -1.79737 78 88 113
-4.00233 -4.91087 -1.79137 79 89 113
-4.02045 -4.90332 -1.79317 78 89 111
-4.37434 -4.36651 -1.79295 90 84 118
-4.39775 -4.36433 -1.79787 85 78 112
-4.41353 -4.34035 -1.79602 91 85 118
-4.41578 -4.31615 -1.7911 91 86 118
-5.55955 -2.78995 -1.81499 79 84 103
-5.55229 -2.76501 -1.80945 79 81 101
-5.57631 -2.74538 -1.81376 80 83 100
-5.5807 -2.72649 -1.81252 85 86 104
-5.97081 -2.26607 -1.82718 74 82 103
-5.96458 -2.24277 -1.82298 73 81 100
-5.97791 -2.22681 -1.82538 71 79 98
-5.97688 -2.20554 -1.82298 75 83 102
-6.38667 -1.6942 -1.83329 73 84 106
-6.39485 -1.67519 -1.83445 75 86 106
-6.79567 -1.02122 -1.82024 71 86 109
-6.80373 -1.00081 -1.82191 68 80 104
-7.07598 -0.666745 -1.83314 76 88 112
-7.24399 -0.376179 -1.82233 66 80 106
-2.42885 -6.11585 -1.61143 126 125 133
-2.44723 -6.10906 -1.61143 138 137 143
-2.79478 -6.08472 -1.69821 135 126 119
-2.81677 -6.0857 -1.70092 126 117 110
-3.16639 -6.03795 -1.78257 119 111 110
-3.18282 -6.0254 -1.78145 116 107 112
-3.58223 -5.48015 -1.79127 126 125 135
-3.6062 -5.46251 -1.79069 143 142 150
-3.93592 -4.96441 -1.79138 81 93 117
-3.95297 -4.95562 -1.79257 80 92 118
-3.98128 -4.94532 -1.79557 80 89 116
-4.32948 -4.44058 -1.79972 89 89 113
-4.33099 -4.41504 -1.79418 80 80 103
-4.36528 -4.41073 -1.80095 81 78 105
-4.36267 -4.38102 -1.79356 84 81 112
-5.59185 -2.71099 -1.81375 85 88 107
-5.59864 -2.68261 -1.81191 77 82 101
-5.61476 -2.66954 -1.81498 78 83 103
-5.61891 -2.65056 -1.81375 77 82 101
-6.08134 -2.21192 -1.85476 70 81 99
-5.97978 -2.15438 -1.81877 71 83 102
-6.39742 -1.65468 -1.83387 69 81 103
-6.40362 -1.63513 -1.83445 74 87 103
-6.80601 -0.979542 -1.82191 74 86 110
-7.06767 -0.64372 -1.83042 70 84 110
-7.2347 -0.35293 -1.81969 79 93 119
-7.22728 -0.329819 -1.81757 76 91 114
-2.40596 -6.10988 -1.60774 129 126 135
-2.77569 -6.09078 -1.69767 135 126 119
-3.12513 -6.04559 -1.77922 156 149 124
-3.14326 -6.03662 -1.77922 127 119 109
-3.5434 -5.49148 -1.7878 122 118 132
-3.53795 -5.44499 -1.77506 122 120 133
-3.88934 -4.98154 -1.78658 76 91 114
-3.93152 -4.98983 -1.79677 78 91 114
-4.28019 -4.48297 -1.79849 102 100 122
-4.29988 -4.47715 -1.80157 88 83 109
-4.31758 -4.45496 -1.80034 86 86 111
-5.6264 -2.63324 -1.81375 80 85 104
-5.63965 -2.60802 -1.81436 74 81 100
-5.64702 -2.59062 -1.81436 75 83 102
-5.65776 -2.57482 -1.81559 73 80 98
-5.9803 -2.1338 -1.81697 56 64 82
-5.99484 -2.10768 -1.81877 144 149 162
-6.39562 -1.60125 -1.82981 75 86 107
-6.41279 -1.58449 -1.83386 68 79 103
-6.80443 -0.957744 -1.8208 67 81 107
-6.81549 -0.891438 -1.81502 74 89 112
-7.07077 -0.62181 -1.83096 67 83 106
-2.37482 -6.11075 -1.6051 127 125 131
-2.73986 -6.08279 -1.6917 133 124 117
-3.4881 -5.49454 -1.7797 121 118 130
-3.51338 -5.49896 -1.78491 124 122 135
-3.86307 -5.0093 -1.78838 80 94 120
-3.88364 -5.00536 -1.79138 79 91 115
-4.22581 -4.54741 -1.80157 101 100 116
-4.23803 -4.53331 -1.80096 101 99 117
-4.25021 -4.51917 -1.80034 97 96 114
-4.27196 -4.50144 -1.80095 100 101 121
-5.66213 -2.54543 -1.81313 73 80 99
-5.67277 -2.52954 -1.81436 76 83 102
-5.67815 -2.51124 -1.81374 76 83 99
-6.0006 -2.08896 -1.81877 130 129 137
-6.0081 -2.07084 -1.81937 129 127 138
-6.40393 -1.56116 -1.82981 68 79 101
-6.80805 -0.925834 -1.82079 72 87 110
-6.812 -0.904796 -1.82135 70 85 108
-6.82302 -0.875361 -1.81706 81 95 121
-6.80959 -0.847119 -1.81097 73 87 110
-7.08046 -0.589325 -1.83313 72 84 108
-7.23178 -0.295813 -1.81863 77 92 113
-2.35581 -6.11548 -1.60458 129 128 134
-2.71797 -6.08152 -1.68899 135 126 117
-3.07682 -6.06254 -1.77756 122 114 112
-3.09992 -6.06413 -1.7809 132 123 120
-3.47065 -5.50319 -1.77912 121 115 127
-3.84891 -5.07034 -1.80098 81 96 119
-3.85043 -5.04039 -1.79378 80 94 120
-4.17789 -4.59141 -1.80158 103 102 120
-4.1853 -4.57171 -1.7985 96 95 113
-4.20479 -4.55144 -1.79788 99 98 114
-5.68046 -2.48104 -1.81066 71 80 97
-5.69437 -2.4666 -1.81312 74 83 100
-5.70128 -2.44902 -1.81312 75 83 104
-5.71509 -2.43446 -1.81558 72 80 101
-6.0296 -2.04696 -1.82357 136 136 146
-6.02613 -2.0251 -1.82057 128 127 137
-6.41598 -1.53242 -1.83154 69 81 103
-6.41437 -1.51097 -1.82981 71 83 105
-6.81209 -0.883251 -1.82079 75 90 113
-6.80957 -0.829835 -1.81029 70 82 106
-7.07572 -0.566708 -1.8315 76 88 114
-7.24533 -0.273486 -1.82232 77 92 115
-7.24343 -0.250598 -1.82179 74 88 114
-2.33555 -6.11651 -1.603 136 133 140
-2.69822 -6.08553 -1.6879 135 125 115
-3.06022 -6.07477 -1.77867 122 114 111
-3.42988 -5.53035 -1.77971 134 132 143
-3.46284 -5.52829 -1.78434 122 117 131
-3.80863 -5.07932 -1.79559 82 97 120
-3.81591 -5.05713 -1.79139 81 96 119
-4.12948 -4.63486 -1.80158 104 106 121
-4.1371 -4.61524 -1.7985 100 102 117
-4.15806 -4.59665 -1.7985 104 102 122
-5.72396 -2.40721 -1.81497 73 81 102
-5.72894 -2.38878 -1.81435 71 79 100
-5.7391 -2.37256 -1.81558 70 78 99
-6.02621 -1.98389 -1.81696 137 135 146
-6.06004 -1.9638 -1.82536 69 71 90
-6.42571 -1.49264 -1.83212 72 85 104
-6.41697 -1.45896 -1.82749 64 76 98
-6.81536 -0.851293 -1.82079 65 80 103
-6.83175 -0.816014 -1.81777 82 97 120
-6.82358 -0.788741 -1.81371 75 90 114
-7.07858 -0.544741 -1.83204 76 91 114
-7.07562 -0.522309 -1.83095 69 84 107
-2.31778 -6.12475 -1.60353 132 129 136
-2.64427 -6.0845 -1.68193 136 126 117
-2.66678 -6.08784 -1.68519 137 124 115
-3.03003 -6.08256 -1.777 122 114 111
-3.39669 -5.55051 -1.77971 133 131 145
-3.41711 -5.54709 -1.78202 131 129 142
-3.75621 -5.12035 -1.79619 88 103 121
-3.77254 -5.11068 -1.79679 86 97 121
-3.77778 -5.08545 -1.79139 86 98 119
-4.07699 -4.67334 -1.79974 102 103 117
-4.09087 -4.66115 -1.79974 103 102 118
-4.11325 -4.64425 -1.80035 100 100 116
-5.74767 -2.34521 -1.81496 76 84 103
-5.75595 -2.32817 -1.81558 73 81 100
-6.06353 -1.94428 -1.82476 73 83 101
-6.0706 -1.9259 -1.82536 75 87 103
-6.43748 -1.44268 -1.8327 70 83 102
-6.43185 -1.42039 -1.8298 70 82 104
-6.81908 -0.830201 -1.82135 68 83 106
-6.84941 -0.812165 -1.82972 77 92 115
-6.83264 -0.772794 -1.81643 69 84 107
-6.8231 -0.754116 -1.81236 79 94 117
-7.07527 -0.488977 -1.83041 74 88 114
-7.23987 -0.216256 -1.82073 72 88 113
-7.24354 -0.193526 -1.82179 82 97 123
-2.62591 -6.09185 -1.68194 135 125 116
-2.99106 -6.09445 -1.77533 124 117 115
-3.01014 -6.08767 -1.77589 125 117 114
-3.37505 -5.57215 -1.78203 102 100 112
-3.72528 -5.12614 -1.79199 85 100 123
-4.04192 -4.68871 -1.79605 105 104 121
-4.06427 -4.68695 -1.80036 104 102 120
-4.77093 -3.67238 -1.80576 77 84 110
-4.79622 -3.65739 -1.80956 81 85 114
-4.8083 -3.64384 -1.81019 86 92 116
-4.8158 -3.6268 -1.80892 81 88 114
-4.83188 -3.60463 -1.80892 81 86 115
-4.83319 -3.58298 -1.80512 77 84 112
-4.84505 -3.56929 -1.80575 76 88 112
-4.87459 -3.5571 -1.81145 82 90 113
-4.87262 -3.53317 -1.80638 80 86 112
-4.88892 -3.52267 -1.80891 82 87 116
-4.89599 -3.50543 -1.80765 85 92 118
-4.91921 -3.48838 -1.81081 82 93 113
-4.91998 -3.46666 -1.80701 78 89 111
-4.92066 -3.44497 -1.80321 80 88 111
-4.93901 -3.42444 -1.80447 79 83 108
-4.95817 -3.41574 -1.80827 81 87 111
-4.9711 -3.40265 -1.80954 76 84 107
-4.98145 -3.37648 -1.80764 74 82 103
-5.75892 -2.30893 -1.81434 75 83 102
-5.7707 -2.28292 -1.81496 74 83 100
-5.78231 -2.26721 -1.8168 75 84 99
-6.08058 -1.89798 -1.82595 73 85 101
-6.09843 -1.88287 -1.83015 71 84 101
-6.45261 -1.39343 -1.83443 67 79 102
-6.82577 -0.728549 -1.81237 73 88 112
-7.08364 -0.467386 -1.83258 72 86 112
-7.23562 -0.170541 -1.81967 76 90 116
-2.59253 -6.08837 -1.6776 132 122 113
-2.96162 -6.10363 -1.77422 124 116 114
-3.35366 -5.57374 -1.77913 105 105 117
-3.7044 -5.16235 -1.79739 88 99 121
-3.72302 -5.15601 -1.79919 84 95 118
-3.99127 -4.7291 -1.79544 104 103 119
-4.00652 -4.71869 -1.79606 102 101 117
-4.0265 -4.71414 -1.79913 99 98 114
-4.60073 -3.87157 -1.80134 82 83 113
-4.6134 -3.85875 -1.80197 84 85 115
-4.63906 -3.8569 -1.8083 83 87 116
-4.61108 -3.8098 -1.7912 87 93 120
-4.66154 -3.81655 -1.80577 82 83 111
-4.66529 -3.79626 -1.8026 84 89 116
-4.69094 -3.79403 -1.80893 83 89 115
-4.71221 -3.77608 -1.81083 74 76 104
-4.70841 -3.74974 -1.8045 77 83 109
-4.71927 -3.73534 -1.80449 80 84 111
-4.75069 -3.72546 -1.81083 75 82 108
-4.75551 -3.70621 -1.80829 74 79 108
-4.77518 -3.69867 -1.81209 77 83 109
-4.99583 -3.36435 -1.80954 77 82 104
-5.01333 -3.35427 -1.8127 82 86 111
-5.02342 -3.32794 -1.8108 77 81 106
-5.03296 -3.31247 -1.8108 76 84 103
-5.05352 -3.30427 -1.81523 80 88 107
-5.04872 -3.27935 -1.80953 80 88 109
-5.06953 -3.26012 -1.81206 80 88 109
-5.08682 -3.24962 -1.81523 79 87 106
-5.07695 -3.22169 -1.80763 80 85 107
-5.08313 -3.19312 -1.80446 77 85 108
-5.10989 -3.18853 -1.81143 75 86 105
-5.11578 -3.17076 -1.81016 75 84 103
-5.78507 -2.24791 -1.81557 76 85 101
-5.78775 -2.21826 -1.81311 74 83 98
-6.08343 -1.85773 -1.82355 68 78 97
-6.10406 -1.83299 -1.82775 74 85 103
-6.44867 -1.37157 -1.83211 71 83 107
-6.44839 -1.35054 -1.83095 73 85 107
-6.87142 -0.782128 -1.8353 76 88 112
-6.81963 -0.75489 -1.81967 78 92 118
-6.8328 -0.712251 -1.81442 74 89 112
-6.83606 -0.69542 -1.8151 75 87 113
-7.07851 -0.444843 -1.83095 73 87 113
-7.22761 -0.147599 -1.81756 72 86 112
-2.57015 -6.08474 -1.67434 134 124 115
-2.94017 -6.10499 -1.77199 127 119 116
-3.31692 -5.60834 -1.78261 67 67 84
-3.34902 -5.60533 -1.78666 98 97 113
-3.64039 -5.18638 -1.792 88 97 115
-3.65265 -5.17081 -1.7902 90 97 117
-3.66696 -5.15835 -1.7896 92 100 121
-3.93087 -4.75688 -1.78991 102 105 120
-3.95439 -4.75716 -1.79483 100 102 117
-3.96501 -4.74089 -1.79298 104 103 119
-4.48784 -4.00052 -1.80008 86 87 115
-4.49806 -3.98559 -1.79945 83 84 114
-4.51443 -3.96375 -1.79881 83 88 117
-4.53019 -3.95377 -1.80071 86 93 119
-4.56013 -3.95628 -1.80894 86 91 118
-4.55924 -3.91918 -1.80071 75 80 107
-4.57348 -3.90776 -1.80197 79 79 107
-4.59342 -3.90124 -1.80577 82 83 111
-5.1394 -3.15304 -1.81396 76 82 106
-5.14031 -3.13222 -1.81079 77 85 108
-5.14924 -3.11635 -1.81079 76 84 103
-5.15973 -3.10142 -1.81142 76 82 106
-5.17823 -3.08042 -1.81332 73 80 106
-5.18863 -3.06539 -1.81395 76 82 106
-5.19246 -3.04647 -1.81205 77 81 106
-5.80803 -2.20589 -1.81803 73 81 100
-5.80527 -2.18448 -1.81495 73 82 99
-5.82903 -2.17332 -1.8211 73 82 99
-6.10347 -1.81228 -1.82595 72 84 100
-6.11563 -1.79531 -1.82835 72 83 103
-6.44618 -1.32913 -1.82921 75 87 109
-6.81161 -0.732555 -1.81687 72 86 112
-6.83846 -0.669779 -1.81511 66 81 104
-7.07973 -0.411627 -1.83095 70 84 110
-7.22935 -0.113442 -1.81808 71 85 111
-2.55112 -6.09006 -1.6738 136 127 118
-2.89963 -6.11275 -1.7692 130 122 117
-2.92258 -6.11506 -1.77255 127 119 115
-3.2805 -5.62272 -1.78088 73 77 91
-3.29734 -5.61304 -1.78088 65 68 85
-3.62916 -5.20351 -1.7944 97 102 118
-3.87261 -4.78688 -1.78561 73 83 105
-3.89379 -4.78443 -1.7893 81 84 103
-3.9115 -4.77737 -1.79114 104 106 121
-4.40026 -4.09117 -1.79819 77 82 110
-4.4268 -4.07888 -1.80199 88 88 118
-4.40549 -4.03435 -1.78678 87 85 116
-4.4436 -4.04547 -1.79882 83 84 114
-4.46233 -4.03838 -1.80198 78 81 111
-4.48455 -4.02183 -1.80388 81 85 114
-5.20909 -3.02429 -1.81332 75 81 103
-5.20949 -3.00344 -1.81015 71 76 99
-5.21307 -2.98449 -1.80824 74 79 101
-5.24592 -2.97154 -1.81585 74 80 102
-5.24444 -2.94972 -1.81204 73 79 102
-5.23625 -2.92422 -1.80571 79 84 106
-5.26937 -2.92184 -1.81521 76 78 99
-5.84906 -2.15027 -1.82479 67 79 97
-5.84964 -2.13016 -1.82295 57 68 85
-5.85194 -2.11072 -1.82172 142 146 156
-6.12773 -1.77828 -1.83074 72 83 103
-6.13336 -1.74899 -1.83014 72 83 103
-6.45156 -1.29879 -1.82921 70 81 106
-6.45667 -1.27893 -1.82979 71 83 107
-6.86077 -0.716055 -1.83083 75 91 116
-6.84345 -0.653139 -1.81648 71 87 110
-6.84095 -0.635565 -1.81513 80 95 120
-7.07635 -0.389251 -1.82986 74 89 112
-7.2462 -0.0907997 -1.82284 72 86 112
-2.5242 -6.07362 -1.66674 135 126 117
-2.86788 -6.11617 -1.76642 131 122 115
-3.24934 -5.627 -1.77741 109 110 122
-3.58675 -5.22551 -1.79261 102 100 113
-3.59917 -5.21007 -1.79081 98 99 112
-3.83985 -4.82003 -1.78746 81 91 116
-3.87319 -4.81809 -1.79361 70 82 105
-4.33356 -4.164 -1.7982 84 83 114
-4.35384 -4.1588 -1.80199 88 82 116
-4.36053 -4.1403 -1.79946 89 86 115
-4.35991 -4.10203 -1.79059 82 83 111
-4.39378 -4.10974 -1.80072 83 88 115
-5.2722 -2.89187 -1.81141 77 82 102
-5.27704 -2.87373 -1.81014 75 80 102
-5.29515 -2.86281 -1.81394 75 80 100
-5.30265 -2.83551 -1.81204 72 77 96
-5.30562 -2.81641 -1.81013 78 83 105
-5.86458 -2.08483 -1.82294 128 126 138
-5.86851 -2.06601 -1.82233 129 127 139
-6.13802 -1.72979 -1.83014 70 82 104
-6.1481 -1.71209 -1.83194 72 84 106
-6.46548 -1.25979 -1.83152 70 82 104
-6.86325 -0.683838 -1.83083 79 94 117
-6.82635 -0.658795 -1.81966 67 83 106
-6.8421 -0.618449 -1.81514 74 86 110
-7.0959 -0.368178 -1.83529 72 87 110
-7.23409 -0.0678802 -1.81966 74 88 114
-2.4963 -6.08405 -1.66674 133 124 117
-2.8465 -6.11718 -1.76419 132 123 116
-3.21197 -5.63922 -1.77509 122 121 130
-3.22797 -5.62808 -1.77451 106 108 119
-3.53286 -5.22952 -1.78422 100 96 110
-3.56284 -5.22335 -1.78781 104 102 114
-3.81329 -4.84577 -1.78869 73 89 114
-3.82998 -4.8375 -1.78992 78 90 116
-4.28465 -4.22941 -1.80137 88 84 117
-4.28898 -4.20836 -1.79757 85 81 114
-4.3053 -4.19938 -1.79946 88 88 118
-4.32158 -4.19033 -1.80136 96 92 125
-5.32697 -2.80705 -1.8152 76 82 104
-5.3241 -2.77437 -1.8095 76 78 103
-5.33528 -2.75961 -1.81076 77 80 104
-5.34978 -2.74654 -1.8133 80 82 104
-5.87775 -2.04911 -1.82356 129 127 138
-5.8919 -2.02368 -1.8254 132 131 139
-6.14606 -1.68072 -1.82894 77 88 110
-6.45926 -1.22716 -1.82805 70 82 106
-6.47166 -1.20868 -1.83094 76 87 106
-6.86387 -0.640686 -1.83027 77 92 117
-6.83668 -0.591916 -1.81243 80 92 114
-7.08332 -0.334183 -1.83148 76 91 114
-2.45381 -6.08142 -1.66186 132 123 117
-2.47858 -6.09274 -1.66729 133 124 115
-2.82514 -6.11812 -1.76196 129 120 115
-3.20035 -5.65878 -1.77857 124 122 133
-3.51388 -5.26963 -1.79142 90 95 108
-3.52341 -5.24958 -1.78782 94 96 111
-3.80229 -4.90927 -1.80284 74 88 114
-3.80909 -4.88724 -1.79854 76 90 116
-4.20706 -4.27865 -1.79441 85 82 113
-4.24201 -4.27589 -1.80201 91 88 119
-4.25451 -4.26305 -1.802 86 82 115
-4.26167 -4.24475 -1.79947 84 80 113
-4.66928 -3.58799 -1.79179 79 87 110
-4.68974 -3.57029 -1.79372 75 81 105
-4.69714 -3.55373 -1.79243 77 85 108
-4.71488 -3.54533 -1.79565 79 86 114
-4.73517 -3.52735 -1.79758 80 86 112
-4.74689 -3.51414 -1.79823 81 88 114
-4.75408 -3.49743 -1.79694 81 89 112
-4.76215 -3.47004 -1.79371 84 92 115
-4.77822 -3.46014 -1.79629 78 86 109
-4.78824 -3.44563 -1.79629 84 90 114
-4.79519 -3.42882 -1.795 82 88 112
-4.81046 -3.40695 -1.795 74 85 107
-4.8203 -3.39233 -1.79499 83 91 112
-4.83164 -3.37879 -1.79564 76 82 104
-4.84666 -3.35674 -1.79564 81 87 109
-4.85942 -3.3442 -1.79692 70 76 100
-4.86138 -3.32392 -1.7937 78 84 108
-4.90704 -3.32352 -1.80659 75 82 108
-4.91353 -3.30641 -1.8053 80 88 111
-5.35751 -2.72994 -1.8133 79 82 102
-5.36939 -2.705 -1.8133 70 75 94
-5.38206 -2.69089 -1.81519 76 81 101
-5.37263 -2.66576 -1.80886 77 82 102
-5.88135 -1.97968 -1.81801 145 143 154
-6.16706 -1.6659 -1.83434 69 81 103
-6.16038 -1.64367 -1.83074 67 79 101
-6.47087 -1.18766 -1.82978 75 86 106
-6.82968 -0.605348 -1.81966 84 95 117
-6.84517 -0.575632 -1.81515 77 89 113
-6.83494 -0.557295 -1.81109 76 88 112
-7.07778 -0.311735 -1.82985 68 82 108
-7.25469 -0.0336775 -1.82547 71 85 111
-2.79125 -6.11583 -1.7575 128 121 115
-3.17532 -5.6745 -1.77915 120 119 125
-3.48277 -5.27388 -1.78722 80 86 102
-3.75964 -4.92952 -1.79977 77 92 115
-3.78429 -4.91587 -1.801 72 86 112
-4.15375 -4.33957 -1.79631 88 83 115
-4.17294 -4.33394 -1.79948 89 84 116
-4.18453 -4.30674 -1.79568 92 89 120
-4.21148 -4.30919 -1.80264 84 81 112
-4.52168 -3.77424 -1.79116 78 83 112
-4.52842 -3.75686 -1.78922 79 89 114
-4.53651 -3.7407 -1.78793 77 87 112
-4.56472 -3.72997 -1.79309 77 84 109
-4.56696 -3.70882 -1.78922 77 83 109
-4.60662 -3.71944 -1.80211 80 86 112
-4.60007 -3.6791 -1.79179 78 82 111
-4.61369 -3.6676 -1.79308 77 82 111
-4.6433 -3.66931 -1.80146 78 82 111
-4.66273 -3.66246 -1.80533 78 86 114
-4.67618 -3.63888 -1.80404 75 85 110
-4.68969 -3.62709 -1.80532 82 89 114
-4.92462 -3.29252 -1.80594 79 87 108
-4.94032 -3.28183 -1.80852 79 85 107
-4.95489 -3.25923 -1.80852 78 85 106
-4.96428 -3.24413 -1.80852 74 82 105
-4.96578 -3.2237 -1.8053 75 83 104
-4.97535 -3.19782 -1.80336 80 88 109
-4.9751 -3.17637 -1.79949 74 82 103
-4.97477 -3.15495 -1.79562 77 84 105
-5.02198 -3.15388 -1.80916 74 82 103
-5.00407 -3.12106 -1.7982 76 84 107
-5.01143 -3.10476 -1.79755 76 82 106
-5.02191 -3.09048 -1.7982 71 75 100
-5.05955 -3.08263 -1.80786 80 84 109
-5.39783 -2.64741 -1.81393 76 82 101
-5.41717 -2.63646 -1.81836 78 83 105
-5.41943 -2.61716 -1.81646 74 79 101
-5.42565 -2.58946 -1.81456 73 81 100
-5.89572 -1.96452 -1.82109 52 57 76
-5.91129 -1.93952 -1.82355 74 82 101
-6.15061 -1.61043 -1.82533 72 83 103
-6.17328 -1.59587 -1.83133 72 83 101
-6.47746 -1.15752 -1.83036 74 86 109
-6.86514 -0.586779 -1.82971 75 87 111
-6.84417 -0.532396 -1.81382 72 86 112
-7.09518 -0.290356 -1.83474 73 87 113
-7.23471 -0.0108342 -1.82019 73 86 112
-2.42524 -6.08969 -1.66132 133 124 115
-2.74579 -6.11011 -1.75081 131 121 120
-2.76996 -6.11656 -1.75527 131 123 116
-3.14816 -5.70663 -1.78379 124 123 124
-3.16004 -5.68718 -1.78031 120 120 123
-3.44924 -5.29114 -1.78602 86 98 114
-3.4761 -5.2987 -1.79262 86 95 114
-3.73233 -4.95477 -1.801 77 93 119
-3.74271 -4.93751 -1.79854 77 92 116
-4.09193 -4.39131 -1.79442 83 80 111
-4.10733 -4.38176 -1.79568 81 78 109
-4.12954 -4.36594 -1.79695 87 83 118
-4.13588 -4.34652 -1.79378 89 83 117
-4.40273 -3.89176 -1.78601 84 89 117
-4.42436 -3.8757 -1.78794 84 87 115
-4.43428 -3.8611 -1.7873 83 84 112
-4.44977 -3.85155 -1.78923 84 86 114
-4.46702 -3.83142 -1.78923 75 79 108
-4.47257 -3.8129 -1.78665 77 84 112
-4.48088 -3.79689 -1.78536 83 90 119
-4.50328 -3.79339 -1.79051 85 86 117
-5.07318 -3.07019 -1.8098 80 85 105
-5.05149 -3.03566 -1.79755 81 86 108
-5.06491 -3.01249 -1.79755 76 80 105
-5.07029 -2.99503 -1.79626 74 78 103
-5.12082 -3.0051 -1.81302 76 82 106
-5.13085 -2.97964 -1.81173 77 83 107
-5.12313 -2.95424 -1.80528 70 78 101
-5.43116 -2.57179 -1.81392 73 84 100
-5.44006 -2.55572 -1.81455 72 80 99
-5.458 -2.53355 -1.81709 70 78 101
-5.91117 -1.91938 -1.8217 74 85 103
-5.91996 -1.90224 -1.82293 73 84 102
-6.18298 -1.57792 -1.83313 69 80 98
-6.49154 -1.13921 -1.83383 76 88 112
-6.47734 -1.11583 -1.82862 69 81 105
-6.87379 -0.565879 -1.83194 71 83 107
-6.84501 -0.515258 -1.81382 73 87 113
-6.83832 -0.497393 -1.81112 74 88 114
-7.08757 -0.267823 -1.83257 73 87 113
-2.38352 -6.08837 -1.65698 136 127 120
-2.40562 -6.09271 -1.66024 132 123 115
-2.71567 -6.11626 -1.74914 129 120 115
-3.11859 -5.71355 -1.78147 121 119 124
-3.41919 -5.33271 -1.79202 88 96 117
-3.42513 -5.30636 -1.78603 84 95 113
-3.69158 -4.97749 -1.79916 77 91 116
-3.70753 -4.96813 -1.79978 75 89 115
-4.03869 -4.42566 -1.79062 78 75 103
-4.06047 -4.42339 -1.79505 80 80 106
-4.07904 -4.40361 -1.79442 82 79 110
-4.3328 -3.98227 -1.7886 88 86 117
-4.33629 -3.96138 -1.78473 79 76 108
-4.35334 -3.95357 -1.78731 86 86 114
-4.38821 -3.96263 -1.79826 84 90 118
-4.38535 -3.92336 -1.78859 83 86 117
-4.38992 -3.90369 -1.78537 81 84 114
-5.1413 -2.94436 -1.80914 80 87 107
-5.16081 -2.92457 -1.81172 76 80 101
-5.16262 -2.90496 -1.80914 77 80 104
-5.17252 -2.8901 -1.80979 75 81 103
-5.17747 -2.87237 -1.80849 77 83 104
-5.20325 -2.85605 -1.81365 83 85 105
-5.1949 -2.83081 -1.8072 77 79 102
-5.46333 -2.51579 -1.81645 75 83 101
-5.47379 -2.50038 -1.81772 74 83 100
-5.47038 -2.47867 -1.81391 74 83 100
-5.92805 -1.87468 -1.82293 74 86 107
-5.9295 -1.85512 -1.8217 70 83 102
-5.93268 -1.83614 -1.82108 71 84 102
-6.18395 -1.54748 -1.83133 71 84 103
-6.18056 -1.5263 -1.82893 71 84 103
-6.47434 -1.09451 -1.82688 69 81 103
-6.84304 -0.531166 -1.82244 73 87 113
-6.84726 -0.472386 -1.81384 73 87 113
-7.0822 -0.234322 -1.83093 76 90 116
-2.69587 -6.12028 -1.74802 130 121 114
-3.10486 -5.72949 -1.78379 121 121 124
-3.37946 -5.33971 -1.78723 88 90 110
-3.40425 -5.3444 -1.79263 96 103 124
-3.65965 -4.99605 -1.79794 77 92 115
-3.67455 -4.98523 -1.79793 77 92 115
-3.96587 -4.46407 -1.78366 70 74 97
-3.98517 -4.45931 -1.78682 70 72 94
-3.99699 -4.44589 -1.78619 71 72 99
-4.02819 -4.44063 -1.79189 81 78 107
-4.27174 -4.04546 -1.78796 88 87 115
-4.29798 -4.0342 -1.79182 82 86 115
-4.30172 -4.01333 -1.78796 78 82 111
-4.31077 -3.99776 -1.78666 78 82 109
-5.2079 -2.81766 -1.80914 74 80 99
-5.21862 -2.79278 -1.80849 79 84 103
-5.22984 -2.77861 -1.80978 83 86 105
-5.2427 -2.76529 -1.81171 80 85 105
-5.49494 -2.45932 -1.81898 74 82 101
-5.4931 -2.43839 -1.81581 74 81 100
-5.51374 -2.4274 -1.82088 73 81 100
-5.50681 -2.39412 -1.81454 69 77 96
-5.9477 -1.81079 -1.82354 70 81 99
-5.93986 -1.78839 -1.81923 71 83 102
-6.17708 -1.50514 -1.82653 69 81 101
-6.19022 -1.48797 -1.82952 69 81 103
-6.48806 -1.06559 -1.82977 68 80 102
-6.82665 -0.508505 -1.81742 67 81 107
-6.82932 -0.487241 -1.81798 72 86 112
-6.83857 -0.454405 -1.81046 89 103 129
-6.84289 -0.43759 -1.81182 70 84 110
-7.07633 -0.211952 -1.8293 88 102 128
-2.32991 -6.08263 -1.65047 137 128 123
-2.35432 -6.09446 -1.6559 138 129 120
-2.67465 -6.12066 -1.74579 131 122 113
-3.08169 -5.72653 -1.77974 124 123 129
-3.36094 -5.36441 -1.79083 86 90 102
-3.62498 -5.0276 -1.79978 77 92 115
-3.63042 -5.00272 -1.79425 81 96 120
-3.93748 -4.49949 -1.7862 72 77 97
-3.95643 -4.48028 -1.78556 72 78 100
-4.20801 -4.11798 -1.78925 89 86 117
-4.21088 -4.09588 -1.78474 89 88 118
-4.23479 -4.09543 -1.79054 86 87 117
-4.24392 -4.06695 -1.78603 80 82 112
-4.26117 -4.05959 -1.7886 81 81 112
-5.25982 -2.74385 -1.81364 84 84 108
-5.26425 -2.72593 -1.81235 79 84 105
-5.26863 -2.70799 -1.81106 76 81 101
-5.26624 -2.68652 -1.80719 77 84 102
-5.28805 -2.66752 -1.81106 76 81 100
-5.52563 -2.38221 -1.81898 73 80 99
-5.51651 -2.35833 -1.81327 75 83 102
-5.53364 -2.33549 -1.81581 73 82 99
-5.95372 -1.77273 -1.82231 70 82 102
-5.96027 -1.75479 -1.82292 68 80 100
-6.19448 -1.45842 -1.82892 70 82 104
-6.50189 -1.04707 -1.83324 69 81 103
-6.49678 -1.02542 -1.83093 72 84 106
-6.87019 -0.468437 -1.8297 76 90 116
-6.84903 -0.420902 -1.81387 79 93 119
-7.07999 -0.189908 -1.83039 74 87 112
-2.31273 -6.09262 -1.65156 138 128 126
-2.64384 -6.12465 -1.74356 128 119 112
-3.03656 -5.74541 -1.77859 122 121 127
-3.05547 -5.73996 -1.77974 123 122 128
-3.32019 -5.36931 -1.78544 76 73 89
-3.34007 -5.36608 -1.78783 70 72 85
-3.55971 -5.01288 -1.78379 77 92 115
-3.60468 -5.03034 -1.79671 79 94 117
-3.88456 -4.53326 -1.78303 96 97 115
-3.9134 -4.52593 -1.78747 101 100 118
-3.91938 -4.50547 -1.78366 79 81 101
-4.17927 -4.17691 -1.79635 90 87 118
-4.16679 -4.13836 -1.7841 89 85 118
-4.18932 -4.12373 -1.78603 87 83 116
-5.30062 -2.65389 -1.81299 78 83 103
-5.30475 -2.63588 -1.8117 76 81 101
-5.31458 -2.61057 -1.81106 77 82 102
-5.32363 -2.59509 -1.8117 78 83 102
-5.54359 -2.31972 -1.81707 74 82 100
-5.56399 -2.30824 -1.82214 71 79 97
-5.51946 -2.27008 -1.80376 75 84 100
-5.95857 -1.72431 -1.81984 70 83 102
-6.20006 -1.43942 -1.82952 73 85 107
-6.2 -1.41914 -1.82832 65 80 103
-6.48372 -0.992122 -1.82571 69 83 109
-6.83321 -0.433842 -1.81853 69 83 109
-6.8408 -0.394422 -1.81048 79 91 117
-7.08193 -0.156696 -1.83093 77 89 114
-2.6206 -6.11948 -1.73966 130 121 114
-3.02095 -5.75768 -1.77975 121 120 126
-3.29857 -5.38884 -1.78724 76 77 89
-3.54627 -5.05921 -1.79364 83 96 117
-3.56658 -5.05671 -1.79671 79 94 117
-3.87103 -4.57257 -1.79 98 100 115
-3.87364 -4.54779 -1.7843 97 99 114
-4.09756 -4.20484 -1.78346 84 83 114
-4.10865 -4.19121 -1.78282 81 80 111
-4.14672 -4.20662 -1.79571 86 85 116
-4.16694 -4.18938 -1.79635 90 87 118
-5.33261 -2.57958 -1.81234 75 80 100
-5.34386 -2.55498 -1.81234 74 80 102
-5.35274 -2.53938 -1.81299 73 79 101
-5.36496 -2.5254 -1.81492 73 81 100
-5.58018 -2.26486 -1.82214 71 82 99
-5.57055 -2.24113 -1.81643 71 83 99
-5.97043 -1.70795 -1.8223 68 81 100
-5.97131 -1.68833 -1.82107 67 79 101
-6.20953 -1.39078 -1.82952 69 81 103
-6.20746 -1.37009 -1.82772 68 80 103
-6.49546 -0.973201 -1.8286 67 81 107
-6.49389 -0.952213 -1.82744 73 87 113
-6.84141 -0.412856 -1.82076 80 94 120
-6.85991 -0.378661 -1.81728 79 91 115
-6.85464 -0.361053 -1.81525 75 89 114
-7.1027 -0.134993 -1.8369 73 87 113
-2.28178 -6.09287 -1.64885 139 132 125
-2.57563 -6.11244 -1.73297 129 120 115
-2.59742 -6.11421 -1.73576 129 120 115
-3.00283 -5.76472 -1.77917 124 121 128
-3.26444 -5.40481 -1.78604 68 78 93
-3.28342 -5.40015 -1.78784 89 95 110
-3.52931 -5.08437 -1.79733 85 96 116
-3.81981 -4.60841 -1.78811 99 98 114
-3.82623 -4.58812 -1.78431 100 99 115
-3.84208 -4.5796 -1.78557 101 100 116
-4.03814 -4.26967 -1.7854 83 80 112
-4.05864 -4.25299 -1.78605 88 84 117
-4.07623 -4.24649 -1.78862 92 89 120
-4.08236 -4.22733 -1.7854 87 84 115
-5.37033 -2.50808 -1.81427 75 80 99
-5.38638 -2.48573 -1.81621 76 82 104
-5.35573 -2.45137 -1.80202 70 78 97
-5.36086 -2.43409 -1.80138 76 85 102
-5.58197 -2.22587 -1.81833 71 82 100
-5.58621 -2.19769 -1.81643 72 80 103
-5.60814 -2.18643 -1.82213 72 80 100
-5.9784 -1.6605 -1.82107 73 85 104
-5.98461 -1.64243 -1.82168 71 84 101
-6.20904 -1.35021 -1.82711 66 78 101
-6.84377 -0.391509 -1.82132 80 93 119
-6.85173 -0.33501 -1.81391 78 92 118
-7.08884 -0.112478 -1.8331 74 88 114
-2.95906 -5.78639 -1.77917 123 120 128
-2.97888 -5.78296 -1.78091 124 121 129
-3.23791 -5.4158 -1.78485 68 76 97
-3.45922 -5.07664 -1.78257 88 99 117
-3.49986 -5.1066 -1.79795 84 96 117
-3.50897 -5.0867 -1.79426 86 97 117
-3.76824 -4.64362 -1.78621 101 98 117
-3.77488 -4.62341 -1.78241 101 100 118
-3.78728 -4.61063 -1.78178 102 101 119
-4.02011 -4.32835 -1.79572 82 83 114
-4.03161 -4.31494 -1.79507 81 82 112
-4.01928 -4.27459 -1.78218 81 81 109
-5.38688 -2.41649 -1.80718 76 85 102
-5.41079 -2.4078 -1.81362 74 81 99
-5.59818 -2.16283 -1.81643 73 81 104
-5.98161 -1.62179 -1.81922 72 85 104
-5.99756 -1.59641 -1.8223 72 85 104
-6.20705 -1.31942 -1.82471 68 80 104
-6.2178 -1.30147 -1.82711 71 83 106
-6.66214 -0.60111 -1.81661 74 88 114
-6.83323 -0.358757 -1.81797 71 85 110
-6.85194 -0.317821 -1.81391 78 92 118
-7.08849 -0.0791604 -1.8331 68 84 110
-2.52593 -6.12115 -1.73019 130 121 113
-2.54498 -6.11592 -1.73074 130 121 113
-2.93925 -5.78976 -1.77744 122 121 127
-3.20273 -5.42968 -1.78305 111 117 132
-3.22452 -5.43025 -1.78665 61 71 89
-3.43903 -5.09663 -1.78442 90 100 117
-3.72548 -4.66108 -1.78178 99 105 121
-3.75689 -4.65783 -1.78748 100 100 118
-3.96985 -4.36419 -1.79315 87 85 116
-3.98271 -4.35238 -1.79315 86 84 116
-3.98195 -4.32479 -1.78605 85 81 114
-4.49594 -3.60865 -1.79513 80 86 112
-4.50786 -3.59626 -1.79579 81 87 113
-4.5195 -3.57224 -1.79381 72 75 103
-4.53717 -3.5645 -1.79711 78 83 111
-4.54455 -3.54842 -1.79579 71 77 103
-4.55738 -3.52544 -1.79447 84 90 114
-4.57645 -3.51866 -1.79842 81 89 112
-4.57774 -3.49782 -1.79446 78 85 113
-4.57892 -3.477 -1.7905 79 86 115
-4.61227 -3.47002 -1.79842 83 88 117
-4.61333 -3.44916 -1.79446 78 88 113
-4.62178 -3.43403 -1.7938 80 87 115
-4.64304 -3.41755 -1.79644 79 84 113
-4.64536 -3.39781 -1.79314 80 87 113
-4.6612 -3.38823 -1.79577 78 82 109
-4.6914 -3.3782 -1.80237 83 84 114
-4.68594 -3.35281 -1.79577 85 89 118
-4.7017 -3.34302 -1.79841 79 85 109
-4.7159 -3.33206 -1.80039 86 92 116
-4.72148 -3.30397 -1.79643 79 85 109
-4.73866 -3.29509 -1.79972 80 84 109
-4.7435 -3.27743 -1.79774 78 82 109
-4.75184 -3.25146 -1.7951 72 79 105
-4.76582 -3.24024 -1.79708 73 79 105
-4.77977 -3.22896 -1.79906 81 86 108
-4.79873 -3.21032 -1.80104 76 82 106
-4.80637 -3.19466 -1.80038 76 82 106
-4.80146 -3.17054 -1.79444 73 80 106
-4.8139 -3.14755 -1.79378 76 83 109
-4.83548 -3.14122 -1.79905 76 84 107
-4.85076 -3.13064 -1.80169 76 84 106
-4.855 -3.11276 -1.79971 75 83 104
-4.85608 -3.08235 -1.79443 75 81 105
-5.41749 -2.39114 -1.81362 73 81 100
-5.42959 -2.36688 -1.81426 71 79 97
-5.41029 -2.33859 -1.80459 73 83 100
-5.41678 -2.32192 -1.80459 73 82 100
-5.67302 -2.16145 -1.83987 50 59 80
-5.59015 -2.11048 -1.80819 120 127 140
-5.60832 -2.09766 -1.81262 133 133 141
-5.59268 -2.0723 -1.80502 130 129 137
-6.00723 -1.57925 -1.82414 64 76 100
-6.00768 -1.55959 -1.82291 64 76 99
-6.21729 -1.2812 -1.82591 75 88 108
-6.65202 -0.583336 -1.81243 79 93 119
-6.83927 -0.337592 -1.81964 67 81 107
-6.84835 -0.300405 -1.81256 73 88 111
-7.09366 -0.0570169 -1.83472 78 94 119
-2.50291 -6.11551 -1.72628 129 120 114
-2.91274 -5.80249 -1.77744 121 121 133
-3.18925 -5.44404 -1.78485 116 123 139
-3.41046 -5.11991 -1.78565 85 96 117
-3.42678 -5.11152 -1.78627 85 96 115
-3.70255 -4.68923 -1.78432 81 84 102
-3.71978 -4.6827 -1.78622 95 100 117
-3.93834 -4.395 -1.79379 81 81 109
-3.95864 -4.39194 -1.79766 85 84 115
-4.38098 -3.74786 -1.79448 77 83 109
-4.39346 -3.72432 -1.7925 77 81 108
-4.40427 -3.71108 -1.7925 80 81 109
-4.4179 -3.70027 -1.79382 80 84 111
-4.42868 -3.67537 -1.79118 80 85 114
-4.44796 -3.66934 -1.79514 81 83 114
-4.44708 -3.64618 -1.78986 80 85 114
-4.46778 -3.64124 -1.79447 78 85 111
-4.4869 -3.62341 -1.79579 72 78 104
-4.87439 -3.07367 -1.79839 77 83 107
-4.88159 -3.05779 -1.79773 78 82 107
-4.89984 -3.03846 -1.79971 79 84 106
-4.92129 -3.03153 -1.80498 81 87 109
-4.92194 -3.01152 -1.80168 77 85 106
-4.91593 -2.9771 -1.79376 77 85 108
-4.94048 -2.97193 -1.80036 75 82 105
-4.9409 -2.95194 -1.79706 73 80 102
-4.95897 -2.9427 -1.80102 74 80 102
-5.41976 -2.30371 -1.8033 74 81 100
-5.43145 -2.2794 -1.80394 73 80 99
-5.43775 -2.26266 -1.80394 75 81 101
-5.61752 -2.05192 -1.81072 131 129 141
-5.62485 -2.03503 -1.81135 131 129 140
-6.00992 -1.54042 -1.82229 72 84 104
-6.23169 -1.26391 -1.82951 79 92 111
-6.65762 -0.558865 -1.81384 76 90 116
-6.6604 -0.542462 -1.81454 76 90 116
-6.83949 -0.316141 -1.81964 75 90 113
-6.85265 -0.274834 -1.81393 72 86 112
-6.85642 -0.257828 -1.8153 71 85 111
-7.08532 -0.0347171 -1.83255 72 86 112
-2.87624 -5.81578 -1.77629 122 121 133
-2.8945 -5.80917 -1.77686 121 119 132
-3.14629 -5.46385 -1.78366 127 129 143
-3.16991 -5.46801 -1.78845 136 143 159
-3.36873 -5.13981 -1.78381 85 97 121
-3.38606 -5.13319 -1.78504 84 96 118
-3.67091 -4.72121 -1.78622 97 97 114
-3.68708 -4.7133 -1.78749 81 83 99
