-5.22608 2.00697 -1.77177 83 82 96
-5.20924 2.02221 -1.76863 85 84 98
-5.21181 2.03968 -1.77346 85 84 98
-5.2078 2.05377 -1.77509 86 84 98
-5.21184 2.07217 -1.78072 86 84 98
-5.18575 2.09872 -1.77682 84 80 95
-5.18315 2.11366 -1.77925 83 81 95
-5.10867 2.26132 -1.78606 85 83 96
-5.09557 2.2785 -1.78532 73 67 82
-5.09227 2.2934 -1.78775 67 60 73
-5.07407 2.32443 -1.78864 96 95 100
-5.07061 2.33932 -1.79107 82 80 90
-5.05466 2.34645 -1.78712 85 83 97
-5.04273 2.36434 -1.78717 84 83 97
-5.04065 2.38018 -1.7904 88 88 100
-5.02925 2.3901 -1.78884 88 86 99
-5.0279 2.41485 -1.79449 87 85 98
-5.01332 2.42271 -1.79133 88 86 99
-5.00182 2.43252 -1.78977 88 86 99
-5.00098 2.44936 -1.7938 87 85 96
-4.98094 2.46194 -1.78987 87 85 96
-4.98151 2.47979 -1.7947 85 83 94
-4.93947 2.51243 -1.78844 89 85 99
-4.93375 2.52612 -1.79007 88 85 96
-4.91347 2.53824 -1.78613 88 85 96
-4.91216 2.55505 -1.79016 87 83 97
-4.90629 2.56869 -1.7918 88 85 96
-4.44411 3.28707 -1.79766 93 88 94
-4.43417 3.29853 -1.79847 96 90 100
-4.15262 3.69431 -1.79378 97 93 100
-4.13321 3.70662 -1.79307 100 95 102
-3.94577 4.01555 -1.79835 110 105 116
-3.74748 4.29044 -1.79455 107 105 116
-3.72943 4.29215 -1.79166 108 105 116
-3.67393 4.42635 -1.80031 107 104 115
-3.65454 4.42614 -1.79675 109 105 119
-3.49967 4.71989 -1.80881 108 105 116
-3.31084 4.98048 -1.80491 109 105 119
-3.10482 5.29986 -1.80877 108 102 114
-2.99776 5.50102 -1.81663 122 116 126
-2.86648 5.64963 -1.811 121 114 122
-2.42769 6.40594 -1.83278 130 120 123
-6.40657 0.194006 -1.76075 86 88 105
-6.33109 0.369887 -1.77136 88 88 106
-5.73031 1.2779 -1.77836 84 86 101
-5.71658 1.28917 -1.77451 84 87 102
-5.31575 1.83667 -1.77048 85 84 98
-5.31246 1.85089 -1.77212 86 85 99
-5.29918 1.86043 -1.76896 83 82 95
-5.30575 1.87933 -1.77538 93 91 102
-5.29439 1.8975 -1.77464 120 117 128
-5.2909 1.9117 -1.77627 115 113 124
-5.28241 1.92351 -1.77551 95 93 104
-5.26589 1.93913 -1.77237 86 86 96
-4.89629 2.58808 -1.79345 88 85 97
-4.88733 2.59956 -1.79349 88 86 99
-4.87832 2.61101 -1.79353 86 84 98
-4.86632 2.62028 -1.79196 85 83 96
-4.85311 2.63737 -1.79202 87 85 98
-4.85134 2.65418 -1.79605 87 84 96
-4.83629 2.66115 -1.79289 88 85 95
-4.8185 2.67479 -1.79055 85 82 93
-4.81801 2.69269 -1.79538 88 84 96
-4.78495 2.71294 -1.78988 88 82 96
-4.42411 3.32028 -1.80242 101 95 102
-4.40635 3.32378 -1.79857 107 100 107
-4.39372 3.3325 -1.79782 116 109 116
-4.12412 3.72013 -1.79541 99 96 103
-4.10599 3.72191 -1.79162 98 93 99
-3.92911 4.03304 -1.80065 101 96 110
-3.91143 4.03547 -1.7977 105 102 114
-3.70653 4.30099 -1.79025 110 105 117
-3.68569 4.29773 -1.78516 105 101 115
-3.64714 4.44693 -1.80255 109 106 117
-3.4857 4.73069 -1.81025 110 104 116
-3.46837 4.73473 -1.80889 108 105 115
-3.2857 4.98907 -1.80429 108 102 114
-3.08482 5.29888 -1.80616 110 107 118
-2.9815 5.51219 -1.81861 120 114 124
-2.85192 5.6678 -1.81549 122 117 123
-2.74971 5.91707 -1.83068 148 144 142
-2.5979 6.13703 -1.83055 119 113 117
-2.40834 6.41769 -1.83514 130 119 123
-6.40638 0.17027 -1.75998 98 96 114
-6.43308 0.210807 -1.7715 89 92 108
-6.3423 0.354944 -1.77496 87 88 106
-5.74305 1.22848 -1.77668 85 87 102
-5.74011 1.24282 -1.77749 92 94 109
-5.73181 1.25567 -1.77597 84 88 100
-5.35877 1.76248 -1.77266 84 82 96
-5.35744 1.7775 -1.77509 85 83 97
-5.34819 1.79668 -1.77514 85 84 98
-5.34003 1.80869 -1.77438 85 84 98
-5.33519 1.82219 -1.77522 81 80 94
-4.82182 2.71396 -1.80261 88 82 96
-4.78282 2.72971 -1.79391 85 82 93
-4.77486 2.742 -1.79475 86 83 94
-4.7582 2.75641 -1.79321 88 86 97
-4.75014 2.76863 -1.79404 85 83 94
-4.72961 2.78957 -1.79332 84 82 95
-4.38088 3.35148 -1.80022 107 104 111
-4.36944 3.36145 -1.80025 105 98 106
-4.36177 3.37539 -1.80263 111 104 111
-4.09094 3.73988 -1.79397 108 103 110
-4.08504 3.75773 -1.7986 101 95 105
-3.90102 4.04858 -1.79998 106 103 112
-3.88848 4.0586 -1.80076 110 107 116
-3.67885 4.3185 -1.79106 107 103 118
-3.61888 4.44725 -1.79757 108 103 116
-3.60042 4.44845 -1.79473 111 106 120
-3.44525 4.74574 -1.80894 108 105 116
-3.26914 4.99588 -1.80433 111 105 115
-3.25031 4.99748 -1.80232 112 106 120
-3.06036 5.31148 -1.80754 111 108 117
-2.95228 5.51365 -1.81609 120 115 122
-2.83233 5.66963 -1.81426 119 114 121
-2.7292 5.91854 -1.82949 151 146 146
-2.70872 5.91996 -1.82829 147 141 145
-2.57648 6.13623 -1.82879 121 115 117
-6.40769 0.154483 -1.75995 99 92 112
-6.31686 0.313711 -1.76323 89 90 108
-5.76238 1.18085 -1.77811 86 87 102
-5.75425 1.19381 -1.77659 87 89 104
-5.77811 1.2153 -1.78905 88 91 106
-5.39162 1.70684 -1.77489 84 84 96
-5.39385 1.72331 -1.77892 82 82 94
-5.38256 1.73404 -1.77656 83 81 93
-5.36679 1.7504 -1.77342 87 85 99
-4.75062 2.7877 -1.79967 84 82 95
-4.72412 2.81298 -1.79817 84 80 93
-4.71161 2.82165 -1.79661 85 81 95
-4.70899 2.83841 -1.80064 82 78 92
-4.69051 2.8513 -1.7983 84 80 94
-4.35405 3.38933 -1.805 98 91 98
-4.33586 3.40281 -1.80428 109 103 113
-4.31801 3.40589 -1.80042 105 99 109
-4.06465 3.75638 -1.79328 99 92 104
-4.04388 3.76679 -1.79181 102 95 107
-3.8654 4.06661 -1.79858 111 108 117
-3.85179 4.07498 -1.79861 116 113 124
-3.65678 4.3287 -1.79038 107 103 117
-3.64057 4.33329 -1.78896 107 105 116
-3.59191 4.46754 -1.7998 106 102 116
-3.43278 4.75977 -1.81178 112 107 118
-3.04354 5.31923 -1.80824 112 109 117
-2.93473 5.52112 -1.81677 118 113 120
-2.55905 6.15202 -1.83243 123 119 120
-2.37765 6.42585 -1.83578 130 121 122
-6.42015 0.138944 -1.7642 98 89 110
-6.34445 0.284005 -1.77262 92 92 110
-5.77047 1.13033 -1.77488 89 86 103
-5.76784 1.1447 -1.77569 93 91 105
-5.77054 1.16043 -1.77883 88 90 103
-5.42032 1.62644 -1.77148 80 79 93
-5.4101 1.64519 -1.77074 84 83 97
-5.40069 1.65674 -1.76918 83 82 96
-5.40314 1.67315 -1.77321 81 81 93
-5.39705 1.68607 -1.77324 83 83 95
-4.68774 2.86806 -1.80233 88 82 96
-4.66668 2.8695 -1.79598 87 81 93
-4.66067 2.89283 -1.80083 83 77 89
-4.62845 2.88457 -1.78807 85 79 93
-4.62272 2.89886 -1.79051 84 80 94
-4.5985 2.90646 -1.78497 82 78 92
-4.59682 2.92431 -1.7898 87 83 96
-4.31264 3.42245 -1.80435 105 99 109
-4.27518 3.43725 -1.79899 102 96 108
-4.03012 3.77417 -1.79108 93 90 99
-4.02399 3.79193 -1.79571 105 102 109
-3.84526 4.09415 -1.80388 117 111 123
-3.62891 4.34592 -1.79119 108 106 117
-3.57161 4.46537 -1.79552 104 100 112
-3.41702 4.76701 -1.81182 111 108 119
-3.22882 5.01442 -1.8051 112 106 120
-3.21071 5.01761 -1.80377 110 105 119
-3.02605 5.32515 -1.80828 113 108 115
-2.91717 5.52854 -1.81745 119 114 120
-2.80713 5.68496 -1.81686 119 114 121
-2.68138 5.93295 -1.8302 149 140 141
-2.52711 6.14968 -1.82948 127 118 121
-2.35701 6.43184 -1.83639 127 121 118
-6.42343 0.11524 -1.76486 102 92 112
-5.44959 1.56922 -1.77292 84 83 97
-5.4404 1.58094 -1.77136 83 82 98
-5.43209 1.60047 -1.77141 84 84 99
-5.43134 1.61549 -1.77384 83 83 97
-4.58818 2.93613 -1.79064 91 85 97
-4.57812 2.94671 -1.79067 90 87 96
-4.57019 2.96863 -1.79473 94 87 100
-4.55322 2.97304 -1.79077 91 84 98
-4.53217 2.97368 -1.78441 87 81 93
-4.29926 3.44117 -1.80674 93 87 99
-4.2721 3.4565 -1.80448 105 99 111
-4.24626 3.46134 -1.79908 101 95 104
-4.22836 3.46401 -1.79522 102 97 105
-4.00635 3.80662 -1.79654 109 106 113
-3.99357 3.81537 -1.79658 113 110 118
-3.82004 4.09883 -1.80021 109 105 118
-3.80833 4.11018 -1.80174 108 105 115
-3.60764 4.35751 -1.79125 107 104 117
-3.55591 4.48819 -1.80061 110 107 118
-3.5374 4.48916 -1.79777 107 104 115
-3.39135 4.77272 -1.80978 110 106 120
-3.19333 5.02247 -1.80313 110 106 120
-2.99897 5.33038 -1.80702 112 109 119
-2.89956 5.53591 -1.81814 118 112 119
-2.78751 5.68665 -1.81562 120 115 122
-2.66037 5.93238 -1.82839 142 136 139
-2.50698 6.15421 -1.82952 124 118 121
-6.42829 0.0994624 -1.76626 102 93 112
-5.80844 1.08705 -1.78484 85 87 100
-5.8149 1.10367 -1.78954 86 90 102
-5.80524 1.12386 -1.78804 85 82 99
-5.47326 1.49468 -1.76953 83 85 98
-5.46946 1.50842 -1.77037 85 88 102
-5.4656 1.52216 -1.7712 87 89 102
-5.46341 1.53654 -1.77283 86 87 99
-5.45532 1.55616 -1.77288 84 83 97
-4.52405 2.99547 -1.78846 87 81 93
-4.50976 3.00215 -1.7861 82 79 90
-4.49814 3.01125 -1.78533 90 87 98
-4.22875 3.48736 -1.80305 104 99 105
-4.20166 3.49052 -1.79687 109 104 111
-3.97968 3.82259 -1.79585 107 104 115
-3.96362 3.82675 -1.79359 108 102 113
-3.79556 4.11994 -1.80252 109 105 114
-3.59227 4.36356 -1.79055 109 105 119
-3.57956 4.37444 -1.79205 112 109 118
-3.52859 4.50814 -1.80285 106 103 114
-3.37873 4.78661 -1.81261 109 106 117
-3.35737 4.78182 -1.80775 108 105 116
-3.16658 5.02705 -1.80114 108 102 114
-2.98206 5.33795 -1.80772 114 111 120
-2.87033 5.53696 -1.81561 116 111 118
-2.76948 5.69372 -1.81629 119 113 122
-2.6428 5.94459 -1.83089 129 123 126
-2.33598 6.43589 -1.83643 129 120 121
-5.49189 1.44869 -1.76941 85 87 100
-5.49515 1.46492 -1.77343 84 86 99
-5.48108 1.47499 -1.76948 89 88 102
-5.06301 2.07812 -1.77081 87 85 99
-5.05404 2.0891 -1.77003 85 83 97
-5.00871 2.19132 -1.77767 94 88 99
-4.99128 2.22145 -1.77858 82 88 102
-4.97202 2.25053 -1.77867 66 61 81
-4.94679 2.26799 -1.77384 70 63 77
-4.51254 3.05424 -1.80298 98 91 99
-4.49411 3.05707 -1.79822 91 82 92
-4.46635 3.05101 -1.78786 92 85 93
-4.43403 3.07017 -1.78395 97 89 100
-4.42485 3.08157 -1.78479 85 80 87
-4.4104 3.08784 -1.78243 88 83 91
-4.19701 3.50832 -1.80158 95 89 103
-3.94792 3.84421 -1.79594 105 101 108
-3.93291 3.84976 -1.79445 105 99 108
-3.77329 4.12904 -1.80109 111 105 117
-3.76243 4.14184 -1.80337 122 115 123
-3.56503 4.38203 -1.79209 106 103 114
-3.50211 4.51106 -1.7993 107 103 117
-3.33637 4.79743 -1.8099 110 108 119
-3.1578 5.05259 -1.80867 106 103 114
-2.96632 5.34904 -1.80974 116 112 121
-2.85213 5.54239 -1.81565 114 112 117
-2.73994 5.69423 -1.81381 116 109 119
-2.48769 6.1624 -1.83076 124 118 119
-2.30519 6.44373 -1.83707 134 125 126
-5.5065 1.41632 -1.77012 81 83 98
-5.50468 1.43072 -1.77175 82 84 99
-5.1264 1.98593 -1.77379 84 83 98
-5.13391 2.00547 -1.78118 89 87 101
-5.11219 2.00997 -1.77386 84 83 97
-5.12283 2.03896 -1.78454 88 86 100
-5.10589 2.04587 -1.77967 86 83 99
-5.09379 2.05527 -1.77726 86 83 98
-5.07679 2.06972 -1.77404 89 87 102
-5.07539 2.11676 -1.78477 85 84 97
-5.06972 2.15358 -1.7914 87 85 99
-5.04463 2.15559 -1.78245 94 94 108
-5.03357 2.17329 -1.7825 98 99 111
-5.02748 2.18597 -1.78336 95 91 103
-5.01323 2.21808 -1.7859 84 89 105
-4.99913 2.24242 -1.78679 85 87 105
-4.97504 2.26873 -1.78443 67 65 78
-4.96059 2.29287 -1.78532 61 55 67
-4.93959 2.30444 -1.78047 101 96 105
-4.94233 2.3227 -1.78623 104 99 106
-4.92338 2.32742 -1.78054 92 87 94
-4.91923 2.34948 -1.78468 87 83 100
-4.90791 2.35896 -1.78308 87 84 101
-4.89964 2.37037 -1.78312 86 84 98
-4.89982 2.39541 -1.78971 85 85 97
-4.87618 2.3968 -1.78158 90 88 101
-4.87997 2.41616 -1.78815 89 88 100
-4.85252 2.42303 -1.78003 88 86 99
-4.85314 2.44038 -1.78497 86 83 98
-4.8431 2.45061 -1.78419 87 85 99
-4.83456 2.46184 -1.78423 87 85 98
-4.81304 2.47243 -1.77938 88 86 99
-4.80175 2.49885 -1.78272 87 85 98
-4.77586 2.5234 -1.78036 85 83 96
-4.467 3.08153 -1.79751 107 100 108
-4.40153 3.10934 -1.78648 81 73 84
-4.39353 3.12195 -1.78811 106 98 111
-4.19711 3.5317 -1.80941 91 85 96
-4.17792 3.53274 -1.80477 91 89 102
-4.15791 3.54397 -1.80327 99 93 104
-3.91681 3.85375 -1.79219 106 103 110
-3.74758 4.14833 -1.80265 115 109 119
-3.54096 4.38844 -1.78995 106 103 116
-3.52463 4.39264 -1.78852 104 100 114
-3.48707 4.51843 -1.79934 111 107 121
-3.472 4.52576 -1.79938 111 107 121
-3.32281 4.80949 -1.81204 113 111 122
-3.13963 5.05554 -1.80734 107 104 115
-2.93976 5.35577 -1.80914 117 111 123
-2.83558 5.55317 -1.81763 120 115 121
-2.72649 5.71756 -1.8202 116 111 118
-2.61337 5.94995 -1.83034 131 125 127
-2.45992 6.17829 -1.83383 125 121 122
-2.28264 6.44012 -1.83478 135 126 127
-5.52587 1.35561 -1.76836 81 84 99
-5.55216 1.3943 -1.78518 80 82 97
-5.55167 1.41666 -1.78842 84 87 104
-5.19566 1.85769 -1.7726 83 83 95
-5.20546 1.87772 -1.7808 86 86 97
-5.20067 1.89846 -1.7833 80 78 92
-5.17742 1.90277 -1.77517 81 79 93
-5.1903 1.92453 -1.78501 83 83 96
-5.16211 1.9263 -1.77443 82 83 95
-5.17012 1.95341 -1.78347 85 83 96
-5.17455 1.97128 -1.78922 86 84 97
-5.15774 1.97853 -1.78435 85 83 96
-5.08367 2.14523 -1.79463 87 87 99
-4.81941 2.49395 -1.78759 86 84 97
-4.79504 2.5197 -1.78605 87 85 98
-4.7864 2.5482 -1.79102 83 81 94
-4.75868 2.55413 -1.7829 86 84 97
-4.75719 2.57046 -1.78703 87 84 97
-4.75563 2.58682 -1.79115 86 82 96
-4.72345 2.5892 -1.78058 86 84 96
-4.72618 2.60878 -1.78715 85 83 96
-4.69929 2.62395 -1.78232 87 83 97
-4.40627 3.15522 -1.80254 98 92 103
-4.36855 3.14822 -1.789 105 99 110
-4.35911 3.15946 -1.78984 96 90 100
-4.14588 3.55329 -1.8033 108 101 112
-4.12199 3.54844 -1.79555 107 102 111
-3.90198 3.87255 -1.79531 104 103 111
-3.88378 3.87337 -1.79152 100 94 106
-3.87389 3.88634 -1.79385 101 97 108
-3.72814 4.16192 -1.80346 105 102 113
-3.71324 4.1683 -1.80275 110 107 118
-3.51527 4.4099 -1.79295 108 106 117
-3.44893 4.53501 -1.79871 103 101 112
-3.30381 4.80959 -1.80928 115 112 123
-3.11137 5.05638 -1.80399 114 111 122
-2.92098 5.3578 -1.80785 114 108 118
-2.80635 5.55392 -1.8151 118 113 119
-2.70225 5.70259 -1.81325 116 111 118
-2.59284 5.951 -1.82914 131 125 127
-2.43727 6.17146 -1.83025 125 121 122
-5.55521 1.31298 -1.77382 84 86 101
-5.54501 1.32464 -1.77147 86 88 101
-5.53652 1.33683 -1.76991 85 88 100
-5.55386 1.37979 -1.78355 83 85 100
-5.24081 1.78694 -1.77565 84 84 96
-5.24482 1.81148 -1.78223 78 80 92
-5.22001 1.81552 -1.77329 80 82 94
-5.21843 1.8301 -1.77577 80 80 92
-5.21554 1.85161 -1.77909 86 86 98
-4.98479 2.13355 -1.77186 94 96 109
-4.96759 2.14722 -1.76861 94 93 108
-4.96156 2.15969 -1.76947 93 92 109
-4.72444 2.62512 -1.79128 85 83 96
-4.69329 2.64567 -1.78646 89 87 101
-4.67398 2.64871 -1.78078 87 84 98
-4.68216 2.67279 -1.79063 87 83 97
-4.6629 2.68445 -1.78741 86 83 94
-4.34448 3.16545 -1.78748 93 87 97
-4.33766 3.18942 -1.79313 94 88 102
-4.12427 3.58635 -1.80885 106 101 108
-4.10742 3.58988 -1.80577 101 98 103
-4.08706 3.58907 -1.80035 100 98 103
-3.85575 3.9004 -1.79468 111 105 117
-3.70315 4.18255 -1.80578 110 107 118
-3.49544 4.42427 -1.79447 111 108 119
-3.43466 4.54388 -1.79947 109 106 117
-3.27881 4.81644 -1.80793 112 108 121
-3.0946 5.06267 -1.80403 114 111 122
-2.90221 5.35977 -1.80657 114 111 118
-2.78644 5.55373 -1.8132 123 118 125
-2.68366 5.70759 -1.81329 117 112 119
-2.57374 5.9575 -1.82979 122 113 118
-2.41508 6.16641 -1.82728 124 118 118
-2.26194 6.44582 -1.8354 130 122 120
-5.58638 1.30781 -1.78575 85 87 102
-5.2964 1.67498 -1.77533 84 82 95
-5.28986 1.70977 -1.7795 84 81 92
-5.29373 1.72655 -1.78443 86 84 95
-5.26901 1.73114 -1.77549 86 84 95
-5.27669 1.75706 -1.78371 88 86 97
-5.27368 1.77098 -1.78537 84 82 95
-5.26059 1.78048 -1.78214 84 83 95
-5.10944 1.91976 -1.76956 82 80 94
-5.09566 1.94363 -1.76963 87 86 98
-5.07862 1.97335 -1.76972 82 80 94
-5.08763 1.99378 -1.77802 86 84 98
-5.0677 1.99877 -1.77145 87 85 99
-5.06381 2.01998 -1.77481 85 82 97
-5.05662 2.03179 -1.77484 88 84 99
-5.04939 2.04359 -1.77488 79 75 91
-5.05637 2.071 -1.78402 83 81 94
-5.03632 2.07567 -1.77745 96 94 106
-5.03055 2.0883 -1.77831 105 103 114
-5.01051 2.09281 -1.77173 105 105 115
-5.00923 2.11576 -1.77675 97 97 109
-5.00016 2.12651 -1.77596 96 97 111
-4.98827 2.19181 -1.78769 82 83 103
-4.97239 2.20639 -1.78526 76 80 100
-4.82039 2.38859 -1.77679 84 82 95
-4.80675 2.40423 -1.77601 88 86 99
-4.80733 2.42153 -1.78101 87 85 99
-4.78544 2.42324 -1.77361 87 85 99
-4.79484 2.44682 -1.78356 85 83 96
-4.77948 2.46128 -1.78197 87 85 98
-4.76201 2.46594 -1.77704 86 84 97
-4.71469 2.50856 -1.77224 89 85 99
-4.65937 2.69965 -1.79072 85 82 93
-4.65289 2.71261 -1.79239 85 82 95
-4.63636 2.72635 -1.79081 85 81 95
-4.62552 2.73584 -1.79003 92 88 101
-4.62318 2.75215 -1.79415 86 83 94
-4.33572 3.20849 -1.79876 97 91 103
-4.32098 3.21437 -1.7964 99 93 103
-4.29233 3.2158 -1.78846 100 95 102
-4.27508 3.21886 -1.78449 110 105 112
-4.07264 3.607 -1.80274 99 96 104
-3.84062 3.90564 -1.79318 113 107 120
-3.82955 3.91698 -1.79475 99 95 109
-3.67874 4.18801 -1.80284 109 106 117
-3.66568 4.19742 -1.80363 107 105 116
-3.47647 4.42338 -1.79085 114 110 124
-3.46178 4.43066 -1.79088 111 107 121
-3.41867 4.54939 -1.79879 110 107 118
-3.26514 4.82836 -1.81007 110 107 118
-3.07851 5.07065 -1.80474 110 105 118
-2.87792 5.37337 -1.80861 116 113 119
-2.77037 5.56614 -1.81582 122 118 124
-2.24086 6.44959 -1.83543 127 119 117
-5.60119 1.26017 -1.78482 82 85 100
-5.60166 1.27524 -1.78725 80 83 100
-5.5828 1.28441 -1.78091 81 83 101
-5.3179 1.61648 -1.77272 83 81 94
-5.32893 1.63582 -1.78092 91 89 102
-5.32801 1.65048 -1.7834 85 84 98
-5.30415 1.66315 -1.77611 84 82 95
-5.30208 1.6924 -1.78108 89 87 101
-5.15567 1.83564 -1.76931 85 83 96
-5.15059 1.86378 -1.77351 85 84 100
-5.14583 1.8843 -1.77604 81 80 94
-5.13257 1.89309 -1.77278 86 85 99
-5.14039 1.91249 -1.78025 86 85 101
-5.11875 1.94005 -1.77786 87 85 99
-5.10966 1.96651 -1.78041 85 83 96
-4.90418 2.36938 -1.80225 86 83 98
-4.8717 2.38964 -1.79573 86 82 97
-4.86336 2.40092 -1.79577 84 82 96
-4.76524 2.48539 -1.78369 87 85 98
-4.7453 2.49648 -1.77961 85 83 96
-4.73954 2.50954 -1.7813 85 81 95
-4.7093 2.5302 -1.77643 86 82 96
-4.69613 2.53773 -1.77399 87 84 97
-4.68601 2.5734 -1.78069 85 83 96
-4.66985 2.5786 -1.77659 86 84 97
-4.66522 2.59262 -1.77911 86 82 96
-4.60506 2.76458 -1.79175 87 84 92
-4.59552 2.77512 -1.79179 89 86 95
-4.58876 2.78795 -1.79346 95 89 101
-4.56087 2.78332 -1.78286 94 88 100
-4.56086 2.81062 -1.7911 90 84 94
-4.27669 3.24186 -1.79253 112 106 116
-4.26192 3.24752 -1.79017 110 104 114
-4.24824 3.26463 -1.79182 96 90 100
-4.06272 3.61893 -1.80434 98 93 103
-4.04468 3.62078 -1.80048 105 99 109
-3.81125 3.93085 -1.79557 98 95 104
-3.64785 4.19882 -1.80067 109 104 118
-3.43843 4.43819 -1.78947 112 110 123
-3.39634 4.56005 -1.79884 105 102 113
-3.38031 4.56544 -1.79816 108 104 118
-3.25141 4.84024 -1.81221 110 107 116
-3.05438 5.08167 -1.80548 114 109 120
-2.85799 5.37161 -1.806 118 116 121
-2.65661 5.71681 -1.81398 116 111 117
-2.5461 5.96992 -1.8317 125 116 117
-2.38836 6.18758 -1.83215 121 117 116
-5.6167 1.24253 -1.78876 85 87 100
-5.35695 1.54268 -1.77496 84 83 97
-5.35902 1.56558 -1.77991 85 83 96
-5.36177 1.58153 -1.78402 83 81 94
-5.35086 1.59225 -1.78161 85 83 96
-5.34501 1.60491 -1.78165 84 82 95
-5.21164 1.75593 -1.77484 85 83 96
-5.2086 1.76968 -1.77653 85 85 97
-5.19229 1.77731 -1.77161 86 86 98
-5.19456 1.80099 -1.77745 80 82 94
-5.18643 1.8124 -1.77666 85 85 100
-5.18153 1.82535 -1.77752 86 84 98
-5.18015 1.86288 -1.78504 82 82 95
-4.91103 2.39084 -1.81056 87 84 102
-4.7091 2.56492 -1.78643 86 84 97
-4.66917 2.61333 -1.78659 86 82 95
-4.64165 2.61813 -1.77837 89 84 98
-4.644 2.63775 -1.78503 87 82 96
-4.63488 2.64837 -1.78506 88 83 95
-4.55536 2.82456 -1.79359 90 84 94
-4.54284 2.8326 -1.79199 86 80 92
-4.5286 2.84812 -1.79204 90 84 96
-4.51464 2.85487 -1.78963 88 82 94
-4.2297 3.26613 -1.78706 99 93 105
-4.03922 3.65012 -1.8091 102 100 108
-4.02115 3.65185 -1.80524 100 94 104
-3.99288 3.64045 -1.79437 101 95 105
-3.79808 3.93902 -1.79561 99 96 105
-3.78487 3.94716 -1.79565 110 106 117
-3.63854 4.21452 -1.80445 110 104 116
-3.61312 4.21805 -1.80077 111 105 117
-3.4279 4.45364 -1.79317 112 109 121
-3.37088 4.58415 -1.80323 108 102 116
-3.2369 4.85037 -1.81364 109 106 113
-3.20658 4.84486 -1.80739 109 106 117
-3.03753 5.08779 -1.80552 113 110 119
-2.84089 5.37877 -1.8067 120 115 122
-2.74223 5.57019 -1.81459 124 119 123
-2.63844 5.7235 -1.81465 115 110 117
-2.52374 5.96337 -1.82803 127 118 119
-2.36851 6.19356 -1.83279 123 117 117
-5.3765 1.48361 -1.77235 89 87 101
-5.38533 1.52358 -1.78305 88 86 100
-5.37285 1.5338 -1.77982 85 84 98
-5.24857 1.65243 -1.76878 83 81 94
-5.24484 1.68071 -1.77298 92 90 103
-5.23937 1.70066 -1.77468 86 84 97
-5.23152 1.71223 -1.77389 88 86 99
-5.22863 1.72601 -1.77558 85 83 96
-5.23785 1.7527 -1.78472 87 85 98
-4.62435 2.66652 -1.78677 88 82 94
-4.61513 2.67707 -1.78681 87 84 92
-4.60306 2.68531 -1.78519 90 87 96
-4.59233 2.70335 -1.7869 86 83 94
-4.5858 2.71613 -1.78859 86 83 94
-4.56522 2.71728 -1.78201 86 83 93
-4.52136 2.87948 -1.79948 89 83 95
-4.49453 2.88411 -1.79217 88 82 94
-4.48598 2.89553 -1.79302 91 83 96
-4.47467 2.90452 -1.79224 89 81 94
-4.46553 2.92461 -1.79557 85 77 90
-4.44598 2.92621 -1.78988 97 89 102
-4.23841 3.29729 -1.79989 93 87 97
-4.21215 3.30075 -1.79354 96 90 100
-4.21075 3.32113 -1.79998 107 101 111
-4.19215 3.32241 -1.79522 110 104 114
-3.99295 3.66527 -1.80298 103 97 109
-3.76965 3.95215 -1.79415 115 111 125
-3.74919 3.96265 -1.79344 107 104 115
-3.60367 4.23368 -1.80454 109 106 117
-3.58305 4.23003 -1.79935 110 106 118
-3.40727 4.44916 -1.78808 111 108 119
-3.34742 4.57438 -1.79607 106 102 116
-3.19274 4.85659 -1.80953 107 103 117
-3.02201 5.09736 -1.80691 112 109 118
-2.82713 5.39668 -1.81137 119 114 120
-2.72339 5.57341 -1.81398 123 116 123
-2.62027 5.73014 -1.81532 109 104 110
-2.50278 5.96228 -1.82622 116 109 111
-5.41035 1.45896 -1.78206 81 83 96
-5.40431 1.47881 -1.78292 84 83 97
-5.38987 1.50317 -1.78136 82 80 94
-5.28482 1.57878 -1.76939 89 87 100
-5.27738 1.61262 -1.77278 86 84 97
-5.28322 1.62995 -1.7786 87 85 98
-5.27392 1.64098 -1.77698 83 81 94
-5.25759 1.67125 -1.77625 84 82 95
-4.5585 2.73869 -1.7862 86 83 92
-4.55044 2.75023 -1.78706 88 85 94
-4.54651 2.76529 -1.79041 81 77 86
-4.5259 2.76617 -1.78382 87 83 92
-4.51059 2.78037 -1.78305 88 84 92
-4.43998 2.93995 -1.79237 91 87 93
-4.43259 2.95247 -1.79404 90 88 93
-4.41509 2.96505 -1.79246 100 95 103
-4.3942 2.96512 -1.78595 100 94 105
-4.1817 3.34339 -1.79927 98 92 103
-4.15702 3.33765 -1.79051 103 97 109
-4.14812 3.34972 -1.79214 91 88 99
-3.97696 3.68142 -1.80459 90 84 96
-3.96783 3.69459 -1.80696 98 93 104
-3.74084 3.97844 -1.79731 102 99 108
-3.72456 3.98171 -1.79505 103 99 112
-3.39215 4.47305 -1.794 110 108 119
-3.37484 4.47509 -1.79183 109 105 120
-3.32902 4.59312 -1.79973 104 100 114
-3.18105 4.87346 -1.81377 106 103 114
-3.00512 5.10338 -1.80695 114 112 121
-2.70768 5.58747 -1.81725 125 119 123
-2.59404 5.74274 -1.81729 116 109 116
-2.47681 5.98179 -1.8306 120 116 117
-2.34748 6.19388 -1.83162 127 122 119
-5.42521 1.39817 -1.77782 86 86 102
-5.40269 1.4052 -1.76969 83 82 98
-5.42971 1.43622 -1.78606 86 85 101
-5.41745 1.44672 -1.78284 84 85 101
-5.30949 1.53713 -1.77175 85 84 98
-5.30815 1.55857 -1.7751 90 88 101
-5.31761 1.57718 -1.78257 88 86 99
-5.29588 1.5981 -1.77769 86 84 97
-4.50652 2.79537 -1.78639 87 84 93
-4.50236 2.81038 -1.78974 86 83 94
-4.48004 2.81845 -1.78483 87 81 93
-4.47579 2.83342 -1.78818 90 84 96
-4.39872 2.98872 -1.79499 91 85 95
-4.37974 2.99987 -1.79258 110 107 114
-4.13987 3.37334 -1.79779 88 82 94
-4.12125 3.37428 -1.79303 86 80 92
-3.95976 3.70922 -1.81012 105 99 111
-3.93578 3.71494 -1.80627 105 102 111
-3.70885 3.99985 -1.79817 109 107 112
-3.56683 4.24936 -1.80314 103 99 113
-3.55445 4.26006 -1.80467 106 102 116
-3.3608 4.48373 -1.7926 113 109 123
-3.31533 4.60333 -1.8012 107 105 118
-3.2968 4.60342 -1.79836 108 104 118
-3.15223 4.87108 -1.80892 108 105 116
-2.97948 5.11056 -1.80632 108 105 115
-2.80038 5.40276 -1.81076 116 110 120
-2.67896 5.58941 -1.81536 121 118 121
-2.5753 5.74741 -1.81732 121 114 121
-2.31678 6.19611 -1.83047 125 121 118
-5.43744 1.33679 -1.77276 88 92 104
-5.4515 1.35583 -1.78177 83 87 99
-5.44771 1.37637 -1.78346 83 86 99
-5.43734 1.38758 -1.78105 86 89 102
-5.33786 1.46745 -1.77073 84 83 97
-5.33542 1.49583 -1.77493 90 87 104
-5.32921 1.51535 -1.77581 86 84 98
-5.33039 1.53055 -1.77914 83 82 96
-4.47011 2.84718 -1.79069 88 82 92
-4.45582 2.86234 -1.79075 89 83 93
-4.4379 2.86507 -1.78582 91 83 95
-4.43342 2.88 -1.78917 87 79 91
-4.41494 2.89129 -1.78674 89 81 92
-4.37608 3.01602 -1.79671 106 103 110
-4.36179 3.02212 -1.79429 96 91 98
-4.35059 3.04065 -1.7968 87 82 90
-4.11578 3.39045 -1.79707 90 84 98
-4.09063 3.39445 -1.79152 107 101 111
-3.92651 3.72803 -1.80865 96 93 102
-3.91388 3.73666 -1.80868 92 86 98
-3.69739 4.01086 -1.79973 112 110 116
-3.54204 4.27074 -1.8062 106 103 115
-3.33728 4.49077 -1.79119 108 105 116
-3.27182 4.60847 -1.79625 108 104 118
-3.1354 4.87576 -1.80825 109 106 117
-2.95992 5.10941 -1.80363 109 106 117
-2.78046 5.40073 -1.80815 113 108 117
-2.76004 5.39684 -1.80488 117 112 119
-2.66161 5.59789 -1.81669 123 118 122
-2.45755 5.98795 -1.83125 119 108 113
-2.43488 5.97925 -1.82697 125 114 119
-2.29651 6.2 -1.83051 127 123 120
-5.45786 1.29263 -1.77427 85 87 100
-5.46864 1.31044 -1.78165 84 86 99
-5.45811 1.32882 -1.78007 87 89 102
-5.35602 1.4378 -1.77312 88 88 102
-5.35751 1.45295 -1.77646 85 87 100
-5.35455 1.48837 -1.7815 90 87 103
-4.41036 2.90619 -1.79008 85 78 87
-4.39638 2.9124 -1.78764 86 81 85
-4.38505 2.92105 -1.78684 96 91 94
-4.35984 2.92582 -1.78028 99 94 98
-4.35243 2.93811 -1.78197 93 88 95
-4.34148 3.05172 -1.79766 91 85 97
-4.32712 3.05768 -1.79524 87 81 95
-4.3066 3.06715 -1.79202 81 74 90
-4.29482 3.07553 -1.79123 81 75 89
-4.08149 3.40637 -1.79315 101 96 106
-4.06525 3.40984 -1.78999 102 96 106
-3.89203 3.74509 -1.8064 98 92 106
-3.87826 3.75214 -1.80565 105 101 112
-3.68105 4.01398 -1.79747 108 105 115
-3.66225 4.02722 -1.7983 108 102 116
-3.51923 4.27859 -1.80476 107 103 117
-3.32157 4.49597 -1.79049 109 106 117
-3.25962 4.62191 -1.79917 109 106 120
-3.12 4.88384 -1.80899 113 110 121
-2.94624 5.12406 -1.80707 111 107 115
-2.64269 5.60087 -1.81608 122 116 120
-2.55611 5.75019 -1.81672 114 109 116
-5.47375 1.23267 -1.77167 85 87 99
-5.47779 1.24824 -1.77579 86 88 100
-5.4767 1.2839 -1.78077 83 85 98
-5.37407 1.37898 -1.77049 86 90 101
-5.38607 1.3977 -1.77878 84 87 99
-5.36711 1.40555 -1.77221 86 86 100
-5.3699 1.42824 -1.77721 86 87 100
-4.35153 2.9567 -1.7878 88 80 91
-4.29465 3.09546 -1.79782 83 80 91
-4.27761 3.09865 -1.79376 85 82 93
-4.26852 3.1195 -1.79791 97 91 101
-4.24507 3.11605 -1.78976 104 98 108
-4.06776 3.43579 -1.79963 106 100 114
-4.05187 3.45078 -1.80048 97 92 101
-4.03324 3.45128 -1.79571 92 88 99
-3.86988 3.76659 -1.80881 104 100 110
-3.64591 4.0302 -1.79603 113 107 121
-3.63146 4.0363 -1.79531 111 107 121
-3.50493 4.28593 -1.8048 109 105 119
-3.48974 4.2916 -1.80409 109 103 117
-3.30586 4.5011 -1.7898 113 110 118
-3.29332 4.51291 -1.79203 112 109 118
-3.2427 4.62518 -1.79776 109 105 119
-3.10037 4.90369 -1.81325 112 109 119
-2.91988 5.1292 -1.80576 112 106 118
-2.7365 5.41345 -1.80825 116 111 118
-2.62278 5.60015 -1.81418 122 116 121
-2.52748 5.75333 -1.81551 122 119 123
-2.41519 5.98343 -1.827 121 112 119
-2.27659 6.20571 -1.83115 127 119 121
-5.49052 1.26645 -1.78398 89 88 101
-5.38642 1.34722 -1.7704 90 89 102
-5.39468 1.37162 -1.77788 86 84 97
-4.33565 2.98995 -1.79368 92 86 95
-4.31761 2.99202 -1.78875 91 86 93
-4.30522 3.00907 -1.79046 86 83 92
-4.28847 3.01227 -1.78636 88 82 96
-4.27174 3.01541 -1.78225 88 82 96
-4.23824 3.12945 -1.79225 102 97 104
-4.22259 3.14364 -1.7923 96 90 102
-4.01345 3.45028 -1.79015 91 87 101
-4.00207 3.47074 -1.7942 90 88 93
-3.85008 3.77779 -1.80808 93 87 97
-3.83729 3.78619 -1.80812 104 98 109
-3.82021 3.78855 -1.80503 103 97 109
-3.61442 4.05251 -1.79766 111 108 119
-3.46863 4.30246 -1.80414 109 105 119
-3.22154 4.63844 -1.79926 109 104 117
-3.08346 4.9082 -1.81258 113 110 121
-2.90478 5.14022 -1.80784 112 107 118
-2.71505 5.40578 -1.80365 117 112 116
-2.50826 5.75596 -1.81491 136 130 135
-2.38729 5.99517 -1.82891 126 118 123
-2.24655 6.21134 -1.8312 127 118 119
-5.42768 1.34665 -1.7877 89 87 100
-4.26304 3.03616 -1.78644 93 87 99
-4.245 3.03788 -1.78151 89 86 97
-4.21439 3.1557 -1.79397 95 89 101
-4.21117 3.17301 -1.79892 91 87 101
-4.18277 3.17384 -1.79079 89 83 98
-4.17194 3.18314 -1.79082 87 81 93
-3.98919 3.47817 -1.79344 89 86 93
-3.95445 3.49296 -1.78952 100 98 104
-3.80668 3.80856 -1.80898 106 103 114
-3.59898 4.05691 -1.79616 112 109 120
-3.5854 4.06446 -1.7962 110 107 118
-3.45777 4.31618 -1.80717 107 103 117
-3.43551 4.30861 -1.80048 107 104 116
-3.27283 4.52636 -1.79355 115 112 122
-3.25782 4.53303 -1.79359 108 104 118
-3.20841 4.65007 -1.80145 111 108 119
-3.06586 4.91091 -1.81122 112 108 122
-2.8865 5.14235 -1.80651 114 108 118
-2.70041 5.42158 -1.80766 118 113 117
-2.59752 5.61444 -1.81682 123 118 122
-2.48774 5.75302 -1.8124 140 138 142
-4.40206 3.03466 -1.82923 81 75 85
-4.2435 3.05645 -1.78734 93 90 101
-4.23179 3.06459 -1.78655 88 85 96
-4.21645 3.0787 -1.7866 96 90 102
-4.16232 3.19375 -1.79168 93 87 96
-4.14885 3.21029 -1.79337 108 105 114
-3.98769 3.4999 -1.80067 89 85 98
-3.93813 3.4959 -1.78636 95 92 99
-3.78747 3.80777 -1.80434 104 102 115
-3.78298 3.82811 -1.81061 102 99 110
-3.57181 4.07196 -1.79623 106 102 116
-3.42459 4.32225 -1.8035 107 104 115
-3.2428 4.53965 -1.79362 111 106 119
-3.19141 4.65316 -1.80005 113 110 121
-3.0419 4.92011 -1.81127 108 105 116
-2.85139 5.1224 -1.79567 118 113 120
-2.67256 5.42345 -1.80573 121 115 121
-2.57858 5.61722 -1.81621 123 118 122
-2.36595 5.99179 -1.82648 127 118 123
-2.22451 6.20566 -1.82823 127 118 119
-4.2122 3.09465 -1.79078 92 86 98
-4.20039 3.10268 -1.78999 93 87 98
-4.18114 3.11268 -1.78756 88 80 93
-4.13791 3.21949 -1.7934 111 106 116
-4.12692 3.22867 -1.79344 102 96 106
-3.93642 3.51759 -1.79359 90 83 94
-3.92568 3.53929 -1.79845 88 82 93
-3.90037 3.53046 -1.78888 85 79 90
-3.76691 3.83177 -1.80831 110 105 115
-3.74372 3.83791 -1.80524 106 100 111
-3.54993 4.07993 -1.79476 106 102 116
-3.40592 4.33775 -1.8058 106 103 117
-3.21833 4.54444 -1.79148 107 104 115
-3.16706 4.6594 -1.79866 110 107 116
-3.02428 4.92269 -1.8099 109 106 116
-2.84428 5.15629 -1.8066 114 111 118
-2.65424 5.42643 -1.8051 118 113 119
-2.5601 5.62177 -1.81625 124 119 122
-2.46214 5.76872 -1.81563 145 143 145
-2.34943 6.01062 -1.83145 124 114 122
-2.20455 6.21115 -1.82887 128 120 118
-4.17423 3.12593 -1.79007 83 75 88
-4.15861 3.12984 -1.7868 92 86 96
-4.12206 3.24456 -1.79757 112 106 116
-4.10588 3.25825 -1.79762 93 87 97
-4.08504 3.25645 -1.79111 92 86 98
-3.90396 3.55944 -1.80012 91 88 99
-3.88089 3.55339 -1.79215 89 83 95
-3.73899 3.85821 -1.81152 109 106 116
-3.71569 3.851 -1.80375 107 104 115
-3.54176 4.09696 -1.79939 106 103 114
-3.52262 4.09468 -1.79483 105 102 112
-3.38803 4.33817 -1.80285 109 106 117
-3.20402 4.55264 -1.79224 107 105 117
-3.1538 4.67089 -1.80086 111 108 117
-3.1338 4.66697 -1.79657 109 106 117
-3.00868 4.93045 -1.81064 110 107 117
-2.82294 5.14935 -1.80187 113 110 119
-2.44461 5.77852 -1.81758 153 149 150
-2.18525 6.22033 -1.83071 128 120 118
-4.1442 3.14497 -1.78768 101 95 109
-4.13837 3.1595 -1.79103 91 85 97
-4.12516 3.16594 -1.78941 96 90 100
-4.07516 3.26684 -1.79196 91 85 97
-4.0661 3.28853 -1.79693 95 89 101
-4.0489 3.29063 -1.79287 82 78 92
-3.50787 4.11531 -1.79948 110 107 118
-3.37696 4.35171 -1.80587 107 104 116
-3.18818 4.5574 -1.79155 108 106 117
-3.11974 4.67666 -1.79805 110 107 118
-2.99703 4.94866 -1.81558 112 109 120
-2.63842 5.43845 -1.80779 118 113 119
-2.53184 5.62483 -1.81501 123 117 119
-2.42577 5.78274 -1.81761 157 152 154
-2.31781 6.00534 -1.8278 122 116 120
-4.11299 3.18365 -1.79194 93 90 99
-4.09488 3.18457 -1.78701 99 96 105
-4.03769 3.29954 -1.7929 86 82 96
-4.02244 3.31423 -1.79377 97 91 103
-3.87975 3.58814 -1.80421 94 88 101
-3.85343 3.57752 -1.79384 97 91 102
-3.70371 3.87374 -1.80926 105 102 111
-3.68351 3.87096 -1.80384 110 107 116
-3.49232 4.11935 -1.79798 108 103 117
-3.47766 4.12496 -1.79725 108 104 119
-3.35472 4.36041 -1.80518 110 106 120
-3.33767 4.36229 -1.80297 106 104 117
-3.16816 4.57211 -1.7938 110 107 119
-2.96895 4.94704 -1.81143 111 108 118
-2.80014 5.16458 -1.80465 115 109 121
-2.61349 5.45093 -1.80983 119 114 120
-2.51428 5.6329 -1.81634 122 118 118
-2.40733 5.78875 -1.81828 149 145 145
-2.29999 6.01847 -1.83093 126 122 121
-2.15384 6.21805 -1.82835 129 121 118
-4.09248 3.20311 -1.79284 95 91 102
-4.07555 3.20529 -1.78874 79 76 87
-4.05955 3.21871 -1.78879 97 94 105
-4.01353 3.32584 -1.79545 93 90 97
-3.99749 3.32909 -1.79221 99 93 102
-3.85659 3.60658 -1.80508 96 90 100
-3.83441 3.6133 -1.80193 89 86 95
-3.81468 3.61128 -1.79636 97 94 103
-3.67549 3.88658 -1.80777 106 103 114
-3.65418 3.89531 -1.80627 104 101 112
-3.45737 4.13571 -1.79731 109 107 119
-3.32561 4.37406 -1.80525 107 105 118
-3.15226 4.57676 -1.7931 107 103 117
-3.13415 4.57626 -1.7902 112 108 122
-3.10119 4.69627 -1.80242 112 110 120
-3.08339 4.69729 -1.80029 116 113 122
-2.95326 4.95464 -1.81216 114 111 120
-2.78541 5.17706 -1.8074 114 108 120
-2.59558 5.45555 -1.80986 121 116 120
-2.49621 5.63908 -1.81702 117 115 116
-2.27867 6.01481 -1.82849 126 120 122
-2.13414 6.2252 -1.82959 127 117 116
-4.05813 3.23861 -1.79545 105 102 113
-4.03759 3.2365 -1.78886 107 104 115
-3.9856 3.34781 -1.79553 86 83 92
-3.97305 3.35513 -1.79475 100 97 105
-3.80785 3.62702 -1.8004 99 96 105
-3.64402 3.90779 -1.80864 107 104 113
-3.44441 4.14446 -1.79811 107 106 114
-3.30493 4.38585 -1.80605 108 104 118
-3.11471 4.59245 -1.79319 111 108 119
-3.06488 4.69654 -1.79745 112 110 122
-2.93559 4.95693 -1.8108 113 110 121
-2.76473 5.17167 -1.80335 115 109 119
-2.57482 5.44919 -1.80593 122 116 120
-2.37738 5.78565 -1.81516 151 147 148
-4.02263 3.25113 -1.78974 100 94 105
-4.00922 3.25716 -1.78812 107 101 113
-4.00165 3.27009 -1.79064 101 97 111
-3.96281 3.36523 -1.7956 105 99 113
-3.94789 3.36967 -1.79318 98 90 104
-3.79096 3.64093 -1.80125 96 93 102
-3.7649 3.62973 -1.79088 92 89 98
-3.62984 3.91404 -1.80789 108 105 113
-3.60942 3.9241 -1.80717 107 104 113
-3.43232 4.1548 -1.79968 106 103 114
-3.28868 4.38922 -1.80459 109 106 117
-3.10094 4.60207 -1.79469 111 108 119
-3.04611 4.71595 -1.80182 112 109 120
-2.91078 4.96378 -1.81015 110 104 118
-2.7511 5.18763 -1.80747 116 111 117
-2.5588 5.46099 -1.80861 122 116 120
-2.47017 5.65101 -1.81902 119 115 116
-2.35733 5.78411 -1.81329 151 145 147
-2.24974 6.02222 -1.82916 131 120 127
-3.98417 3.28179 -1.78986 98 95 106
-3.97534 3.29328 -1.79155 101 97 111
-3.93688 3.38964 -1.79733 99 93 105
-3.92768 3.40106 -1.799 92 88 99
-3.77587 3.67085 -1.80852 104 101 112
-3.73884 3.65607 -1.79417 94 91 102
-3.59518 3.93024 -1.80642 107 104 115
-3.41102 4.16372 -1.79897 107 104 113
-3.3971 4.1707 -1.799 109 106 115
-3.27566 4.3992 -1.80613 108 105 116
-3.08355 4.60309 -1.79252 111 108 119
-3.02902 4.71851 -1.80042 113 110 121
-2.89501 4.97122 -1.81088 107 101 115
-2.72341 5.18827 -1.8048 119 114 120
-2.45249 5.65891 -1.82035 124 118 122
-2.33846 5.78807 -1.81332 149 145 145
-2.22959 6.02398 -1.82858 131 120 128
-3.96414 3.30194 -1.79159 98 94 108
-3.94768 3.31487 -1.79164 97 91 105
-3.91499 3.4082 -1.79822 93 89 102
-3.89574 3.41812 -1.79663 96 90 104
-3.73173 3.67168 -1.7982 101 95 107
-3.58388 3.94102 -1.80801 109 106 115
-3.57348 3.95334 -1.81039 112 109 118
-3.37805 4.16781 -1.79444 108 105 115
-3.25324 4.40743 -1.80543 108 105 116
-3.06829 4.60919 -1.79256 112 108 119
-3.01333 4.72446 -1.80045 114 111 122
-2.87858 4.97685 -1.81092 114 108 119
-2.70566 5.19161 -1.80415 118 112 117
-2.53137 5.46401 -1.80734 120 115 119
-2.43301 5.6594 -1.81909 122 118 122
-2.21084 6.03315 -1.83047 134 125 130
-3.93528 3.32204 -1.79084 93 87 100
-3.92056 3.32633 -1.78839 79 73 87
-3.8864 3.42944 -1.7983 87 81 95
-3.87251 3.43502 -1.7967 101 97 109
-3.72662 3.69031 -1.80384 95 89 101
-3.70386 3.68323 -1.79587 99 96 105
-3.68152 3.68911 -1.79272 105 99 109
-3.55386 3.96472 -1.81044 108 106 118
-3.53187 3.9581 -1.80346 101 99 111
-3.36348 4.18961 -1.79986 109 103 117
-3.24095 4.41899 -1.80771 108 105 116
-3.22224 4.41712 -1.80401 109 106 117
-3.04578 4.61826 -1.79261 114 108 118
-2.98876 4.72985 -1.79906 112 109 120
-2.85369 4.98343 -1.81027 112 109 117
-2.69129 5.20564 -1.80759 119 112 120
-2.51298 5.46656 -1.80672 122 117 121
-2.31132 5.79759 -1.81465 147 143 142
-3.91267 3.33909 -1.79091 86 80 93
-3.8938 3.34895 -1.78931 84 78 90
-3.85541 3.4476 -1.79675 108 105 116
-3.83699 3.4473 -1.79187 104 101 111
-3.65766 3.70642 -1.79359 110 107 116
-3.52232 3.97187 -1.80661 100 96 110
-3.34612 4.18987 -1.79683 111 105 119
-3.33213 4.19666 -1.79686 107 103 117
-3.20829 4.42525 -1.80479 108 105 116
-3.02979 4.62253 -1.79191 113 109 119
-2.97306 4.73568 -1.7991 110 107 118
-2.83968 4.996 -1.81311 112 109 118
-2.49548 5.4727 -1.80741 122 117 122
-2.40336 5.65634 -1.81591 122 120 121
-2.29394 5.80881 -1.81722 150 142 140
-2.18182 6.04026 -1.83114 131 122 127
-3.88692 3.36308 -1.79266 87 84 95
-3.8755 3.37148 -1.79269 84 80 93
-3.82977 3.46137 -1.79518 99 96 105
-3.81365 3.47521 -1.79605 98 93 105
-3.68442 3.71984 -1.80476 100 97 104
-3.50356 3.98459 -1.80744 105 103 114
-3.3206 4.20836 -1.79919 109 105 119
-3.18656 4.43485 -1.80484 105 102 114
-3.01864 4.6388 -1.79634 116 113 121
-2.96277 4.75535 -1.80489 115 112 123
-2.82379 5.00324 -1.81384 115 112 119
-2.66582 5.21316 -1.80764 117 113 121
-2.38604 5.66588 -1.81789 125 119 123
-2.27425 5.80887 -1.81599 149 139 140
-2.16023 6.03434 -1.82809 131 122 126
-3.85761 3.38259 -1.79191 91 85 97
-3.84724 3.39234 -1.79278 86 80 93
-3.80408 3.48634 -1.79772 96 93 102
-3.79447 3.49744 -1.7994 96 94 106
-3.65448 3.7411 -1.80565 99 96 103
-3.63284 3.73515 -1.79847 104 101 108
-3.49295 3.99673 -1.80981 106 104 115
-3.47855 4.0025 -1.80907 105 103 116
-3.29746 4.21345 -1.79695 109 106 117
-3.17023 4.43783 -1.80338 106 103 114
-2.99462 4.64419 -1.79493 115 112 123
-2.93607 4.75528 -1.80134 119 116 125
-2.64581 5.20914 -1.80427 115 111 119
-2.46892 5.47908 -1.80747 122 117 121
-2.36657 5.66616 -1.81663 124 119 122
-3.83904 3.40496 -1.7953 87 84 95
-3.82101 3.41589 -1.79452 93 90 101
-3.77489 3.50676 -1.79781 109 106 114
-3.763 3.51487 -1.79784 101 98 106
-3.62228 3.74599 -1.80011 98 97 107
-3.46055 4.01663 -1.81068 105 103 116
-3.28177 4.21678 -1.79545 109 106 117
-3.16005 4.45424 -1.8079 112 109 120
-2.97584 4.64139 -1.7913 112 109 118
-2.92162 4.76444 -1.80282 115 112 119
-2.79819 5.00779 -1.81249 118 115 123
-2.78166 5.01313 -1.81252 117 112 122
-2.63128 5.22302 -1.80771 117 112 119
-2.44876 5.47411 -1.80419 121 115 119
-2.24588 5.81254 -1.81541 151 142 143
-2.14173 6.04518 -1.83059 133 124 128
-3.81051 3.42555 -1.79538 97 91 101
-3.79562 3.42936 -1.79293 94 88 98
-3.75002 3.52147 -1.79706 104 101 112
-3.73916 3.53098 -1.79791 99 96 106
-3.61269 3.77144 -1.80737 105 103 114
-3.59803 3.77606 -1.8058 106 103 115
-3.44332 4.01751 -1.80759 107 103 117
-3.42334 4.01355 -1.80217 106 103 115
-3.27256 4.23333 -1.80008 107 105 118
-3.13819 4.46362 -1.80796 111 108 119
-2.96183 4.65063 -1.7928 109 103 115
-2.90444 4.76659 -1.80141 113 110 121
-2.76393 5.01487 -1.81115 117 112 120
-2.60412 5.22487 -1.80572 122 118 123
-2.43467 5.49473 -1.81018 122 117 120
-2.33822 5.66832 -1.81539 125 119 123
-2.12217 6.05035 -1.83124 129 119 122
-3.77966 3.44301 -1.79381 100 94 104
-3.76367 3.44523 -1.79053 99 96 104
-3.7227 3.54445 -1.79878 106 103 112
-3.58632 3.78527 -1.80663 107 103 117
-3.24854 4.23652 -1.79707 107 104 118
-3.11953 4.46136 -1.80425 113 110 121
-2.94112 4.66442 -1.79505 109 104 118
-2.58523 5.22424 -1.80371 122 117 123
-2.32121 5.67952 -1.81801 127 121 125
-2.22802 5.82172 -1.81735 152 144 142
-3.76058 3.46502 -1.79719 110 108 119
-3.74243 3.46422 -1.79226 104 102 113
-3.71711 3.56128 -1.80373 98 95 103
-3.70399 3.56774 -1.80295 108 105 113
-3.56761 3.7967 -1.80668 104 100 114
-3.54415 3.78719 -1.79791 104 100 115
-3.41164 4.03866 -1.80924 105 102 113
-3.39894 4.04737 -1.81005 105 102 112
-3.2368 4.24801 -1.79941 107 105 118
-3.22342 4.25614 -1.80021 110 108 121
-3.10842 4.47598 -1.80803 113 109 121
-2.92502 4.66836 -1.79435 112 106 119
-2.88238 4.77844 -1.8029 114 111 118
-2.74236 5.03159 -1.81471 117 112 118
-2.57002 5.23616 -1.80646 123 118 124
-2.40548 5.48983 -1.80627 123 121 122
-2.30373 5.68883 -1.81999 126 119 126
-2.20975 5.829 -1.81865 152 144 142
-2.09111 6.04583 -1.82821 125 119 121
-5.68429 0.554417 -1.77789 84 86 99
-5.51801 0.836716 -1.78417 90 89 101
-3.72946 3.48208 -1.79562 96 93 105
-3.71344 3.4841 -1.79234 108 105 115
-3.68626 3.57958 -1.803 95 89 100
-3.66891 3.57997 -1.79893 92 87 100
-3.53432 3.79936 -1.80035 104 99 113
-3.38079 4.04642 -1.80618 107 104 114
-3.2025 4.26575 -1.80026 104 102 115
-3.08422 4.48004 -1.80583 112 108 122
-3.06929 4.48608 -1.80587 115 111 125
-2.91022 4.67572 -1.79512 112 108 119
-2.86911 4.79095 -1.80582 114 108 120
-2.72289 5.02786 -1.81124 116 111 117
-2.3883 5.49749 -1.80763 122 120 121
-2.28426 5.68885 -1.81873 125 118 125
-2.07248 6.05648 -1.83072 128 119 122
-5.67068 0.526072 -1.77208 87 89 102
-5.52038 0.792314 -1.78218 85 87 102
-5.5152 0.809451 -1.78153 86 86 98
-3.69954 3.48902 -1.79072 106 103 112
-3.65993 3.59225 -1.80143 100 96 110
-3.52418 3.82461 -1.8076 107 101 113
-3.50463 3.82111 -1.80203 103 99 110
-3.37074 4.05988 -1.80934 110 104 119
-3.18594 4.26709 -1.79799 104 102 113
-3.05434 4.49207 -1.8059 114 111 121
-2.88545 4.67886 -1.79297 114 111 122
-2.85189 4.79293 -1.80441 116 110 122
-2.83468 4.79485 -1.803 116 113 122
-2.70742 5.03653 -1.81268 114 109 116
-2.54598 5.24855 -1.80856 119 114 121
-2.37065 5.50328 -1.80832 123 118 122
-2.1813 5.83237 -1.81807 153 143 142
-5.71076 0.511417 -1.78497 87 90 102
-5.51057 0.772996 -1.77755 92 90 104
-3.6843 3.50376 -1.79243 95 92 103
-3.67555 3.51604 -1.79494 86 82 97
-3.64105 3.60239 -1.80066 105 102 112
-3.62784 3.6086 -1.79987 101 98 107
-3.49845 3.83947 -1.80767 107 104 115
-3.48176 3.84056 -1.8045 103 99 114
-3.35063 4.07035 -1.80939 107 105 118
-3.33603 4.07566 -1.80864 107 105 118
-3.17247 4.27508 -1.79879 105 103 113
-3.03013 4.49586 -1.80371 109 106 115
-2.87189 4.68959 -1.7952 112 106 116
-2.68909 5.03624 -1.8106 113 107 117
-2.52912 5.25495 -1.80927 121 114 121
-2.25661 5.69432 -1.81878 124 117 124
-2.15959 5.8209 -1.81302 156 146 144
-5.69807 0.492203 -1.77981 90 92 105
-5.52238 0.747948 -1.78019 88 87 100
-3.65951 3.51784 -1.79166 90 86 99
-3.61563 3.61628 -1.79991 112 106 116
-3.46185 3.84995 -1.80375 108 104 118
-3.32054 4.07932 -1.80711 107 104 117
-3.15454 4.29119 -1.80191 106 102 116
-3.01874 4.51028 -1.80749 109 106 115
-2.85445 4.68983 -1.79304 109 106 115
-2.81118 4.8029 -1.80305 116 111 120
-2.66676 5.05089 -1.81346 122 117 123
-2.50919 5.25045 -1.8059 120 115 121
-2.34275 5.50357 -1.80639 124 120 121
-2.23752 5.69604 -1.81817 125 118 125
-2.14128 5.82798 -1.81432 154 145 141
-5.68792 0.464283 -1.77529 87 87 101
-5.53416 0.713828 -1.78216 87 87 99
-5.52176 0.730007 -1.77886 92 91 103
-3.64615 3.53542 -1.79503 94 88 100
-3.63419 3.54311 -1.79506 96 90 101
-3.5987 3.62923 -1.80078 101 98 109
-3.58644 3.63682 -1.80081 106 102 113
-3.44706 3.85406 -1.80218 104 101 115
-3.3012 4.09119 -1.80794 104 102 115
-3.13719 4.29067 -1.79888 106 104 117
-2.99729 4.50073 -1.80078 109 108 116
-2.83956 4.69699 -1.7938 110 107 114
-2.79772 4.81523 -1.80597 112 109 116
-2.64899 5.05225 -1.81209 120 113 120
-2.32469 5.50737 -1.80643 125 121 122
-5.69204 0.446517 -1.77593 90 89 105
-5.5465 0.697581 -1.78545 91 91 103
-3.62629 3.5568 -1.79841 94 91 98
-3.59951 3.55463 -1.791 84 81 90
-3.57414 3.64438 -1.80084 103 100 111
-3.56081 3.65037 -1.80006 102 101 109
-3.43689 3.86602 -1.80462 101 99 112
-3.28482 4.0931 -1.80564 108 106 119
-3.12363 4.29852 -1.79968 110 107 118
-3.10929 4.30465 -1.79972 109 106 115
-2.97944 4.51966 -1.80533 112 109 118
-2.81727 4.70677 -1.79459 115 110 119
-2.77862 4.8117 -1.8024 119 116 125
-2.62959 5.04819 -1.80862 120 113 121
-2.48251 5.25354 -1.80459 120 113 121
-2.30661 5.51113 -1.80646 125 120 124
-2.21955 5.70327 -1.8195 124 117 125
-2.11415 5.83849 -1.81628 156 147 140
-5.69255 0.410432 -1.77462 89 88 103
-5.70364 0.429271 -1.77914 88 88 103
-5.54116 0.670159 -1.78215 87 85 98
-3.59152 3.56825 -1.79435 94 91 102
-3.57745 3.57274 -1.79273 99 95 109
-3.54371 3.6631 -1.80093 91 88 99
-3.42242 3.88471 -1.80867 103 101 114
-3.40938 3.89185 -1.8087 106 104 116
-3.27706 4.11123 -1.81113 107 105 118
-2.79797 4.70157 -1.79022 114 111 118
-2.75137 4.80893 -1.79813 116 111 122
-2.46562 5.25975 -1.8053 120 113 120
-2.28928 5.51851 -1.80782 124 119 123
-2.09481 5.83984 -1.81568 156 146 139
-5.53841 0.651995 -1.78016 89 87 101
-3.5637 3.59005 -1.79609 93 89 103
-3.52735 3.66441 -1.79768 92 86 98
-3.51894 3.67792 -1.80099 102 99 110
-3.39085 3.88941 -1.80393 105 101 115
-3.255 4.11803 -1.80962 111 105 119
-3.24284 4.12795 -1.81121 110 104 116
-3.08816 4.31375 -1.79977 113 110 118
-3.07378 4.31977 -1.7998 109 106 115
-2.9707 4.54083 -1.81209 110 107 114
-2.95418 4.5431 -1.81063 111 108 115
-2.78547 4.71558 -1.79392 117 114 123
-2.74145 4.83168 -1.80536 110 107 116
-2.60713 5.06258 -1.81147 117 112 119
-2.44771 5.26229 -1.80465 121 114 121
-2.19074 5.70288 -1.81761 126 120 125
-5.69343 0.365425 -1.77332 85 87 101
-5.70842 0.384395 -1.77913 89 88 104
-5.55244 0.635861 -1.78411 85 85 97
-3.55255 3.59902 -1.79695 93 90 101
-3.53842 3.60338 -1.79533 86 81 92
-3.49973 3.6874 -1.80022 102 96 105
-3.37165 3.89997 -1.80398 107 104 115
-3.22557 4.12801 -1.80812 112 107 119
-3.06305 4.33422 -1.80367 110 107 118
-2.93906 4.54875 -1.81067 110 107 115
-2.7266 4.84031 -1.80684 115 109 120
-2.59146 5.07093 -1.81291 119 113 120
-2.4322 5.27385 -1.80741 123 117 121
-2.26252 5.52395 -1.80787 123 118 120
-2.17307 5.71182 -1.81958 126 119 126
-2.07671 5.84859 -1.81762 158 147 144
-5.70477 0.348049 -1.77654 90 92 105
-5.54867 0.60874 -1.78147 84 84 96
-3.5233 3.60616 -1.79288 88 82 92
-3.48727 3.69469 -1.80026 100 97 104
-3.47576 3.7035 -1.80111 102 101 109
-3.36126 3.91176 -1.80642 106 103 116
-3.34188 3.90752 -1.80084 105 103 116
-3.2068 4.14112 -1.80973 106 102 116
-3.03888 4.33632 -1.80065 110 106 118
-2.91129 4.54335 -1.80473 111 108 117
-2.76307 4.72513 -1.7947 116 113 122
-2.69638 4.82842 -1.79897 117 111 121
-2.57367 5.07206 -1.81154 118 116 121
-2.15396 5.71329 -1.81897 129 119 126
-2.0558 5.84049 -1.81384 155 146 141
-5.56332 0.574751 -1.78476 87 85 98
-5.55134 0.591243 -1.78146 91 90 103
-3.51224 3.6279 -1.79873 94 88 100
-3.49224 3.62288 -1.79213 100 94 106
-3.45548 3.71123 -1.79952 102 99 110
-3.33233 3.93551 -1.8097 106 104 115
-3.1912 4.14434 -1.80821 108 104 117
-3.17643 4.14915 -1.80746 107 104 115
-3.02587 4.3456 -1.80222 110 107 116
-2.89886 4.55578 -1.80776 111 108 115
-2.74683 4.72852 -1.794 114 110 117
-2.73059 4.73185 -1.7933 116 111 120
-2.40642 5.28021 -1.80746 124 119 123
-2.2466 5.53859 -1.81188 124 119 121
-2.22405 5.51994 -1.80396 124 120 121
-5.70715 0.321137 -1.77653 87 89 102
-3.48482 3.63783 -1.79631 103 97 109
-3.4572 3.63317 -1.78807 103 98 105
-3.44391 3.71994 -1.80037 107 104 113
-3.31297 3.93114 -1.80413 108 105 116
-3.29541 3.9299 -1.80015 108 105 116
-3.00709 4.34121 -1.79765 110 107 118
-2.88438 4.56299 -1.80854 112 109 116
-2.68621 4.85108 -1.8062 116 110 117
-2.55204 5.08982 -1.8158 120 115 121
-2.53017 5.07642 -1.80881 120 113 120
-2.38941 5.2862 -1.80817 122 117 121
-2.12655 5.72002 -1.81967 131 121 129
-2.02944 5.85623 -1.81771 156 148 141
-5.82665 0.173878 -1.78834 90 87 101
-5.70496 0.284983 -1.77459 91 88 105
-5.71269 0.303373 -1.77782 82 82 97
-5.55799 0.529773 -1.78078 90 89 103
-5.563 0.548056 -1.78343 90 89 103
-3.45351 3.65425 -1.79556 101 99 105
-3.43805 3.73795 -1.80614 101 95 107
-3.28743 3.94635 -1.80499 110 104 116
-3.15834 4.16371 -1.80985 108 102 116
-3.14271 4.16677 -1.80832 107 103 117
-2.98791 4.35498 -1.8 111 106 118
-2.70868 4.74292 -1.79482 114 111 120
-2.66777 4.84893 -1.80335 116 109 116
-2.3673 5.27212 -1.80139 120 115 119
-2.00948 5.85358 -1.81583 155 150 144
-5.57354 0.513526 -1.7854 89 88 102
-3.44211 3.66293 -1.79642 96 95 101
-3.41574 3.74238 -1.80291 90 84 96
-3.40122 3.7463 -1.80131 92 89 100
-3.26884 3.95807 -1.80584 101 99 110
-3.13353 4.18302 -1.81303 107 104 115
-2.97269 4.35898 -1.79927 110 107 116
-2.86333 4.5746 -1.81009 112 107 118
-2.69184 4.74437 -1.79338 116 113 122
-2.64229 4.8509 -1.80124 113 108 115
-2.51692 5.09356 -1.81376 121 114 121
-2.20261 5.55282 -1.81395 126 119 122
-2.10877 5.72878 -1.82164 130 120 128
-5.79408 0.145143 -1.77693 100 91 109
-5.71082 0.258234 -1.77587 88 90 105
-5.56543 0.486145 -1.78143 90 89 102
-3.42489 3.67511 -1.7973 99 94 103
-3.40876 3.67591 -1.79402 98 92 102
-3.38857 3.75331 -1.80134 91 87 99
-3.37873 3.76498 -1.80383 102 98 112
-3.25042 3.95503 -1.80107 106 104 115
-3.11947 4.18931 -1.81307 108 105 116
-2.95956 4.36808 -1.80084 113 110 119
-2.84612 4.57478 -1.80787 113 107 119
-2.83091 4.58011 -1.80791 111 105 115
-2.67671 4.75106 -1.79415 115 112 119
-2.62788 4.86102 -1.80343 115 110 117
