11.1514 3.74923 -1.7757 65 73 93
11.1338 3.70238 -1.77083 66 67 88
11.15 3.66625 -1.77143 65 70 92
11.4618 -2.55028 -1.75491 74 71 88
11.443 -2.58576 -1.75306 73 70 87
11.4201 -2.6203 -1.7506 73 72 90
11.362 -4.65224 -1.71716 71 79 98
11.3408 -4.68702 -1.71593 74 78 100
11.1069 3.87972 -1.77572 63 64 91
11.1199 3.84248 -1.77571 65 68 89
11.1365 3.80642 -1.77631 63 68 91
11.4088 -2.65726 -1.74996 73 72 90
11.4297 -2.72124 -1.75508 70 68 89
11.3968 -2.75337 -1.75111 65 67 90
11.3177 -4.74267 -1.71559 72 77 99
11.3017 -4.77945 -1.71526 71 78 97
11.0816 4.01677 -1.77908 68 79 99
11.0913 3.97834 -1.77846 69 73 93
11.0989 3.93926 -1.77754 71 73 97
11.387 -2.79065 -1.75078 65 70 89
11.363 -2.84446 -1.74892 68 66 90
11.3625 -2.8839 -1.7501 63 70 88
11.282 -4.81469 -1.71433 71 78 96
11.2549 -4.84685 -1.71221 71 74 99
11.0417 4.14917 -1.78031 69 77 98
11.0517 4.11081 -1.7797 69 75 95
11.0468 4.06725 -1.77665 70 76 98
11.3407 -2.91826 -1.74795 61 68 84
11.3449 -2.97882 -1.75064 67 65 86
11.3056 -3.00868 -1.74576 67 70 87
11.2419 -4.90659 -1.71366 71 79 100
11.0182 4.24566 -1.78214 68 76 99
11.0296 4.18684 -1.78062 72 79 102
11.2701 -3.0393 -1.74148 66 67 87
11.2536 -3.07463 -1.74024 62 68 92
11.2237 -4.94234 -1.71302 71 79 99
11.2071 -4.97878 -1.71269 72 78 100
10.9878 4.3188 -1.78185 70 76 102
10.991 4.27782 -1.78002 70 78 99
11.2494 -3.13301 -1.74172 60 67 86
11.2689 -3.17785 -1.74624 63 65 88
11.2501 -3.21258 -1.74469 56 58 81
11.1772 -5.03138 -1.71146 75 83 102
11.1567 -5.06608 -1.71053 76 83 101
10.9555 4.45465 -1.7849 70 75 97
10.9592 4.41364 -1.78307 69 75 97
10.9794 4.37893 -1.78398 68 79 97
11.2299 -3.26685 -1.74374 69 75 96
11.2147 -3.30243 -1.7428 68 80 97
11.2012 -3.33848 -1.74216 76 81 101
11.1416 -5.10307 -1.71049 76 84 102
10.924 4.54861 -1.78581 69 77 98
10.9354 4.51047 -1.7852 69 77 100
11.1843 -3.39354 -1.74182 68 70 93
11.1838 -3.4333 -1.74331 71 79 99
11.1255 -5.16166 -1.71164 82 85 103
11.0903 -5.1897 -1.70833 78 85 102
10.9137 4.62995 -1.78917 69 77 100
10.9198 4.58964 -1.78764 68 79 98
10.8802 0.843511 -1.74607 66 68 90
10.8993 0.808099 -1.74862 67 69 92
10.881 0.770174 -1.74507 65 68 89
10.8833 0.715349 -1.74473 58 63 83
10.8824 0.678647 -1.74407 67 72 92
10.8971 0.642806 -1.74598 65 70 90
10.9008 0.588028 -1.74596 67 72 92
10.8975 0.551238 -1.74498 69 72 91
10.9 0.514728 -1.74496 64 68 85
10.9358 0.47952 -1.7504 77 80 99
10.9388 0.424569 -1.75037 73 74 94
10.929 0.387569 -1.74843 69 74 94
10.9448 0.351356 -1.75066 68 74 95
10.9432 0.296288 -1.74999 64 65 85
10.9508 0.259768 -1.75093 68 74 92
10.9445 0.222969 -1.74963 66 67 90
11.1681 -3.46865 -1.74237 72 80 103
11.1466 -3.50224 -1.74051 73 79 103
11.082 -5.22971 -1.70948 77 83 102
11.0681 -5.26727 -1.70974 78 87 104
10.8833 4.76776 -1.79312 67 78 99
10.8753 4.72145 -1.78917 68 76 99
10.8982 4.68786 -1.79038 68 74 98
10.7884 1.42284 -1.74246 66 71 90
10.7936 1.38662 -1.74245 73 80 98
10.8164 1.35241 -1.74532 71 77 97
10.8096 1.3148 -1.74338 64 70 89
10.8126 1.25996 -1.74272 67 68 88
10.8271 1.22468 -1.74431 65 70 90
10.8395 1.18915 -1.74557 64 69 89
10.8576 1.13572 -1.74748 66 66 90
10.8364 1.09694 -1.74329 63 69 88
10.8641 1.06269 -1.74713 64 66 89
10.8619 1.00737 -1.74582 60 60 84
10.8639 0.970785 -1.74549 74 73 98
10.8637 0.934048 -1.74483 67 69 92
10.891 0.899388 -1.74866 67 69 89
10.9442 0.167982 -1.74929 69 71 94
10.9475 0.131365 -1.74959 70 73 94
10.9368 0.0946529 -1.74764 69 69 95
10.9379 0.0580468 -1.74762 63 65 89
10.9507 0.00310183 -1.74952 67 69 86
10.9514 -0.0335416 -1.7495 63 68 87
10.9462 -0.0701391 -1.74852 67 69 90
10.9426 -0.125028 -1.74785 69 69 90
10.9331 -0.161481 -1.74622 80 74 100
10.9432 -0.19825 -1.74781 67 68 89
10.939 -0.253067 -1.74714 72 74 95
10.9488 -0.289925 -1.74872 69 76 95
10.9487 -0.326545 -1.7487 70 75 94
10.9458 -0.381399 -1.74836 74 75 96
10.9415 -0.417853 -1.74769 73 75 94
11.1251 -3.55585 -1.73957 73 78 101
11.1109 -3.59152 -1.73893 73 80 99
11.1003 -3.6283 -1.7389 72 78 100
10.869 4.82637 -1.79464 67 78 100
10.7481 1.76824 -1.74483 71 76 96
10.7485 1.73126 -1.74385 76 81 101
10.7398 1.67456 -1.74095 77 77 101
10.7477 1.63875 -1.74126 74 81 99
10.7732 1.60533 -1.74445 67 73 91
10.7658 1.54898 -1.74187 69 69 93
10.7909 1.51535 -1.74506 66 64 85
10.773 1.47616 -1.74119 65 70 89
10.9527 -0.454927 -1.74959 75 77 98
10.9501 -0.491459 -1.74925 69 70 91
10.9504 -0.546467 -1.74955 66 70 89
10.9475 -0.58297 -1.7492 71 70 91
10.9504 -0.619782 -1.74982 79 76 102
10.958 -0.675273 -1.7514 71 77 93
10.9547 -0.711769 -1.75106 77 80 96
10.961 -0.748899 -1.75232 72 72 94
11.0707 -3.67925 -1.73673 73 81 104
11.0693 -3.71888 -1.73822 71 79 98
10.7094 2.02187 -1.7462 72 71 92
10.7098 1.9662 -1.74458 75 73 90
10.7129 1.92955 -1.74393 73 74 97
10.7216 1.89386 -1.74423 68 65 87
10.7595 1.86281 -1.74936 75 78 93
10.7378 1.80373 -1.74421 79 84 103
10.9661 -0.804393 -1.75357 77 80 95
10.9486 -0.83986 -1.75098 80 79 95
10.9664 -0.877964 -1.75417 71 73 92
10.9486 -0.913326 -1.75158 70 71 91
10.9627 -0.969694 -1.75444 72 73 93
10.9545 -1.00579 -1.75345 71 76 94
10.9639 -1.04345 -1.75535 80 83 102
11.0565 -3.75491 -1.73788 74 82 101
11.0319 -3.80734 -1.73663 75 82 98
10.6728 2.27637 -1.74885 71 76 95
10.7152 2.22846 -1.75398 71 72 90
10.7384 2.19536 -1.75653 77 82 101
10.7247 2.15529 -1.75299 72 77 96
10.722 2.09873 -1.75073 75 77 98
10.7371 2.06406 -1.752 78 76 100
10.9616 -1.09856 -1.75564 71 76 96
10.9727 -1.13653 -1.75787 68 68 91
10.9679 -1.17296 -1.75752 73 71 93
10.9572 -1.22725 -1.75653 73 70 91
10.9541 -1.26382 -1.7565 78 75 97
11.0226 -3.84447 -1.7369 75 83 101
11.0131 -3.88157 -1.73717 72 79 102
10.6903 2.44911 -1.75789 80 80 101
10.6948 2.39355 -1.7566 82 84 104
10.6915 2.3552 -1.75466 81 87 101
10.661 2.31149 -1.74822 86 85 103
10.9607 -1.30151 -1.75808 71 71 94
10.9417 -1.33625 -1.75549 72 73 94
10.9537 -1.39318 -1.75835 77 75 97
10.9423 -1.42875 -1.75704 73 74 92
10.9425 -1.46577 -1.75766 82 81 99
11.0072 -3.91991 -1.73805 72 78 102
10.9801 -3.97135 -1.7365 73 81 102
10.6711 2.65313 -1.76277 81 79 101
10.6706 2.61503 -1.76115 88 87 101
10.6738 2.57782 -1.76018 76 77 97
10.675 2.5214 -1.75824 82 81 99
10.6702 2.48257 -1.75598 74 77 94
10.9402 -1.52106 -1.75827 78 76 96
10.9225 -1.5557 -1.756 79 80 98
10.9223 -1.59269 -1.75661 74 74 94
10.9194 -1.64791 -1.75722 73 74 95
10.9572 -4.00382 -1.73464 71 82 102
10.9416 -4.03879 -1.73401 74 81 104
10.6274 2.81398 -1.76249 75 76 96
10.6427 2.77957 -1.76344 78 77 96
10.6368 2.74007 -1.76086 80 85 105
10.6519 2.70561 -1.76181 80 78 100
10.9111 -1.68376 -1.75655 70 68 89
10.8929 -1.7181 -1.75428 73 74 94
10.898 -1.75594 -1.75586 73 75 88
10.8846 -1.80954 -1.75487 74 75 92
10.9232 -4.0931 -1.73397 72 83 101
10.9111 -4.12925 -1.73393 71 77 102
10.6048 2.94198 -1.76445 82 85 103
10.6186 2.90721 -1.76508 80 82 100
10.6247 2.87049 -1.76442 71 71 95
10.8875 -1.84711 -1.75612 71 69 90
10.8766 -1.88245 -1.75513 77 76 92
10.8568 -1.93488 -1.75318 73 72 90
10.8573 -1.9721 -1.75411 75 74 90
10.8877 -4.16134 -1.73208 71 77 101
10.8836 -4.22081 -1.73447 71 75 100
10.5542 3.06272 -1.7619 69 71 93
10.555 3.02461 -1.76029 70 71 94
10.6148 3.00201 -1.76863 71 76 97
10.8441 -2.00693 -1.7528 68 65 84
10.8237 -2.05906 -1.75084 79 77 98
10.8374 -2.09874 -1.75403 76 73 94
10.8258 -2.13379 -1.75304 78 75 92
10.8488 -4.24862 -1.7308 69 77 98
10.8288 -4.28176 -1.72955 71 78 101
10.5269 3.18966 -1.76354 65 66 90
10.532 3.15258 -1.76256 69 70 95
10.5369 3.11551 -1.76159 69 70 91
10.8067 -2.18606 -1.7514 74 71 89
10.7948 -2.22095 -1.75041 74 71 92
10.7925 -2.25772 -1.75102 81 78 98
10.8216 -4.3197 -1.73043 72 78 102
10.789 -4.36847 -1.72826 69 77 98
10.4908 3.35293 -1.76582 67 72 92
10.4907 3.31422 -1.76388 65 68 90
10.5018 3.27882 -1.76387 66 70 91
10.5091 3.24232 -1.76322 65 70 90
10.79 -2.29449 -1.75164 75 72 89
10.7973 -2.35205 -1.75449 72 69 86
10.781 -2.386 -1.75286 74 72 86
10.7668 -4.40063 -1.72671 71 79 102
10.7556 -4.43699 -1.72699 71 82 102
10.4829 3.48641 -1.7713 64 66 87
10.4644 3.44185 -1.76615 67 69 91
10.4797 3.40767 -1.76678 68 74 90
10.7666 -2.42029 -1.75155 75 71 86
10.7424 -2.47116 -1.74927 74 70 85
10.7643 -2.5134 -1.75405 74 72 86
10.7298 -4.48821 -1.72603 70 78 99
10.4498 3.57352 -1.77067 74 76 99
10.4354 3.53 -1.76616 68 73 94
10.736 -2.5445 -1.7505 73 72 86
10.7249 -2.5794 -1.74983 71 70 86
10.7135 -2.63301 -1.74979 69 70 90
10.7091 -4.5208 -1.72479 69 76 99
10.6901 -4.55404 -1.72385 68 79 97
10.4093 3.69733 -1.77101 73 78 99
10.4067 3.65729 -1.76843 68 71 92
10.4171 3.60216 -1.76714 66 68 93
10.7002 -2.66735 -1.7488 69 70 90
10.6869 -2.70163 -1.74781 67 70 89
10.6712 -4.60786 -1.72411 69 78 96
10.6519 -4.64093 -1.72317 71 78 97
10.3993 3.77256 -1.77359 63 69 91
10.395 3.73184 -1.77069 57 64 87
10.6768 -2.75552 -1.74809 64 68 87
10.6593 -2.78872 -1.74646 61 66 85
10.659 -2.82618 -1.74772 68 71 89
10.6399 -4.67696 -1.72344 70 74 99
10.6096 -4.70532 -1.72067 71 76 99
10.3622 3.89782 -1.77489 63 71 91
10.3808 3.86472 -1.77585 63 67 92
10.3731 3.82265 -1.77231 62 66 91
10.6177 -2.87208 -1.74287 64 68 90
10.6305 -2.91294 -1.74637 66 68 88
10.6087 -2.94484 -1.74409 66 71 91
10.5971 -4.76185 -1.72215 71 78 98
10.3296 3.98521 -1.7749 60 67 90
10.3392 3.94897 -1.77425 66 71 93
10.5994 -2.99889 -1.7447 64 69 87
10.5869 -3.03317 -1.74403 60 65 86
10.5793 -4.79538 -1.72151 69 76 100
10.5577 -4.82728 -1.72026 68 76 99
10.3131 4.07844 -1.7778 69 77 100
10.3218 4.0221 -1.77587 67 75 98
10.4147 1.12563 -1.76504 75 72 99
10.3992 1.07093 -1.76132 67 71 97
10.4033 1.03595 -1.76131 68 69 90
10.423 1.0024 -1.76398 69 67 93
10.4068 0.947926 -1.76026 67 70 90
10.4302 0.914584 -1.76361 68 73 93
10.422 0.878553 -1.76157 64 67 86
10.4308 0.826287 -1.76223 64 69 90
10.4459 0.792081 -1.76423 63 68 87
10.4511 0.757107 -1.76454 64 71 89
10.4534 0.704288 -1.76419 63 64 85
10.473 0.634825 -1.7665 68 67 89
10.4696 0.264437 -1.76196 65 62 89
10.4608 0.0709258 -1.75917 72 74 96
10.4756 0.0183145 -1.7615 61 63 88
10.5877 -3.07107 -1.7456 62 68 90
10.5693 -3.1037 -1.74397 58 61 84
10.5516 -3.15544 -1.74329 54 59 81
10.5338 -4.8789 -1.71992 68 78 98
10.2847 4.1877 -1.78006 64 76 99
10.2931 4.15084 -1.77909 67 73 95
10.3031 4.11465 -1.77844 72 78 102
10.3544 1.43808 -1.76214 68 70 89
10.3401 1.4007 -1.75876 69 74 93
10.3572 1.34967 -1.76043 66 69 90
10.3563 1.31409 -1.7594 65 70 90
10.3934 1.22977 -1.76374 66 70 91
10.3882 1.19372 -1.76204 64 64 85
10.5482 -3.19223 -1.74423 61 66 85
10.5048 -3.21745 -1.73842 66 71 90
10.5156 -4.91219 -1.71928 71 78 97
10.4973 -4.9454 -1.71864 71 75 97
10.2444 4.27239 -1.7791 69 80 100
10.2604 4.23841 -1.77942 66 77 97
10.4866 -3.26883 -1.73774 74 79 98
10.4733 -3.30265 -1.73707 74 81 100
10.4638 -4.99266 -1.71678 74 80 102
10.2236 4.36467 -1.78167 70 77 101
10.2485 4.31417 -1.78232 67 78 99
10.4638 -3.33755 -1.73704 72 80 103
10.4487 -3.38984 -1.73701 73 79 100
10.209 4.43966 -1.78425 72 80 103
10.2219 4.40435 -1.78393 70 79 104
10.4294 -3.42172 -1.73537 71 79 100
10.4157 -3.45529 -1.7347 75 82 101
10.4094 -3.49119 -1.73531 74 81 98
10.1741 4.52665 -1.78457 69 79 101
10.1945 4.49441 -1.78554 72 80 103
10.3918 -3.5426 -1.73495 74 83 100
10.3777 -3.576 -1.73428 71 79 100
10.3747 -3.61306 -1.73554 73 82 97
10.3453 -3.6605 -1.73325 73 81 101
10.3327 -3.69434 -1.7329 71 79 98
10.3163 -3.72684 -1.73191 74 82 101
10.3013 -3.77904 -1.73219 74 82 101
10.2903 -3.81337 -1.73216 74 83 100
10.2753 -3.84633 -1.73149 71 79 100
10.2659 -3.88123 -1.73178 73 81 102
10.2335 -3.92712 -1.72917 73 81 102
10.2256 -3.96258 -1.72979 72 80 101
10.2084 -3.9946 -1.72879 72 77 101
10.0561 3.20395 -1.78113 74 75 95
10.194 -4.04699 -1.72939 70 78 98
10.1747 -4.07815 -1.72808 71 81 101
10.0291 3.36384 -1.78519 68 71 90
10.0122 3.3211 -1.78014 68 70 91
10.0497 3.29528 -1.78484 68 70 91
10.1535 -4.10852 -1.72645 73 81 102
10.0021 3.48675 -1.78756 72 73 94
10.1422 -4.16212 -1.72769 71 79 100
10.117 -4.19086 -1.72541 73 81 101
9.94851 3.56319 -1.7832 64 69 88
9.99972 3.54248 -1.79025 67 71 96
10.1065 -4.2253 -1.7257 71 79 100
10.083 -4.25458 -1.72375 70 78 99
9.95211 3.65889 -1.78926 67 68 85
10.0655 -4.3057 -1.72403 69 75 97
10.0455 -4.33625 -1.72272 70 78 101
9.95516 3.73605 -1.79432 75 80 100
9.91184 3.68291 -1.78422 68 74 92
10.0381 -4.37199 -1.72365 72 80 102
9.90361 3.85124 -1.79299 67 69 91
9.89237 3.80897 -1.78861 64 70 92
9.90139 3.77408 -1.78793 66 73 92
10.0019 -4.41529 -1.72072 70 78 99
9.99967 -4.45322 -1.72261 71 77 101
9.86036 3.93097 -1.79097 55 66 88
9.87403 3.87871 -1.78996 63 70 91
9.8235 0.734909 -1.75146 62 69 87
9.8305 0.701897 -1.75215 69 71 90
9.82758 0.668262 -1.75108 67 68 88
9.86284 0.620117 -1.7567 66 69 88
9.87144 0.587055 -1.75774 64 66 87
9.87208 0.553559 -1.75737 64 64 90
9.87457 0.520161 -1.75735 71 72 92
9.87378 0.469879 -1.75663 68 69 93
9.87602 0.43648 -1.75661 59 64 87
9.87028 0.402798 -1.75518 66 71 88
9.86501 0.352475 -1.75375 67 71 91
9.87475 0.319329 -1.75514 65 67 88
9.87257 0.285836 -1.75442 43 48 68
9.86083 0.235489 -1.75193 49 48 66
9.85643 0.202042 -1.75085 62 67 82
9.85585 0.168689 -1.75048 82 89 107
9.86522 0.118774 -1.75187 84 85 106
9.84668 0.0853035 -1.74833 72 77 106
9.85163 0.052025 -1.74901 77 77 104
9.8624 0.0187172 -1.75076 61 58 80
9.97014 -4.47959 -1.7197 70 78 99
9.86331 4.00898 -1.79636 69 82 100
9.86005 3.96926 -1.79333 69 77 96
9.74978 1.19722 -1.74778 63 68 87
9.76799 1.16564 -1.75023 65 64 82
9.77418 1.11596 -1.75022 65 65 86
9.7706 1.08205 -1.74879 62 67 84
9.78259 1.04969 -1.75019 67 70 87
9.80194 1.00123 -1.75264 62 65 83
9.80583 0.968024 -1.75262 65 66 86
9.80571 0.93447 -1.7519 62 68 86
9.80745 0.901084 -1.75153 62 66 85
9.82022 0.851868 -1.75292 61 65 86
9.80991 0.817584 -1.75044 63 63 87
9.81324 0.784364 -1.75042 65 66 86
9.85926 -0.0312613 -1.75003 77 74 96
9.86581 -0.0646362 -1.75107 59 61 80
9.85851 -0.0978821 -1.74964 55 57 78
9.85088 -0.147726 -1.74821 80 83 103
9.85511 -0.181087 -1.74889 75 80 100
9.86317 -0.214565 -1.75028 81 86 107
9.855 -0.264325 -1.74885 63 70 87
9.85886 -0.297733 -1.74953 58 60 80
9.86851 -0.331361 -1.75127 61 63 87
9.87217 -0.364841 -1.75196 77 79 100
9.87114 -0.41484 -1.75193 73 71 95
9.87847 -0.448518 -1.75332 61 62 83
10.0577 -3.20083 -1.75667 58 63 85
9.94794 -4.52863 -1.71933 72 80 101
9.9381 -4.56336 -1.71994 70 78 101
9.82069 4.08898 -1.79469 69 77 98
9.82143 4.05067 -1.79233 68 76 97
9.74196 1.46548 -1.75352 72 72 91
9.75705 1.43374 -1.75527 66 68 89
9.75863 1.38334 -1.7542 74 73 92
9.75593 1.34925 -1.75278 73 76 93
9.78044 1.31856 -1.75629 62 62 80
9.78338 1.28517 -1.75592 70 75 92
9.75104 1.23093 -1.74885 63 64 85
9.87193 -0.481589 -1.75224 64 70 87
9.87429 -0.531779 -1.75293 74 77 94
9.87731 -0.565331 -1.75361 68 69 91
9.86649 -0.598088 -1.75183 71 75 94
9.87614 -0.648786 -1.75392 66 69 88
9.8788 -0.682373 -1.7546 71 72 90
9.86566 -0.71488 -1.75246 73 72 88
9.88575 -0.749743 -1.75632 75 73 94
10.0352 -3.23047 -1.75429 60 65 89
10.0094 -3.27732 -1.75224 65 68 87
9.91733 -4.5933 -1.71863 70 78 101
9.91088 -4.62955 -1.71988 70 75 97
9.79396 4.17512 -1.79603 70 81 101
9.81066 4.12374 -1.79536 72 80 100
9.71209 1.69795 -1.75537 73 75 95
9.72011 1.66528 -1.75571 74 75 95
9.73254 1.61638 -1.7564 74 79 98
9.72864 1.5819 -1.75462 67 72 91
9.7363 1.54917 -1.75496 76 77 95
9.74428 1.49961 -1.75495 67 72 91
9.87508 -0.799159 -1.75488 76 77 94
9.87138 -0.83231 -1.75451 65 67 91
9.87541 -0.866099 -1.75554 57 63 82
9.88378 -0.917104 -1.75763 72 70 94
9.89147 -0.951333 -1.75937 67 64 85
9.87945 -0.983754 -1.75759 79 79 97
9.97167 -3.30205 -1.74717 81 87 105
9.96957 -3.33773 -1.74849 71 76 98
9.87361 -4.67181 -1.71695 70 78 97
9.77686 4.246 -1.79806 68 78 103
9.78912 4.21203 -1.79772 70 79 103
9.67136 1.87795 -1.75437 80 81 101
9.69352 1.84779 -1.75718 61 62 81
9.69814 1.81454 -1.75682 69 73 93
9.69682 1.78031 -1.75539 69 70 90
9.71172 1.73185 -1.75644 80 83 101
9.88335 -1.0345 -1.75897 66 67 90
9.87892 -1.06762 -1.75859 72 75 94
9.88415 -1.10175 -1.75998 67 68 88
9.86973 -1.13378 -1.75784 75 76 96
9.86901 -1.18413 -1.75852 80 81 99
9.94141 -3.38354 -1.7461 72 78 102
9.93155 -3.41677 -1.74607 75 83 102
9.86152 -4.70553 -1.71724 73 81 100
9.7499 4.27398 -1.79571 72 79 103
9.64899 2.04418 -1.75654 75 80 99
9.64963 1.99315 -1.75476 68 69 90
9.6663 1.96215 -1.75651 74 78 97
9.6558 1.92614 -1.75333 58 64 86
9.8641 -1.21716 -1.75814 71 69 91
9.86495 -1.25087 -1.75882 79 80 100
9.85587 -1.30025 -1.75809 75 73 94
9.85255 -1.33346 -1.75807 71 72 92
9.92907 -3.45239 -1.74739 70 80 97
9.90042 -3.49785 -1.745 71 82 100
9.73247 4.32514 -1.79638 70 81 101
9.62356 2.1931 -1.75799 74 77 94
9.63313 2.16077 -1.75833 68 73 92
9.64591 2.11202 -1.75868 73 74 95
9.63978 2.07657 -1.7562 72 78 93
9.86279 -1.36846 -1.76051 69 68 92
9.84341 -1.41643 -1.75802 77 76 99
9.83582 -1.44905 -1.75729 71 72 92
9.8223 -1.48079 -1.7555 72 73 91
9.88086 -3.52783 -1.74329 76 84 102
9.88173 -3.56463 -1.74528 75 83 104
9.60176 2.34308 -1.7605 70 76 93
9.60026 2.30831 -1.75873 70 73 91
9.62144 2.26138 -1.76048 71 72 93
9.62159 2.22703 -1.75906 78 80 99
9.81409 -1.53013 -1.75512 75 73 94
9.8081 -1.5629 -1.75475 74 75 93
9.80008 -1.59534 -1.75402 76 73 93
9.79584 -1.62836 -1.75399 71 68 89
9.86012 -3.59385 -1.74323 74 82 102
9.58064 2.45903 -1.76194 80 84 101
9.5757 2.42331 -1.75946 77 79 98
9.60891 2.3792 -1.76333 70 71 91
9.77722 -1.67595 -1.75185 67 68 89
9.77662 -1.70953 -1.75253 68 67 84
9.78173 -1.7441 -1.75426 74 73 89
9.84762 -3.64456 -1.74387 71 79 100
9.82577 -3.67359 -1.74182 74 80 102
9.56077 2.61021 -1.76551 84 85 102
9.55824 2.57483 -1.76338 81 81 101
9.56325 2.54136 -1.76267 81 82 100
9.56059 2.48888 -1.75984 86 88 104
9.76646 -1.79216 -1.75283 71 70 86
9.7558 -1.82402 -1.75174 71 69 89
9.7644 -1.85932 -1.75418 74 75 94
9.75248 -1.90791 -1.75345 77 74 93
9.81128 -3.70512 -1.74112 75 79 104
9.79639 -3.75497 -1.74142 73 79 101
9.53286 2.72494 -1.76624 81 79 100
9.52692 2.68853 -1.76341 78 79 98
9.54599 2.64129 -1.76446 66 67 85
9.74533 -1.94039 -1.75307 79 76 91
9.73615 -1.97246 -1.75234 74 73 89
9.72686 -2.00449 -1.75161 66 67 88
9.78165 -3.78637 -1.74072 72 80 99
9.76868 -3.8184 -1.74035 77 84 103
9.51905 2.80856 -1.76802 70 69 90
9.53486 2.7604 -1.76836 79 78 96
9.71619 -2.05322 -1.75123 69 72 90
9.71245 -2.08633 -1.75156 71 74 93
9.71437 -2.12061 -1.75294 72 71 89
9.75878 -3.8701 -1.74166 75 83 102
9.49463 2.92453 -1.7698 79 78 96
9.51099 2.8765 -1.77015 76 82 98
9.52077 2.84408 -1.77014 74 72 93
9.68007 -2.16437 -1.74833 80 79 95
9.70099 -2.20274 -1.75323 71 72 90
9.67561 -2.23121 -1.74969 70 72 85
9.74737 -3.90272 -1.74163 74 81 102
9.7193 -3.92904 -1.73858 73 81 102
9.48581 2.99244 -1.77193 79 82 98
9.49974 2.96118 -1.77263 74 77 94
9.6447 -2.27535 -1.74578 67 68 88
9.67096 -2.31519 -1.75174 71 70 88
9.64144 -2.34246 -1.74749 67 69 87
9.71325 -3.96364 -1.73955 73 81 104
9.70813 -4.01729 -1.74186 72 80 101
9.46309 3.10937 -1.77442 83 83 102
9.47738 3.07821 -1.77512 78 80 102
9.47458 3.04201 -1.77264 78 79 100
9.64445 -2.37715 -1.74922 71 69 89
9.61674 -2.42173 -1.74602 72 69 90
9.67426 -4.04116 -1.73781 73 79 104
9.67517 -4.07855 -1.74012 74 80 102
9.39588 3.21271 -1.7688 68 74 93
9.44431 3.19225 -1.77584 68 70 91
9.44496 3.13933 -1.77302 71 72 93
9.62591 -2.49205 -1.75019 71 72 92
9.65299 -4.12558 -1.73941 73 78 99
9.36688 3.29216 -1.76845 69 71 94
9.3718 3.24061 -1.76634 70 73 92
9.60726 -2.53873 -1.74875 68 70 88
9.63058 -2.57877 -1.75436 64 69 88
9.59656 -2.60434 -1.7494 67 73 89
9.61523 -4.14755 -1.73469 74 80 103
9.62122 -4.18711 -1.73801 69 80 101
9.39113 3.37136 -1.77728 66 68 89
9.39686 3.33747 -1.77622 66 71 89
9.56789 -2.6483 -1.7462 67 71 87
9.57746 -2.68502 -1.74934 65 72 90
9.59126 -4.23084 -1.73596 72 80 101
9.32547 3.43884 -1.77024 69 73 92
9.36316 3.41568 -1.77517 66 69 88
9.5603 -2.7147 -1.74756 64 71 89
9.54306 -2.7443 -1.74577 64 71 90
9.5751 -4.26139 -1.73526 75 81 103
9.55704 -4.29112 -1.73422 71 79 101
9.31139 3.50567 -1.77201 69 72 91
9.33059 3.47638 -1.77342 68 72 91
9.53844 -2.79455 -1.74714 69 74 94
9.52286 -2.82452 -1.74571 68 69 91
9.50531 -2.85389 -1.74392 63 66 89
9.53706 -4.32 -1.73285 73 81 102
9.28196 3.58509 -1.77202 64 69 90
9.29954 3.55529 -1.77307 65 70 89
9.49258 -2.90185 -1.74388 63 67 88
9.48803 -2.93489 -1.74456 64 70 84
9.52285 -4.37014 -1.73381 70 81 100
9.50447 -4.39964 -1.73278 66 75 98
9.25747 3.6663 -1.77308 73 76 95
9.26615 3.61547 -1.77132 66 72 91
9.34097 0.579891 -1.7583 62 65 83
9.34834 0.533047 -1.75903 68 70 83
9.34489 0.501341 -1.75789 71 74 91
9.33745 0.469473 -1.75601 71 73 93
9.33254 0.422086 -1.7545 66 67 88
9.34246 0.391078 -1.75597 67 68 89
9.35034 0.359942 -1.75708 60 62 82
9.34636 0.328346 -1.75594 69 71 92
9.35057 0.281348 -1.75629 70 74 95
9.34438 0.249749 -1.75478 67 66 84
9.37339 0.219065 -1.75999 81 82 103
9.37315 0.171854 -1.7596 91 89 110
9.36662 0.140279 -1.75809 70 71 89
9.3737 0.108938 -1.75919 69 67 89
9.38079 0.0618295 -1.76029 101 101 123
9.38176 0.0303703 -1.76027 82 80 97
9.38066 -0.0010941 -1.75988 71 72 87
9.47582 -2.9657 -1.74383 68 75 94
9.46445 -3.01408 -1.74415 64 69 91
9.47876 -4.42591 -1.7304 72 78 100
9.27513 3.74516 -1.78121 66 69 88
9.24696 3.6986 -1.77344 64 69 89
9.27241 1.04754 -1.75477 66 68 89
9.28196 1.00115 -1.7555 61 65 86
9.28394 0.969732 -1.75511 60 61 81
9.28774 0.938505 -1.7551 66 67 87
9.31046 0.893274 -1.75844 61 68 87
9.31991 0.862494 -1.75955 62 62 86
9.34292 0.832847 -1.76327 56 57 77
9.32215 0.783674 -1.7584 70 72 90
9.35471 0.754637 -1.76398 66 69 90
9.34024 0.721883 -1.7606 67 67 89
9.36285 0.691907 -1.76432 70 70 91
9.34528 0.64328 -1.7602 64 67 85
9.33828 0.61126 -1.75832 64 67 86
9.36572 -0.0325381 -1.75688 72 71 87
9.36824 -0.0796544 -1.75723 86 87 100
9.36483 -0.11103 -1.75646 52 53 67
9.36524 -0.142426 -1.75645 58 55 70
9.35351 -0.189325 -1.75419 122 123 139
9.35172 -0.220641 -1.75379 97 94 113
9.35374 -0.252032 -1.75415 73 72 90
9.35718 -0.299165 -1.75487 76 78 101
9.33152 -0.329746 -1.75 60 63 82
9.3528 -0.361747 -1.75409 63 65 86
9.32829 -0.407852 -1.74959 69 67 88
9.316 -0.438623 -1.74733 69 70 88
9.452 -3.04478 -1.74341 65 69 96
9.43946 -3.07543 -1.74268 65 70 91
9.46582 -4.47661 -1.7317 70 78 99
9.21068 3.81182 -1.77486 67 74 93
9.23078 3.78304 -1.77627 71 78 97
9.21582 1.29385 -1.75076 64 65 85
9.22457 1.24754 -1.75112 68 74 91
9.24678 1.21869 -1.75447 65 67 88
9.25332 1.1878 -1.75483 64 65 85
9.27716 1.14314 -1.75817 65 66 84
9.26204 1.10968 -1.75443 64 63 84
9.26241 1.07808 -1.75366 63 66 85
9.32321 -0.470193 -1.7488 72 73 98
9.32054 -0.501338 -1.74841 69 69 90
9.32476 -0.548487 -1.74951 70 73 90
9.3277 -0.579943 -1.75023 71 69 91
9.32664 -0.611189 -1.75021 75 75 94
9.32642 -0.65817 -1.75056 80 82 96
9.37207 -0.692544 -1.7595 77 74 94
9.37653 -0.724332 -1.7606 74 75 96
9.40315 -3.11602 -1.73842 57 64 82
9.39038 -3.14648 -1.73769 60 66 82
9.44714 -4.50586 -1.73066 72 80 101
9.20883 3.88395 -1.77945 61 67 89
9.22913 3.85522 -1.78086 70 73 96
9.19358 1.51288 -1.75346 66 68 89
9.19561 1.4655 -1.75232 60 63 82
9.20099 1.43452 -1.75231 66 68 87
9.2121 1.40436 -1.75342 70 69 87
9.20584 1.35589 -1.75079 73 70 91
9.21282 1.32515 -1.75115 71 69 89
9.37698 -0.755863 -1.76095 73 75 88
9.37606 -0.803094 -1.7613 67 66 84
9.38212 -0.83511 -1.76277 71 68 89
9.37048 -0.865685 -1.76089 73 71 92
9.37295 -0.913243 -1.76198 71 68 91
9.38128 -3.17808 -1.73766 58 64 82
9.38706 -3.21447 -1.74045 60 65 87
9.1856 3.96622 -1.78122 59 66 88
9.19146 3.93189 -1.77981 65 69 90
9.16183 1.68303 -1.75352 68 70 85
9.1679 1.65212 -1.75351 70 68 89
9.1648 1.60381 -1.75125 70 71 91
9.17642 1.57385 -1.75236 70 72 97
9.18021 1.54261 -1.75198 72 74 95
9.36303 -0.943887 -1.76047 67 69 89
9.37643 -0.976707 -1.76343 69 74 92
9.36471 -1.02298 -1.76192 77 76 94
9.36226 -1.05431 -1.7619 69 71 86
9.36361 -1.08604 -1.76262 80 77 100
9.36891 -3.26061 -1.73971 81 87 102
9.35198 -3.28966 -1.73827 75 82 99
9.18144 4.00127 -1.78299 60 66 88
9.13569 1.82223 -1.75394 64 66 86
9.17304 1.79713 -1.7599 61 64 83
9.16017 1.76267 -1.75616 69 70 87
9.16147 1.71494 -1.75465 58 60 81
9.36502 -1.13367 -1.76372 68 69 92
9.36027 -1.16478 -1.76332 76 78 96
9.35348 -1.19562 -1.76255 74 76 97
9.34268 -1.22597 -1.76104 68 69 90
9.33565 -1.27259 -1.76064 73 74 89
9.33496 -3.31863 -1.73684 70 77 95
9.16169 4.04837 -1.78298 68 76 99
9.13638 1.967 -1.75996 78 84 98
9.14911 1.93731 -1.76107 67 66 90
9.10593 1.89657 -1.75135 56 61 80
9.14156 1.87143 -1.75694 57 60 76
9.33631 -1.30431 -1.76136 70 72 92
9.3174 -1.33348 -1.75836 70 74 91
9.32153 -1.38154 -1.7602 72 79 95
9.31018 -1.41162 -1.75868 65 66 86
9.31819 -3.3651 -1.73645 71 79 98
9.30655 -3.39581 -1.73607 71 79 100
9.12317 2.07728 -1.76223 64 65 86
9.13432 2.04728 -1.76297 78 78 94
9.12424 2.01283 -1.7596 70 71 91
9.30843 -1.44303 -1.75903 74 73 94
9.28874 -1.4877 -1.75639 75 76 94
9.28869 -1.51935 -1.75712 70 73 90
9.26915 -1.54801 -1.75411 68 66 88
9.30595 -3.43035 -1.7378 70 78 99
9.28297 -3.4571 -1.73531 75 83 102
9.08217 2.23013 -1.76153 73 74 94
9.10489 2.18669 -1.76376 73 71 92
9.10106 2.15336 -1.76151 79 80 98
9.11051 2.12303 -1.76187 78 80 95
9.26699 -1.5793 -1.75446 69 69 89
9.27766 -1.6286 -1.75779 69 67 88
9.25975 -1.65737 -1.75516 68 66 88
9.26742 -3.50394 -1.73527 74 80 102
9.25163 -3.53313 -1.73419 73 81 102
9.06968 2.32485 -1.7638 65 70 90
9.0854 2.29601 -1.76528 71 72 92
9.08957 2.2644 -1.76452 71 69 93
9.24949 -1.68735 -1.75402 70 71 92
9.25383 -1.73574 -1.75623 74 75 93
9.24912 -1.76667 -1.75621 71 72 93
9.24132 -3.56426 -1.73416 73 80 96
9.06004 2.4368 -1.76756 76 77 97
9.06658 2.40569 -1.76718 79 81 102
9.07302 2.37456 -1.76679 82 81 99
9.22309 -1.79375 -1.75208 71 69 90
9.23076 -1.84285 -1.75503 70 71 89
9.2315 -1.87479 -1.75613 73 72 90
9.21972 -3.60885 -1.73307 76 84 103
9.21101 -3.64056 -1.73339 75 85 102
9.04342 2.54738 -1.7702 76 77 97
9.04842 2.51579 -1.76944 81 82 103
9.04192 2.48125 -1.76645 83 84 105
9.2148 -1.90342 -1.75387 77 75 94
9.20188 -1.93271 -1.75235 71 69 90
9.19537 -1.97922 -1.7527 71 73 89
9.19482 -3.66948 -1.7323 72 82 102
9.17275 -3.71377 -1.73121 75 80 100
9.01577 2.62221 -1.7691 78 83 99
9.03616 2.59476 -1.77133 84 86 107
9.18607 -2.00917 -1.75193 70 68 89
9.1901 -2.04185 -1.75377 72 73 93
9.16004 -2.08344 -1.74964 70 68 87
9.17289 -3.74887 -1.73329 73 84 103
8.99704 2.73259 -1.77173 80 82 97
9.00311 2.68476 -1.77023 72 71 87
9.01232 2.65427 -1.77023 82 80 101
9.1696 -2.11735 -1.7526 69 69 88
9.15603 -2.14631 -1.75108 71 69 90
9.15089 -3.77547 -1.73115 74 80 101
9.13934 -3.8238 -1.73217 75 82 99
8.98932 2.79674 -1.77399 81 84 101
8.99134 2.76411 -1.77249 71 72 90
9.16382 -2.19604 -1.75441 71 70 88
9.14046 -2.22276 -1.75103 69 67 88
9.15526 -2.25812 -1.75511 70 68 89
9.11347 -3.84875 -1.72933 75 83 101
8.96111 2.90481 -1.77513 78 77 95
8.97289 2.87501 -1.7755 83 86 103
8.93947 2.83174 -1.7669 81 84 99
9.13171 -2.2847 -1.75173 70 71 91
9.11591 -2.32909 -1.75058 72 71 89
9.11131 -3.88307 -1.73106 72 80 101
9.09808 -3.91299 -1.73068 72 83 101
8.92882 2.97826 -1.77365 78 77 96
8.94459 2.94973 -1.77476 75 76 94
9.11697 -2.36139 -1.75205 73 72 88
9.1141 -2.39277 -1.75277 71 70 84
9.10351 -2.43843 -1.75274 70 69 87
9.06944 -3.95443 -1.72853 72 80 103
8.88851 3.04902 -1.77067 76 78 93
8.89614 3.00141 -1.76918 79 82 101
9.0947 -2.46836 -1.75234 69 71 87
9.08579 -2.49825 -1.75194 72 74 93
9.06327 -3.9872 -1.72955 74 82 103
9.05154 -4.0177 -1.72952 73 81 100
8.87682 3.11229 -1.77256 69 75 93
8.88178 3.08035 -1.77143 71 70 88
9.0785 -2.54475 -1.75266 68 73 92
9.06176 -2.57256 -1.75077 65 70 89
9.02427 -4.05954 -1.72773 73 80 99
8.86525 3.19247 -1.77555 73 72 93
8.86615 3.14238 -1.77256 78 80 96
9.06578 -2.60588 -1.75298 64 69 88
9.0432 -2.63204 -1.74998 67 74 92
9.00869 -4.08837 -1.72699 71 78 100
8.99664 -4.11869 -1.72696 72 79 100
8.85446 3.25639 -1.77781 66 69 86
8.84878 3.22063 -1.77444 71 72 90
9.02581 -2.67577 -1.74883 65 70 91
9.01625 -2.70539 -1.74843 62 64 84
9.00284 -2.73389 -1.74728 65 67 88
8.97616 -4.1633 -1.72657 72 80 101
8.81211 3.32619 -1.77483 68 69 89
8.81593 3.29366 -1.77333 72 75 92
8.98499 -2.77736 -1.74613 62 67 87
8.96206 -4.19272 -1.72619 73 85 102
8.78032 3.39954 -1.77409 68 71 90
8.81372 3.3607 -1.77745 68 70 91
8.88359 0.466786 -1.76516 77 82 99
8.89363 0.437043 -1.76671 65 71 95
8.90555 0.407324 -1.76865 74 85 100
8.92187 0.362587 -1.77138 72 73 92
8.90616 0.33183 -1.76784 62 66 90
8.93732 0.302536 -1.7737 71 71 95
8.89837 0.256188 -1.76545 70 68 90
8.8921 0.225912 -1.76386 72 73 94
8.93272 0.196521 -1.77169 66 68 91
8.93019 0.166249 -1.77088 66 71 91
8.916 0.120786 -1.76773 57 61 82
8.97323 -2.80627 -1.74536 64 66 87
8.97646 -2.83957 -1.74758 63 68 87
8.94069 -4.2189 -1.7244 72 83 103
8.92462 -4.24739 -1.72367 76 87 109
8.77734 3.4666 -1.77821 66 68 89
8.79824 3.44014 -1.78007 64 69 91
8.83265 0.916512 -1.76379 66 71 92
8.84799 0.887621 -1.76613 62 69 87
8.86518 0.858815 -1.76886 64 67 82
8.85628 0.812609 -1.7661 62 64 85
8.84594 0.781506 -1.76334 66 72 94
8.86867 0.753009 -1.76724 64 65 86
8.86121 0.707089 -1.76488 65 69 89
8.87006 0.677463 -1.76604 61 67 89
8.87293 0.64741 -1.76602 66 69 92
8.86692 0.601729 -1.76405 65 67 90
8.87739 0.572139 -1.7656 71 72 93
8.87604 0.541859 -1.7648 68 66 90
8.89415 0.512594 -1.76792 68 69 90
8.95205 -0.0453182 -1.77391 68 75 94
8.93412 -0.181045 -1.76992 71 76 95
8.95355 -0.226842 -1.77382 69 74 90
8.92231 -0.256168 -1.76753 69 70 90
8.91967 -0.331454 -1.7671 67 68 89
8.89789 -0.360716 -1.76277 68 68 92
8.90337 -0.391031 -1.76393 65 70 89
8.87682 -0.434914 -1.75881 75 76 96
8.94309 -2.87832 -1.74344 69 71 90
8.93291 -2.90762 -1.74304 56 62 84
8.78395 3.50326 -1.78195 61 68 87
8.77178 1.1523 -1.75801 60 62 84
8.79172 1.12433 -1.76113 62 63 83
8.80769 1.09581 -1.76347 67 70 87
8.80577 1.05013 -1.76189 67 65 86
8.81567 1.02087 -1.76305 65 67 90
8.80601 0.989576 -1.76029 66 64 88
8.82936 0.961622 -1.7642 65 71 93
8.8469 -0.463392 -1.75291 72 73 91
8.88334 -0.495312 -1.76034 73 74 92
8.88842 -0.525653 -1.7615 70 71 91
8.86713 -0.569453 -1.75756 69 71 92
8.87587 -0.600041 -1.7595 66 70 90
8.87475 -0.630011 -1.75948 67 68 89
8.8686 -0.674667 -1.75867 66 67 87
8.93015 -2.93918 -1.74414 67 74 94
8.91792 -2.96785 -1.74337 65 71 90
8.73979 3.57217 -1.77897 66 72 91
8.73529 3.53619 -1.7756 66 69 93
8.74901 1.36178 -1.76005 74 74 95
8.76569 1.33367 -1.76239 71 74 95
8.76676 1.30338 -1.76159 74 78 98
8.76583 1.2577 -1.76001 68 73 93
8.77637 1.22867 -1.76117 66 73 91
8.781 1.19888 -1.76116 65 69 90
8.89261 -0.706556 -1.76375 70 70 91
8.87556 -0.735322 -1.76059 67 73 89
8.88646 -0.781413 -1.76331 65 65 87
8.88477 -0.811401 -1.76329 69 69 87
8.89274 -0.842269 -1.76523 65 71 91
8.91482 -0.889697 -1.7703 75 78 96
8.90086 -3.01133 -1.74259 71 73 97
8.89401 -3.04165 -1.74294 61 65 87
8.70792 3.64562 -1.7786 66 73 89
8.72218 3.59974 -1.77785 64 69 88
8.71785 1.49415 -1.75853 75 78 98
8.73298 1.46599 -1.76048 68 68 89
8.73447 1.43574 -1.75968 55 60 82
8.74001 1.39093 -1.75928 67 71 90
8.87382 -0.91591 -1.76244 61 63 84
8.86977 -0.945649 -1.76203 61 61 82
8.87146 -0.975981 -1.7628 67 68 89
8.87535 -1.02172 -1.76434 74 77 95
8.87486 -1.05187 -1.76471 71 73 92
8.85159 -3.06051 -1.7362 64 66 87
8.83597 -3.10424 -1.73579 57 62 81
8.69408 3.70914 -1.78085 69 74 93
8.69193 3.67378 -1.77785 65 73 90
8.69578 1.64308 -1.75975 65 67 89
8.70037 1.59807 -1.75896 65 67 89
8.7042 1.56817 -1.75855 69 72 92
8.71183 1.53888 -1.75893 71 73 94
8.88011 -1.08271 -1.76626 69 72 91
8.85823 -1.1255 -1.76271 65 66 86
8.87683 -1.15803 -1.767 75 76 96
8.86815 -1.18721 -1.7658 72 71 89
8.8251 -3.13314 -1.73539 66 64 86
8.81973 -3.16386 -1.73611 61 68 84
8.67929 3.75493 -1.78159 67 72 91
8.67609 1.7774 -1.76137 65 71 91
8.6871 1.73346 -1.76175 66 74 88
8.68945 1.70322 -1.76095 61 68 84
8.68976 1.67265 -1.75977 68 69 91
8.84383 -1.21431 -1.76147 68 69 87
8.84077 -1.2593 -1.76184 62 65 82
8.85116 -1.29098 -1.76456 73 71 92
8.83624 -1.31917 -1.76219 72 69 90
8.83334 -3.21752 -1.74168 59 64 83
8.66833 3.81989 -1.78459 72 73 91
8.67932 3.78962 -1.78421 69 76 93
8.64489 1.90964 -1.76102 55 60 82
8.64972 1.87983 -1.76062 67 69 89
8.65352 1.83453 -1.75943 67 69 94
8.62928 1.79923 -1.75315 69 70 90
8.82494 -1.36298 -1.76098 66 68 89
8.80982 -1.39099 -1.75861 66 67 88
8.8178 -1.42246 -1.76094 72 73 93
8.82398 -3.24702 -1.74165 73 78 97
8.796 -3.27005 -1.7379 75 80 101
8.62666 2.01373 -1.76222 68 73 91
8.6299 1.98354 -1.76143 71 77 93
8.64379 1.94024 -1.76221 71 73 92
8.78862 -1.46336 -1.75622 75 73 94
8.79446 -1.49454 -1.75815 75 73 92
8.78021 -1.56796 -1.75732 69 69 89
8.78831 -3.30008 -1.73824 74 76 97
8.60344 2.11685 -1.76265 66 68 88
8.61793 2.0737 -1.76342 66 63 92
8.6233 2.04392 -1.76302 70 70 96
8.76835 -1.59621 -1.75573 72 70 91
8.75446 -1.62406 -1.75375 64 62 81
8.77711 -1.6584 -1.75921 73 72 85
8.77713 -3.34541 -1.73896 74 78 103
8.76183 -3.37273 -1.73781 73 79 101
8.59435 2.22334 -1.7662 72 76 97
8.6036 2.17895 -1.7658 74 79 99
8.60166 2.14745 -1.76383 77 78 98
8.75462 -1.69991 -1.75605 72 69 90
8.75389 -1.73012 -1.75682 76 74 92
8.75693 -1.76108 -1.75836 73 72 90
8.7575 -3.40401 -1.7389 69 77 98
8.7403 -3.44719 -1.7385 70 81 100
8.55743 2.32336 -1.76427 74 77 96
8.58048 2.28233 -1.76661 71 76 96
8.58461 2.25216 -1.76582 71 73 94
8.73398 -1.80231 -1.7552 73 72 88
8.72141 -1.83021 -1.75361 65 63 84
8.73562 -1.86346 -1.7575 71 69 91
8.72102 -3.47296 -1.73661 72 80 101
8.56759 2.38842 -1.76977 81 78 102
8.56826 2.35729 -1.7682 79 77 100
8.71415 -1.90481 -1.75474 72 70 92
8.71083 -1.93456 -1.7551 73 71 93
8.71702 -1.96635 -1.75743 73 71 93
8.71635 -3.50415 -1.7377 76 83 102
8.68951 -3.54361 -1.73543 82 87 107
8.53835 2.49052 -1.7698 83 87 103
8.53368 2.4579 -1.76705 75 77 96
8.54217 2.42878 -1.76704 73 74 94
8.70014 -1.99321 -1.75506 71 71 91
8.70293 -2.0397 -1.75738 70 70 88
8.68644 -3.57545 -1.73689 75 82 101
8.51879 2.56379 -1.77021 81 81 100
8.54103 2.5227 -1.77216 76 75 91
8.67059 -2.09349 -1.75303 72 72 89
8.66496 -3.6002 -1.73463 73 81 100
8.66718 -3.63416 -1.73721 76 85 104
8.5122 2.62507 -1.77257 69 70 91
8.52686 2.59757 -1.77374 74 75 94
8.65762 -2.13638 -1.75222 71 69 90
8.65741 -2.16689 -1.75337 70 71 89
8.6609 -2.19832 -1.7553 70 73 88
8.63615 -3.67176 -1.7342 74 79 101
8.48038 2.7266 -1.77259 64 70 89
8.49156 2.69817 -1.77298 73 80 96
8.49327 2.66701 -1.7714 67 69 90
8.64879 -2.27211 -1.75603 64 69 91
8.62898 -3.70207 -1.73492 73 78 102
8.61992 -3.73163 -1.73526 71 79 100
8.47393 2.80402 -1.77613 82 85 107
8.47225 2.77169 -1.77377 79 80 101
8.62534 -2.29693 -1.75249 67 72 91
8.59575 -3.77182 -1.73374 78 84 106
8.44892 2.86012 -1.77497 74 72 93
8.46428 2.83295 -1.77614 80 80 101
8.581 -3.79903 -1.73297 74 82 103
8.56619 -3.82618 -1.73219 77 85 104
8.42457 2.93222 -1.77498 77 79 99
8.44574 2.90692 -1.77733 75 77 95
8.55064 -3.86985 -1.73253 75 83 104
8.40337 3.00535 -1.77578 74 78 96
8.43688 2.96818 -1.7797 77 77 101
8.45081 0.620646 -1.76151 67 71 90
8.44768 0.591479 -1.76027 64 62 84
8.44639 0.56247 -1.75944 63 70 88
8.45365 0.519569 -1.76024 67 69 92
8.44824 0.490355 -1.75859 61 63 84
8.44859 0.461494 -1.75817 73 71 93
8.45538 0.418552 -1.75897 64 66 86
8.45357 0.389604 -1.75814 76 78 99
8.46922 0.361422 -1.76097 72 71 89
8.45159 0.331848 -1.75688 67 68 88
8.45192 0.288645 -1.75646 74 74 98
8.46922 0.260387 -1.7597 73 74 89
8.46494 0.23142 -1.75846 72 76 93
8.45307 0.187918 -1.75559 70 69 93
8.45638 0.159211 -1.75598 70 68 90
8.47524 0.130759 -1.75964 72 73 94
8.48048 0.0875908 -1.76043 65 67 90
8.47174 0.0586749 -1.75838 63 68 90
8.46291 0.0298197 -1.75632 63 61 83
8.46963 -0.0133192 -1.75753 70 71 91
8.47231 -0.0421055 -1.75792 69 72 91
8.46904 -0.0708751 -1.75708 65 65 85
8.4735 -0.0996818 -1.75788 64 65 85
8.47178 -0.142837 -1.75746 74 77 94
8.46624 -0.171522 -1.75622 66 64 84
8.44888 -0.199946 -1.75253 65 65 83
8.45646 -0.243182 -1.75414 62 64 87
8.5356 -3.89687 -1.73176 74 82 101
8.40127 3.06896 -1.77971 79 80 103
8.39494 3.03469 -1.77618 74 78 97
8.40444 0.920909 -1.75878 63 67 86
8.41199 0.89265 -1.75958 65 70 90
8.43831 0.851701 -1.76406 62 67 87
8.42423 0.821319 -1.76037 68 68 91
8.44511 0.79419 -1.76403 73 79 98
8.45929 0.751863 -1.76605 60 66 87
8.46047 0.722896 -1.76563 63 68 87
8.44403 0.692553 -1.76154 64 67 86
8.47425 0.665861 -1.76723 55 53 77
8.44084 -0.271483 -1.75086 78 80 98
8.43881 -0.300093 -1.75043 58 56 77
8.44787 -0.343422 -1.75245 68 66 89
8.44756 -0.372108 -1.75244 74 73 90
8.44912 -0.40087 -1.75282 73 72 93
8.45253 -0.429727 -1.75362 69 70 90
8.44926 -0.472668 -1.75319 69 70 90
8.44855 -0.501346 -1.75318 69 70 88
8.45945 -0.530667 -1.7556 70 71 91
8.56867 -2.57447 -1.75424 62 69 84
8.5576 -2.60223 -1.75343 64 67 86
8.5223 -3.92461 -1.73136 71 82 101
8.50891 -3.95229 -1.73096 73 81 102
8.38776 3.11265 -1.78011 72 70 92
8.38101 1.12167 -1.75968 65 67 89
8.37925 1.07784 -1.75803 68 71 90
8.40475 1.05178 -1.76251 61 61 85
8.38939 1.02089 -1.75842 61 62 83
8.41279 0.994447 -1.76248 75 71 95
8.42401 0.95205 -1.76369 61 65 85
8.44986 -0.573255 -1.75395 62 61 83
8.45859 -0.602542 -1.75597 60 61 82
8.45746 -0.631239 -1.75595 74 75 93
8.46105 -0.674688 -1.75715 65 64 81
8.46361 -0.703675 -1.75795 65 63 84
8.45436 -0.731776 -1.7563 73 73 95
8.46453 -0.761389 -1.75873 72 70 92
8.53895 -2.65869 -1.7526 64 66 87
8.48915 -3.99412 -1.73055 75 83 104
8.36087 3.16807 -1.77894 70 75 94
8.39011 3.14577 -1.78286 69 71 92
8.35236 1.27816 -1.75893 72 77 96
8.34358 1.24773 -1.75606 67 73 89
8.36764 1.22192 -1.76013 67 70 87
8.35085 1.17599 -1.75522 62 67 89
8.35724 1.14774 -1.75561 63 64 87
8.46166 -0.804438 -1.7587 69 71 86
8.45795 -0.832955 -1.75828 68 69 87
8.4639 -0.862343 -1.75989 68 70 87
8.46445 -0.90575 -1.76068 57 57 78
8.52903 -2.70234 -1.75296 65 70 90
8.50819 -2.72707 -1.7502 62 69 88
8.50977 -2.75856 -1.75213 64 68 90
8.48273 -4.02487 -1.73165 77 85 105
8.33227 3.23887 -1.77856 72 77 97
8.32788 3.18894 -1.77424 70 72 97
8.30137 1.44549 -1.7545 70 72 87
8.33593 1.40722 -1.7602 70 77 96
8.31215 1.37425 -1.75407 70 75 95
8.33075 1.34791 -1.75691 75 80 100
8.32802 1.31831 -1.75527 76 81 102
8.45069 -0.933277 -1.75822 71 72 93
8.44658 -0.96172 -1.75779 64 65 88
8.45249 -1.0057 -1.7598 67 70 87
8.45009 -1.03435 -1.75978 63 65 80
8.44761 -1.06298 -1.75976 75 76 94
8.48254 -2.79685 -1.74897 62 67 87
8.46544 -4.0508 -1.7305 72 80 99
8.32854 3.30252 -1.78249 70 75 97
8.32862 3.27002 -1.78013 70 73 97
8.27105 1.57193 -1.75332 72 75 94
8.30178 1.54802 -1.75861 58 60 81
8.27893 1.50022 -1.75208 74 75 96
8.29599 1.47384 -1.75451 64 64 84
8.44311 -1.09137 -1.75934 76 74 93
8.43285 -1.13357 -1.75809 68 68 88
8.47663 -1.16796 -1.76785 75 73 95
8.43495 -1.19169 -1.75968 64 66 86
8.48013 -2.82715 -1.75012 65 69 88
8.46829 -2.8545 -1.74931 58 63 83
8.30289 3.3419 -1.78053 65 69 92
8.2796 1.67624 -1.75947 71 68 91
8.26448 1.64399 -1.75498 79 78 96
8.27872 1.60263 -1.75619 64 65 83
8.42811 -1.23428 -1.75925 72 71 90
8.44825 -1.266 -1.76412 67 71 88
8.45086 -1.29541 -1.76532 73 75 93
8.4444 -2.89361 -1.74693 71 76 96
8.44536 -2.92507 -1.74886 63 69 88
8.30027 3.40627 -1.78485 69 72 91
8.30623 3.37577 -1.78367 63 68 92
8.25751 1.80462 -1.76074 78 77 95
8.2352 1.7706 -1.75461 63 68 87
8.2607 1.7462 -1.75868 81 85 104
8.24085 1.69825 -1.75255 70 73 90
8.43966 -1.33749 -1.76407 68 70 88
8.43043 -1.36521 -1.76283 69 70 88
8.43272 -1.39462 -1.76403 74 74 94
8.42879 -1.43774 -1.76441 66 67 86
8.42952 -2.95103 -1.74727 66 73 91
8.42475 -2.98063 -1.74803 60 67 85
8.27418 3.44543 -1.78289 65 72 90
8.22897 1.90214 -1.75954 87 90 109
8.22041 1.87072 -1.75627 83 86 103
8.2261 1.8277 -1.75545 79 76 93
8.40959 -1.46381 -1.76113 73 70 93
8.40384 -1.49197 -1.7607 74 71 91
8.40956 -1.52201 -1.76272 69 68 86
8.39473 -3.01748 -1.74447 63 65 86
8.26535 3.50773 -1.78604 68 71 90
8.27347 3.47798 -1.78525 66 67 91
8.21461 2.00277 -1.76161 76 78 94
8.2045 1.97079 -1.75793 79 82 97
8.20494 1.92654 -1.75588 81 82 103
8.3877 -1.56208 -1.75943 77 74 95
8.38357 -1.59047 -1.75941 80 78 92
8.37933 -1.61884 -1.75939 79 75 98
8.38233 -3.04446 -1.74367 56 62 87
8.36985 -3.07138 -1.74286 54 63 84
8.22681 3.57488 -1.78408 65 72 90
8.23698 3.54593 -1.78368 62 69 87
8.17608 2.06809 -1.75714 82 84 104
8.1789 2.0243 -1.7555 80 81 103
8.37243 -1.66137 -1.75936 77 75 89
8.36607 -1.68935 -1.75894 74 71 90
8.35768 -1.71694 -1.7581 75 72 91
8.37087 -3.1188 -1.74596 54 57 77
8.21837 3.60454 -1.78487 70 75 91
8.16705 2.15529 -1.76002 74 73 94
8.19358 2.13189 -1.76409 65 70 92
8.16302 2.09473 -1.75593 85 85 109
8.34922 -1.74449 -1.75726 72 71 87
8.34365 -1.78723 -1.75764 73 71 88
8.34263 -1.81623 -1.75844 74 71 92
8.35447 -3.14435 -1.74437 54 60 82
8.35275 -3.1751 -1.74591 65 67 88
8.14229 2.2536 -1.76046 79 78 94
8.14254 2.22375 -1.75882 69 72 89
8.17875 2.20294 -1.76493 68 71 90
8.33196 -1.84329 -1.75719 72 70 90
8.32591 -1.88597 -1.75757 73 74 90
8.30354 -3.20452 -1.73844 65 67 86
8.11891 2.32233 -1.75966 73 79 96
8.13454 2.29645 -1.76128 66 72 86
8.33414 -1.91696 -1.7604 65 66 84
8.32315 -1.94392 -1.75916 70 71 89
8.29426 -3.23247 -1.73841 66 68 91
8.30692 -3.26854 -1.74309 65 73 91
8.10255 2.39291 -1.76049 83 84 104
8.13342 2.35626 -1.76456 79 77 98
8.31662 -1.98656 -1.75954 72 73 86
8.30161 -2.01257 -1.75748 66 69 88
8.29797 -2.04108 -1.75786 70 66 89
8.29375 -3.29512 -1.74228 74 82 103
8.0895 2.44953 -1.76132 78 79 100
8.10172 2.42279 -1.76213 70 72 93
8.2967 -2.08492 -1.75947 68 66 87
8.27568 -2.10942 -1.75618 69 70 91
8.28079 -3.33766 -1.74264 75 82 104
8.27109 -3.36552 -1.74261 72 80 103
8.08903 2.52484 -1.76582 73 76 91
8.08659 2.47889 -1.76255 82 85 99
8.28315 -2.14057 -1.75901 73 71 92
8.2715 -2.16721 -1.75777 70 71 91
8.25396 -3.39052 -1.74102 73 79 104
8.05826 2.57645 -1.76298 90 93 110
8.07651 2.5515 -1.76501 74 77 94
8.2677 -2.21055 -1.75896 67 70 90
8.25964 -2.23804 -1.75853 70 75 94
8.25528 -2.26644 -1.75892 68 74 90
8.24601 -3.43502 -1.74256 75 82 101
8.2269 -3.45915 -1.74057 74 82 101
8.03632 2.67604 -1.76503 74 75 95
8.05672 2.65182 -1.76748 82 84 99
8.0527 2.62019 -1.76461 71 74 93
8.23774 -2.30635 -1.75726 66 72 90
8.23695 -2.33568 -1.75846 69 71 90
8.21135 -3.48465 -1.73937 74 83 102
8.02839 2.71919 -1.76626 77 78 96
8.24174 -2.36653 -1.76088 70 76 92
8.19203 -3.52461 -1.73856 75 83 104
8.0207 2.77789 -1.76872 73 75 95
8.02274 2.74795 -1.76708 83 86 105
8.15576 0.436854 -1.77641 77 82 95
8.15008 0.408597 -1.7747 75 76 97
8.14882 0.366602 -1.77383 74 76 91
8.14294 0.338433 -1.77213 70 74 93
8.15843 0.311005 -1.77507 61 66 88
8.14499 0.2687 -1.77167 64 69 88
8.16613 0.241305 -1.77589 63 65 88
8.15789 0.213166 -1.77376 69 64 95
8.15543 0.185191 -1.77289 68 69 91
8.15702 0.143339 -1.77288 68 70 90
8.16213 0.115482 -1.77371 85 86 107
8.15741 0.0875307 -1.77242 67 72 93
8.15462 0.0456773 -1.77156 68 70 91
8.14576 0.0178039 -1.76942 66 70 92
8.16027 -0.0101064 -1.77237 71 73 96
8.15899 -0.0519349 -1.77193 71 75 95
8.16935 -0.0799378 -1.77403 62 63 84
8.15425 -0.10762 -1.77062 66 68 90
8.20487 -2.4012 -1.75515 72 75 92
8.20375 -2.43048 -1.75635 72 77 96
8.20632 -2.46081 -1.75836 68 71 91
8.17993 -3.55143 -1.73814 74 84 103
8.1623 -3.57597 -1.73655 73 81 102
8.00628 2.8498 -1.77077 74 80 95
8.01041 2.82044 -1.76954 74 77 98
8.12479 0.785523 -1.77699 63 68 88
8.10662 0.755903 -1.77232 59 65 89
8.13702 0.730284 -1.77823 56 60 84
8.12558 0.687292 -1.77483 64 66 89
8.12462 0.659172 -1.77397 65 68 85
8.145 0.632533 -1.77777 64 69 88
8.13894 0.590064 -1.77563 74 72 96
8.12791 0.561362 -1.77266 75 75 99
8.14798 0.534531 -1.77645 70 67 89
8.14457 0.506307 -1.77517 69 67 89
8.13792 0.463993 -1.77303 69 73 97
8.15859 -0.135557 -1.77145 70 72 93
8.15085 -0.177203 -1.76974 69 70 88
8.16474 -0.205408 -1.77269 68 74 89
8.16096 -0.233186 -1.77182 65 68 87
8.15862 -0.274936 -1.77138 68 73 92
8.15463 -0.302659 -1.77052 66 70 95
8.14665 -0.330197 -1.76881 63 62 83
8.15946 -0.372546 -1.77175 63 68 87
8.14931 -0.399938 -1.76961 69 70 91
8.14297 -0.427465 -1.76833 63 64 84
8.19182 -2.48645 -1.75671 70 74 93
8.15366 -3.60418 -1.73692 76 83 103
7.99029 2.90605 -1.7716 81 84 101
7.99647 2.87732 -1.77078 77 80 95
8.08111 0.978121 -1.77284 65 70 89
8.07912 0.949786 -1.77155 66 69 90
8.08431 0.908209 -1.77154 57 61 80
8.10153 0.881791 -1.77449 67 74 90
8.10701 0.854193 -1.7749 65 70 89
8.10658 0.826045 -1.77404 66 68 92
8.15922 -0.470152 -1.77212 65 66 84
8.16827 -0.49858 -1.77422 70 68 89
8.14213 -0.52488 -1.76869 70 68 90
8.15879 -0.55382 -1.77249 74 72 93
8.15886 -0.595718 -1.77289 69 72 91
8.15776 -0.623557 -1.77287 67 68 89
8.16241 -0.651837 -1.77412 68 69 89
8.18836 -2.53012 -1.75831 61 66 85
8.16991 -2.55455 -1.75584 65 73 92
8.1338 -3.6438 -1.7361 75 83 102
7.97852 2.97914 -1.77446 77 75 97
7.97385 2.94663 -1.77119 74 74 94
8.04739 1.14303 -1.77078 62 69 87
8.04962 1.1011 -1.76992 66 73 91
8.06935 1.07532 -1.7733 62 69 87
8.07738 1.04807 -1.77413 64 69 88
8.06748 1.00476 -1.77073 62 67 86
8.1737 -0.694709 -1.77706 58 57 83
8.17229 -0.722586 -1.77705 68 72 91
8.16689 -0.750116 -1.77618 73 76 95
8.15047 -0.790632 -1.77319 55 57 78
8.17988 -0.821398 -1.77995 57 56 77
8.17029 -0.848516 -1.77824 72 72 92
8.15327 -2.57943 -1.75378 66 71 90
8.13997 -2.62021 -1.75334 65 70 89
8.11771 -3.66887 -1.7349 75 83 102
8.11957 -3.70159 -1.73761 74 82 103
7.9517 3.0008 -1.7708 83 86 103
8.02617 1.29536 -1.77169 62 69 88
8.03486 1.26833 -1.77253 62 64 85
8.0222 1.23832 -1.7687 66 68 89
8.0423 1.19877 -1.77166 69 74 93
8.04682 1.17115 -1.77164 62 67 87
8.16063 -0.875577 -1.77652 67 68 89
8.1747 -0.919166 -1.78031 72 73 93
8.1784 -0.947665 -1.78156 69 72 90
8.15485 -0.973123 -1.77689 61 61 77
8.13813 -2.64941 -1.75454 64 73 88
8.12496 -2.67522 -1.75329 66 71 91
8.09388 -3.73865 -1.73562 74 80 104
7.94283 3.07506 -1.77448 62 67 87
7.94588 3.04509 -1.77284 80 80 101
7.99796 1.41837 -1.77047 74 77 96
8.00319 1.39087 -1.77046 74 77 96
8.01217 1.36395 -1.77129 69 74 96
8.00386 1.32035 -1.76789 61 71 92
8.151 -1.01481 -1.77686 66 67 85
8.15051 -1.04282 -1.77727 67 68 88
8.14802 -1.07059 -1.77725 66 67 87
8.1437 -1.11223 -1.77722 73 71 93
8.11309 -2.71641 -1.75326 63 70 88
8.08649 -3.76746 -1.73638 78 85 104
7.92679 3.10041 -1.77326 65 70 88
7.97366 1.51352 -1.76923 67 66 88
7.99458 1.48867 -1.77261 69 70 90
7.98652 1.45896 -1.76963 66 71 90
8.1584 -1.14228 -1.78102 59 60 80
8.13043 -1.16666 -1.77549 68 67 85
8.16431 -1.19945 -1.78351 66 67 87
8.14004 -1.23838 -1.77926 68 71 90
8.06613 -2.73161 -1.74469 64 69 88
8.05832 -2.75888 -1.74466 66 71 90
8.07186 -3.79308 -1.73557 75 82 104
7.91524 3.17399 -1.77653 68 75 91
7.92414 3.14603 -1.77611 65 69 90
7.94625 1.63641 -1.76885 81 82 102
7.956 1.60976 -1.76968 76 78 91
7.97528 1.58478 -1.77264 79 80 101
7.98102 1.55734 -1.77263 75 78 97
8.11761 -1.26327 -1.775 70 69 86
8.11828 -1.2915 -1.77583 75 76 94
8.1187 -1.33386 -1.77708 67 68 88
8.05043 -2.78613 -1.74464 65 69 86
8.03617 -2.82635 -1.7442 65 72 92
8.05115 -3.8322 -1.73476 74 81 102
7.89168 3.22778 -1.77613 62 68 88
7.9099 3.2033 -1.77775 68 69 93
7.94448 1.73579 -1.77311 83 84 104
7.93919 1.70621 -1.77056 67 65 88
7.96643 1.68288 -1.77521 81 82 103
8.10372 -1.35968 -1.77452 72 73 93
8.10986 -1.38883 -1.77661 68 69 87
8.10596 -1.43057 -1.77701 69 70 89
8.03364 -2.85534 -1.7454 65 72 91
8.0013 -2.87452 -1.74008 65 67 86
7.88835 3.27344 -1.77898 68 75 93
7.9129 1.82941 -1.77102 73 77 88
7.92324 1.80294 -1.77186 83 83 101
7.90861 1.77139 -1.76719 67 68 89
8.08684 -1.45556 -1.7736 77 78 96
8.0869 -1.48376 -1.77443 70 68 89
8.07916 -1.51061 -1.77356 71 73 92
8.00887 -2.92194 -1.74453 60 67 83
7.8824 3.33414 -1.78266 69 72 91
7.88815 3.30483 -1.78144 69 72 94
7.90621 1.89956 -1.77316 86 88 109
7.91867 1.87353 -1.77442 90 88 107
8.06701 -1.55083 -1.77227 67 67 88
8.08213 -1.58182 -1.77648 68 69 89
8.07217 -1.60825 -1.77519 72 71 88
7.9838 -2.94336 -1.74084 60 68 83
7.97533 -2.97036 -1.74082 62 69 85
7.84031 3.36482 -1.77695 63 72 85
7.89192 1.99695 -1.7753 78 82 101
7.90584 1.95698 -1.77614 69 75 92
7.89176 1.92511 -1.77147 83 83 108
8.05382 -1.64725 -1.77262 69 66 85
8.04559 -1.67391 -1.77176 76 73 90
8.05643 -1.70434 -1.77512 70 67 86
7.96761 -3.01272 -1.74201 62 66 88
7.82827 3.42324 -1.77941 67 74 93
7.85432 3.40199 -1.78267 66 73 91
7.8719 2.04998 -1.77405 82 80 102
7.87528 2.02194 -1.7732 70 74 87
8.03382 -1.74235 -1.77171 74 71 90
8.03296 -1.77048 -1.77253 71 70 88
8.04537 -1.80142 -1.77632 69 72 88
7.95522 -3.03836 -1.74117 59 61 85
