-9.66764 -1.29824 -1.86336 82 94 118
-3.25554 -8.08487 -1.56267 151 140 144
-3.28224 -8.08094 -1.56385 150 139 143
-3.64988 -7.59864 -1.57285 149 138 144
-3.67615 -7.59511 -1.57448 148 137 143
-4.10127 -7.13042 -1.59575 149 138 144
-4.1294 -7.13028 -1.59871 150 139 147
-4.53613 -6.62173 -1.61067 137 126 132
-4.56142 -6.61645 -1.61286 134 125 128
-4.58778 -6.6127 -1.61548 135 124 128
-5.29344 -6.02184 -1.6735 145 133 131
-5.32666 -6.02365 -1.67893 147 133 130
-5.37321 -6.02165 -1.68571 149 136 126
-5.40912 -6.02603 -1.69204 143 128 118
-5.43999 -6.02436 -1.69656 140 124 113
-5.48679 -6.02161 -1.70335 144 128 115
-5.5268 -6.02979 -1.71103 145 127 115
-7.93464 -3.6501 -1.84835 77 80 95
-7.94699 -3.62634 -1.8488 79 79 99
-7.95961 -3.5878 -1.84789 79 82 101
-7.97711 -3.56634 -1.8497 76 81 100
-8.69622 -2.63046 -1.85881 79 87 100
-8.7092 -2.60513 -1.86011 78 86 97
-8.72771 -2.58144 -1.86272 79 87 101
-9.22578 -1.98023 -1.87272 79 91 108
-9.26173 -1.9578 -1.87945 78 89 107
-9.68247 -1.26953 -1.86579 88 100 122
-9.6759 -1.22251 -1.86334 85 97 119
-3.21339 -8.086 -1.55993 150 140 141
-3.6187 -7.62348 -1.57485 150 141 146
-4.0477 -7.16218 -1.59615 148 137 141
-4.07029 -7.15194 -1.59658 147 137 142
-4.46022 -6.66009 -1.60845 138 129 133
-4.48241 -6.65016 -1.60933 135 126 129
-4.51819 -6.63842 -1.61153 137 126 132
-5.12623 -6.02722 -1.64908 142 136 138
-5.16165 -6.03283 -1.65541 144 135 137
-5.19217 -6.03228 -1.65993 145 135 133
-5.22592 -6.01627 -1.6622 147 137 134
-5.26028 -6.01988 -1.66808 144 131 130
-7.99278 -3.544 -1.85105 80 85 101
-7.99964 -3.50292 -1.84879 80 83 99
-8.01869 -3.48202 -1.85105 83 84 102
-8.04484 -3.46414 -1.85511 82 81 98
-8.05307 -3.43843 -1.85466 84 83 99
-8.72588 -2.53684 -1.85966 76 86 98
-8.74046 -2.5119 -1.8614 77 87 99
-9.2528 -1.91082 -1.87565 77 89 105
-9.28091 -1.88651 -1.8807 78 90 107
-9.68858 -1.19343 -1.86536 81 93 116
-9.68369 -1.16211 -1.86372 78 90 114
-3.16671 -8.11174 -1.56146 149 138 136
-3.18873 -8.09522 -1.55992 150 138 138
-3.56763 -7.63362 -1.5724 150 139 145
-3.59393 -7.63039 -1.57403 150 139 145
-3.99479 -7.19524 -1.59697 147 138 143
-4.02875 -7.17925 -1.5974 149 138 142
-4.4083 -6.6912 -1.60799 140 129 133
-4.44109 -6.6749 -1.60888 139 128 136
-5.02106 -6.08665 -1.64408 144 135 139
-5.0537 -6.07008 -1.6459 143 133 137
-5.07435 -6.05793 -1.64681 143 134 135
-5.0876 -6.03663 -1.64501 143 134 137
-8.07371 -3.40325 -1.85602 91 90 104
-8.06557 -3.37067 -1.8515 88 86 100
-8.08788 -3.35091 -1.85466 90 89 103
-8.11174 -3.31697 -1.85691 84 86 100
-8.74748 -2.48472 -1.8614 76 85 100
-8.75266 -2.4423 -1.86008 78 87 102
-8.75758 -2.41455 -1.85964 78 87 102
-9.26873 -1.85406 -1.8769 86 97 118
-9.27078 -1.80945 -1.87562 80 91 112
-9.68261 -1.1313 -1.8629 78 90 114
-3.12983 -8.12716 -1.56183 157 145 147
-3.51363 -7.67014 -1.5748 151 140 146
-3.53237 -7.64909 -1.57238 152 141 147
-3.94757 -7.21166 -1.59526 146 135 139
-3.97028 -7.20176 -1.59569 144 134 139
-4.37177 -6.72378 -1.60972 142 131 135
-4.39514 -6.71583 -1.61104 142 133 136
-4.9708 -6.13768 -1.64586 146 136 135
-4.98201 -6.11356 -1.64316 144 136 133
-5.00398 -6.1032 -1.64452 147 138 137
-8.09422 -3.28079 -1.85014 78 81 96
-8.13979 -3.27026 -1.85917 80 86 102
-8.1615 -3.23525 -1.86097 73 80 96
-8.7718 -2.3894 -1.86138 77 86 102
-8.78591 -2.34948 -1.86225 75 84 100
-9.29287 -1.78373 -1.87941 79 92 111
-9.31106 -1.75717 -1.88235 77 89 111
-9.61964 -1.3119 -1.88492 77 89 113
-9.6773 -1.08467 -1.86086 74 86 108
-9.67984 -1.05434 -1.86085 79 91 115
-3.48728 -7.67308 -1.57317 152 141 147
-3.88716 -7.22999 -1.59271 148 139 144
-3.92838 -7.22844 -1.59651 151 142 145
-4.29694 -6.76349 -1.60838 146 134 134
-4.31638 -6.74913 -1.60795 141 129 131
-4.33879 -6.73971 -1.60883 143 131 133
-4.89025 -6.16925 -1.63996 145 135 138
-4.91468 -6.16233 -1.64223 149 138 140
-4.94388 -6.16148 -1.6463 147 137 138
-8.17622 -3.21207 -1.86233 74 83 100
-8.19451 -3.19024 -1.86458 74 83 100
-8.19276 -3.16058 -1.86187 75 84 99
-8.20491 -3.12173 -1.86142 78 85 100
-8.78113 -2.31909 -1.85962 77 86 103
-8.80074 -2.29529 -1.86267 77 86 101
-8.80709 -2.26789 -1.86266 75 87 101
-9.31648 -1.71311 -1.88192 77 89 111
-9.30176 -1.68052 -1.87769 79 91 114
-9.62101 -1.28598 -1.88449 82 94 118
-9.62039 -1.25977 -1.88359 84 96 120
-9.70173 -1.02612 -1.86489 75 87 111
-9.6862 -0.978474 -1.86082 77 92 115
-3.43064 -7.70356 -1.57436 152 143 148
-3.46169 -7.67772 -1.57195 151 142 147
-3.83981 -7.24567 -1.59101 147 138 143
-3.86526 -7.24136 -1.5927 148 139 144
-4.23837 -6.78314 -1.6053 145 134 132
-4.26952 -6.76435 -1.60531 145 134 131
-4.82005 -6.21381 -1.63813 146 136 134
-4.83986 -6.20095 -1.63859 145 135 133
-4.8538 -6.18023 -1.63679 142 132 130
-8.21385 -3.09626 -1.86141 76 84 97
-8.21723 -3.06871 -1.86005 77 87 99
-8.2344 -3.03178 -1.86096 75 85 97
-8.81685 -2.22677 -1.86266 77 86 102
-8.82486 -2.19981 -1.86309 79 88 103
-9.3235 -1.65444 -1.88148 79 90 110
-9.31242 -1.62261 -1.8781 76 87 107
-9.61202 -1.21929 -1.88035 78 92 118
-9.62461 -1.19514 -1.88277 76 90 116
-9.6923 -0.948504 -1.86162 81 93 117
-9.69443 -0.918118 -1.86161 80 92 116
-3.40426 -7.70619 -1.57273 148 139 145
-3.80905 -7.26772 -1.59225 149 140 145
-4.19431 -6.80287 -1.60397 145 133 134
-4.21782 -6.79557 -1.60529 146 134 134
-4.7306 -6.27165 -1.63628 144 134 134
-4.75515 -6.26539 -1.63855 145 135 135
-4.76936 -6.24489 -1.63675 145 135 135
-4.79851 -6.24475 -1.64082 145 136 137
-8.24855 -3.00821 -1.86231 75 85 97
-8.24614 -2.97861 -1.85959 73 82 95
-8.27479 -2.96023 -1.86456 76 85 97
-8.28598 -2.92101 -1.86411 73 83 95
-8.83847 -2.17423 -1.86483 76 86 101
-8.85157 -2.13388 -1.8657 77 89 105
-8.84794 -2.10401 -1.86351 81 90 106
-9.3307 -1.58082 -1.88061 73 86 105
-9.32324 -1.54971 -1.87808 78 90 112
-9.62754 -1.16951 -1.88282 80 95 118
-9.6418 -1.13242 -1.88527 89 104 127
-9.6906 -0.887173 -1.86038 80 95 118
-3.34656 -7.73421 -1.57351 151 142 147
-3.38152 -7.71782 -1.57312 147 138 143
-3.75898 -7.27759 -1.58929 148 139 141
-3.78273 -7.27007 -1.59014 148 139 141
-4.1423 -6.83348 -1.60395 148 137 136
-4.16009 -6.8162 -1.60265 140 128 128
-4.67952 -6.30195 -1.63491 144 132 133
-4.69619 -6.28482 -1.63401 142 132 130
-8.29244 -2.89462 -1.86365 73 83 95
-8.30617 -2.87076 -1.865 77 87 99
-8.30956 -2.82889 -1.86274 75 85 97
-8.87074 -2.08055 -1.86743 79 88 103
-8.87393 -2.03777 -1.86611 82 91 107
-9.32917 -1.52083 -1.87849 78 89 109
-9.31611 -1.474 -1.87427 76 89 105
-9.62722 -1.10432 -1.88105 77 89 111
-9.62986 -1.07868 -1.8811 77 90 114
-9.69775 -0.84194 -1.86118 78 90 114
-9.69565 -0.811192 -1.86036 71 83 107
-3.3216 -7.74019 -1.57269 149 138 144
-3.70841 -7.31543 -1.59178 147 138 141
-3.74286 -7.30087 -1.59222 148 139 144
-4.098 -6.85255 -1.60262 146 135 139
-4.12063 -6.84391 -1.6035 147 137 136
-4.6114 -6.34875 -1.63443 147 137 136
-4.6238 -6.32543 -1.63173 147 137 135
-4.66505 -6.32223 -1.63671 147 137 137
-8.32311 -2.80493 -1.86409 75 85 97
-8.32735 -2.77783 -1.86318 77 87 99
-8.35432 -2.74385 -1.8668 78 84 98
-8.87187 -2.00837 -1.86436 80 89 105
-8.88492 -1.98246 -1.8661 80 89 106
-9.32761 -1.44601 -1.87594 74 86 108
-9.32742 -1.41622 -1.87509 76 91 114
-9.63818 -1.0538 -1.88257 75 89 115
-9.63841 -1.01478 -1.8817 79 91 115
-9.70317 -0.781273 -1.86156 78 93 116
-3.2945 -7.74061 -1.57065 147 138 143
-3.65903 -7.32632 -1.58924 146 137 143
-3.68205 -7.31738 -1.58967 145 134 141
-4.04186 -6.87553 -1.60085 147 136 139
-4.06455 -6.86708 -1.60173 145 134 138
-4.52641 -6.37058 -1.62717 142 132 135
-4.55433 -6.36998 -1.63079 144 133 137
-4.59007 -6.35923 -1.63352 143 133 134
-8.3565 -2.71607 -1.86544 78 86 97
-8.36973 -2.69187 -1.86679 75 85 95
-8.36619 -2.6623 -1.86407 77 87 99
-8.90168 -1.95735 -1.86871 81 89 108
-8.90998 -1.91574 -1.8687 76 87 107
-9.3252 -1.38616 -1.87381 72 84 108
-9.33855 -1.34344 -1.87549 77 89 111
-9.63885 -0.988857 -1.88127 80 92 115
-9.64111 -0.963172 -1.88132 81 95 119
-9.70398 -0.735468 -1.86114 77 89 114
-9.70348 -0.704885 -1.86072 77 92 113
-3.23857 -7.77325 -1.57265 152 145 150
-3.26012 -7.75841 -1.57144 154 145 148
-3.62365 -7.3387 -1.58838 150 141 146
-3.99202 -6.91006 -1.60213 149 139 140
-4.02286 -6.89076 -1.60171 147 137 138
-4.45114 -6.40587 -1.62398 145 136 139
-4.48583 -6.3941 -1.62625 146 137 138
-4.51375 -6.39368 -1.62987 146 137 138
-6.43703 -5.1657 -1.83385 101 97 122
-6.45465 -5.13111 -1.83196 98 95 122
-6.4941 -5.13098 -1.83952 104 99 129
-6.50947 -5.11104 -1.83952 102 99 128
-6.52631 -5.09227 -1.83999 100 100 126
-6.52986 -5.04642 -1.83386 97 94 121
-6.56323 -5.04087 -1.83952 101 98 125
-6.58291 -5.02432 -1.84094 104 99 129
-6.60431 -4.99276 -1.84047 100 96 123
-6.61465 -4.96889 -1.83905 101 98 127
-6.63722 -4.9545 -1.84141 101 101 129
-6.64741 -4.93055 -1.83999 98 102 129
-6.67764 -4.90575 -1.84236 102 99 126
-6.68146 -4.87703 -1.83905 98 98 124
-6.70536 -4.86348 -1.84188 96 98 123
-6.71661 -4.82442 -1.83858 88 95 123
-6.7498 -4.81759 -1.84424 91 98 126
-6.75791 -4.79223 -1.84236 91 98 124
-6.76874 -4.75304 -1.83905 97 103 127
-6.80027 -4.7447 -1.84424 93 97 124
-6.81286 -4.72264 -1.84377 99 100 128
-6.82377 -4.69941 -1.84283 93 94 122
-6.85154 -4.67236 -1.84472 92 98 124
-6.8575 -4.64569 -1.84235 87 97 122
-6.87772 -4.62901 -1.84424 89 101 125
-6.8956 -4.59501 -1.8433 82 92 117
-6.91088 -4.57486 -1.84377 85 91 117
-6.9245 -4.55357 -1.84377 91 97 119
-6.9436 -4.52047 -1.8433 87 94 120
-6.96351 -4.50338 -1.84518 87 94 120
-6.98499 -4.48728 -1.84754 86 93 119
-6.98698 -4.45827 -1.84423 84 92 115
-7.01212 -4.42912 -1.84565 86 94 117
-7.0269 -4.40856 -1.84612 89 95 117
-7.04818 -4.39213 -1.84848 86 94 115
-8.38524 -2.62559 -1.86588 76 86 98
-8.40005 -2.60181 -1.86768 74 84 97
-8.40364 -2.57454 -1.86677 77 86 101
-8.90372 -1.8855 -1.86608 71 82 102
-8.91829 -1.85979 -1.86825 80 91 113
-9.33029 -1.31258 -1.87295 70 82 104
-9.32967 -1.28283 -1.8721 73 85 107
-9.63513 -0.923499 -1.87902 76 90 116
-9.63142 -0.897165 -1.87764 76 90 116
-9.70483 -0.674444 -1.86071 76 90 116
-3.18779 -7.78254 -1.5706 152 141 145
-3.21147 -7.77336 -1.57061 152 141 147
-3.57345 -7.34721 -1.58541 150 140 145
-3.59895 -7.34389 -1.58711 148 139 142
-3.94463 -6.92292 -1.5995 147 136 140
-3.97289 -6.92515 -1.603 147 136 139
-4.41569 -6.43703 -1.62532 149 138 144
-4.44147 -6.43368 -1.62804 148 139 144
-6.20911 -5.41688 -1.83005 125 127 135
-6.2254 -5.39786 -1.83005 134 135 143
-6.23149 -5.36973 -1.82675 140 139 149
-6.275 -5.35782 -1.83289 83 81 96
-6.29694 -5.34373 -1.83478 87 86 100
-6.31884 -5.32955 -1.83667 95 92 109
-6.32898 -5.30508 -1.83478 91 84 102
-6.34737 -5.27089 -1.8329 91 84 105
-6.3691 -5.25648 -1.83479 88 83 102
-6.3982 -5.24827 -1.83904 91 88 106
-6.40438 -5.2038 -1.83338 105 104 123
-6.42893 -5.19163 -1.83621 108 105 126
-7.05829 -4.35326 -1.84565 79 90 110
-7.08435 -4.33978 -1.84942 78 89 109
-7.05279 -4.29008 -1.83667 78 89 109
-7.07554 -4.25947 -1.83762 87 93 116
-7.09974 -4.24477 -1.84092 77 85 106
-7.12061 -4.22792 -1.84328 72 82 100
-7.11818 -4.19688 -1.83903 73 84 101
-7.15384 -4.1739 -1.84374 75 80 100
-7.14452 -4.13889 -1.83761 72 79 97
-7.16344 -4.12079 -1.83949 78 84 102
-7.18879 -4.09152 -1.84138 74 81 99
-8.41483 -2.53531 -1.86677 77 84 100
-8.41446 -2.5069 -1.86495 77 84 100
-8.93568 -1.82007 -1.87043 81 92 111
-8.92718 -1.78948 -1.86736 74 85 105
-9.36967 -1.24353 -1.87967 76 88 112
-9.65268 -0.873623 -1.88243 77 90 116
-9.65012 -0.834402 -1.88109 79 93 117
-9.70708 -0.628776 -1.8607 75 90 113
-9.70625 -0.598195 -1.86028 86 99 121
-3.1525 -7.79802 -1.57099 156 145 148
-3.54602 -7.37697 -1.58876 151 140 146
-3.8854 -6.93938 -1.59642 147 136 138
-3.91362 -6.94185 -1.59992 147 136 142
-4.37093 -6.47608 -1.6271 142 133 134
-4.38618 -6.45657 -1.6253 142 132 131
-6.05052 -5.54292 -1.82154 83 91 110
-6.06862 -5.52576 -1.82201 85 85 105
-6.09375 -5.51519 -1.82485 107 106 123
-6.11461 -5.50053 -1.82626 129 127 138
-6.13982 -5.47244 -1.82627 123 120 128
-6.16201 -5.45891 -1.82816 121 120 128
-6.17556 -5.43743 -1.82722 124 123 131
-7.21936 -4.08005 -1.84657 78 80 98
-7.22973 -4.05678 -1.84609 86 87 105
-7.23795 -4.01749 -1.84326 96 98 113
-7.2515 -3.99609 -1.84373 95 97 112
-7.27346 -3.97939 -1.84655 96 95 109
-7.27501 -3.95123 -1.84372 94 92 105
-7.30307 -3.92313 -1.84655 102 101 115
-7.31462 -3.90055 -1.84655 94 93 107
-8.43081 -2.48347 -1.86721 76 86 99
-8.44906 -2.44626 -1.86901 77 87 99
-8.46336 -2.4221 -1.87081 77 87 99
-8.95485 -1.76628 -1.87259 79 90 112
-8.96224 -1.72439 -1.87259 74 86 107
-9.36495 -1.21318 -1.87798 79 91 115
-9.34463 -1.18095 -1.87291 79 94 117
-9.65384 -0.80887 -1.88161 79 94 116
-9.65554 -0.783123 -1.88165 79 94 117
-9.69751 -0.567141 -1.85824 81 93 115
-3.12742 -7.80333 -1.57017 157 145 147
-3.49809 -7.39029 -1.58706 148 139 142
-3.51887 -7.37653 -1.58623 149 140 144
-3.84063 -6.95669 -1.59509 148 138 141
-3.86347 -6.94894 -1.59597 146 136 137
-4.30203 -6.52096 -1.62707 146 136 137
-4.32456 -6.4903 -1.62392 146 136 138
-4.34827 -6.48406 -1.62574 143 134 137
-5.90512 -5.69797 -1.82151 95 92 102
-5.94919 -5.68872 -1.82765 95 95 110
-5.99536 -5.69925 -1.83757 94 94 108
-6.06663 -5.73406 -1.85597 97 96 113
-6.11244 -5.7252 -1.86259 94 99 116
-6.15485 -5.73084 -1.87108 92 102 118
-6.09786 -5.64062 -1.84607 88 99 115
-7.32611 -3.87794 -1.84654 79 78 92
-7.34019 -3.84211 -1.8456 97 94 110
-7.36348 -3.82582 -1.8489 97 95 109
-7.36958 -3.80032 -1.84748 85 85 97
-7.38844 -3.76702 -1.84795 84 83 98
-7.40639 -3.74775 -1.84983 81 83 98
-8.46074 -2.39311 -1.86855 77 86 101
-8.46926 -2.36729 -1.86899 76 85 100
-8.9668 -1.69645 -1.87258 79 91 113
-8.96361 -1.66703 -1.87082 83 94 112
-9.36286 -1.13864 -1.87585 77 92 115
-9.36362 -1.10907 -1.87542 82 96 121
-9.65908 -0.757557 -1.88217 83 97 123
-9.71989 -0.53796 -1.86269 75 90 113
-9.70785 -0.491471 -1.85983 76 91 114
-3.10761 -7.8233 -1.57258 154 142 141
-3.47489 -7.39861 -1.58663 149 140 143
-3.7874 -6.98443 -1.59506 147 138 143
-3.80855 -6.97338 -1.59507 147 138 142
-4.25141 -6.52802 -1.62209 143 135 133
-4.27003 -6.51379 -1.62164 143 135 133
-5.78227 -5.80396 -1.81819 94 86 84
-5.80922 -5.79614 -1.8215 96 91 89
-5.82264 -5.77422 -1.82008 97 88 86
-5.84917 -5.74756 -1.82009 103 94 93
-5.86786 -5.73109 -1.82056 90 88 93
-5.8865 -5.71456 -1.82104 95 92 100
-7.41393 -3.72306 -1.84888 76 82 98
-7.41449 -3.69481 -1.84604 77 83 99
-7.43632 -3.66301 -1.84746 74 81 97
-7.43837 -3.63565 -1.84509 77 84 100
-7.44729 -3.61176 -1.84462 81 84 101
-7.49141 -3.59089 -1.85217 79 85 101
-8.47572 -2.3267 -1.86809 78 87 102
-8.49345 -2.30336 -1.87079 77 86 102
-8.5017 -2.27741 -1.87124 74 83 100
-8.96032 -1.63764 -1.86907 81 92 110
-8.95754 -1.59396 -1.86688 74 85 105
-9.37012 -1.08016 -1.87625 79 92 116
-9.65018 -0.717848 -1.8794 78 90 114
-9.65933 -0.692789 -1.88135 78 90 114
-9.71244 -0.461201 -1.86063 73 87 114
-3.09295 -7.89745 -1.58593 160 146 145
-3.41525 -7.41637 -1.58492 149 140 145
-3.43693 -7.40466 -1.58451 151 142 145
-3.76362 -6.99017 -1.59374 147 138 143
-4.20475 -6.56418 -1.62342 143 132 133
-4.22959 -6.56006 -1.62568 145 135 133
-5.69833 -5.89698 -1.82006 89 80 78
-5.71482 -5.85955 -1.81629 94 85 83
-5.7405 -5.85063 -1.81912 97 90 84
-5.7635 -5.83878 -1.82101 95 90 84
-7.51238 -3.57282 -1.85499 80 86 100
-7.48789 -3.53263 -1.84555 78 84 99
-7.49849 -3.49532 -1.84413 81 83 98
-7.5122 -3.47377 -1.84507 81 86 100
-7.53464 -3.4563 -1.84837 78 82 97
-8.49643 -2.23373 -1.86762 78 87 102
-8.50448 -2.20775 -1.86806 78 90 106
-8.96935 -1.56739 -1.86862 80 91 111
-8.95806 -1.53671 -1.86511 88 96 115
-9.37266 -1.05079 -1.87624 74 89 112
-9.36891 -1.0059 -1.87454 82 94 118
-9.65099 -0.666197 -1.87902 83 95 119
-9.65132 -0.62742 -1.87862 79 93 119
-9.70912 -0.430532 -1.85981 75 89 115
-3.0986 -7.99123 -1.60455 157 146 144
-3.39352 -7.42802 -1.58533 148 139 144
-3.71353 -7.02431 -1.59546 146 137 140
-3.72967 -7.00299 -1.59286 149 138 143
-4.15579 -6.59663 -1.62384 148 136 138
-4.17893 -6.56653 -1.6207 144 132 136
-5.58085 -5.97114 -1.81343 146 135 125
-5.60541 -5.96138 -1.81579 114 106 100
-5.64458 -5.94872 -1.82005 77 68 70
-5.6665 -5.93583 -1.82147 81 73 70
-5.68442 -5.91857 -1.82147 88 80 77
-7.55175 -3.43625 -1.85025 82 84 99
-7.57949 -3.40684 -1.85355 83 85 98
-7.58589 -3.38175 -1.8526 82 86 98
-7.57982 -3.35102 -1.84835 89 91 104
-8.51431 -2.18222 -1.86896 79 88 103
-8.54445 -2.14762 -1.87393 77 86 103
-8.97591 -1.49676 -1.86773 85 93 112
-8.95477 -1.46456 -1.86204 73 83 108
-9.37122 -0.976522 -1.87453 76 88 110
-9.35982 -0.9458 -1.87157 74 88 114
-9.65631 -0.601969 -1.87961 75 89 115
-9.65541 -0.576061 -1.87918 81 95 121
-9.71414 -0.384981 -1.86061 77 91 117
-9.71449 -0.354486 -1.86059 78 92 118
-3.10623 -8.09253 -1.62479 156 145 143
-3.33522 -7.4487 -1.58446 150 140 148
-3.35552 -7.43364 -1.58321 150 140 148
-3.65642 -7.04398 -1.59369 147 138 139
-3.68884 -7.02801 -1.59371 146 137 140
-4.0901 -6.62295 -1.62111 145 136 137
-4.10313 -6.59914 -1.61796 145 135 136
-4.12993 -6.59878 -1.62112 147 137 138
-5.35995 -5.98052 -1.77895 139 122 112
-5.39832 -5.98782 -1.78651 133 119 109
-5.44244 -5.98227 -1.79265 136 120 111
-5.47334 -5.98037 -1.79737 136 122 112
-5.51454 -5.98999 -1.80587 134 119 110
-5.55112 -5.97499 -1.80918 149 135 124
-7.62671 -3.33008 -1.85684 76 75 90
-7.61156 -3.2954 -1.85022 82 84 101
-7.62823 -3.27495 -1.85211 78 83 98
-7.66245 -3.24799 -1.85729 77 83 97
-8.55222 -2.12147 -1.87437 80 89 106
-8.54855 -2.09251 -1.87211 76 88 104
-8.55425 -2.06587 -1.8721 73 85 102
-8.97195 -1.43883 -1.86509 77 89 113
-9.36335 -0.90177 -1.87156 77 92 115
-9.65531 -0.537274 -1.87878 75 87 111
-9.71473 -0.323989 -1.86058 80 94 120
-3.31412 -7.4619 -1.58529 149 139 147
-3.61032 -7.05795 -1.59193 149 138 144
-3.62921 -7.04218 -1.59063 150 140 143
-4.0358 -6.64603 -1.61928 146 136 135
-4.05289 -6.6291 -1.61793 146 136 137
-5.18859 -5.98354 -1.75203 147 128 113
-5.21911 -5.98276 -1.75676 147 128 114
-5.25343 -5.98632 -1.76289 143 124 110
-5.28724 -5.96983 -1.76526 142 124 110
-5.32165 -5.97304 -1.7714 142 125 115
-7.66831 -3.2227 -1.85634 77 85 98
-7.68123 -3.20045 -1.85728 75 84 99
-7.69586 -3.17891 -1.85869 71 80 97
-7.71005 -3.1431 -1.85869 75 85 97
-8.57634 -2.02899 -1.87526 81 92 110
-8.55528 -1.99609 -1.86893 78 89 107
-8.98552 -1.39806 -1.86683 75 87 109
-8.98712 -1.36971 -1.86638 77 88 108
-8.96939 -1.33841 -1.86157 77 88 110
-9.38088 -0.873819 -1.87492 77 92 115
-9.37304 -0.843546 -1.8728 90 105 128
-9.6697 -0.5124 -1.88215 78 90 114
-9.66658 -0.486343 -1.88124 70 85 108
-9.71926 -0.278356 -1.86138 85 97 119
-3.25266 -7.47467 -1.58273 151 141 149
-3.27385 -7.46166 -1.5819 150 140 148
-3.58643 -7.06305 -1.59061 148 137 143
-3.97756 -6.66186 -1.61564 145 136 137
-4.01383 -6.65446 -1.61836 145 135 135
-5.04067 -5.99144 -1.7303 150 129 112
-5.07803 -5.98064 -1.73409 152 129 115
-5.11083 -5.98337 -1.73975 154 131 115
-5.14987 -5.99347 -1.74778 152 131 112
-7.71196 -3.11622 -1.85679 74 84 96
-7.73713 -3.09894 -1.86103 73 82 97
-7.74914 -3.0622 -1.86056 77 87 99
-7.74895 -3.03454 -1.85819 75 84 99
-8.58156 -1.97419 -1.87389 74 86 102
-8.58804 -1.93362 -1.87343 80 90 108
-8.98044 -1.31157 -1.86331 77 89 111
-9.38193 -0.799928 -1.87405 78 90 114
-9.67186 -0.447854 -1.88226 78 92 118
-3.20727 -7.49323 -1.58271 151 140 146
-3.23433 -7.49488 -1.58525 150 140 148
-3.53318 -7.09051 -1.59102 149 140 145
-3.55061 -7.07142 -1.58885 147 138 141
-3.93828 -6.68674 -1.61607 148 138 139
-3.95272 -6.66498 -1.61337 147 138 139
-4.87199 -5.98654 -1.70338 152 130 116
-4.89965 -5.98411 -1.70716 152 131 114
-4.9404 -5.97871 -1.71236 149 127 114
-4.97415 -5.98362 -1.7185 149 127 113
-5.00071 -5.97923 -1.72181 150 129 112
-7.7595 -3.01122 -1.85866 77 84 100
-7.77832 -2.97722 -1.86007 75 82 98
-7.78687 -2.95309 -1.86006 73 82 97
-8.60466 -1.90936 -1.87614 78 89 107
-8.60788 -1.88211 -1.87568 76 87 105
-8.9857 -1.26951 -1.8633 81 93 117
-8.99653 -1.24255 -1.86503 76 88 112
-9.39331 -0.771272 -1.87615 80 95 118
-9.38709 -0.741211 -1.87445 81 97 120
-9.65885 -0.421285 -1.87898 78 92 118
-9.66901 -0.395999 -1.8814 77 92 115
-3.17701 -7.51788 -1.58522 153 142 145
-3.50444 -7.08466 -1.58708 149 140 143
-3.87897 -6.69996 -1.61199 147 137 137
-3.90103 -6.69201 -1.6129 146 136 137
-4.73236 -5.97577 -1.68024 144 125 113
-4.76097 -5.97547 -1.68449 147 127 116
-4.8014 -5.99054 -1.69346 145 125 111
-4.83845 -5.98113 -1.69724 152 130 116
-7.78992 -2.92683 -1.85864 75 87 99
-7.79652 -2.90196 -1.85816 77 86 98
-7.80393 -2.8636 -1.85674 74 84 96
-8.61964 -1.84264 -1.87658 75 86 106
-8.62646 -1.81615 -1.87702 76 87 107
-8.99765 -1.21419 -1.86459 81 93 115
-9.39355 -0.697309 -1.87528 80 95 118
-9.66748 -0.370083 -1.88097 77 91 117
-3.14927 -7.51419 -1.58226 153 143 144
-3.44785 -7.10434 -1.58575 157 146 144
-3.47097 -7.09795 -1.58663 148 138 137
-3.83849 -6.7225 -1.61197 149 139 140
-3.86707 -6.72668 -1.61604 148 138 139
-4.62808 -5.97033 -1.66371 141 127 118
-4.66115 -5.97674 -1.66985 135 119 106
-4.69198 -5.97988 -1.67504 144 125 110
-7.8376 -2.84887 -1.86334 76 84 97
-7.83666 -2.82118 -1.86097 76 82 94
-7.85098 -2.78533 -1.86144 76 84 95
-7.85893 -2.76096 -1.86143 76 86 97
-8.64085 -1.7912 -1.87927 80 91 111
-8.64562 -1.76424 -1.87926 76 87 107
-9.01403 -1.17359 -1.8672 74 88 114
-9.01492 -1.14519 -1.86675 76 90 116
-9.38708 -0.667301 -1.87358 75 90 113
-9.66444 -0.331185 -1.88009 74 88 115
-9.66656 -0.305455 -1.88061 72 86 113
-3.12646 -7.52317 -1.58225 153 143 144
-3.39191 -7.12532 -1.58485 150 140 143
-3.42705 -7.116 -1.58617 152 140 143
-3.8131 -6.74955 -1.61466 147 138 138
-4.53692 -5.98067 -1.65237 144 134 132
-4.56867 -5.98596 -1.65804 149 138 132
-4.60539 -5.97791 -1.66182 143 128 121
-7.85584 -2.73264 -1.85859 74 84 96
-7.87828 -2.71341 -1.86236 77 85 98
-8.66446 -1.72604 -1.88197 81 92 112
-8.68431 -1.70197 -1.88558 80 91 109
-9.00993 -1.11604 -1.865 68 82 108
-9.02973 -1.07572 -1.86848 75 90 113
-9.21368 -0.861876 -1.87008 75 89 115
-9.21361 -0.837084 -1.86963 77 91 117
-9.40002 -0.638608 -1.8761 80 94 120
-9.38361 -0.608018 -1.87229 70 85 109
-9.68025 -0.280143 -1.88397 77 91 117
-3.10077 -7.56027 -1.5877 154 142 144
-3.37028 -7.13503 -1.58484 149 140 144
-3.76511 -6.75785 -1.61103 146 137 140
-3.79273 -6.76064 -1.61465 145 136 137
-4.45053 -5.99606 -1.64292 142 135 137
-4.47539 -5.99224 -1.64575 143 134 137
-4.51877 -5.99425 -1.65236 145 135 133
-6.05615 -5.0011 -1.82359 97 99 124
-6.17999 -4.8554 -1.82558 98 98 126
-6.24112 -4.79683 -1.82905 96 97 125
-6.20936 -4.74208 -1.8142 94 100 126
-6.26765 -4.74156 -1.82608 93 100 128
-6.26933 -4.71284 -1.82212 88 95 123
-6.257 -4.67367 -1.8137 88 95 123
-6.32768 -4.68177 -1.82955 81 88 116
-6.33528 -4.65762 -1.82757 83 90 118
-6.2992 -4.60128 -1.81173 90 97 125
-6.37776 -4.61433 -1.83005 89 99 124
-6.3851 -4.59008 -1.82807 91 101 126
-6.36724 -4.54771 -1.81816 88 98 123
-6.41526 -4.55283 -1.82906 86 98 120
-6.43735 -4.52419 -1.82956 83 95 117
-6.43012 -4.4898 -1.82312 82 93 115
-6.47822 -4.49433 -1.83401 81 89 112
-6.4889 -4.45765 -1.83104 81 87 111
-6.49884 -4.43538 -1.83005 84 92 115
-6.52626 -4.4251 -1.83451 78 86 109
-6.52806 -4.3973 -1.83104 72 83 103
-6.53339 -4.35726 -1.82658 91 99 120
-6.56711 -4.35101 -1.83302 75 86 106
-6.55892 -4.31677 -1.82658 86 94 115
-6.6026 -4.30222 -1.83401 83 90 109
-6.59252 -4.26698 -1.82708 79 87 106
-6.60179 -4.24446 -1.82608 77 85 104
-6.61759 -4.21168 -1.82509 73 81 100
-6.63156 -4.19221 -1.82559 83 91 112
-6.67658 -4.19234 -1.83549 77 85 104
-6.63969 -4.14078 -1.82063 75 82 101
-6.66647 -4.115 -1.82311 76 83 101
-7.90125 -2.68052 -1.86518 76 84 95
-7.90888 -2.65598 -1.86518 77 85 96
-7.90724 -2.62828 -1.86281 78 86 99
-8.67349 -1.67194 -1.88195 76 87 105
-9.01677 -1.04566 -1.86498 77 92 115
-9.01534 -1.01703 -1.86409 78 90 114
-9.21536 -0.81249 -1.86967 75 89 115
-9.21826 -0.775586 -1.86975 77 91 117
-9.38945 -0.564067 -1.87313 76 88 112
-9.66904 -0.240964 -1.88119 77 89 113
-9.68446 -0.215593 -1.88504 85 98 122
-3.10996 -7.65512 -1.60746 157 145 145
-3.33219 -7.1668 -1.58787 148 138 146
-3.3486 -7.14465 -1.58483 148 139 146
-3.71631 -6.79025 -1.61235 147 138 141
-3.72964 -6.76557 -1.60876 148 138 143
-4.39066 -6.04878 -1.64478 138 132 136
-4.40677 -6.03241 -1.64385 142 136 140
-4.43122 -6.00776 -1.64244 146 137 139
-6.69004 -4.10144 -1.82657 79 82 101
-6.7169 -4.08979 -1.83103 76 81 100
-6.75509 -4.07057 -1.83697 74 80 96
-6.73879 -4.03265 -1.82855 76 77 95
-6.77218 -4.02464 -1.83498 87 88 106
-6.80019 -3.99902 -1.83795 100 102 116
-6.81354 -3.97889 -1.83845 99 98 114
-6.82349 -3.95677 -1.83795 91 93 106
-6.8367 -3.93655 -1.83844 105 105 117
-7.93168 -2.59575 -1.8661 74 84 96
-7.92247 -2.5656 -1.86185 76 85 98
-7.92972 -2.54098 -1.86184 75 82 98
-8.67087 -1.62955 -1.87969 75 86 108
-8.66937 -1.60143 -1.87833 77 89 111
-8.66587 -1.57298 -1.87651 76 88 109
-9.01573 -0.988642 -1.86365 78 93 116
-9.22562 -0.751506 -1.87128 80 94 120
-9.20592 -0.724965 -1.86585 78 94 119
-9.40207 -0.535228 -1.87564 79 91 115
-9.38143 -0.50462 -1.87099 77 89 113
-9.67847 -0.189556 -1.88365 77 92 115
-9.68403 -0.163829 -1.88512 80 92 116
-3.11315 -7.73543 -1.62386 156 145 143
-3.29689 -7.17562 -1.58654 147 138 143
-3.6541 -6.79617 -1.60691 149 140 145
-3.68698 -6.78366 -1.60783 147 138 141
-4.3539 -6.07493 -1.64477 140 131 136
-4.36902 -6.05706 -1.64336 143 134 139
-5.65721 -5.34476 -1.80373 134 132 139
-6.8543 -3.90469 -1.83844 98 97 111
-6.85559 -3.87767 -1.83547 88 87 101
-6.87363 -3.86018 -1.83745 94 93 106
-6.89257 -3.82908 -1.83794 107 106 120
-6.88171 -3.79548 -1.8315 101 101 113
-6.92158 -3.78994 -1.83991 96 96 108
-6.94699 -3.76228 -1.84239 104 104 114
-6.89319 -3.70578 -1.82357 89 89 101
-7.95565 -2.50878 -1.86561 77 84 100
-7.9498 -2.47992 -1.8623 75 85 98
-7.96234 -2.45696 -1.86371 76 86 98
-8.68387 -1.53441 -1.87921 71 82 100
-9.01559 -0.945955 -1.86276 74 89 112
-9.0274 -0.918802 -1.86494 72 86 113
-9.20649 -0.687928 -1.86543 78 94 119
-9.20587 -0.663182 -1.86497 72 87 110
-9.3946 -0.460982 -1.87351 81 95 119
-9.67031 -0.124747 -1.88186 77 92 115
-3.10359 -7.82028 -1.64025 153 142 140
-3.25104 -7.18892 -1.58521 150 139 145
-3.27063 -7.17419 -1.58391 147 138 143
-3.63792 -6.81546 -1.60916 151 141 147
-4.27915 -6.1055 -1.64051 141 132 135
-4.29764 -6.0927 -1.64051 139 132 134
-4.32474 -6.09277 -1.64429 140 131 132
-5.60672 -5.4774 -1.81758 133 126 136
-5.61342 -5.45071 -1.81412 122 114 124
-5.6368 -5.42355 -1.81363 122 116 126
-5.6585 -5.41168 -1.81561 127 126 135
-6.9449 -3.70627 -1.83545 89 91 106
-6.96933 -3.69194 -1.83941 87 89 104
-6.96694 -3.64952 -1.83396 79 80 100
-6.99468 -3.63679 -1.83891 84 87 106
-7.01553 -3.62037 -1.84187 78 81 100
-7.96369 -2.43048 -1.86228 75 82 98
-7.97247 -2.39276 -1.8618 79 88 103
-8.66862 -1.504 -1.87469 69 80 98
-8.68017 -1.47822 -1.87649 76 88 107
-9.03135 -0.890783 -1.86536 84 98 122
-9.22058 -0.63966 -1.8685 82 97 120
-9.2005 -0.613424 -1.86307 80 95 118
-9.40105 -0.431742 -1.87476 73 86 110
-9.38397 -0.40152 -1.87096 81 93 117
-9.6718 -0.098935 -1.88238 77 92 117
-9.66543 -0.0730128 -1.881 71 85 111
-3.1077 -7.90628 -1.65791 156 145 144
-3.2186 -7.20457 -1.58563 148 138 146
-3.5933 -6.82943 -1.60733 146 137 142
-3.61388 -6.819 -1.60734 146 137 142
-4.22704 -6.12909 -1.63813 143 136 136
-4.24774 -6.11971 -1.63908 143 136 136
-5.50547 -5.57787 -1.81706 98 95 112
-5.52272 -5.54429 -1.8141 94 95 108
-5.52297 -5.51083 -1.80816 95 93 106
-5.56798 -5.52283 -1.81856 115 112 125
-5.56163 -5.46575 -1.80718 132 126 136
-7.01959 -3.58145 -1.83841 78 84 100
-7.01269 -3.55086 -1.83345 77 84 100
-7.01776 -3.52642 -1.83196 86 92 106
-7.05077 -3.50227 -1.83691 83 86 101
-7.04353 -3.47175 -1.83195 89 90 105
-7.06573 -3.45578 -1.83542 90 89 103
-8.0052 -2.37588 -1.8684 77 86 101
-7.99326 -2.3454 -1.86367 78 87 102
-8.00908 -2.30976 -1.86508 78 87 102
-8.68394 -1.45111 -1.87648 80 93 110
-8.68409 -1.4095 -1.87512 71 83 105
-9.01332 -0.846355 -1.86055 75 88 111
-9.0287 -0.819458 -1.86359 73 88 111
-9.19862 -0.576284 -1.86214 73 88 111
-9.38437 -0.372054 -1.87094 82 94 117
-9.67844 -0.0343684 -1.88439 74 88 111
-3.11326 -7.9979 -1.67682 153 143 144
-3.17264 -7.21733 -1.5843 147 136 140
-3.19814 -7.21733 -1.58649 149 138 142
-3.54042 -6.85349 -1.60686 148 139 142
-3.56364 -6.84847 -1.60822 148 139 145
-4.18453 -6.14599 -1.63576 141 132 127
-4.20738 -6.14003 -1.63766 144 134 132
-5.42688 -5.65012 -1.81606 92 90 101
-5.44724 -5.61962 -1.81408 93 94 109
-5.44931 -5.58758 -1.80864 93 95 110
-5.4633 -5.56814 -1.80765 97 96 112
-7.08442 -3.43801 -1.83789 85 83 96
-7.09443 -3.40239 -1.8364 99 97 108
-7.09549 -3.37614 -1.83392 102 100 110
-7.13148 -3.36642 -1.84134 108 104 118
-8.02485 -2.28758 -1.86743 77 86 101
-8.02377 -2.26046 -1.86553 76 85 102
-8.68189 -1.38146 -1.87375 79 94 115
-8.69498 -1.35582 -1.876 71 84 106
-9.01877 -0.790171 -1.86096 77 89 112
-9.21114 -0.552495 -1.86517 77 92 115
-9.21201 -0.527883 -1.86522 74 89 112
-9.38717 -0.327908 -1.87135 83 95 117
-9.6777 -0.0084931 -1.88443 77 91 117
-3.11567 -8.08226 -1.69406 152 141 146
-3.14216 -7.23806 -1.58603 149 138 142
-3.52222 -6.86896 -1.6082 147 138 143
-4.12068 -6.19257 -1.63669 148 138 137
-4.13945 -6.18027 -1.63669 150 140 139
-4.15714 -6.16627 -1.63623 150 139 136
-5.33276 -5.7403 -1.81603 97 91 90
-5.35253 -5.72688 -1.81703 99 90 91
-5.36964 -5.71055 -1.81703 101 93 95
-5.40351 -5.69446 -1.82001 97 94 98
-5.42714 -5.68503 -1.82249 97 92 99
-7.15516 -3.33718 -1.84382 80 79 95
-7.14543 -3.30594 -1.83837 83 84 102
-7.13559 -3.2748 -1.83291 80 82 99
-7.16946 -3.25021 -1.83836 77 78 98
-8.0392 -2.22461 -1.86694 75 84 99
-8.03977 -2.19803 -1.86552 77 86 101
-8.04961 -2.17406 -1.86645 77 86 103
-8.68312 -1.31248 -1.87193 70 85 108
-9.02621 -0.762481 -1.86226 83 95 117
-9.02307 -0.719656 -1.86094 79 94 117
-9.21552 -0.491066 -1.86578 76 88 112
-9.37171 -0.297972 -1.86797 84 96 119
-9.39912 -0.269243 -1.87385 81 93 117
-3.09639 -8.14717 -1.70582 153 142 148
-3.11665 -7.23785 -1.58384 148 140 138
-3.45999 -6.87302 -1.60276 148 141 145
-3.4882 -6.87886 -1.60683 147 138 143
-4.07418 -6.22469 -1.63714 146 135 138
-4.08999 -6.20758 -1.63573 145 135 134
-5.23274 -5.78814 -1.8076 114 103 101
-5.2629 -5.78666 -1.81255 125 117 108
-5.27763 -5.76773 -1.81157 86 83 82
-5.30651 -5.76459 -1.81603 97 91 92
-7.19997 -3.23738 -1.84429 81 87 103
-7.17391 -3.19918 -1.83439 75 81 97
-7.19723 -3.18307 -1.83834 78 82 99
-7.23789 -3.16099 -1.84577 75 82 98
-7.20787 -3.12152 -1.83487 75 81 97
-8.06652 -2.13852 -1.86833 77 85 104
-8.07055 -2.11292 -1.86785 74 83 101
-8.69024 -1.28592 -1.87282 80 92 114
-8.68377 -1.25738 -1.87056 75 88 107
-9.02446 -0.691439 -1.86093 77 92 116
-9.2104 -0.466106 -1.86433 71 85 111
-9.21293 -0.441587 -1.86487 74 87 110
-9.40143 -0.224997 -1.87426 79 91 115
-3.09884 -7.25759 -1.58644 149 139 140
-3.44169 -6.88826 -1.6041 147 140 147
-4.0224 -6.24812 -1.63524 146 135 139
-4.04618 -6.22182 -1.63289 148 137 142
-5.19794 -5.87425 -1.81798 145 122 108
-5.18758 -5.82628 -1.80709 111 94 77
-5.19737 -5.80174 -1.80413 105 92 83
-7.23813 -3.10819 -1.8408 75 82 98
-7.25184 -3.0743 -1.8408 76 87 97
-7.23921 -3.04269 -1.83485 76 86 97
-8.08388 -2.08979 -1.86973 77 86 101
-8.09904 -2.06709 -1.87208 77 87 102
-8.69456 -1.21747 -1.8719 76 89 112
-8.69946 -1.19055 -1.87235 71 86 109
-9.02189 -0.662913 -1.86005 85 97 120
-9.22376 -0.40511 -1.86743 76 88 110
-9.38956 -0.195253 -1.87172 72 84 109
-3.10094 -7.33016 -1.60169 150 141 146
-3.3884 -6.91106 -1.60362 148 137 145
-3.4133 -6.91013 -1.60589 147 137 145
-3.97646 -6.2585 -1.63145 144 133 138
-3.99644 -6.24834 -1.63193 144 133 138
-5.08119 -5.91985 -1.80706 92 76 70
-5.1069 -5.89517 -1.80658 109 90 75
-5.18345 -5.94895 -1.82985 96 80 70
-5.15976 -5.88464 -1.81351 105 91 86
-7.28184 -3.03422 -1.84426 74 81 98
-7.29698 -3.00085 -1.84475 71 79 94
-7.27684 -2.96641 -1.83682 77 86 99
-7.28707 -2.94441 -1.83731 72 81 95
-8.08914 -2.02445 -1.86735 77 86 103
-8.09844 -2.00022 -1.86829 79 88 106
-8.10204 -1.97454 -1.8678 78 87 102
-8.71778 -1.16539 -1.87595 74 89 112
-8.71671 -1.13764 -1.87504 80 94 120
-9.02799 -0.620863 -1.86091 74 86 109
-9.02713 -0.592485 -1.86046 83 94 116
-9.21644 -0.380092 -1.86548 76 89 113
-9.2071 -0.355033 -1.86303 76 88 114
-9.39517 -0.165837 -1.87297 83 95 121
-3.09503 -7.41817 -1.61954 152 141 147
-3.34899 -6.93574 -1.60495 149 140 145
-3.36433 -6.91366 -1.60181 148 139 142
-3.92451 -6.28108 -1.62955 144 134 137
-3.95348 -6.26356 -1.62956 146 136 140
-4.97968 -5.96311 -1.79863 148 130 114
-5.04806 -5.95355 -1.80804 144 124 102
-5.06588 -5.93821 -1.80805 87 70 58
-5.93323 -4.7207 -1.81861 94 99 128
-5.95905 -4.69703 -1.82015 90 97 125
-5.97593 -4.68117 -1.82117 91 98 124
-5.99428 -4.66646 -1.82271 93 100 126
-6.00505 -4.64565 -1.82169 93 98 127
-6.02906 -4.62037 -1.82271 95 101 127
-6.04877 -4.60662 -1.82476 96 103 129
-6.05324 -4.58092 -1.82169 83 93 118
-6.07084 -4.55064 -1.82067 88 98 123
-6.10723 -4.54961 -1.82835 86 96 123
-6.10683 -4.52031 -1.82374 87 97 124
-6.12566 -4.49097 -1.82324 80 87 113
-6.16514 -4.49182 -1.83194 74 81 107
-6.1722 -4.46824 -1.82989 80 87 113
-6.17604 -4.44237 -1.82682 71 82 104
-6.19916 -4.41613 -1.82785 86 92 114
-6.21528 -4.39932 -1.82887 78 84 108
-6.22666 -4.37906 -1.82836 80 87 106
-6.25421 -4.35591 -1.83092 81 87 109
-6.25444 -4.3277 -1.82683 79 87 106
-6.26717 -4.30844 -1.82683 82 93 111
-6.29761 -4.28721 -1.83041 79 85 107
-6.31338 -4.27001 -1.83144 79 81 102
-6.32591 -4.25055 -1.83144 84 86 107
-6.34156 -4.23324 -1.83246 80 83 102
-6.3542 -4.19956 -1.83041 79 82 101
-6.36971 -4.18213 -1.83144 78 83 102
-7.3206 -2.93171 -1.84423 73 82 97
-7.35328 -2.90521 -1.84968 74 81 99
-7.33989 -2.8738 -1.84373 72 79 97
-8.12749 -1.94086 -1.87204 76 87 104
-8.70762 -1.09509 -1.87187 80 92 116
-9.0359 -0.564757 -1.8622 77 89 113
-9.21703 -0.330793 -1.86556 78 90 114
-9.39504 -0.121559 -1.87296 72 86 112
-3.10017 -7.50188 -1.6374 150 141 146
-3.31085 -6.93582 -1.60133 148 139 144
-3.88822 -6.3076 -1.63048 143 132 136
-3.90834 -6.29773 -1.63096 143 133 134
-4.92963 -6.03223 -1.80405 144 125 111
-4.96441 -6.01883 -1.80703 141 124 110
-4.99703 -6.02183 -1.81298 149 132 118
-5.75133 -4.94294 -1.81807 94 96 121
-5.7631 -4.92278 -1.81705 96 99 125
-5.78537 -4.8963 -1.81705 92 97 126
-5.80572 -4.88365 -1.8191 91 96 125
-5.81288 -4.85957 -1.81654 91 95 124
-5.83167 -4.84553 -1.81808 90 94 123
-5.84329 -4.80996 -1.8145 88 98 125
-5.87374 -4.80576 -1.82013 88 98 125
-5.88501 -4.78528 -1.81911 87 98 126
-5.91851 -4.76807 -1.82321 87 96 125
-5.91476 -4.73517 -1.81707 91 98 127
-6.38197 -4.16248 -1.83144 77 79 100
-6.39744 -4.13081 -1.83041 78 83 102
-6.41276 -4.11319 -1.83144 81 84 101
-6.42803 -4.09552 -1.83246 81 80 98
-6.44965 -4.06784 -1.83349 78 77 93
-6.46479 -4.05002 -1.83451 90 89 105
-6.48151 -4.03318 -1.83605 94 92 106
-6.49495 -4.0142 -1.83656 100 98 111
-6.50967 -3.98204 -1.83553 102 101 115
-6.51965 -3.96091 -1.83502 98 95 112
-6.53615 -3.94382 -1.83655 99 99 111
-6.55215 -3.9125 -1.83604 105 103 117
-6.55861 -3.88924 -1.8345 100 97 114
-7.36247 -2.85645 -1.84768 73 80 97
-7.35149 -2.81298 -1.84124 78 85 101
-7.3866 -2.80027 -1.84866 74 82 96
-7.37638 -2.77041 -1.84371 76 84 97
-8.13654 -1.91647 -1.87298 72 83 103
-8.1361 -1.88978 -1.87155 79 90 109
-8.14499 -1.86534 -1.87249 71 82 99
-8.7102 -1.06786 -1.87186 76 88 112
-8.71462 -1.04085 -1.8723 74 86 110
-9.02988 -0.521872 -1.86044 75 87 112
-9.03649 -0.493954 -1.86174 76 90 113
-9.2254 -0.294077 -1.86762 76 88 112
-9.21774 -0.26915 -1.86567 69 81 105
-9.39065 -0.0920092 -1.8721 80 94 120
-3.10817 -7.59486 -1.65744 150 141 146
-3.27123 -6.96003 -1.60266 149 138 142
-3.29146 -6.94885 -1.60222 147 138 142
-3.83502 -6.32771 -1.62811 149 139 139
-3.85231 -6.31295 -1.62717 148 137 142
-4.79292 -6.02832 -1.78126 145 123 109
-4.82522 -6.03214 -1.7872 141 122 108
-4.86349 -6.02389 -1.79167 145 124 116
-4.89472 -6.02586 -1.79712 143 125 111
-5.61473 -5.0978 -1.81753 104 97 113
-5.62846 -5.07933 -1.81702 99 94 114
-5.63648 -5.05556 -1.81446 97 92 114
-5.64298 -5.03049 -1.81139 99 97 119
-5.67858 -5.01632 -1.81601 98 94 119
-5.69633 -5.00155 -1.81703 99 97 121
-5.70687 -4.98025 -1.8155 97 97 123
-5.73661 -4.96049 -1.81807 93 95 120
-6.58483 -3.87794 -1.83911 94 91 108
-6.58123 -3.84866 -1.8345 101 99 113
-6.60175 -3.82009 -1.83552 100 98 111
-6.61288 -3.79967 -1.83552 100 100 113
-6.61727 -3.77532 -1.83347 102 102 114
-6.63913 -3.7475 -1.83501 91 89 103
-6.65003 -3.72695 -1.83501 97 95 109
-6.67427 -3.71402 -1.8391 87 85 99
-7.40122 -2.7405 -1.84717 76 85 98
-7.40894 -2.71737 -1.84716 77 85 98
-7.40022 -2.68828 -1.8427 77 83 95
-8.1624 -1.82945 -1.87484 76 87 105
-8.16355 -1.80317 -1.87388 81 92 110
-8.72442 -1.00062 -1.87365 74 86 110
-9.03912 -0.465781 -1.86216 71 85 111
-9.21194 -0.244324 -1.86422 78 90 116
-3.2362 -6.96683 -1.60084 148 139 144
-3.78455 -6.35246 -1.62715 146 136 135
-3.81577 -6.33902 -1.6281 148 138 137
-4.69746 -6.03694 -1.76788 145 126 111
-4.73202 -6.02484 -1.77085 144 125 110
-4.76421 -6.02895 -1.7768 143 125 108
-5.49814 -5.2083 -1.81444 110 91 108
-5.50534 -5.18344 -1.81137 120 104 117
-5.518 -5.16396 -1.81035 105 91 106
-5.55115 -5.14806 -1.81394 106 94 109
-5.55947 -5.12445 -1.81138 103 94 112
-5.57751 -5.11014 -1.81241 102 93 112
-6.69084 -3.68301 -1.8391 79 82 99
-6.69817 -3.66042 -1.83807 83 87 104
-6.70542 -3.6378 -1.83705 79 86 102
-6.72611 -3.62263 -1.84012 79 86 102
-6.73208 -3.58582 -1.83704 76 81 100
-6.74586 -3.5668 -1.83807 77 83 99
-7.41326 -2.66711 -1.84418 77 85 95
-7.43584 -2.63619 -1.84714 76 83 97
-8.17787 -1.77986 -1.87623 79 90 108
-8.73057 -0.973752 -1.87454 73 85 109
-8.73469 -0.946649 -1.87499 79 91 115
-9.04557 -0.437794 -1.86346 74 88 114
-9.20444 -0.207171 -1.8623 75 88 114
-9.21583 -0.182781 -1.86532 75 89 113
-3.09754 -7.67584 -1.67355 150 141 146
-3.21515 -6.97604 -1.60083 147 137 145
-3.74401 -6.37128 -1.62619 149 140 144
-3.7643 -6.36191 -1.62667 148 139 143
-4.57049 -6.03924 -1.74855 145 126 112
-4.59777 -6.03791 -1.75251 146 127 112
-4.63802 -6.03413 -1.75797 140 123 105
-4.66307 -6.02941 -1.76094 140 123 105
-5.37796 -5.31455 -1.81083 67 50 61
-5.39379 -5.29817 -1.81083 91 64 72
-5.41242 -5.26802 -1.80879 117 86 86
-5.43899 -5.26248 -1.81289 117 88 93
-5.45465 -5.24591 -1.81289 108 82 87
-5.47439 -5.23336 -1.81443 105 83 94
-6.75958 -3.54773 -1.83909 81 84 99
-6.77537 -3.5163 -1.83909 79 82 99
-6.79237 -3.4989 -1.84113 83 86 101
-6.80761 -3.48053 -1.84267 82 85 100
-6.81451 -3.44443 -1.8401 82 84 97
-6.81929 -3.42065 -1.83856 86 88 101
-7.43227 -2.60911 -1.84416 76 82 96
-7.4396 -2.58586 -1.84416 76 82 96
-7.449 -2.55032 -1.84366 74 84 96
-8.1854 -1.74164 -1.87622 80 91 110
-8.17299 -1.71247 -1.87196 81 92 111
-8.73049 -0.904873 -1.87317 71 85 111
-9.02725 -0.39441 -1.85908 73 88 111
-9.04516 -0.366917 -1.863 81 96 119
-9.22522 -0.158283 -1.86785 75 90 113
-3.10499 -7.77088 -1.69403 147 138 143
-3.16719 -7.01137 -1.60396 147 141 145
-3.19708 -6.99237 -1.60262 146 139 146
-3.72556 -6.38401 -1.62665 147 137 138
-4.47146 -6.03828 -1.73318 144 126 112
-4.5058 -6.02745 -1.73616 143 125 112
-4.53412 -6.02795 -1.74062 143 127 111
-5.30039 -5.38197 -1.80876 130 128 133
-5.32175 -5.37144 -1.81081 141 139 150
-5.34176 -5.35943 -1.81235 128 125 136
-5.36478 -5.33364 -1.81185 63 53 65
-6.82916 -3.3995 -1.83856 100 98 112
-6.83897 -3.37832 -1.83856 103 101 115
-6.86431 -3.35166 -1.84163 80 80 92
-6.86703 -3.32693 -1.83958 86 88 100
-6.87142 -3.30307 -1.83803 83 87 100
-7.47814 -2.53443 -1.84959 78 87 99
-7.47238 -2.50675 -1.84612 74 84 94
-7.48876 -2.47347 -1.8476 75 85 97
-8.19084 -1.68982 -1.87526 80 91 111
-8.18845 -1.64957 -1.87289 74 87 106
-8.73635 -0.877938 -1.87406 77 89 113
-8.73825 -0.850605 -1.87405 81 93 117
-9.04157 -0.338444 -1.86212 78 90 114
-9.21538 -0.121115 -1.86543 75 90 115
-3.05625 -7.82392 -1.70141 149 143 147
-3.09887 -7.82926 -1.70578 149 140 145
-3.13933 -7.00415 -1.59989 147 139 146
-3.67562 -6.40956 -1.62617 145 135 135
-3.69418 -6.39699 -1.6257 146 136 137
-4.3741 -6.03741 -1.71831 142 126 110
-4.41168 -6.03187 -1.72278 143 127 112
-4.43424 -6.02489 -1.72476 144 126 112
-5.21007 -5.48613 -1.81181 131 124 131
-5.23893 -5.46663 -1.81335 118 111 119
-5.25787 -5.45355 -1.81438 115 108 117
-5.26492 -5.42768 -1.8108 121 114 124
-5.29959 -5.4314 -1.81797 128 123 130
-6.88606 -3.27107 -1.83803 77 84 100
-6.89719 -3.25053 -1.83854 76 83 99
-6.89957 -3.22579 -1.83649 74 81 97
-6.91034 -3.192 -1.83546 76 81 100
-7.49749 -2.45064 -1.84808 75 85 97
-7.51722 -2.43131 -1.85154 75 85 97
-7.50553 -2.40192 -1.84658 75 85 97
-8.20043 -1.6256 -1.87476 80 91 111
-8.2009 -1.59929 -1.87381 74 85 106
-8.74201 -0.82344 -1.8745 80 94 119
-9.05197 -0.296327 -1.86429 75 87 109
-9.21683 -0.0964639 -1.86597 77 92 115
-9.22209 -0.0718248 -1.8675 82 94 118
-3.0432 -7.86385 -1.7088 147 141 145
-3.11078 -7.05618 -1.60843 148 138 146
-3.12036 -7.01846 -1.60123 148 138 146
-3.61562 -6.41573 -1.62049 147 136 142
-3.65069 -6.41003 -1.62333 145 135 139
-4.27729 -6.03508 -1.70345 145 127 116
-4.31141 -6.02534 -1.70643 143 126 111
-4.34271 -6.03144 -1.71237 143 126 111
-5.14433 -5.56677 -1.81537 92 88 95
-5.14682 -5.53531 -1.80974 93 86 93
-5.18362 -5.52478 -1.81436 123 117 121
-5.19753 -5.50619 -1.81334 134 130 133
-6.93172 -3.17627 -1.83904 74 79 98
-6.93557 -3.1523 -1.8375 74 80 99
-6.95161 -3.13399 -1.83955 73 81 98
-6.97773 -3.10717 -1.84313 73 81 96
-6.96727 -3.07676 -1.83749 74 83 97
-7.52144 -2.36839 -1.84806 76 86 98
-7.49104 -2.33341 -1.83815 79 86 101
-8.21463 -1.5756 -1.87616 66 78 100
-8.20787 -1.53463 -1.87284 77 90 109
-8.72557 -0.780713 -1.86997 73 87 113
-9.05204 -0.267985 -1.86428 75 87 111
-9.22538 -0.0347853 -1.86856 83 95 119
-3.01735 -7.86687 -1.70748 146 139 146
-3.57654 -6.43687 -1.62047 145 136 138
-3.59699 -6.42806 -1.62095 142 133 137
-4.19479 -6.03147 -1.69056 143 126 113
-4.2226 -6.03333 -1.69502 150 132 119
-4.25046 -6.03506 -1.69948 147 129 115
-5.05716 -5.62315 -1.81074 98 98 116
-5.07524 -5.60929 -1.81126 98 98 114
-5.09327 -5.59536 -1.81178 98 98 111
-5.1302 -5.58522 -1.81639 94 92 102
-6.9972 -3.06456 -1.84363 75 83 96
-6.99657 -3.02569 -1.83953 74 83 98
-7.02112 -3.01091 -1.84414 70 79 96
-6.99252 -2.97294 -1.83338 74 83 100
-7.5382 -2.3224 -1.84904 78 84 98
-7.55378 -2.28865 -1.85052 76 86 98
-7.50074 -2.24735 -1.83466 77 86 101
-8.23286 -1.51301 -1.87803 65 78 97
-8.21961 -1.48416 -1.87377 78 89 109
-8.73686 -0.754216 -1.87222 86 101 124
-8.7442 -0.727337 -1.87356 75 90 111
-8.96744 -0.348828 -1.86512 76 88 112
-8.95034 -0.324217 -1.86053 78 90 114
-9.03841 -0.239236 -1.86121 78 90 115
-9.20915 -0.0101047 -1.86462 76 88 112
-2.99898 -7.89196 -1.71139 148 141 148
-3.09996 -7.12363 -1.62195 148 138 146
-3.54411 -6.44735 -1.61905 145 136 137
-4.1075 -6.03942 -1.67965 142 126 120
-4.1256 -6.02711 -1.67966 131 115 105
-4.15435 -6.03088 -1.68461 136 118 106
-4.98551 -5.69733 -1.81277 95 91 105
-5.0013 -5.68077 -1.81226 94 92 105
-5.02953 -5.67888 -1.81687 96 93 105
-5.03906 -5.63695 -1.81023 95 96 111
-7.03929 -2.95476 -1.84311 73 80 98
-7.04771 -2.93286 -1.8431 71 77 95
-7.05783 -2.91169 -1.84361 74 81 97
-7.57004 -2.24239 -1.85149 71 80 98
-7.57249 -2.2176 -1.85049 77 87 103
-8.23149 -1.44675 -1.87517 73 85 107
-8.22756 -1.41973 -1.87327 71 83 105
-8.74671 -0.686275 -1.87355 77 92 113
-8.9717 -0.301393 -1.86623 87 99 121
-9.04835 -0.197017 -1.86338 75 87 111
-9.04032 -0.168508 -1.86162 80 92 116
-3.10554 -7.20123 -1.63908 143 135 142
-3.50657 -6.47152 -1.61998 140 131 133
-3.52973 -6.46815 -1.62187 143 134 135
-4.0355 -6.02921 -1.66726 150 137 135
-4.06304 -6.03176 -1.67172 149 134 128
-4.92632 -5.75118 -1.81326 90 86 94
-4.95089 -5.74523 -1.81634 92 87 97
-4.96562 -5.72728 -1.81532 93 90 102
-5.77191 -4.53995 -1.81587 79 89 114
-5.78933 -4.51102 -1.81482 83 91 114
-5.81017 -4.49923 -1.81746 83 91 114
-5.82342 -4.48142 -1.81746 83 89 113
-5.84511 -4.4558 -1.81799 73 79 105
-5.85974 -4.43905 -1.81852 73 81 104
-5.87584 -4.42342 -1.81958 77 85 108
-5.85359 -4.37859 -1.80743 76 84 107
-5.90865 -4.37827 -1.81959 82 93 113
-5.89837 -4.34284 -1.81166 73 81 104
-5.9034 -4.31899 -1.80902 73 81 104
-5.91658 -4.28722 -1.80691 83 91 110
-5.93537 -4.2736 -1.80902 85 91 113
-5.97128 -4.27233 -1.81695 82 88 110
-5.98107 -4.23805 -1.81378 79 86 104
-6.00759 -4.22974 -1.81854 80 85 105
-6.01057 -4.20459 -1.81537 80 83 102
-6.02445 -4.18722 -1.8159 84 85 105
-6.02586 -4.1473 -1.81009 82 81 97
-6.06966 -4.1507 -1.82066 81 84 101
-6.0818 -4.13203 -1.82065 78 81 100
-6.10508 -4.1072 -1.82224 80 81 101
-6.12029 -4.09056 -1.8233 84 87 104
-6.12585 -4.06743 -1.82119 76 77 95
-6.14405 -4.03912 -1.82119 90 92 107
-7.06432 -2.88899 -1.84309 72 81 98
-7.06451 -2.85087 -1.8395 75 84 99
-7.07616 -2.83034 -1.84052 69 78 93
-7.5541 -2.17404 -1.84306 76 85 100
-7.56377 -2.15141 -1.84404 75 84 99
-8.22928 -1.39374 -1.87279 75 87 111
-8.72274 -0.65706 -1.86767 73 88 111
-8.73367 -0.630422 -1.86992 72 86 111
-8.94715 -0.264693 -1.85961 75 87 111
-9.04973 -0.140372 -1.86379 77 89 112
-3.10711 -7.26986 -1.65395 147 137 145
-3.45342 -6.49003 -1.61807 147 138 141
-3.486 -6.48002 -1.6195 145 136 139
-3.97217 -6.03132 -1.65884 145 133 135
-4.01219 -6.03307 -1.66478 150 137 136
-4.86289 -5.79984 -1.81222 121 108 101
-4.89115 -5.79869 -1.81683 96 87 95
-4.90906 -5.76602 -1.81326 96 91 97
-5.54294 -4.7819 -1.80844 91 95 122
-5.57759 -4.76788 -1.8132 88 96 119
-5.58878 -4.74832 -1.81214 89 96 122
-5.6028 -4.73124 -1.81215 81 88 114
-5.6256 -4.70679 -1.81268 85 92 118
-5.63509 -4.68585 -1.8111 77 88 113
-5.65333 -4.67234 -1.81268 76 86 113
-5.68474 -4.65503 -1.81639 79 86 114
-5.69551 -4.63517 -1.81533 82 92 117
-5.71066 -4.61897 -1.81586 85 95 120
-5.72577 -4.60271 -1.81639 81 91 116
-5.74202 -4.57276 -1.81481 74 84 109
-5.75849 -4.55759 -1.81587 79 89 114
-6.15906 -4.02232 -1.82224 96 95 109
-6.1708 -4.00335 -1.82224 100 99 113
-6.18086 -3.98329 -1.82171 104 103 117
-6.19707 -3.95366 -1.82119 100 99 113
-6.21669 -3.93976 -1.82383 102 101 115
-6.2233 -3.91749 -1.82224 100 99 113
-6.23429 -3.88459 -1.82013 102 100 114
-6.24886 -3.86741 -1.82119 99 97 110
-6.25358 -3.84407 -1.81907 92 92 104
-6.28879 -3.82621 -1.82489 100 98 111
-6.29991 -3.8068 -1.82489 99 98 112
-6.31426 -3.78936 -1.82594 101 99 112
-6.29228 -3.75001 -1.81537 105 103 117
-7.08954 -2.81049 -1.84205 74 83 98
-7.09827 -2.77595 -1.84102 73 82 97
-7.10252 -2.75243 -1.83999 74 83 98
-7.60507 -2.13757 -1.85344 78 87 102
-7.61608 -2.10231 -1.85393 76 85 102
-8.24074 -1.35622 -1.87419 72 86 105
-8.72406 -0.588644 -1.8672 71 83 107
-8.97988 -0.242118 -1.8684 80 92 115
-8.95666 -0.217516 -1.86226 74 86 108
-3.10167 -7.35568 -1.67198 148 140 147
-3.43282 -6.49836 -1.61759 147 136 140
-3.89939 -6.03694 -1.64991 142 133 134
-3.92056 -6.03024 -1.6514 142 134 133
-3.94892 -6.03493 -1.65635 145 135 133
-4.80017 -5.84927 -1.81169 78 69 70
-4.81888 -5.8363 -1.81221 99 88 86
-4.84669 -5.81598 -1.81273 156 140 121
-5.4272 -4.91561 -1.80841 99 96 123
-5.46785 -4.90769 -1.81529 95 92 119
-5.4838 -4.89232 -1.81582 94 94 118
-5.47973 -4.85878 -1.80895 92 92 118
-5.5031 -4.83497 -1.80949 93 92 123
-5.51883 -4.81946 -1.81002 92 94 124
-5.53453 -4.80389 -1.81055 93 97 124
-6.32388 -3.72973 -1.82013 97 95 111
-6.34962 -3.71902 -1.82488 94 95 113
-6.34214 -3.68869 -1.81907 78 79 99
-6.3569 -3.65832 -1.81854 78 83 99
-6.36916 -3.63965 -1.81907 78 84 100
-6.38305 -3.62188 -1.82012 78 86 99
-6.41591 -3.60176 -1.82541 78 85 101
-6.4045 -3.56966 -1.81853 76 83 100
-7.12466 -2.73595 -1.84409 74 84 96
-7.12582 -2.69849 -1.84101 74 84 96
-7.14063 -2.67906 -1.84305 73 83 95
-7.14636 -2.65613 -1.84254 74 84 96
-7.60873 -2.0749 -1.85045 76 88 104
-7.61063 -2.05005 -1.84946 73 84 102
-8.7406 -0.562283 -1.8708 76 88 108
-8.96064 -0.181955 -1.86336 79 91 113
-3.10854 -7.44084 -1.69091 148 138 146
-3.37871 -6.51448 -1.61522 146 136 137
-3.4105 -6.50311 -1.61617 145 134 138
-3.83751 -6.0393 -1.64198 142 133 138
-3.86167 -6.03777 -1.64495 141 132 137
-4.74396 -5.90716 -1.81423 144 127 110
-4.76166 -5.89286 -1.81423 100 90 81
-4.78617 -5.86826 -1.81322 95 84 82
-5.33789 -5.02864 -1.81104 105 93 115
-5.34167 -5.00173 -1.80681 102 93 114
-5.35788 -4.9868 -1.80734 102 95 115
-5.37546 -4.97313 -1.8084 100 95 115
-5.39653 -4.94723 -1.80788 97 93 116
-5.41681 -4.93604 -1.81 98 94 119
-6.4367 -3.56205 -1.8254 78 84 100
-6.44025 -3.53842 -1.82329 78 84 98
-6.46104 -3.5113 -1.82487 79 82 100
