-7.33198 3.3511 -1.842 71 78 96
-7.34877 3.3984 -1.85312 68 75 93
-7.31064 3.40219 -1.84419 68 76 94
-7.30417 3.42394 -1.84585 69 76 94
-7.2893 3.44088 -1.84472 71 78 97
-7.27393 3.47006 -1.84526 74 81 99
-7.2639 3.48981 -1.8458 69 76 91
-7.2538 3.50953 -1.84635 65 69 83
-7.23481 3.53659 -1.84577 80 87 103
-7.22243 3.58085 -1.84964 75 83 99
-7.20638 3.60976 -1.85018 64 72 87
-7.18611 3.62329 -1.84738 73 81 96
-7.15176 3.69305 -1.85012 64 69 88
-7.1523 3.71972 -1.85456 76 83 101
-7.14143 3.73917 -1.85511 86 94 111
-7.08171 3.79277 -1.84949 73 76 96
-7.06943 3.82431 -1.8517 74 81 99
-7.06779 3.84994 -1.85559 70 75 94
-7.06285 3.87347 -1.85836 74 79 98
-7.03113 3.89202 -1.85389 69 75 93
-7.03393 3.92093 -1.85944 76 83 100
-7.01766 3.9368 -1.85832 66 73 91
-6.99979 3.95153 -1.85663 68 73 93
-6.98508 3.98175 -1.85829 70 75 96
-6.97492 4.00188 -1.85939 65 72 90
-6.95844 4.01753 -1.85826 73 80 97
-6.93871 4.04426 -1.85825 75 82 100
-6.919 4.05753 -1.85601 75 83 99
-6.91324 4.08089 -1.85878 77 85 101
-6.90248 4.11424 -1.8621 78 86 102
-6.87952 4.12506 -1.85875 76 85 102
-6.86886 4.14494 -1.85985 79 88 103
-6.29337 5.17629 -1.87972 76 85 102
-6.27224 5.18799 -1.87808 77 86 103
-6.24961 5.21439 -1.87915 77 86 101
-6.2284 5.22592 -1.87752 75 84 99
-5.84713 5.8525 -1.8815 78 85 101
-5.83393 5.87465 -1.88413 79 85 101
-5.79599 5.88428 -1.8799 78 84 100
-5.57228 6.47078 -1.91 75 82 98
-5.54897 6.48137 -1.90898 78 84 100
-5.24034 7.0483 -1.92252 85 87 102
-5.20103 7.03262 -1.91412 81 86 100
-4.90291 7.72511 -1.94278 80 88 101
-4.87427 7.72993 -1.94089 82 83 101
-4.43866 8.4864 -1.95348 79 85 99
-4.41259 8.50031 -1.95438 80 86 100
-4.11107 8.9836 -1.95935 82 85 101
-3.85522 9.47835 -1.97135 86 93 104
-9.08904 0.574304 -1.82792 68 79 101
-9.09798 0.599615 -1.83087 67 76 96
-8.76807 1.0291 -1.82467 69 81 97
-8.75063 1.05058 -1.82107 66 76 94
-8.77325 1.07765 -1.82821 65 76 96
-8.36084 1.47935 -1.80269 66 68 84
-8.36291 1.50309 -1.80478 116 107 103
-8.37753 1.54126 -1.81109 118 100 94
-8.09447 2.07283 -1.8314 111 101 102
-8.04525 2.116 -1.82214 115 98 87
-7.52828 2.9703 -1.83894 72 81 95
-7.53195 2.99653 -1.84338 68 75 91
-7.51875 3.02667 -1.84391 72 79 95
-7.49298 3.0385 -1.83888 82 89 106
-7.49808 3.06564 -1.84388 68 76 94
-7.48969 3.09825 -1.84609 74 81 100
-7.47574 3.11592 -1.84496 65 72 90
-7.47028 3.13792 -1.84662 75 84 101
-7.45129 3.16518 -1.84548 66 74 93
-7.44394 3.18626 -1.84658 63 70 88
-6.85965 4.16596 -1.86151 74 83 100
-6.83769 4.19109 -1.86094 78 85 103
-6.82223 4.20739 -1.86037 78 85 103
-6.81126 4.22715 -1.86147 77 84 102
-6.79206 4.25439 -1.86201 79 88 103
-6.78095 4.27409 -1.86311 77 86 101
-6.76221 4.28783 -1.86143 77 86 102
-6.74571 4.31725 -1.86309 76 85 102
-6.73437 4.33684 -1.86419 76 85 100
-6.71847 4.35279 -1.86362 76 85 100
-6.20982 5.24017 -1.87697 74 83 98
-6.19087 5.2705 -1.87967 77 84 100
-6.17216 5.28462 -1.87912 77 84 100
-6.1521 5.29727 -1.87802 78 85 101
-5.78262 5.90631 -1.88253 80 84 101
-5.77151 5.93138 -1.88621 80 86 102
-5.52671 6.49348 -1.90846 81 84 101
-5.49745 6.51713 -1.90947 79 87 101
-5.47402 6.52746 -1.90845 78 88 100
-5.17282 7.06177 -1.91707 83 91 104
-5.14888 7.07273 -1.91658 82 85 100
-4.8507 7.74516 -1.94183 80 86 100
-4.82538 7.75682 -1.94183 80 87 100
-4.36968 8.51009 -1.95303 83 86 101
-4.08135 8.99102 -1.95892 84 85 103
-3.81396 9.5062 -1.97471 75 73 88
-9.07895 0.536741 -1.82449 65 76 96
-8.77941 0.970951 -1.82523 74 85 103
-8.75257 0.99132 -1.81907 64 72 92
-8.40013 1.4644 -1.81221 67 75 94
-8.10631 1.99476 -1.82767 68 77 94
-8.09605 2.02657 -1.82764 70 76 96
-8.08886 2.04776 -1.82762 72 74 94
-8.14442 2.12331 -1.84928 115 96 85
-7.59578 2.80831 -1.83571 74 80 98
-7.57743 2.82406 -1.83291 64 72 91
-7.56853 2.85596 -1.83456 69 77 93
-7.58486 2.88773 -1.8429 67 74 89
-7.58194 2.91068 -1.84512 77 82 98
-7.56394 2.93856 -1.84398 75 81 94
-7.55046 2.95654 -1.84285 78 86 99
-6.70014 4.38086 -1.86472 77 84 100
-6.68413 4.3967 -1.86415 78 85 101
-6.67398 4.41736 -1.86581 78 85 103
-6.65044 4.427 -1.86246 78 85 103
-6.63459 4.45726 -1.86467 77 86 101
-6.62274 4.47659 -1.86577 77 84 100
-6.60349 4.48969 -1.86409 76 85 100
-6.58885 4.52105 -1.86686 77 86 101
-6.12497 5.31895 -1.87747 79 86 102
-6.11133 5.33852 -1.87909 78 85 101
-6.09372 5.3538 -1.87908 78 84 100
-5.74044 5.94982 -1.88515 79 85 101
-5.71632 5.95793 -1.88303 78 84 101
-5.70377 5.98135 -1.88619 81 85 103
-5.45802 6.549 -1.911 82 88 102
-5.13723 7.10555 -1.9225 85 89 104
-4.79359 7.78648 -1.94512 78 85 99
-4.76484 7.79092 -1.94324 79 87 100
-4.34419 8.52562 -1.95438 80 88 101
-4.31191 8.52281 -1.95123 79 89 101
-4.05587 9.01132 -1.96153 83 86 101
-3.78117 9.50711 -1.97303 73 72 90
-3.7479 9.50602 -1.97094 68 70 87
-9.09146 0.488552 -1.82652 69 80 100
-9.10262 0.513874 -1.82996 67 78 98
-8.77303 0.910654 -1.82119 69 80 98
-8.76789 0.945669 -1.82116 69 81 97
-8.42133 1.36387 -1.81177 109 110 122
-8.41623 1.38615 -1.81175 110 110 122
-8.41107 1.40841 -1.81173 96 102 115
-8.10958 1.8454 -1.81585 61 73 91
-8.12405 1.89548 -1.82395 68 76 96
-8.13576 1.92192 -1.82936 71 79 98
-8.11845 1.95175 -1.82716 70 77 96
-8.12073 1.97566 -1.82986 69 76 95
-7.66761 2.67249 -1.83805 69 76 94
-7.67252 2.69847 -1.84249 68 73 92
-7.66426 2.73069 -1.84414 71 76 95
-7.61801 2.73444 -1.83242 66 72 91
-7.61739 2.75811 -1.83519 68 75 93
-7.63334 2.80111 -1.84464 78 84 103
-6.58114 4.54402 -1.86964 80 89 104
-6.56027 4.5557 -1.8674 76 85 102
-6.53802 4.58063 -1.86738 76 84 103
-6.52861 4.60226 -1.8696 78 85 103
-6.5033 4.60991 -1.86569 77 86 103
-6.49808 4.6353 -1.86958 76 85 102
-6.46831 4.65354 -1.86678 77 86 103
-6.08125 5.37472 -1.88124 79 85 101
-6.04862 5.39034 -1.87852 76 83 99
-6.03342 5.4083 -1.87959 79 85 101
-6.01561 5.42334 -1.87959 79 85 101
-5.67365 6.00099 -1.88565 80 83 100
-5.65515 6.01659 -1.88617 81 87 102
-5.63776 6.03369 -1.88722 79 87 100
-5.42634 6.56913 -1.91099 79 85 101
-5.40491 6.58246 -1.91098 80 85 102
-5.38655 6.6006 -1.91251 79 85 101
-5.10294 7.12432 -1.92249 82 90 103
-5.07044 7.11979 -1.91755 82 88 104
-4.74184 7.80761 -1.94465 78 86 99
-4.0083 9.01194 -1.95848 84 86 98
-9.08891 0.42713 -1.82459 70 83 100
-9.0713 0.450539 -1.82061 69 82 101
-8.80512 0.866753 -1.82788 70 83 102
-8.7824 0.887969 -1.82275 65 78 97
-8.4239 1.30634 -1.80918 110 112 123
-8.43034 1.33079 -1.81232 110 113 125
-8.1244 1.7691 -1.81374 65 72 90
-8.10686 1.78743 -1.81047 67 72 92
-8.10971 1.81109 -1.81316 64 71 90
-8.13631 1.87572 -1.8256 67 78 96
-7.7149 2.50287 -1.83093 69 76 92
-7.67931 2.54724 -1.82643 65 74 91
-7.68294 2.57228 -1.83032 67 76 93
-7.70776 2.60616 -1.84089 68 75 93
-7.69997 2.63845 -1.84254 68 76 95
-7.68557 2.65625 -1.84085 67 74 91
-6.45433 4.67118 -1.86733 78 85 103
-6.44883 4.69654 -1.87122 81 88 107
-6.42025 4.71578 -1.86897 82 85 104
-6.40747 4.73459 -1.87008 79 86 102
-6.39604 4.75468 -1.87174 80 87 103
-5.98664 5.44292 -1.87849 78 84 100
-5.97503 5.46506 -1.88119 79 85 101
-5.9583 5.48138 -1.88173 79 85 101
-5.61008 6.03674 -1.88353 77 85 100
-5.58762 6.06687 -1.88668 81 88 102
-5.34944 6.61227 -1.90995 77 85 98
-5.32992 6.62863 -1.91097 78 84 98
-5.06398 7.16269 -1.92644 83 86 103
-5.01379 7.15217 -1.91804 80 89 104
-4.70154 7.81927 -1.94323 79 87 100
-4.676 7.83048 -1.94323 76 84 99
-4.27758 8.5559 -1.95573 80 88 101
-4.24663 8.55651 -1.95348 79 87 98
-3.98442 9.03761 -1.9624 81 87 99
-3.95223 9.0372 -1.96023 81 87 103
-3.70024 9.51079 -1.96926 76 77 95
-3.67054 9.52265 -1.9701 82 84 99
-9.08532 0.377977 -1.82266 66 78 100
-9.10841 0.403722 -1.82907 68 81 98
-8.8386 0.794929 -1.82893 66 79 96
-8.8056 0.807305 -1.82589 66 79 96
-8.78558 0.840775 -1.82177 72 85 102
-8.43825 1.22791 -1.80872 69 77 96
-8.43548 1.25058 -1.80923 62 63 80
-8.44578 1.2872 -1.81395 117 116 127
-8.14767 1.69505 -1.81435 69 74 93
-8.13034 1.71357 -1.81107 70 73 91
-8.11483 1.73248 -1.80834 70 73 91
-7.75743 2.39069 -1.82991 110 110 122
-7.75808 2.41429 -1.83268 110 109 123
-7.74969 2.43449 -1.83266 117 116 130
-7.74304 2.45535 -1.8332 118 121 133
-7.72886 2.48488 -1.83262 58 65 81
-6.37004 4.77625 -1.87061 77 86 103
-6.35983 4.79758 -1.87283 75 82 100
-6.33842 4.80832 -1.87059 75 81 97
-6.32253 4.82429 -1.87058 77 84 100
-6.30315 4.85214 -1.87224 76 85 102
-5.92281 5.49339 -1.87792 76 82 98
-5.90971 5.51395 -1.88008 75 81 97
-5.89032 5.52715 -1.87953 79 85 101
-5.56555 6.07753 -1.88562 77 84 100
-5.54791 6.09439 -1.88667 78 84 102
-5.31136 6.64658 -1.91249 80 84 101
-5.29276 6.66447 -1.91402 80 86 102
-5.00149 7.1848 -1.92396 81 88 104
-4.97541 7.19179 -1.92247 82 88 102
-4.65041 7.84161 -1.94323 79 90 101
-4.21896 8.56619 -1.95348 77 85 96
-3.90928 9.0522 -1.96066 77 76 95
-3.64577 9.55332 -1.97514 75 77 90
-9.21065 0.242397 -1.83533 74 86 110
-9.08393 0.341259 -1.8217 72 85 104
-8.83725 0.73878 -1.82718 68 79 99
-8.81018 0.760211 -1.82542 69 80 100
-8.83992 0.767011 -1.82849 68 79 99
-8.80889 0.783857 -1.82591 71 82 102
-8.46638 1.18647 -1.81404 65 77 94
-8.45614 1.20789 -1.81243 66 78 96
-8.16048 1.64124 -1.81385 120 113 108
-8.16011 1.66394 -1.81546 57 59 64
-7.76831 2.27901 -1.82107 62 68 84
-7.75496 2.30867 -1.82049 118 119 129
-7.77571 2.33944 -1.82939 115 114 126
-7.76036 2.35702 -1.82715 112 111 119
-6.28575 4.86667 -1.87167 77 86 103
-6.26968 4.88247 -1.87166 76 85 102
-6.24998 4.91013 -1.87332 76 83 101
-6.23514 4.92719 -1.87387 76 83 101
-5.8634 5.54905 -1.87952 77 84 100
-5.85006 5.56948 -1.88168 78 86 99
-5.82805 5.57954 -1.88005 77 84 98
-5.81213 5.59693 -1.88113 81 86 103
-5.52173 6.11959 -1.88824 78 85 101
-5.50284 6.13476 -1.88876 79 86 102
-5.48499 6.15145 -1.88981 77 84 100
-5.25442 6.674 -1.91095 85 91 105
-5.23466 6.6901 -1.91197 82 88 103
-4.93081 7.19097 -1.91704 81 89 102
-4.61556 7.86526 -1.94511 78 88 100
-4.59067 7.87799 -1.94558 81 87 101
-4.17715 8.57871 -1.95303 78 86 99
-4.15069 8.59186 -1.95393 80 86 100
-3.87654 9.04967 -1.95805 77 80 97
-3.61101 9.54611 -1.97178 68 70 85
-9.18624 0.183831 -1.82943 69 82 104
-9.21022 0.213379 -1.83491 66 78 102
-9.09139 0.292716 -1.82274 70 81 99
-9.09737 0.317425 -1.82469 70 81 101
-8.84144 0.69716 -1.82718 77 85 106
-8.82984 0.726468 -1.82955 67 78 96
-8.46372 1.12824 -1.81039 68 80 96
-8.45935 1.15064 -1.81037 68 80 96
-8.18049 1.56638 -1.81391 114 102 96
-8.18536 1.60151 -1.81768 115 104 96
-8.17762 1.6225 -1.81712 114 101 92
-7.82175 2.14825 -1.8223 112 100 97
-7.82329 2.1717 -1.82507 113 101 90
-7.81022 2.19022 -1.82338 117 104 92
-7.80615 2.21182 -1.82447 97 90 89
-7.79491 2.24231 -1.82445 74 78 90
-6.22566 4.94962 -1.87665 76 85 100
-6.19885 4.97031 -1.87552 76 85 100
-6.17844 4.98176 -1.87384 76 85 100
-6.16871 5.0041 -1.87661 78 85 100
-6.13632 5.01899 -1.87326 73 79 95
-5.78367 5.61698 -1.88057 80 84 101
-5.76883 5.63575 -1.88219 79 85 101
-5.45302 6.16847 -1.88875 83 89 105
-5.43288 6.18185 -1.88874 80 86 102
-5.21586 6.7078 -1.9135 79 84 102
-5.18641 6.73178 -1.91502 83 86 103
-4.91727 7.22174 -1.92247 81 89 102
-4.89913 7.24392 -1.92543 81 89 102
-4.8632 7.23162 -1.91851 82 90 103
-4.56572 7.89064 -1.94605 80 88 101
-4.12859 8.61782 -1.95798 80 86 100
-3.84893 9.06382 -1.95936 79 82 99
-3.5758 9.59945 -1.98102 67 69 82
-9.09891 0.231921 -1.82378 65 77 101
-9.08574 0.255883 -1.82079 69 81 103
-8.84529 0.6415 -1.82675 65 76 95
-8.85216 0.669968 -1.82893 68 79 97
-8.82431 0.678415 -1.82652 69 80 98
-8.83096 0.702774 -1.82906 69 77 98
-8.45137 1.04575 -1.80307 64 72 91
-8.44917 1.0684 -1.80358 70 78 97
-8.48512 1.10856 -1.81516 65 76 94
-8.18822 1.46627 -1.80911 66 74 90
-8.20156 1.49173 -1.81452 78 71 80
-8.1993 1.54788 -1.81773 119 106 101
-7.84349 2.12125 -1.82567 118 100 87
-6.11979 5.03435 -1.87325 78 85 101
-6.09921 5.0455 -1.87157 78 85 101
-6.08786 5.0663 -1.87379 77 83 99
-6.06058 5.0863 -1.87266 78 85 100
-5.75512 5.65598 -1.88435 77 84 101
-5.7288 5.67877 -1.88489 81 86 102
-5.70894 5.69139 -1.88434 80 85 101
-5.41375 6.19676 -1.88926 83 89 105
-5.38806 6.22302 -1.89136 78 88 100
-5.16742 6.74935 -1.91655 83 86 103
-5.13851 6.75029 -1.91297 82 85 100
-4.84147 7.27502 -1.92591 81 89 102
-4.5267 7.90501 -1.94557 76 86 96
-4.08159 8.61516 -1.95393 71 77 93
-3.80583 9.07835 -1.9598 81 79 98
-3.54244 9.59767 -1.97893 67 69 82
-9.21907 0.141068 -1.83617 72 83 106
-9.05398 0.206128 -1.81193 64 76 100
-8.86262 0.600736 -1.8298 65 76 94
-8.8233 0.61905 -1.82453 69 80 100
-8.84168 0.644284 -1.83013 64 75 93
-8.48779 1.02818 -1.81206 68 76 95
-8.47483 1.18046 -1.8335 68 79 97
-8.45679 1.20516 -1.83034 68 80 96
-8.21616 1.4157 -1.8135 74 84 95
-8.20675 1.44757 -1.81293 69 82 100
-8.27622 1.54207 -1.83837 119 106 98
-7.88116 2.00787 -1.8252 70 79 97
-7.87773 2.02957 -1.8263 69 77 98
-7.88151 2.05361 -1.82963 72 71 87
-7.87648 2.0862 -1.83127 116 99 98
-6.05431 5.11262 -1.87711 81 88 104
-6.03092 5.12071 -1.87432 77 84 100
-6.00862 5.14607 -1.87542 78 85 101
-5.98907 5.15821 -1.8743 76 83 99
-5.68664 5.70092 -1.8827 81 87 101
-5.66719 5.7325 -1.88649 80 86 102
-5.64599 5.7434 -1.8854 81 87 103
-5.36881 6.2378 -1.89189 78 85 100
-5.34737 6.24932 -1.89135 76 82 98
-5.32271 6.25595 -1.88924 74 81 96
-5.1088 6.77395 -1.9145 83 87 100
-5.08963 6.79132 -1.91603 82 85 100
-4.8187 7.28837 -1.9264 82 89 105
-4.78376 7.27743 -1.91998 79 85 101
-4.50164 7.91747 -1.94604 79 87 99
-4.47502 7.92628 -1.94557 78 87 100
-4.05436 8.62618 -1.95438 79 85 99
-3.77478 9.08107 -1.95849 78 75 92
-3.74864 9.10055 -1.9611 60 62 79
-3.51429 9.61665 -1.98145 65 67 80
-9.10725 0.146645 -1.82485 69 79 104
-8.85615 0.54441 -1.82719 70 81 99
-8.81516 0.57108 -1.82099 66 77 95
-8.84139 0.596742 -1.82864 66 77 95
-8.50482 0.950008 -1.81319 66 77 97
-8.50673 0.973315 -1.81475 69 80 100
-8.50285 0.995833 -1.81473 66 74 95
-8.47928 1.15377 -1.8335 68 79 99
-8.23971 1.37524 -1.81734 111 111 118
-8.24398 1.3987 -1.82003 118 121 129
-7.88854 1.87451 -1.81527 68 76 95
-7.91749 1.91678 -1.82695 66 73 92
-7.91985 1.94018 -1.82972 66 75 92
-7.89276 1.95474 -1.82357 68 77 96
-7.90048 1.97981 -1.82801 70 79 98
-7.98947 2.14607 -1.86804 112 95 82
-5.97725 5.17879 -1.87652 77 86 101
-5.94822 5.19681 -1.87484 78 85 101
-5.93751 5.21873 -1.87761 77 86 101
-5.91522 5.22776 -1.87538 77 83 101
-5.62828 5.7588 -1.88593 80 86 101
-5.61052 5.77415 -1.88647 81 87 103
-5.30192 6.28991 -1.89398 77 85 99
-5.27405 6.29152 -1.89028 79 86 102
-5.07427 6.81532 -1.9196 83 84 102
-5.03268 6.81863 -1.91499 89 92 107
-4.7598 7.31713 -1.9264 78 85 100
-4.44764 7.93321 -1.94463 76 86 98
-4.02708 8.63712 -1.95483 80 83 98
-4.00279 8.65723 -1.95753 82 86 98
-3.7197 9.11058 -1.96154 55 62 76
-3.46444 9.6127 -1.97809 69 72 87
-9.10074 0.122091 -1.8229 63 74 96
-8.85357 0.502406 -1.82588 64 76 98
-8.82291 0.512554 -1.82155 66 78 97
-8.8609 0.5388 -1.83228 67 78 96
-8.49641 0.891483 -1.80849 66 77 97
-8.50854 0.927487 -1.81321 73 84 102
-8.48001 1.08576 -1.83125 68 79 99
-8.47769 1.1127 -1.8317 65 76 96
-8.24734 1.29786 -1.81469 113 113 122
-8.25564 1.32195 -1.81847 108 111 118
-8.23913 1.35255 -1.81573 108 108 119
-7.90367 1.80033 -1.8131 67 74 92
-7.89988 1.8328 -1.81475 66 74 93
-7.89516 1.85393 -1.81529 68 76 95
-5.90186 5.24675 -1.87704 78 83 103
-5.87761 5.27015 -1.87758 78 84 102
-5.85775 5.28183 -1.87646 80 85 104
-5.58245 5.79478 -1.88646 80 86 100
-5.55992 5.80386 -1.88483 82 88 102
-5.54315 5.82055 -1.88591 80 88 101
-5.25664 6.30922 -1.89186 77 84 100
-5.22509 6.32675 -1.89132 80 86 100
-5.01714 6.84251 -1.91857 85 88 105
-4.99294 6.85124 -1.91754 84 87 102
-4.7224 7.30071 -1.91849 78 88 100
-4.70797 7.33112 -1.92392 80 90 102
-4.40842 7.94704 -1.94416 78 86 99
-4.39287 7.98254 -1.95074 78 85 98
-3.96001 8.66689 -1.95663 82 88 102
-3.67637 9.12454 -1.96198 55 61 79
-3.43843 9.64096 -1.98271 67 67 83
-8.84842 0.446373 -1.8237 76 89 108
-8.83023 0.453963 -1.82212 70 83 100
-8.84619 0.474129 -1.8237 69 81 103
-8.84261 0.490156 -1.82618 66 78 100
-8.49962 0.846029 -1.80748 66 76 95
-8.49615 0.868515 -1.80746 66 76 96
-8.49953 1.02021 -1.83351 68 79 96
-8.46099 1.05611 -1.82583 68 78 96
-8.28619 1.28245 -1.82448 123 121 134
-7.93465 1.73054 -1.81595 78 81 98
-7.9201 1.76007 -1.81425 66 73 91
-7.94705 1.78989 -1.82427 69 76 95
-5.8429 5.29924 -1.87757 81 86 104
-5.81838 5.32238 -1.87812 77 83 99
-5.80337 5.33969 -1.87922 78 84 100
-5.51486 5.84087 -1.8859 81 85 102
-5.49909 5.85899 -1.88752 81 86 102
-5.47984 5.87242 -1.88751 79 85 101
-5.2034 6.3378 -1.89079 84 87 102
-5.18578 6.35531 -1.89237 84 87 104
-4.96681 6.85653 -1.91549 82 85 100
-4.68267 7.36885 -1.92984 80 87 103
-4.64292 7.3468 -1.92046 80 87 103
-4.36018 7.97659 -1.94651 78 86 99
-3.9314 8.67383 -1.95618 83 86 101
-3.64631 9.1306 -1.96154 56 62 77
-8.83452 0.406966 -1.82216 64 76 102
-8.84475 0.418354 -1.82239 64 76 100
-8.85745 0.431831 -1.82879 65 77 99
-8.54446 0.817002 -1.81859 71 82 100
-8.49961 0.96581 -1.8317 69 80 100
-8.49962 0.993006 -1.83261 67 78 96
-8.2871 1.20376 -1.8202 71 79 95
-8.28439 1.2258 -1.82073 79 88 103
-8.30051 1.25119 -1.82668 71 74 93
-7.95299 1.66834 -1.81601 74 75 84
-7.95065 1.69006 -1.8171 72 74 92
-7.01727 3.22171 -1.84051 71 78 96
-6.97297 3.30578 -1.84219 67 74 92
-6.97831 3.36992 -1.85372 65 72 90
-6.95709 3.40685 -1.85427 70 75 95
-6.95049 3.42772 -1.85599 67 74 92
-6.92365 3.44866 -1.85251 67 73 89
-6.89073 3.4536 -1.84498 76 82 98
-6.87416 3.46834 -1.84323 68 75 91
-6.8651 3.49987 -1.84611 67 74 92
-6.85492 3.51854 -1.84667 64 70 83
-6.8142 3.55538 -1.8426 67 74 93
-6.84095 3.59754 -1.85646 67 75 92
-6.79661 3.59448 -1.84488 80 88 103
-6.81344 3.63061 -1.85528 72 81 97
-6.7987 3.65895 -1.85642 70 77 96
-6.75119 3.65331 -1.84369 68 73 93
-6.74527 3.67485 -1.84599 67 72 92
-6.75257 3.71779 -1.85522 66 73 89
-6.71149 3.71589 -1.8448 71 78 94
-6.71325 3.74275 -1.84999 66 73 89
-6.70583 3.7761 -1.85402 67 74 90
-6.69156 3.7922 -1.85343 76 82 98
-6.66467 3.79954 -1.84822 74 80 96
-6.64279 3.82292 -1.84705 80 82 103
-6.63621 3.84432 -1.84935 73 74 95
-5.7821 5.34964 -1.87754 79 85 101
-5.75487 5.36958 -1.87698 78 84 100
-5.73722 5.38378 -1.87697 77 84 100
-5.45017 5.8909 -1.88696 83 89 103
-5.4297 5.90263 -1.88641 83 89 103
-5.16116 6.38395 -1.89552 82 86 101
-5.13525 6.38826 -1.89288 83 86 102
-4.93648 6.87947 -1.91702 81 88 104
-4.91034 6.88456 -1.91497 78 86 99
-4.62897 7.37882 -1.92638 81 90 103
-4.3186 7.98459 -1.94462 76 84 97
-4.29252 7.99464 -1.94462 75 83 96
-3.90687 8.69369 -1.95888 80 84 96
-3.61518 9.1328 -1.96024 63 72 79
-8.8552 0.349195 -1.8237 73 86 106
-8.84872 0.372246 -1.82526 77 89 111
-8.85521 0.377042 -1.82414 76 88 110
-8.55293 0.77194 -1.81916 67 78 96
-8.54587 0.794152 -1.81808 68 79 97
-8.52421 0.927861 -1.83622 71 82 102
-8.29984 1.14974 -1.8208 66 76 94
-8.30486 1.17305 -1.82349 67 78 96
-7.98815 1.59925 -1.82053 112 101 97
-7.97486 1.61825 -1.81828 114 103 96
-7.98012 1.64188 -1.82161 118 111 103
-7.15061 2.93542 -1.83319 64 71 89
-7.15597 2.96158 -1.83838 69 73 92
-7.15997 3.02252 -1.84817 77 76 94
-7.1241 3.02799 -1.83949 92 93 111
-7.11036 3.04465 -1.83832 81 88 106
-7.10026 3.07486 -1.84003 85 90 109
-7.11009 3.10389 -1.84696 78 83 102
-7.07753 3.11063 -1.83943 64 71 87
-7.06526 3.12802 -1.83884 70 77 93
-7.05472 3.1581 -1.84055 78 83 102
-7.04733 3.17814 -1.8417 75 78 97
-7.03989 3.19817 -1.84284 71 76 95
-7.05477 3.26684 -1.85726 60 67 83
-7.03536 3.28038 -1.85436 67 74 91
-7.02736 3.31234 -1.85723 67 73 92
-6.99989 3.34573 -1.85547 69 75 94
-6.9801 3.39566 -1.85833 62 68 88
-6.62331 3.8613 -1.84934 75 77 98
-6.61192 3.87935 -1.84991 82 86 106
-6.60365 3.91253 -1.85394 81 86 105
-6.59055 3.92941 -1.85393 78 85 103
-6.58203 3.94964 -1.85565 78 84 103
-6.56718 3.97826 -1.85737 78 85 101
-6.5385 3.98362 -1.85158 78 87 102
-6.54662 4.01635 -1.85966 81 89 102
-6.51921 4.03564 -1.85675 78 85 103
-6.50875 4.05459 -1.8579 77 84 100
-5.72688 5.40679 -1.8803 78 85 101
-5.70061 5.42794 -1.88029 78 85 101
-5.68035 5.43901 -1.87917 78 84 98
-5.65887 5.44851 -1.87749 78 84 100
-5.41256 5.91897 -1.88749 78 84 100
-5.39202 5.93057 -1.88694 77 84 99
-5.11339 6.39903 -1.89235 78 81 98
-5.09953 6.42289 -1.89604 82 88 104
-4.89345 6.90649 -1.91804 78 85 101
-4.85639 6.91725 -1.91599 80 87 103
-4.59266 7.36352 -1.91898 81 90 102
-4.2693 8.01184 -1.9465 77 85 98
-3.86223 8.69731 -1.95663 78 87 96
-3.57375 9.15381 -1.96242 71 78 93
-8.86095 0.32155 -1.82458 71 83 105
-8.86021 0.325457 -1.82736 70 82 104
-8.83522 0.348031 -1.82119 77 89 111
-8.56418 0.715685 -1.82027 69 78 95
-8.54387 0.736531 -1.8155 66 75 92
-8.52758 0.873812 -1.83532 65 77 96
-8.52401 0.900625 -1.83532 67 80 99
-8.33698 1.11065 -1.82898 67 79 94
-8.3042 1.12797 -1.82082 67 79 95
-7.9815 1.52003 -1.81279 121 103 95
-7.98711 1.54351 -1.81612 114 103 92
-7.98144 1.56436 -1.8161 112 104 93
-7.2593 2.8009 -1.84371 70 75 95
-7.24795 2.81891 -1.84311 67 69 90
-7.23654 2.83688 -1.84252 78 81 100
-7.21886 2.86335 -1.84135 85 92 106
-7.23319 2.89364 -1.84943 88 97 114
-7.21983 2.91072 -1.84826 77 86 103
-7.21158 2.93027 -1.84882 67 76 93
-7.18006 2.99724 -1.84993 72 73 93
-6.50128 4.07584 -1.8602 76 85 100
-6.47365 4.09484 -1.85729 78 87 102
-6.46751 4.11721 -1.86017 73 82 97
-6.45678 4.13604 -1.86132 76 85 100
-6.44447 4.15367 -1.86189 75 82 98
-6.41506 4.17112 -1.8584 78 85 103
-6.41608 4.1994 -1.86417 78 87 104
-6.3961 4.21092 -1.86185 77 84 100
-6.37097 4.23168 -1.8601 79 86 102
-6.3465 4.23938 -1.85605 80 87 105
-5.64097 5.46242 -1.87749 80 88 104
-5.61922 5.48918 -1.8797 77 86 99
-5.36319 5.95021 -1.88693 79 87 100
-5.34696 5.96796 -1.88855 75 81 97
-5.32848 5.9825 -1.88909 82 85 102
-5.0645 6.43472 -1.89392 83 86 103
-5.04448 6.44857 -1.89444 82 84 102
-4.84299 6.94585 -1.92109 80 89 102
-4.81309 6.94379 -1.917 79 89 101
-4.571 7.40964 -1.92737 77 85 98
-4.53642 7.39759 -1.92094 80 88 101
-4.22763 8.01939 -1.94462 77 83 99
-3.83297 8.70209 -1.95573 80 90 99
-3.80484 8.7105 -1.95574 83 89 101
-3.54362 9.15955 -1.96199 75 81 92
-8.85344 0.279585 -1.82239 68 80 104
-8.835 0.300879 -1.82021 70 82 106
-8.56244 0.669563 -1.8182 66 76 95
-8.58633 0.694912 -1.82557 68 76 95
-8.52915 0.846795 -1.83487 72 82 103
-8.32807 1.05314 -1.8236 67 77 96
-8.32584 1.07525 -1.82412 65 76 93
-8.00039 1.46916 -1.81451 69 81 97
-7.98748 1.48834 -1.81226 68 67 80
-7.3264 2.64633 -1.84151 68 75 94
-7.31552 2.66458 -1.84091 65 72 91
-7.32035 2.68972 -1.84552 67 76 95
-7.30407 2.70562 -1.8432 67 76 93
-7.2799 2.72933 -1.83971 65 72 88
-7.27399 2.74978 -1.84085 66 71 90
-7.27323 2.77262 -1.84373 64 69 91
-6.34122 4.26279 -1.85951 79 86 104
-6.32469 4.29059 -1.86123 78 85 103
-6.31333 4.3091 -1.86237 76 81 100
-6.29458 4.32142 -1.86063 76 83 99
-6.28894 4.3448 -1.86409 79 86 102
-6.26472 4.36621 -1.86292 77 84 102
-5.6036 5.50598 -1.88081 80 85 103
-5.58078 5.51369 -1.87858 79 85 102
-5.55754 5.53872 -1.88024 79 85 101
-5.30158 6.00502 -1.89017 79 87 102
-5.2797 6.01468 -1.88908 79 87 102
-5.0264 6.46568 -1.89602 77 80 97
-4.99417 6.48212 -1.89549 79 82 99
-4.78133 6.96439 -1.91802 78 85 101
-4.5204 7.42589 -1.92588 84 92 104
-4.20496 8.03823 -1.94697 77 84 100
-4.17664 8.04248 -1.94556 81 91 103
-3.51444 9.16897 -1.96242 76 82 96
-8.85856 0.224099 -1.82283 70 85 107
-8.85994 0.242751 -1.8259 68 83 106
-8.8609 0.25197 -1.82371 62 77 100
-8.84484 0.265881 -1.82229 70 85 108
-8.58055 0.613882 -1.82142 63 75 97
-8.57397 0.636251 -1.82034 68 79 99
-8.54488 0.780454 -1.83668 69 80 100
-8.5416 0.807312 -1.83668 66 78 100
-8.33011 0.997454 -1.82148 62 74 91
-8.34925 1.03378 -1.8285 66 75 92
-8.02973 1.39837 -1.81792 108 110 121
-8.02416 1.43023 -1.81845 55 63 80
-7.35878 2.422 -1.82258 114 114 125
-7.36634 2.44746 -1.82777 102 105 121
-7.32253 2.50846 -1.82309 69 78 95
-7.36156 2.54721 -1.83869 67 79 95
-7.35751 2.57958 -1.84156 69 78 93
-7.34682 2.59794 -1.84096 66 74 92
-7.33432 2.61551 -1.83979 63 72 90
-6.25452 4.38583 -1.86464 79 86 104
-6.23847 4.40042 -1.86405 76 83 101
-6.21546 4.42283 -1.86346 79 86 102
-6.19787 4.43602 -1.8623 75 82 98
-6.1917 4.4593 -1.86576 78 85 101
-6.16415 4.47766 -1.86343 79 86 102
-5.54172 5.55535 -1.88134 78 85 101
-5.52232 5.56739 -1.88078 77 84 100
-5.49297 5.58456 -1.87966 77 85 100
-5.26321 6.03222 -1.8907 81 88 104
-5.23712 6.05606 -1.89232 80 86 102
-4.97592 6.49909 -1.89707 83 86 103
-4.94991 6.50269 -1.89443 83 86 102
-4.75864 6.97576 -1.91802 81 87 103
-4.73769 6.99049 -1.91904 80 90 102
-4.48541 7.4436 -1.92637 84 91 102
-4.46359 7.45944 -1.92785 81 89 100
-4.14043 8.06414 -1.94744 80 88 101
-3.76357 8.72482 -1.95619 83 88 100
-3.73812 8.74236 -1.95844 82 86 99
-3.47078 9.18199 -1.96286 95 102 113
-8.85549 0.183653 -1.82391 66 78 100
-8.85376 0.218978 -1.82387 73 88 109
-8.56563 0.555339 -1.81566 65 76 95
-8.56789 0.589838 -1.81721 63 76 95
-8.54615 0.753409 -1.83623 69 80 98
-8.30684 0.916302 -1.81123 67 78 98
-8.36257 0.957078 -1.82857 64 75 95
-8.33971 0.976397 -1.82312 65 76 96
-8.03806 1.356 -1.8174 110 107 114
-8.03299 1.37699 -1.81738 109 108 116
-7.41169 2.34187 -1.82785 108 109 121
-7.39993 2.35975 -1.82668 102 105 114
-7.38812 2.3776 -1.8255 107 107 119
-7.38875 2.40024 -1.82838 107 107 119
-7.40222 2.48439 -1.84221 52 60 76
-6.15494 4.49835 -1.86573 77 86 101
-6.12724 4.50233 -1.86052 74 83 100
-6.11511 4.52036 -1.86167 77 83 99
-6.10141 4.55125 -1.86512 78 85 101
-6.07646 4.55753 -1.86107 78 85 101
-5.47349 5.59644 -1.8791 78 85 102
-5.46089 5.61745 -1.88187 78 84 100
-5.21298 6.0623 -1.89014 80 87 101
-5.19841 6.08288 -1.89285 80 89 101
-4.91943 6.52211 -1.89495 80 87 103
-4.89722 6.53219 -1.89442 80 86 101
-4.70479 7.00905 -1.91954 83 89 103
-4.43154 7.45222 -1.92291 81 88 99
-4.11479 8.07546 -1.94791 79 87 100
-3.71041 8.75235 -1.95889 80 86 100
-3.43769 9.17608 -1.95982 98 106 115
-8.86484 0.126899 -1.82327 72 85 105
-8.85581 0.15457 -1.82153 69 82 101
-8.56094 0.509264 -1.81306 67 80 99
-8.56812 0.532662 -1.81568 66 77 97
-8.57086 0.687678 -1.84029 67 78 96
-8.55816 0.713774 -1.83803 66 78 94
-8.32328 0.851678 -1.81292 61 72 93
-8.33502 0.875346 -1.81724 67 78 98
-8.31428 0.895022 -1.81234 68 79 99
-8.04547 1.28059 -1.81467 123 121 134
-8.03313 1.3001 -1.81243 107 108 117
-8.04891 1.32525 -1.81854 112 110 121
-7.461 2.28218 -1.83484 74 79 95
-7.44403 2.29827 -1.83193 66 68 85
-6.07392 4.58458 -1.86626 76 85 100
-6.05007 4.6062 -1.86567 77 84 100
-6.03756 4.62406 -1.86682 77 84 100
-6.0153 4.63264 -1.86392 74 83 98
-5.99675 4.65929 -1.86564 78 85 103
-5.43249 5.63585 -1.88131 81 87 103
-5.41629 5.65216 -1.88241 80 86 102
-5.4023 5.67152 -1.88464 79 85 101
-5.16465 6.0952 -1.89067 76 84 97
-5.1478 6.11246 -1.89229 82 85 101
-4.87686 6.54556 -1.89494 80 87 101
-4.68284 7.02191 -1.92005 82 89 105
-4.6591 7.03126 -1.91954 84 90 104
-4.40337 7.48549 -1.92785 80 86 100
-4.38136 7.50111 -1.92933 80 88 101
-4.08912 8.08671 -1.94838 77 86 101
-3.66891 8.76624 -1.95934 78 85 98
-3.41035 9.19274 -1.962 96 108 116
-8.85809 0.136549 -1.82395 70 83 102
-8.56981 0.475676 -1.81468 66 79 99
-8.57183 0.660582 -1.83984 68 77 96
-8.34136 0.820502 -1.81675 72 83 104
-8.03508 1.20209 -1.80693 68 76 94
-8.04369 1.22554 -1.81082 67 74 93
-8.0409 1.2469 -1.81136 66 69 88
-7.46756 2.10785 -1.81761 112 95 83
-7.4728 2.13158 -1.82164 104 92 78
-7.4707 2.15287 -1.82336 108 94 81
-7.47033 2.1748 -1.82566 116 100 86
-7.46284 2.20519 -1.8268 121 108 99
-7.46229 2.22716 -1.82909 88 80 79
-7.50949 2.34499 -1.85563 101 100 117
-5.98404 4.67702 -1.86679 76 83 101
-5.95894 4.6827 -1.86274 75 84 101
-5.94148 4.71047 -1.86504 74 83 100
-5.93946 4.73884 -1.87081 74 83 100
-5.91156 4.74158 -1.8656 74 83 100
-5.38256 5.6831 -1.88407 78 85 100
-5.35051 5.69647 -1.88184 79 86 102
-5.12881 6.12644 -1.89283 83 85 101
-5.10351 6.13066 -1.89012 84 88 103
-4.84617 6.56466 -1.89546 75 83 97
-4.82382 6.5745 -1.89493 82 86 103
-4.80239 6.58597 -1.89493 82 86 103
-4.63879 7.04744 -1.92107 85 89 101
-4.34784 7.49 -1.9234 79 87 100
-4.06071 8.09057 -1.94697 79 87 100
-3.63741 8.76291 -1.95664 79 86 98
-3.38199 9.20554 -1.9633 108 116 123
-8.52255 0.404359 -1.79996 64 76 98
-8.57424 0.430303 -1.81472 70 82 104
-8.56437 0.452479 -1.81259 74 86 108
-8.57446 0.592931 -1.83894 60 73 92
-8.57565 0.620164 -1.83984 65 76 96
-8.3867 0.803322 -1.82871 62 73 91
-8.05532 1.15129 -1.80977 66 77 95
-8.04716 1.18248 -1.80918 71 82 97
-7.51823 2.06999 -1.82806 97 92 96
-5.90259 4.76316 -1.86848 80 89 104
-5.88066 4.78668 -1.86904 79 86 102
-5.86079 4.7973 -1.8673 76 83 99
-5.84356 4.81059 -1.86672 81 89 107
-5.33854 5.71879 -1.88517 78 83 102
-5.31534 5.72549 -1.88294 82 85 102
-5.07685 6.15386 -1.89174 80 81 99
-5.05976 6.17088 -1.89336 79 85 100
-4.78553 6.60582 -1.89756 79 85 101
-4.60904 7.07247 -1.92362 79 87 100
-4.57834 7.06773 -1.91902 80 87 103
-4.31628 7.51584 -1.92636 78 85 101
-4.29636 7.53657 -1.92932 81 87 103
-4.02216 8.10625 -1.94744 80 86 101
-3.99638 8.11723 -1.94791 78 86 100
-3.61224 8.78197 -1.95935 81 87 101
-3.33768 9.21607 -1.96331 124 135 142
-8.5636 0.372706 -1.81055 69 81 103
-8.55824 0.537625 -1.83398 65 76 96
-8.56543 0.565182 -1.83623 70 81 99
-8.38617 0.78091 -1.82765 64 76 91
-8.05831 1.10823 -1.80813 68 76 95
-8.07858 1.13351 -1.81536 70 79 99
-7.54456 1.98001 -1.8264 71 79 98
-7.54847 2.00311 -1.82985 69 77 96
-7.55045 2.02567 -1.83273 75 82 100
-7.54186 2.05573 -1.83328 70 76 92
-7.569 2.10883 -1.84655 123 109 101
-5.8227 4.83523 -1.86786 78 87 104
-5.81598 4.85943 -1.8719 78 85 103
-5.80253 4.87672 -1.87305 80 87 105
-5.29092 5.74947 -1.8846 80 85 103
-5.27317 5.76383 -1.88515 82 87 103
-5.25099 5.77185 -1.88348 82 87 101
-5.04259 6.18787 -1.89498 80 88 101
-5.01254 6.20592 -1.89497 83 85 102
-4.75086 6.61774 -1.89597 81 84 101
-4.72839 6.62729 -1.89544 79 85 101
-4.56123 7.09063 -1.92259 82 90 103
-4.52448 7.10145 -1.92105 79 87 98
-4.26371 7.52688 -1.92389 81 86 103
-3.97185 8.13179 -1.94932 80 88 99
-3.58232 8.78407 -1.958 80 86 100
-3.30783 9.22297 -1.96331 121 135 142
-8.5847 0.328242 -1.81535 70 81 99
-8.56553 0.350047 -1.81057 70 82 104
-8.55758 0.497053 -1.83307 67 80 99
-8.40437 0.704637 -1.82989 67 78 96
-8.4147 0.728015 -1.83367 68 79 97
-8.41157 0.75009 -1.83365 69 80 97
-8.07973 1.05743 -1.81153 70 78 97
-8.10588 1.08353 -1.82043 69 80 97
-7.57198 1.91225 -1.82761 68 79 101
-7.56699 1.93252 -1.82817 65 73 94
-7.56557 1.9539 -1.82989 69 77 97
-6.87809 2.98487 -1.83541 69 70 88
-6.86456 3.00071 -1.8342 75 80 96
-6.83931 3.04468 -1.83417 75 81 98
-6.83228 3.06407 -1.83536 77 82 100
-6.8152 3.07787 -1.83295 81 83 103
-6.82746 3.14315 -1.84669 69 76 91
-6.81513 3.15971 -1.84608 64 71 86
-6.80278 3.17623 -1.84547 69 76 92
-6.79359 3.20621 -1.84785 66 71 90
-6.75643 3.20817 -1.83825 66 72 88
-6.74064 3.22255 -1.83644 63 70 86
-6.73119 3.25232 -1.83882 69 76 95
-6.72344 3.2715 -1.84001 65 70 90
-6.70912 3.28672 -1.8388 67 69 90
-6.698 3.30388 -1.83879 68 73 93
-6.71568 3.35057 -1.85134 66 73 91
-6.672 3.34762 -1.83935 74 81 98
-6.65099 3.35859 -1.83575 67 76 91
-6.64241 3.38914 -1.83873 65 72 88
-6.64063 3.41224 -1.84231 65 72 88
-6.61788 3.42199 -1.8381 67 74 92
-6.63774 3.47114 -1.85186 65 72 90
-6.59893 3.47038 -1.84167 70 77 93
-6.58723 3.48721 -1.84166 74 80 96
-6.56682 3.51027 -1.84044 68 75 93
-6.58195 3.54501 -1.85061 73 79 95
-6.57001 3.56178 -1.8506 66 72 88
-6.56276 3.58174 -1.85238 69 74 93
-6.55453 3.61327 -1.85596 63 70 88
-6.5314 3.62239 -1.85176 59 66 84
-6.51296 3.63468 -1.84935 64 71 87
-6.48724 3.65405 -1.84634 69 74 94
-6.4625 3.66176 -1.84154 68 73 92
-6.45021 3.67818 -1.84153 66 73 91
-6.43983 3.70829 -1.84451 69 75 91
-6.4212 3.72018 -1.8421 73 76 93
-5.77212 4.89148 -1.87015 82 89 105
-5.7507 4.90029 -1.86783 74 82 97
-5.7384 4.91882 -1.86955 76 83 99
-5.22302 5.79084 -1.88347 82 85 102
-5.20729 5.80818 -1.88513 82 85 102
-4.99322 6.21951 -1.89551 83 86 103
-4.97082 6.22813 -1.89442 82 85 102
-4.71039 6.64526 -1.89755 80 87 103
-4.50302 7.11552 -1.92207 79 87 100
-4.24591 7.55284 -1.92833 80 85 102
-3.93372 8.14892 -1.95026 80 83 98
-3.53962 8.79363 -1.95755 76 83 97
-3.27707 9.22599 -1.96244 129 140 149
-8.58695 0.294165 -1.81538 70 83 102
-8.5735 0.470955 -1.83624 68 81 100
-8.40075 0.67086 -1.82775 70 81 99
-8.09698 1.00581 -1.81381 69 78 95
-8.09138 1.03753 -1.81378 65 73 92
-7.59133 1.84204 -1.82651 69 81 97
-7.58289 1.86127 -1.82591 69 81 97
-7.56959 1.88979 -1.82473 66 77 97
-6.97934 2.81997 -1.83853 69 74 93
-6.95722 2.86566 -1.8391 83 84 103
-6.96608 2.89311 -1.84567 66 67 85
-6.9274 2.89617 -1.83548 79 81 97
-6.91623 2.92462 -1.83666 73 77 92
-6.93323 2.95658 -1.84623 69 74 93
-6.88946 2.95655 -1.83424 71 75 93
-6.87275 3.02834 -1.84078 60 66 84
-6.43648 3.75664 -1.85287 66 71 90
-6.43468 3.78087 -1.85705 68 74 93
-6.39919 3.7929 -1.85045 65 72 91
-6.39566 3.81596 -1.85403 68 73 92
-6.39358 3.84018 -1.85821 65 69 88
-6.37163 3.8622 -1.85699 78 84 100
-6.35113 3.87258 -1.85399 81 87 103
-6.34877 3.89678 -1.85817 81 88 104
-6.3281 3.91972 -1.85756 81 87 103
-6.31349 3.93458 -1.85695 82 88 104
-6.30185 3.95173 -1.85754 77 83 99
-6.23054 3.9871 -1.84733 78 87 102
-5.71827 4.94445 -1.87128 76 84 100
-5.69675 4.95304 -1.86896 77 86 102
-5.68294 4.97003 -1.87011 77 86 103
-5.67422 4.99265 -1.87357 78 87 104
-5.18934 5.8223 -1.88568 80 86 102
-5.17136 5.83638 -1.88624 79 85 101
-4.94457 6.25244 -1.89658 77 84 100
-4.92013 6.25759 -1.89441 79 85 99
-4.68008 6.66532 -1.8986 81 89 102
-4.65836 6.67635 -1.89859 79 86 101
-4.48976 7.14698 -1.9282 81 91 103
-4.44543 7.14171 -1.92207 83 91 104
-4.21243 7.5747 -1.9303 78 84 100
-4.17553 7.5539 -1.92191 81 87 103
-3.9046 8.15043 -1.94838 83 89 105
-3.51321 8.80866 -1.95935 76 83 98
-3.48128 8.80292 -1.9562 78 85 98
-8.58256 0.24842 -1.81331 65 77 99
-8.57325 0.270802 -1.81118 75 88 107
-8.56991 0.443703 -1.83488 67 78 98
-8.4149 0.605222 -1.82944 65 76 94
-8.41409 0.627448 -1.82996 64 75 93
-8.42276 0.650535 -1.8332 63 74 92
-8.10283 0.941492 -1.81219 66 73 91
-8.11422 0.964885 -1.81663 71 79 94
-8.10088 0.984656 -1.81383 69 78 93
-7.59196 1.71315 -1.81504 68 73 92
-7.60332 1.74833 -1.82137 67 75 93
-7.61359 1.77272 -1.82656 67 75 94
-7.62194 1.79668 -1.83117 67 78 96
-7.61629 1.82751 -1.83231 68 80 96
-7.0553 2.62028 -1.83149 63 74 91
-7.04857 2.67293 -1.83684 63 71 90
-7.04627 2.69433 -1.83923 76 82 98
-7.03619 2.72319 -1.8404 70 80 92
-7.02513 2.74049 -1.83979 63 75 89
-7.00714 2.75442 -1.83678 52 61 76
-6.98992 2.77978 -1.83556 61 68 84
-6.99236 2.80368 -1.83974 69 75 91
-6.98736 2.85804 -1.8463 64 69 87
-6.28243 3.97563 -1.85752 76 83 102
-6.26169 3.98558 -1.85452 77 84 102
-6.23948 4.02077 -1.8563 79 88 103
-6.202 4.02995 -1.8491 84 90 106
-6.20037 4.05525 -1.85388 78 85 104
-6.18978 4.07332 -1.85506 81 88 106
-6.17417 4.10037 -1.85685 78 85 101
-6.16052 4.11593 -1.85684 78 87 102
-5.64858 5.01236 -1.87298 77 84 102
-5.63329 5.0278 -1.87355 76 83 100
-5.61668 5.04178 -1.87354 78 85 101
-5.14626 5.85979 -1.8879 78 85 101
-5.12495 5.86895 -1.88678 79 87 100
-5.10151 5.87483 -1.88455 78 86 99
-4.90159 6.27257 -1.89549 84 90 102
-4.8731 6.2933 -1.89657 81 87 99
-4.63394 6.68219 -1.89701 81 86 102
-4.60429 6.70364 -1.89859 77 84 98
-4.42624 7.16082 -1.92462 81 89 102
-4.16538 7.59943 -1.93178 78 85 101
-3.8799 8.16473 -1.94979 81 88 104
-8.55317 0.19066 -1.80439 61 73 97
-8.57674 0.214105 -1.81123 66 78 101
-8.56305 0.37585 -1.83218 69 81 103
-8.56685 0.403031 -1.83353 69 80 102
-8.42037 0.572265 -1.83001 67 78 96
-8.10984 0.909999 -1.81278 66 77 95
-7.6338 1.68134 -1.82432 66 70 81
-7.5907 1.69142 -1.81274 67 75 94
-7.0877 2.49092 -1.82319 68 76 97
-7.0739 2.52896 -1.82436 67 75 94
-7.09249 2.57027 -1.83512 67 76 93
-7.09752 2.59481 -1.8399 66 75 92
-7.07122 2.60523 -1.8339 69 78 95
-7.06807 2.65955 -1.84045 65 75 96
-6.1468 4.13145 -1.85683 76 85 100
-6.13088 4.15836 -1.85861 79 88 103
-6.10836 4.16634 -1.85501 80 89 104
-6.10747 4.19291 -1.86039 79 88 105
-6.07972 4.20968 -1.85738 79 86 102
-6.07289 4.23123 -1.86036 79 86 102
-6.05166 4.24019 -1.85736 78 85 101
-5.59587 5.06695 -1.87526 76 83 99
-5.56654 5.06641 -1.86948 76 83 99
-5.55858 5.09029 -1.87352 75 84 101
-5.07724 5.89956 -1.88677 78 85 101
-5.05792 5.91171 -1.88676 79 83 100
-4.85152 6.30317 -1.89602 85 91 105
-4.83377 6.31962 -1.89764 79 87 100
-4.58245 6.71443 -1.89858 83 88 106
-4.56144 6.72688 -1.89911 79 85 101
-4.39969 7.1641 -1.92257 81 89 102
-4.12521 7.60475 -1.92931 81 88 103
-4.09347 7.59617 -1.92437 78 86 100
-3.84033 8.17776 -1.94979 80 86 100
-3.82046 8.20666 -1.95497 77 83 97
-3.44096 8.82142 -1.958 80 86 99
-8.55389 0.145396 -1.8039 64 76 100
-8.58725 0.168943 -1.81338 71 83 107
-8.56888 0.349127 -1.83308 71 83 105
-8.40818 0.526855 -1.82517 69 80 100
-8.41145 0.549321 -1.82677 67 80 97
-8.13222 0.869634 -1.81728 75 83 102
-8.12676 0.890621 -1.8167 67 77 95
-7.62853 1.58387 -1.81456 110 99 93
-7.63015 1.60558 -1.81686 110 99 94
-7.62985 1.62686 -1.81858 111 100 94
-7.62021 1.64577 -1.81741 114 107 100
-7.15095 2.36456 -1.82509 109 107 120
-7.1392 2.38155 -1.82388 110 108 121
-7.13973 2.40362 -1.82686 109 109 119
-7.12406 2.42976 -1.82564 110 112 123
-7.11913 2.44962 -1.82682 120 122 134
-7.11415 2.46948 -1.82801 59 65 82
-6.03897 4.25664 -1.85795 79 84 103
-6.01813 4.27936 -1.85794 82 89 107
-6.01097 4.30083 -1.86092 77 86 101
-5.99949 4.31846 -1.86211 77 86 101
-5.96432 4.32813 -1.85611 77 84 102
-5.53376 5.11089 -1.87351 79 86 104
-5.51688 5.12457 -1.8735 77 84 102
-5.49252 5.12944 -1.87003 79 84 103
-5.03961 5.92541 -1.88731 84 85 103
-5.01194 5.94505 -1.88786 81 87 101
-4.81114 6.32771 -1.89656 81 89 102
-4.77567 6.33636 -1.89384 79 85 99
-4.53067 6.74631 -1.90016 79 85 101
-4.3723 7.1952 -1.92717 82 89 105
-4.34331 7.19301 -1.92359 81 88 104
-4.08209 7.6398 -1.93375 78 87 99
-3.78818 8.19855 -1.95074 80 87 100
-3.41342 8.8324 -1.95891 78 86 96
-3.38584 8.8433 -1.95981 81 88 98
-8.56906 0.28171 -1.83218 71 84 104
-8.56343 0.308458 -1.83127 68 81 101
-7.63864 1.53327 -1.81345 115 103 91
-7.63485 1.5536 -1.81401 111 101 90
-7.19545 2.23068 -1.8216 68 73 85
-7.18953 2.304 -1.82873 51 55 74
-7.18326 2.32327 -1.82932 108 111 123
-7.23335 2.37605 -1.85026 107 105 116
-5.95974 4.3521 -1.86029 81 88 106
-5.94528 4.36702 -1.86028 77 84 102
-5.93087 4.39582 -1.86326 76 85 100
-5.91211 4.40673 -1.86146 78 87 104
-5.90163 4.42544 -1.86325 73 81 100
-5.4867 5.15615 -1.87522 77 84 101
-5.46156 5.17643 -1.87521 78 85 103
-5.44692 5.19283 -1.87636 79 84 103
-5.4237 5.19886 -1.87346 80 86 102
-4.99555 5.96186 -1.88953 76 86 100
-4.97607 5.97376 -1.88953 79 86 101
-4.75586 6.34927 -1.89438 81 86 105
-4.50444 6.74825 -1.89752 79 86 102
-4.48499 6.76393 -1.8991 80 87 103
-4.32304 7.2101 -1.92563 80 86 102
-4.29567 7.21126 -1.92308 79 86 102
-4.03286 7.6212 -1.92487 80 89 102
-3.74905 8.21301 -1.95121 77 85 98
-8.5746 0.254934 -1.83308 72 85 104
-7.64444 1.46059 -1.80946 69 75 98
-7.6763 1.48906 -1.82101 67 72 92
-7.70009 1.52649 -1.83082 110 97 94
-7.22767 2.14616 -1.82106 116 102 93
-7.21654 2.16351 -1.81985 117 100 92
-7.20358 2.18015 -1.81804 117 102 92
-7.20142 2.21141 -1.82101 110 99 96
-5.89109 4.44413 -1.86503 77 85 104
-5.87072 4.4675 -1.86562 79 87 106
-5.84768 4.47419 -1.86202 78 85 104
-5.84104 4.49676 -1.8656 77 86 103
-5.39714 5.21737 -1.87288 77 84 100
-5.38596 5.23806 -1.87576 76 85 102
-4.9555 5.98397 -1.88896 83 86 103
-4.92853 6.00488 -1.89007 83 86 103
-4.74168 6.37218 -1.89817 76 82 97
-4.7061 6.38046 -1.89545 78 84 98
-4.468 6.78475 -1.90226 80 89 104
-4.2686 7.24376 -1.92818 80 88 101
-4.01703 7.65388 -1.93128 80 88 101
-3.98202 7.63582 -1.92388 79 85 101
-3.72347 8.22502 -1.95215 77 87 99
-3.34291 8.85194 -1.95936 80 86 98
-3.31385 8.85696 -1.95891 80 86 100
-8.58004 0.228132 -1.83399 67 80 100
-7.6834 1.44819 -1.81989 68 76 97
-7.26408 2.06315 -1.82233 77 75 82
-7.24602 2.07811 -1.81872 113 102 98
-7.23335 2.12682 -1.82048 116 104 91
-6.70149 3.02784 -1.84183 75 82 97
-6.68916 3.07772 -1.84671 61 69 86
-6.67867 3.09468 -1.8467 77 85 101
-6.66152 3.10782 -1.84423 78 86 103
-6.64107 3.13026 -1.84237 65 73 90
-6.63699 3.1509 -1.84482 64 70 88
-6.63936 3.1754 -1.84972 73 77 96
-6.60566 3.17865 -1.84111 75 77 95
-6.60114 3.21053 -1.84539 79 85 101
-6.58534 3.22428 -1.84354 73 78 97
-6.57762 3.2429 -1.84475 73 78 96
-6.57768 3.27776 -1.85088 70 76 92
-6.54876 3.2834 -1.84411 79 84 100
-6.54729 3.30596 -1.84778 69 74 91
-6.53407 3.33277 -1.84899 68 75 91
-6.53079 3.35435 -1.85205 63 70 86
-6.49859 3.35756 -1.84406 81 88 104
-6.49201 3.37703 -1.84589 87 93 109
-6.4816 3.40571 -1.84833 71 77 95
-6.47484 3.42517 -1.85016 75 83 98
-6.46168 3.44044 -1.84954 66 68 85
-6.43985 3.4617 -1.84768 67 73 87
-6.42498 3.4758 -1.84644 70 78 91
-6.42742 3.50153 -1.85195 64 69 88
-6.4069 3.52365 -1.85071 69 76 92
-6.40283 3.54514 -1.85377 77 85 101
-6.3721 3.5483 -1.84639 71 78 94
-6.344 3.58937 -1.84698 67 72 91
-5.81633 4.5159 -1.86439 76 85 102
-5.80948 4.53844 -1.86798 77 86 103
-5.7904 4.54887 -1.86617 76 85 102
-5.76414 4.56641 -1.86436 77 87 99
-5.3711 5.25426 -1.87691 76 84 102
-5.33951 5.26655 -1.87401 78 84 102
-5.32335 5.28113 -1.87458 78 85 102
-4.90488 6.01003 -1.88784 80 86 100
-4.88821 6.02657 -1.8895 78 84 100
-4.68799 6.39654 -1.89708 77 83 99
-4.6689 6.41088 -1.89816 75 82 100
-4.43441 6.79856 -1.90173 80 90 102
-4.40978 6.80363 -1.90014 75 85 97
-4.23887 7.23941 -1.92409 81 89 102
-3.69311 8.22212 -1.94933 78 88 100
-3.28661 8.86945 -1.96027 84 87 102
-8.58513 0.160836 -1.83444 68 83 104
-8.5643 0.187292 -1.82993 69 81 103
-7.68581 1.35364 -1.8136 107 105 116
-7.69197 1.37603 -1.81705 111 109 120
-7.67746 1.39406 -1.81415 109 112 121
-7.29052 1.99788 -1.82298 69 80 94
-7.29246 2.01981 -1.82596 70 79 96
-7.2745 2.03495 -1.82235 70 78 97
-7.34817 2.13591 -1.85524 110 94 82
-6.84609 2.71342 -1.83284 67 70 87
-6.83925 2.74287 -1.83528 61 68 87
-6.8298 2.76026 -1.83526 66 71 90
-6.81861 2.77677 -1.83464 72 75 94
-6.81653 2.80874 -1.83892 60 67 84
-6.80179 2.82348 -1.83706 57 66 82
-6.79719 2.84336 -1.83889 59 66 82
-6.78798 2.87187 -1.84071 63 68 88
-6.7697 2.88471 -1.83763 65 70 89
-6.75645 2.90013 -1.83639 64 71 87
-6.75155 2.91995 -1.83822 70 76 91
-6.74027 2.94743 -1.83943 73 79 95
-6.74021 2.96995 -1.8431 62 68 84
-6.74006 2.9925 -1.84678 68 73 92
-6.72509 3.01815 -1.84676 72 79 95
-6.70773 3.05409 -1.84796 76 82 97
-6.37572 3.57516 -1.85252 64 70 86
-6.34742 3.61626 -1.85311 66 72 88
-6.33677 3.6333 -1.85371 71 76 95
-6.30643 3.6483 -1.84878 64 70 86
-6.29106 3.66189 -1.84754 64 71 87
-6.29255 3.68773 -1.85306 69 74 93
-6.2743 3.71139 -1.85304 73 80 96
-6.25571 3.72259 -1.85058 77 86 101
-6.23861 3.73486 -1.84872 65 72 88
-6.21861 3.75713 -1.8481 85 90 109
-6.20295 3.7704 -1.84686 85 92 110
-6.19934 3.79282 -1.85053 80 87 105
-6.18357 3.80601 -1.84929 78 85 102
-6.16778 3.83151 -1.85051 68 74 88
-5.75302 4.5848 -1.86615 76 85 102
-5.73652 4.59774 -1.86555 75 84 101
-5.71729 4.60789 -1.86374 81 90 105
-5.69611 4.63053 -1.86433 75 84 99
-5.65225 4.64494 -1.85833 76 83 99
-5.31068 5.30018 -1.87689 79 86 102
-5.28486 5.31966 -1.87688 80 87 103
-5.25676 5.31898 -1.87167 79 86 102
-4.86001 6.04555 -1.89005 78 85 101
-4.83926 6.05539 -1.88949 77 84 100
-4.63689 6.42554 -1.89761 81 87 103
-4.38926 6.81732 -1.90119 76 83 99
-4.22219 7.26509 -1.92869 79 91 101
-4.18258 7.26891 -1.92562 80 87 101
-3.95796 7.68378 -1.93326 77 84 98
-3.92238 7.66364 -1.92536 79 87 100
-3.66805 8.23583 -1.95074 75 83 96
-8.5747 0.133671 -1.83174 68 82 103
-7.68769 1.28052 -1.80903 123 122 130
-7.70535 1.30505 -1.81596 113 113 122
-7.70042 1.32512 -1.81594 114 114 124
-7.31698 1.901 -1.82066 71 80 97
-7.31806 1.93292 -1.82423 68 77 94
-7.30576 1.95007 -1.82242 64 75 91
-7.30967 1.97257 -1.826 78 85 104
-6.92539 2.53325 -1.82928 66 74 93
-6.92006 2.55244 -1.8305 69 78 95
-6.91294 2.57085 -1.8311 70 79 94
-6.89479 2.59486 -1.82924 64 74 91
-6.88753 2.61321 -1.82984 61 69 89
-6.89226 2.63717 -1.83474 62 69 88
-6.86524 2.65697 -1.82981 71 76 96
-6.86634 2.67934 -1.83348 63 70 86
-6.85367 2.69516 -1.83224 71 77 93
-6.1549 3.84691 -1.8505 81 87 103
-6.15992 3.87636 -1.85786 79 86 102
-6.13483 3.89471 -1.85539 79 86 104
-6.1173 3.90647 -1.85353 79 86 105
-6.10566 3.92291 -1.85414 79 86 104
-5.68607 4.65015 -1.86672 77 86 101
-5.64658 4.68391 -1.8661 78 84 100
-5.63109 4.69789 -1.86609 77 86 101
-5.24742 5.34242 -1.87571 75 81 100
-5.22865 5.35371 -1.87513 78 85 101
-4.82142 6.07011 -1.8906 80 86 102
-4.62041 6.44483 -1.90032 79 85 101
-4.59387 6.44542 -1.89706 79 85 99
-4.35391 6.82728 -1.89961 75 82 98
-4.33247 6.83906 -1.90013 75 82 98
-4.16566 7.29447 -1.93022 77 83 99
-3.90279 7.68701 -1.92931 78 84 98
-3.63162 8.25905 -1.95356 77 87 99
-3.24313 8.87574 -1.95937 85 88 103
-7.34422 1.84636 -1.8231 69 79 96
-7.32488 1.86138 -1.8189 68 78 95
-7.32915 1.88378 -1.82247 64 75 93
-6.9743 2.45808 -1.83303 119 125 133
-6.9553 2.47132 -1.82933 52 58 73
-6.94847 2.51134 -1.83299 74 81 99
-6.10109 3.9577 -1.86027 80 87 105
-6.08781 3.97291 -1.86026 79 86 104
-6.0642 3.97965 -1.85595 81 88 104
-6.04796 3.99233 -1.85471 78 87 104
-6.02826 4.0149 -1.8547 77 84 103
-6.02355 4.03722 -1.85837 77 84 102
-6.01149 4.05343 -1.85898 83 90 106
-5.99006 4.0746 -1.85835 79 88 103
-5.97353 4.087 -1.85711 77 85 104
-5.61685 4.71321 -1.86668 76 83 101
-5.59772 4.73822 -1.86847 77 84 100
-5.58077 4.75064 -1.86786 78 85 101
-5.56634 4.76582 -1.86845 73 80 98
-5.20489 5.37587 -1.87627 77 84 100
-5.1964 5.40078 -1.88089 76 83 99
-4.793 6.08879 -1.89115 77 84 100
-4.76923 6.09345 -1.88892 82 89 105
-4.57278 6.45611 -1.89706 78 81 98
-4.54593 6.48054 -1.89976 76 83 99
-4.3118 6.85253 -1.90119 76 84 100
-4.13896 7.29685 -1.92817 83 86 103
-3.87719 7.69395 -1.92881 79 85 100
-3.60353 8.26328 -1.95262 79 87 100
-3.57602 8.26928 -1.95215 79 87 100
-3.2149 8.88423 -1.95982 83 85 101
-3.18534 8.88695 -1.95892 80 86 101
-7.74137 1.21736 -1.82066 67 76 95
-7.74048 1.23824 -1.8218 66 77 97
-7.79775 1.27034 -1.84087 54 56 76
-7.34519 1.72135 -1.81122 66 72 91
-7.35552 1.77643 -1.81956 67 76 93
-7.36737 1.80096 -1.82554 69 78 95
-7.34269 1.81448 -1.81953 62 73 91
-7.02327 2.27681 -1.82333 67 75 94
-7.01175 2.29332 -1.82209 59 62 81
-7.0078 2.34443 -1.82759 106 105 117
-7.01542 2.36881 -1.8331 108 106 117
-6.99286 2.39127 -1.82939 109 107 120
-6.98803 2.41057 -1.83061 108 106 118
-6.99012 2.43284 -1.83428 111 110 120
-5.95987 4.10184 -1.8571 78 86 105
-5.94109 4.12526 -1.8577 79 88 103
-5.93015 4.1425 -1.85892 80 89 104
-5.91773 4.15846 -1.85953 78 87 102
-5.90009 4.18297 -1.86074 79 86 102
-5.8762 4.1887 -1.85643 78 85 101
-5.53926 4.78216 -1.86664 81 90 105
-5.52983 4.8029 -1.86963 77 84 100
-5.51903 4.82221 -1.87202 76 83 100
-5.17173 5.40424 -1.87742 76 83 100
-5.14769 5.42617 -1.87857 76 85 100
-5.12643 5.43406 -1.87683 75 82 98
-4.75218 6.10964 -1.89059 79 86 100
-4.72833 6.13634 -1.89392 75 83 94
-4.52827 6.4979 -1.90193 78 86 103
-4.27953 6.86911 -1.90171 74 83 98
-4.10152 7.3056 -1.92664 76 85 100
-4.07994 7.32026 -1.92817 78 87 101
-3.83754 7.69966 -1.92684 77 88 100
-3.81576 7.71735 -1.92931 78 88 100
-3.15877 8.90288 -1.96118 85 88 103
-7.75864 1.14697 -1.8213 67 76 93
-7.74856 1.16619 -1.81955 68 76 95
-7.75724 1.18877 -1.82358 76 84 100
-7.36424 1.6542 -1.81067 76 76 78
-7.36191 1.67429 -1.81186 63 67 80
-7.37556 1.75105 -1.82318 67 75 91
-7.06517 2.19859 -1.82586 113 96 80
-7.05746 2.21663 -1.82584 115 103 98
-7.06561 2.2408 -1.83136 66 66 79
-7.03296 2.25956 -1.82396 68 77 92
-7.09695 2.35926 -1.85586 117 116 129
-5.86645 4.20706 -1.85827 76 83 99
-5.8552 4.22413 -1.85949 80 90 102
-5.83722 4.2484 -1.8607 76 86 98
-5.82864 4.26798 -1.86315 77 86 101
-5.50182 4.83438 -1.87141 77 84 102
-5.47073 4.84608 -1.86781 74 83 99
-5.45973 4.86527 -1.8702 76 85 100
-5.11079 5.44959 -1.87798 74 81 97
-5.08539 5.46971 -1.87855 76 83 101
-4.70354 6.13909 -1.89114 76 84 97
-4.68724 6.15678 -1.89336 80 87 103
-4.50436 6.50326 -1.9003 79 86 102
-4.47195 6.51715 -1.89975 77 85 98
-4.25873 6.88243 -1.90276 76 84 100
-4.2324 6.88339 -1.90013 74 82 98
-4.05323 7.32234 -1.92613 76 84 98
-3.79197 7.7295 -1.93029 78 85 101
-3.5343 8.27532 -1.95074 78 85 101
-3.50787 8.28484 -1.95121 78 88 100
-7.76716 1.09605 -1.82077 65 73 96
-7.76678 1.12738 -1.82248 75 84 101
-7.38527 1.61854 -1.8137 107 100 95
-7.37938 1.63765 -1.81369 111 103 97
-7.09888 2.11715 -1.82592 109 95 82
-7.08961 2.13463 -1.82529 110 97 85
-7.08031 2.15208 -1.82466 112 95 82
-7.07463 2.1812 -1.82648 111 94 84
-5.80882 4.27721 -1.86069 76 85 102
-5.78223 4.29351 -1.85822 79 86 102
