22.2489 -3.24721 -1.57111 70 76 98
22.2749 -3.32447 -1.5739 75 81 103
22.1606 -3.38105 -1.56581 75 80 102
22.1488 -3.45254 -1.56569 74 82 102
22.1272 -3.55922 -1.56526 75 82 101
22.0832 -3.62554 -1.56269 75 81 103
22.0666 -3.69611 -1.56226 74 82 103
22.1817 -7.56206 -1.51779 112 110 124
22.1398 -7.62737 -1.51639 111 110 124
22.1052 -7.69504 -1.51557 111 111 123
22.0545 -7.79691 -1.51447 106 108 120
22.038 -3.80133 -1.56138 73 79 99
22.0051 -3.86901 -1.55972 76 83 102
21.976 -3.9372 -1.55838 74 83 100
21.9443 -4.04149 -1.55734 74 82 101
21.8989 -4.10648 -1.55477 76 83 101
21.8828 -4.17668 -1.55449 76 79 100
22.027 -7.86683 -1.51422 97 96 113
21.9805 -7.93006 -1.51254 90 90 107
21.947 -7.99772 -1.51186 93 92 111
21.8668 -8.08852 -1.50862 97 96 114
21.8606 -4.24571 -1.55376 73 78 100
21.8138 -4.34659 -1.55165 73 77 99
21.7793 -4.41299 -1.55 72 77 99
21.7544 -4.48118 -1.54911 76 78 100
21.7066 -4.58124 -1.547 72 77 97
21.8365 -8.1571 -1.50822 82 79 95
21.7855 -8.21803 -1.50625 87 84 103
21.7194 -8.31312 -1.50415 81 80 96
21.6909 -4.65114 -1.54688 74 78 100
21.6712 -4.72016 -1.54646 74 76 97
21.6281 -4.82077 -1.54481 74 79 99
21.5903 -4.88567 -1.543 75 80 99
21.5873 -4.95821 -1.54396 73 81 100
21.5374 -5.02018 -1.54123 74 82 101
21.681 -8.37837 -1.50319 86 83 100
21.6349 -8.44063 -1.50165 86 83 100
21.5958 -8.5454 -1.5017 82 78 95
21.5437 -8.60506 -1.49973 84 80 95
21.5085 -5.12345 -1.54081 81 82 104
21.4854 -5.19128 -1.54023 75 80 101
21.464 -5.25948 -1.5398 78 80 100
21.4243 -5.35996 -1.53862 78 83 103
21.5081 -8.67101 -1.49905 91 87 102
21.4687 -8.73535 -1.49809 88 84 99
21.4226 -8.83709 -1.49771 93 90 107
21.4101 -5.42982 -1.53881 80 83 102
21.3686 -5.49287 -1.53685 81 84 103
21.3588 -5.6006 -1.53812 80 83 102
21.3381 -5.66877 -1.53784 80 81 102
21.3036 -5.73332 -1.5365 81 86 108
21.379 -8.89956 -1.49646 102 101 116
21.3537 -8.96935 -1.49664 106 105 118
21.2844 -9.06135 -1.49454 110 106 120
21.2347 -9.12089 -1.49286 111 107 121
20.6658 4.14525 -1.61258 72 78 100
20.6736 4.07676 -1.6121 71 77 101
20.6715 4.00643 -1.61078 69 77 100
20.687 3.90465 -1.61046 68 75 99
20.696 3.83653 -1.61014 70 76 98
20.6813 3.76422 -1.60782 67 74 100
20.7055 3.69887 -1.60884 66 72 98
20.7176 3.59666 -1.60835 67 73 95
20.7355 3.53013 -1.60887 69 71 92
20.7354 3.46066 -1.60788 69 70 93
20.7424 3.35777 -1.60706 67 69 92
20.7517 3.28989 -1.60691 67 71 92
20.7568 3.22138 -1.60643 69 72 95
20.7568 3.11764 -1.60511 67 72 94
20.7377 3.0458 -1.60263 68 73 95
20.7282 2.97549 -1.60098 70 75 95
20.7594 2.66993 -1.60005 74 76 99
20.7187 2.42506 -1.59411 72 71 98
20.7069 2.32122 -1.59213 73 70 97
20.6931 2.25148 -1.59031 62 66 91
20.7108 2.18511 -1.59116 73 76 97
20.678 2.07965 -1.58752 66 69 90
20.7328 2.01684 -1.59153 64 66 87
20.6962 1.94531 -1.58789 66 71 92
20.7228 1.87969 -1.58957 67 69 90
20.7204 1.77747 -1.58859 65 66 87
20.7147 1.70905 -1.58761 70 69 91
20.7347 1.64269 -1.5888 71 72 93
20.7152 1.53939 -1.58649 64 69 88
21.2786 -5.80027 -1.53592 81 83 106
21.2634 -5.90673 -1.53688 76 81 101
21.2359 -5.97295 -1.53615 78 80 101
21.2371 -6.04704 -1.53772 81 83 104
21.2031 -9.18792 -1.49261 104 102 116
21.1202 -9.27343 -1.48951 98 93 113
21.0789 -9.33613 -1.48854 102 98 113
20.5765 5.50609 -1.63121 68 79 99
20.5906 5.43799 -1.63089 66 76 101
20.5987 5.3684 -1.63006 69 79 104
20.6201 5.30219 -1.63041 67 78 99
20.6301 5.19752 -1.62908 69 78 98
20.6277 5.12558 -1.62743 69 77 98
20.6193 5.05234 -1.62528 69 77 100
20.6359 4.94965 -1.62462 69 76 103
20.6308 4.87747 -1.6228 71 78 97
20.6371 4.80801 -1.62198 72 77 99
20.6563 4.70621 -1.62166 72 76 101
20.6388 4.63165 -1.61884 72 78 102
20.6462 4.56269 -1.61818 73 79 101
20.6514 4.49333 -1.61736 72 78 100
20.6498 4.3875 -1.61538 71 79 102
20.6701 4.32138 -1.61589 70 76 100
20.6628 4.24972 -1.61407 72 78 101
20.7267 1.47237 -1.58701 66 69 88
20.7359 1.40517 -1.58736 69 68 90
20.7451 1.30405 -1.58755 69 74 96
20.7558 1.23687 -1.58807 68 73 92
20.7604 1.16931 -1.58809 69 71 92
20.7668 1.10184 -1.58827 65 72 91
20.7944 1.00151 -1.59013 69 71 92
20.7823 0.933123 -1.58882 68 69 91
20.8058 0.866321 -1.5905 63 71 92
20.8085 0.764697 -1.59036 62 69 88
20.7996 0.696591 -1.58938 65 65 89
20.8065 0.629018 -1.58974 63 63 87
20.816 0.527629 -1.59026 62 62 85
20.8084 0.459682 -1.58945 61 64 84
20.8046 0.391861 -1.58897 58 61 82
20.799 0.290221 -1.58833 59 64 84
21.2131 -6.15125 -1.53807 83 86 105
21.1849 -6.2172 -1.53734 77 80 99
21.1392 -6.27804 -1.53522 79 84 103
21.1026 -6.37844 -1.53466 78 80 103
21.0175 -9.38996 -1.486 93 91 105
20.9687 -9.44906 -1.48446 96 95 111
20.8884 -9.53448 -1.48164 95 93 106
20.4531 6.4121 -1.64228 69 75 101
20.453 6.33905 -1.64046 69 75 99
20.4624 6.23272 -1.63863 69 77 98
20.4692 6.16205 -1.63747 67 73 99
20.4777 6.09194 -1.63648 71 78 101
20.4974 5.98898 -1.63566 70 78 99
20.4977 5.91673 -1.634 73 81 104
20.5035 5.84614 -1.63284 72 80 103
20.545 5.74942 -1.63401 72 79 103
20.5484 5.67829 -1.63269 69 76 102
20.5611 5.60973 -1.6322 69 77 102
20.8 0.154869 -1.58821 55 60 80
20.8152 0.0872731 -1.5894 54 60 80
20.8062 -0.0142899 -1.58859 52 59 78
20.8009 -0.0819486 -1.58811 57 59 82
20.8033 -0.149614 -1.5883 57 63 82
20.8131 -0.251223 -1.58916 52 56 81
20.7991 -0.31872 -1.58802 51 56 78
20.8095 -0.488071 -1.58907 55 60 82
21.0469 -6.43597 -1.53178 80 86 105
21.0389 -6.50757 -1.53273 75 82 100
21.0211 -6.57627 -1.53292 77 84 106
20.9697 -6.67185 -1.53128 78 82 102
20.8337 -9.59058 -1.47967 95 94 108
20.7735 -9.64397 -1.47727 90 89 103
20.7233 -9.74211 -1.47689 91 88 105
20.3819 7.05163 -1.65322 69 77 100
20.3915 6.98069 -1.65206 69 76 101
20.3933 6.90731 -1.65024 69 77 100
20.4112 6.80252 -1.64891 69 77 100
20.4123 6.72923 -1.64709 67 73 99
20.4246 6.65961 -1.64626 71 80 102
20.4375 6.55368 -1.6446 69 79 99
20.455 6.48581 -1.64427 69 75 100
20.8263 -0.691666 -1.59081 66 71 91
20.8296 -0.793443 -1.59134 77 80 99
20.9457 -6.73856 -1.53101 75 81 103
20.9329 -6.80878 -1.53166 70 76 95
20.8767 -6.90248 -1.52971 107 114 132
20.8273 -6.96083 -1.52744 106 113 129
20.679 -9.80239 -1.47579 88 87 104
20.6435 -9.86667 -1.4754 86 83 102
20.2906 7.72975 -1.66519 67 74 100
20.2919 7.6174 -1.66202 66 76 100
20.3184 7.5518 -1.66219 68 79 101
20.324 7.47877 -1.66053 66 76 101
20.341 7.3726 -1.65887 67 78 100
20.3516 7.30159 -1.65771 68 79 100
20.3639 7.23125 -1.65671 68 75 102
20.3628 7.15644 -1.65455 69 77 100
20.7834 -7.0208 -1.52563 74 76 94
20.7093 -7.10782 -1.5223 72 77 96
20.6707 -7.16915 -1.52096 61 63 87
20.6489 -7.23608 -1.52099 68 70 96
20.2221 8.19712 -1.674 66 76 101
20.228 8.12312 -1.67217 67 74 100
20.2505 8.05561 -1.67184 66 77 97
20.2541 7.98095 -1.66984 65 75 99
20.2699 7.87327 -1.66784 65 75 100
20.2822 7.8022 -1.66668 65 75 101
20.589 -7.32722 -1.51889 72 70 93
20.5573 -7.3906 -1.51816 76 78 98
20.5179 -7.45119 -1.51681 76 80 97
20.1498 8.7064 -1.68465 66 73 99
20.1484 8.62836 -1.68199 63 73 98
20.1596 8.55571 -1.68049 64 74 99
20.1782 8.44789 -1.67849 65 76 96
20.1869 8.37455 -1.67683 65 76 98
20.1991 8.3027 -1.6755 66 77 97
19.9825 4.41276 -1.62261 73 80 99
19.9912 4.34621 -1.62211 72 81 98
19.9829 4.24221 -1.61954 72 78 100
19.9989 4.17727 -1.61972 72 78 102
19.997 4.10883 -1.61836 71 77 101
20.0111 4.00961 -1.61785 70 76 98
20.0165 3.94273 -1.61718 70 76 100
20.0119 3.87404 -1.61564 68 76 97
20.0189 3.77379 -1.61462 63 70 90
20.0334 3.70868 -1.61481 72 74 95
20.0457 3.6432 -1.61482 64 68 92
20.0441 3.57535 -1.61363 67 68 92
20.032 3.47219 -1.61106 65 71 93
20.0436 3.40672 -1.61107 67 72 92
20.0353 3.33809 -1.60937 68 70 90
20.0496 3.23955 -1.60921 73 69 95
20.0329 3.16986 -1.60681 70 71 91
20.0508 3.00501 -1.60616 70 74 95
19.9974 2.33246 -1.59373 65 72 90
20.0049 2.23403 -1.59341 72 78 100
20.0146 2.16887 -1.5936 73 75 96
20.034 2.10467 -1.59465 80 82 103
20.0385 2.00592 -1.59415 87 89 114
20.0344 1.87338 -1.59264 83 89 108
20.0351 1.80742 -1.59214 88 92 111
20.0084 1.70636 -1.58906 78 84 103
20.0085 1.64054 -1.58856 79 83 103
20.0461 1.57755 -1.59133 77 81 100
20.0143 1.47654 -1.58791 69 71 88
20.0574 1.41368 -1.5912 66 70 90
20.0685 1.34855 -1.59173 71 76 97
20.0695 1.24987 -1.59124 70 73 93
20.0602 1.18356 -1.59005 72 71 92
20.0944 1.1196 -1.59265 68 70 92
20.0827 1.0532 -1.5913 65 70 92
20.0803 0.954466 -1.59063 68 69 91
20.5992 -2.94366 -1.58663 73 71 92
20.4952 -7.51763 -1.51685 81 82 99
20.436 -7.60832 -1.5149 74 77 95
20.411 -7.67381 -1.51478 72 74 96
20.3689 -7.733 -1.51329 71 74 95
20.0842 9.06779 -1.69165 65 73 92
20.111 8.96218 -1.69015 64 75 95
20.1233 8.88941 -1.68865 63 75 97
20.1243 8.812 -1.68616 62 74 98
19.8695 5.55984 -1.6371 68 76 99
19.8645 5.48874 -1.63504 68 75 101
19.9171 5.43278 -1.63815 68 74 99
19.9156 5.36267 -1.63644 67 75 98
19.9394 5.26445 -1.63627 68 74 98
19.9566 5.19924 -1.63628 68 74 100
19.9504 5.12826 -1.63423 71 77 99
19.9615 5.02712 -1.63303 71 76 98
19.9605 4.95769 -1.63149 70 74 99
19.9554 4.88742 -1.62961 69 77 99
19.977 4.78907 -1.62944 71 78 100
19.9733 4.71936 -1.62773 72 77 99
19.981 4.65233 -1.62706 72 77 101
19.9743 4.54794 -1.62448 71 79 100
19.9912 4.48305 -1.62467 72 80 101
20.1098 0.889967 -1.59289 67 72 91
20.1173 0.824459 -1.59325 65 72 90
20.1337 0.726314 -1.59431 63 69 85
20.1287 0.660339 -1.59364 64 67 88
20.1176 0.594244 -1.59246 62 67 87
20.1149 0.49559 -1.59196 62 67 89
20.5977 -3.04567 -1.58766 71 72 92
20.6066 -3.11513 -1.58919 66 67 87
20.5661 -3.17736 -1.58655 66 67 85
20.547 -3.24265 -1.58575 82 86 105
20.4871 -3.33564 -1.58195 73 79 101
20.4714 -3.40122 -1.58148 76 83 102
20.3162 -7.82562 -1.51195 84 88 107
20.2905 -7.8907 -1.51183 95 99 118
20.2422 -7.94716 -1.50987 100 103 119
19.7882 6.27525 -1.64788 70 74 99
19.7876 6.20421 -1.646 70 78 101
19.7638 6.12644 -1.64205 70 76 100
19.7894 6.02829 -1.6417 72 78 104
19.7975 5.96022 -1.64068 70 78 101
19.7996 5.89054 -1.63914 71 79 100
19.8145 5.78958 -1.63794 73 81 102
19.8353 5.72527 -1.63812 70 77 101
19.8404 5.65671 -1.63692 69 76 102
20.4674 -3.46865 -1.58201 74 81 100
20.4163 -3.56239 -1.57905 74 79 103
20.3941 -3.62667 -1.57808 77 79 101
20.3815 -3.69254 -1.57794 70 77 96
20.349 -3.78898 -1.57664 75 80 102
20.1831 -8.03682 -1.50808 113 116 132
20.153 -8.1 -1.50766 115 117 131
20.1079 -8.15722 -1.506 122 121 136
20.0663 -8.2157 -1.50466 115 117 134
19.667 6.91453 -1.65525 67 78 98
19.6888 6.81416 -1.65422 68 76 99
19.6919 6.74351 -1.6525 69 77 100
19.7043 6.67597 -1.65165 67 75 98
19.7154 6.57254 -1.64975 69 77 99
19.7158 6.50142 -1.64787 69 77 100
19.7635 6.44518 -1.65028 65 76 98
19.7753 6.3423 -1.64856 69 75 99
20.3457 -3.85648 -1.57734 73 81 102
20.3147 -3.9189 -1.5757 72 80 103
20.309 -3.98596 -1.57623 81 89 108
20.2655 -4.07992 -1.5741 74 80 99
20.2554 -4.1461 -1.5743 74 81 100
20.2294 -4.20912 -1.57316 72 80 103
20.0226 -8.31091 -1.50425 109 107 128
19.9695 -8.36448 -1.50198 103 101 122
19.9274 -8.42233 -1.50063 99 98 114
19.5864 7.46528 -1.66487 68 76 99
19.6033 7.3623 -1.66314 66 77 97
19.6196 7.29543 -1.66246 68 75 101
19.6206 7.22326 -1.6604 68 75 101
19.6401 7.12162 -1.65902 68 75 101
19.6462 7.0515 -1.65748 69 76 102
19.6709 6.98781 -1.65765 67 78 100
20.1966 -4.30481 -1.57203 71 76 97
20.1565 -4.36469 -1.56973 72 76 99
20.1474 -4.43095 -1.57009 74 78 98
20.0961 -4.52229 -1.56747 72 78 99
19.8773 -8.51451 -1.49976 87 85 101
19.8218 -8.56653 -1.49734 83 80 100
19.7663 -8.61829 -1.49492 87 83 104
19.502 7.94686 -1.67312 65 76 98
19.5213 7.84386 -1.6714 68 76 99
19.5336 7.77496 -1.6702 67 75 98
19.5493 7.70745 -1.66934 66 77 97
19.5619 7.60237 -1.6671 67 75 98
19.5696 7.5321 -1.66555 69 76 100
20.0806 -4.5871 -1.56733 72 77 96
20.0456 -4.64752 -1.56553 72 77 99
20.0279 -4.71171 -1.56522 71 78 96
19.983 -4.80382 -1.56326 72 79 98
19.9687 -4.86869 -1.56329 68 74 99
19.7299 -8.71586 -1.49528 82 83 101
19.6758 -8.76788 -1.49301 81 84 100
19.6326 -8.82443 -1.49167 84 85 101
19.4249 8.39897 -1.6819 65 76 99
19.439 8.33003 -1.68069 66 76 101
19.4585 8.26333 -1.68001 66 77 99
19.4702 8.15657 -1.67742 65 75 100
19.4816 8.0869 -1.67604 67 77 101
19.504 8.02161 -1.6757 66 77 99
19.9328 -4.92844 -1.56149 74 80 102
19.9122 -5.02594 -1.5617 78 80 101
19.8778 -5.08581 -1.56006 74 76 99
19.8587 -5.14937 -1.55976 75 77 98
19.5983 -8.8848 -1.49109 84 86 101
19.5279 -8.96699 -1.48868 86 88 103
19.4896 -9.02534 -1.4878 84 83 99
19.3443 8.74046 -1.68725 62 73 95
19.3804 8.64297 -1.68672 67 75 98
19.3917 8.57247 -1.68517 65 73 96
19.3936 8.49815 -1.68276 66 78 102
19.8604 -3.16064 -1.58808 61 64 85
19.8146 -3.25263 -1.58536 75 79 103
19.7934 -3.31524 -1.58435 74 81 100
19.7581 -3.37547 -1.58214 73 82 99
19.8505 -5.24997 -1.56113 72 79 96
19.802 -5.30594 -1.55833 78 85 103
19.7823 -5.36921 -1.55803 79 82 102
19.7623 -5.43239 -1.55773 77 80 100
19.7354 -5.52807 -1.5576 84 85 105
19.4601 -9.08764 -1.48768 99 97 114
19.3944 -9.17134 -1.48573 95 93 108
19.7684 -3.47634 -1.58441 76 85 102
19.7131 -3.53286 -1.58048 77 84 103
19.7341 -3.60262 -1.58327 76 83 101
19.6727 -3.69079 -1.57934 75 81 103
19.6932 -3.76066 -1.58212 76 81 104
19.6488 -3.81851 -1.57922 77 81 106
19.7245 -5.59369 -1.55814 83 83 106
19.6981 -5.65506 -1.55733 81 86 106
19.6798 -5.75309 -1.55804 84 88 108
19.6586 -5.81586 -1.55774 75 84 101
19.3609 -9.23165 -1.48531 99 98 113
19.3326 -9.29437 -1.48535 101 102 117
19.6552 -3.88587 -1.5808 77 82 104
19.6121 -3.97685 -1.5786 75 80 102
19.6121 -4.04305 -1.57966 75 79 104
19.5689 -4.10055 -1.57694 75 76 104
19.5658 -4.19935 -1.57835 74 79 100
19.6258 -5.87525 -1.55644 77 84 103
19.6007 -5.97132 -1.55665 79 86 103
19.5903 -6.0372 -1.55735 77 84 102
19.553 -6.09504 -1.55571 78 83 103
19.5397 -4.26017 -1.57718 73 79 98
19.4823 -4.31416 -1.57324 71 79 99
19.4626 -4.40928 -1.57328 72 79 97
19.4301 -4.46831 -1.57158 71 78 96
19.3935 -4.52629 -1.56955 71 79 98
19.5213 -6.15444 -1.55458 81 81 105
19.4873 -6.24768 -1.55412 82 85 104
19.4532 -6.30617 -1.55282 80 83 100
19.3703 -4.5872 -1.56871 69 77 98
19.3435 -4.68041 -1.56824 71 76 95
19.3237 -4.742 -1.56775 75 77 100
19.3115 -4.80537 -1.56795 74 76 99
19.4133 -6.3627 -1.55102 81 83 103
19.3934 -6.46021 -1.55189 73 75 97
19.3587 -6.51823 -1.55059 76 80 99
19.3277 -6.57733 -1.54963 76 83 102
19.2702 -4.89488 -1.56627 78 79 100
19.2305 -4.95134 -1.56406 80 82 103
19.2195 -5.01492 -1.56443 79 81 104
19.212 -5.11272 -1.56585 79 82 103
19.2803 -6.66572 -1.54817 74 80 103
19.262 -6.72892 -1.54837 81 83 104
19.2285 -6.78693 -1.54723 81 88 107
19.1523 -5.16367 -1.56192 76 83 102
19.1715 -5.23518 -1.56505 75 81 103
19.1077 -5.2847 -1.56077 83 85 106
19.1066 -5.38426 -1.56288 78 83 103
19.1891 -6.84286 -1.5456 70 82 98
19.1312 -6.92705 -1.54331 96 101 120
19.0952 -6.98384 -1.54201 106 111 131
19.0646 -7.04247 -1.5412 107 110 129
19.0654 -5.43955 -1.56067 87 89 110
19.0625 -5.50535 -1.56191 85 89 106
19.0047 -5.58912 -1.55902 76 78 93
19.0147 -5.65869 -1.56146 77 81 101
19.0265 -7.13321 -1.54075 90 95 113
18.9918 -7.19018 -1.53961 91 94 109
18.9606 -7.24837 -1.53881 92 91 110
18.9671 -5.71165 -1.55874 80 83 102
18.9466 -5.80591 -1.5593 78 85 104
18.9348 -5.86929 -1.55984 80 87 105
18.8924 -5.92339 -1.55763 77 84 103
18.8917 -7.32739 -1.53569 78 83 99
18.8545 -7.38307 -1.53439 77 79 97
18.8116 -7.43646 -1.53259 73 74 93
18.8859 -5.98837 -1.5587 76 81 100
18.8318 -6.07222 -1.55633 80 83 102
18.8457 -6.14369 -1.55929 78 83 102
18.757 -6.18261 -1.55294 81 84 104
18.7643 -7.52299 -1.53146 82 83 104
18.7229 -7.57665 -1.52983 82 84 105
18.6832 -7.63085 -1.52836 71 76 98
18.3616 3.21983 -1.63494 69 76 96
18.3695 3.1285 -1.63419 71 75 98
18.3682 3.06657 -1.63306 73 74 95
18.3864 3.00779 -1.63384 79 79 100
18.4168 2.92006 -1.63537 77 82 102
18.3736 2.85188 -1.63025 78 80 101
18.3793 2.79126 -1.62989 76 80 100
18.3924 2.6397 -1.62896 77 79 101
18.4033 2.57987 -1.62917 76 79 101
18.4062 2.51897 -1.62861 79 80 102
18.3831 2.4242 -1.62521 76 80 100
18.3954 2.36464 -1.6256 73 79 100
18.3778 2.30142 -1.62315 76 79 100
18.3754 2.20973 -1.62183 73 74 96
18.387 2.15016 -1.62223 76 80 99
18.3806 2.08856 -1.62091 70 78 95
18.3713 1.9964 -1.61903 75 78 100
18.3881 1.93741 -1.61999 75 77 98
18.4028 1.87814 -1.62077 67 66 90
18.3896 1.81613 -1.61888 69 65 88
18.4067 1.72677 -1.61966 83 81 101
18.389 1.66455 -1.6174 81 86 102
18.4128 1.60602 -1.61912 75 82 102
18.4011 1.51423 -1.61724 77 81 106
18.4343 1.4563 -1.61992 72 74 97
18.4158 1.39434 -1.61765 73 78 97
18.4051 1.3029 -1.61596 71 79 98
18.4357 1.24453 -1.61845 71 73 94
18.4324 1.18384 -1.6177 72 68 91
18.4566 1.12486 -1.61962 69 70 91
18.7607 -6.28459 -1.55592 80 83 102
18.7342 -6.34315 -1.55526 80 85 104
18.6432 -6.38032 -1.54874 80 83 102
18.6414 -7.68414 -1.52672 79 81 104
18.5911 -7.76891 -1.52543 77 78 99
18.5693 -7.83 -1.52564 78 79 99
18.286 4.32811 -1.64939 71 79 100
18.2828 4.26436 -1.64769 71 79 100
18.2872 4.20241 -1.64675 71 77 99
18.2894 4.14004 -1.64562 71 76 98
18.3036 4.04906 -1.64506 69 77 98
18.3209 3.99002 -1.64545 69 78 98
18.2913 3.92123 -1.64128 71 77 97
18.3512 3.8398 -1.64528 70 74 98
18.3523 3.77747 -1.64415 68 68 92
18.357 3.71592 -1.64341 65 72 88
18.3556 3.62216 -1.64152 67 71 92
18.3774 3.564 -1.64248 69 71 92
18.3678 3.49995 -1.6404 68 73 92
18.3789 3.40882 -1.63984 69 72 92
18.3668 3.3446 -1.63757 66 72 93
18.38 3.28491 -1.63778 70 78 96
18.4704 1.03492 -1.6204 69 70 92
18.4784 0.974843 -1.6208 69 70 91
18.4682 0.913849 -1.61948 68 69 90
18.4811 0.823783 -1.62027 70 70 91
18.4824 0.763385 -1.62009 67 68 88
18.4795 0.70284 -1.61954 62 69 88
18.4914 0.612644 -1.62032 62 67 87
18.4721 0.551642 -1.61825 67 69 89
18.4785 0.49147 -1.61865 66 70 92
18.4795 0.400979 -1.61848 68 70 93
18.4695 0.340453 -1.61736 64 69 94
18.4395 0.279678 -1.61434 65 68 93
18.457 0.219716 -1.61587 69 75 94
18.4626 0.129417 -1.61628 68 68 92
18.4339 0.0690309 -1.61345 72 75 96
18.4567 0.00892867 -1.61556 67 72 92
18.6365 -6.47891 -1.55085 83 88 107
18.5773 -6.5261 -1.54726 84 88 106
18.5688 -6.59043 -1.54833 80 87 104
18.5131 -6.63845 -1.54508 83 87 107
18.5179 -7.87894 -1.52317 73 74 93
18.4759 -7.96677 -1.52271 73 75 92
18.4425 -8.02289 -1.52191 78 78 96
18.2517 5.05064 -1.66337 68 76 97
18.2452 4.98483 -1.66109 70 78 97
18.2577 4.92413 -1.66072 69 75 99
18.2623 4.86142 -1.65959 70 76 98
18.2722 4.76837 -1.65827 72 77 99
18.2686 4.7038 -1.65638 72 77 99
18.2763 4.64214 -1.65563 71 78 102
18.2678 4.54499 -1.6526 73 77 102
18.2905 4.48707 -1.65336 71 77 99
18.2666 4.41819 -1.64957 73 81 103
18.4494 -0.0813674 -1.61482 70 76 98
18.4339 -0.141458 -1.61332 70 75 94
18.4401 -0.201647 -1.61391 66 69 87
18.4358 -0.291815 -1.61355 71 73 94
18.4455 -0.352116 -1.61452 66 71 91
18.4471 -0.412316 -1.61473 69 72 91
18.4366 -0.472246 -1.6138 67 68 89
18.4628 -0.56321 -1.61649 69 74 94
18.4618 -0.623413 -1.61651 69 69 90
18.4506 -0.683269 -1.61558 72 74 95
18.5164 -6.7407 -1.54823 84 84 108
18.4322 -6.77825 -1.5424 81 86 105
18.4304 -6.84497 -1.54416 80 83 102
18.4107 -8.07965 -1.52128 93 94 109
18.366 -8.16612 -1.52066 90 91 109
18.321 -8.21704 -1.51886 87 86 101
18.108 5.68666 -1.6673 69 77 100
18.1284 5.62795 -1.6675 68 75 101
18.143 5.56747 -1.66712 69 76 102
18.1755 5.48003 -1.6677 69 77 98
18.1838 5.41779 -1.66675 68 76 97
18.2034 5.35882 -1.66695 68 79 97
18.2311 5.26996 -1.66714 70 76 100
18.2445 5.20924 -1.66677 71 75 100
18.2442 5.14484 -1.66507 70 75 97
18.4857 -0.774975 -1.61921 75 77 98
18.484 -0.83524 -1.61923 70 76 94
18.4921 -0.895945 -1.62021 75 78 97
18.4964 -0.986755 -1.62099 79 80 101
18.5099 -1.04789 -1.62253 78 80 99
18.5093 -1.10832 -1.62275 82 83 102
18.3595 -6.92057 -1.54058 81 86 106
18.3554 -6.98651 -1.54216 87 90 109
18.308 -7.03652 -1.53978 90 93 110
18.2905 -8.27412 -1.51839 98 97 114
18.2598 -8.33108 -1.51792 100 102 116
18.0255 6.18261 -1.67448 74 80 102
18.0324 6.11924 -1.67316 74 81 102
18.0485 6.05894 -1.67279 69 77 99
18.0681 5.96724 -1.67184 69 80 100
18.0762 5.90448 -1.6707 69 75 101
18.0916 5.84411 -1.67033 72 78 102
18.1007 5.7494 -1.66843 69 77 100
18.27 -7.12375 -1.53931 103 105 120
18.2502 -7.1839 -1.53951 103 104 122
18.1913 -7.229 -1.5361 103 105 120
18.2212 -8.41995 -1.51797 100 106 118
18.1937 -8.47828 -1.51784 98 101 116
18.1552 -8.53158 -1.5167 100 102 117
17.9536 6.62013 -1.68187 69 77 100
17.9545 6.55403 -1.67979 70 78 101
17.9832 6.49781 -1.68055 68 79 100
17.9899 6.40103 -1.67808 69 77 100
17.9975 6.33761 -1.67676 72 80 103
18.003 6.27359 -1.67524 70 79 96
18.1916 -7.29684 -1.5382 102 106 119
18.106 -7.36519 -1.53341 105 110 124
18.1114 -7.43513 -1.53603 113 120 134
18.1138 -8.61912 -1.51658 107 105 119
18.0911 -8.67958 -1.51695 97 97 115
17.8758 6.99203 -1.68738 71 77 98
17.8962 6.89926 -1.68604 66 76 96
17.9167 6.83991 -1.68586 68 76 99
17.9164 6.77303 -1.68358 69 75 101
17.9357 6.68023 -1.68225 70 78 99
18.3201 -2.63341 -1.61777 79 76 95
18.05 -7.47851 -1.53244 113 119 135
18.0228 -7.56958 -1.53318 108 108 124
17.9998 -7.62823 -1.53321 110 109 123
17.8076 7.33649 -1.69345 68 76 99
17.8109 7.2701 -1.69136 68 76 99
17.827 7.20882 -1.6906 66 77 97
17.8467 7.11542 -1.68908 69 77 100
17.8641 7.05479 -1.68851 71 75 102
18.1914 -2.94802 -1.60972 73 74 92
18.2017 -3.04061 -1.61204 73 71 93
17.9767 -7.6868 -1.53325 95 94 112
17.9154 -7.76374 -1.53087 92 92 110
17.8496 -7.80421 -1.52694 87 89 108
17.7283 7.71294 -1.70029 68 79 99
17.7523 7.62036 -1.69895 68 76 98
17.7567 7.55385 -1.69687 68 78 98
17.7645 7.48889 -1.69516 67 79 95
17.791 7.39778 -1.6942 67 76 100
18.1811 -3.09794 -1.61092 70 69 92
18.1623 -3.15549 -1.61 66 68 91
18.1551 -3.21495 -1.61021 62 62 88
18.1014 -3.29674 -1.60644 77 84 102
18.0918 -3.35567 -1.60646 74 81 100
17.8369 -7.86698 -1.52801 78 77 97
17.7932 -7.95085 -1.52736 79 77 100
17.673 7.93005 -1.70371 67 78 96
17.6816 7.83057 -1.70067 70 78 101
17.7069 7.77256 -1.70067 69 77 100
17.5167 3.29747 -1.63968 69 71 92
17.5288 3.21066 -1.6393 70 73 96
17.52 3.14985 -1.63732 69 69 93
17.5384 3.09375 -1.63813 72 74 95
17.5438 3.00593 -1.63714 75 77 98
17.5088 2.94122 -1.63258 77 79 100
17.552 2.88905 -1.63597 74 79 100
17.5171 2.79532 -1.63102 75 78 99
17.5443 2.74055 -1.63282 81 83 105
17.5202 2.6782 -1.62945 76 78 100
17.5255 2.59097 -1.62867 79 81 104
17.5382 2.53408 -1.62908 80 82 105
17.537 2.4753 -1.6281 77 82 102
17.5218 2.41474 -1.62572 77 84 102
17.5121 2.32589 -1.62355 74 79 99
17.5162 2.26804 -1.62317 75 80 102
17.5141 2.20947 -1.62219 71 78 97
17.5389 2.12497 -1.62359 63 66 90
17.5403 2.06686 -1.62301 71 71 95
17.5179 2.00619 -1.62004 66 68 89
17.5358 1.92092 -1.62085 73 79 101
17.5188 1.86109 -1.61848 70 77 96
17.5491 1.80602 -1.62088 64 66 91
17.5495 1.74798 -1.6203 66 66 90
17.5386 1.65998 -1.61833 68 73 95
17.5603 1.60391 -1.61993 74 76 97
17.5443 1.5446 -1.61776 71 76 96
17.562 1.45917 -1.61877 72 77 97
17.5891 1.40331 -1.62097 71 74 95
17.5843 1.345 -1.61999 67 71 96
17.5634 1.25676 -1.61723 72 77 99
17.574 1.19963 -1.61784 70 75 95
17.6003 1.14342 -1.62004 70 71 92
17.6006 1.08557 -1.61966 68 73 95
17.5984 0.998711 -1.61889 67 69 93
17.6181 0.941892 -1.62049 65 70 92
17.6376 0.884964 -1.6221 66 69 92
17.6583 0.799031 -1.62371 70 72 95
17.6972 0.742629 -1.62731 66 69 92
18.0801 -3.4142 -1.6063 75 79 99
18.0588 -3.50137 -1.60576 76 83 101
18.029 -3.55646 -1.60388 75 81 103
18.0244 -3.61626 -1.60448 75 81 105
18.0021 -3.70309 -1.60394 76 81 101
17.7617 -8.00557 -1.52671 78 76 98
17.7391 -8.06417 -1.52691 79 80 101
17.6982 -8.11463 -1.52539 83 83 101
17.4045 4.23135 -1.64849 72 78 102
17.4288 4.14658 -1.6489 72 78 100
17.4193 4.08423 -1.64652 73 77 101
17.4502 4.03093 -1.64832 72 78 100
17.4305 3.96656 -1.64495 68 76 98
17.4828 3.8878 -1.64834 70 77 99
17.449 3.82074 -1.64358 72 79 101
17.452 3.76153 -1.64259 74 74 99
17.4566 3.67294 -1.64121 70 72 96
17.4591 3.61379 -1.64023 67 67 93
17.4964 3.56146 -1.64282 71 71 95
17.5079 3.47431 -1.64223 70 72 95
17.5214 3.41728 -1.64244 69 69 93
17.5172 3.35699 -1.64086 67 72 94
17.6943 0.684499 -1.62673 63 68 87
17.6723 0.596835 -1.62416 66 71 90
17.6689 0.538833 -1.62358 69 71 94
17.6713 0.481011 -1.6236 66 73 92
17.6735 0.423183 -1.62362 65 69 91
17.6503 0.335995 -1.62105 68 72 93
17.66 0.278346 -1.62187 68 70 91
17.8383 0.222444 -1.63959 75 76 100
17.7129 0.134168 -1.62688 72 77 99
17.7259 0.0762512 -1.62809 70 78 97
17.6892 0.0182753 -1.62433 74 76 97
17.6998 -0.0685804 -1.62534 63 65 90
17.6804 -0.126317 -1.62337 66 72 96
17.6728 -0.184062 -1.6226 72 77 102
17.9776 -3.75894 -1.60264 77 84 102
17.9743 -3.81904 -1.60342 76 81 103
17.9395 -3.90311 -1.60174 74 82 103
17.9182 -3.95943 -1.60082 74 81 99
17.9007 -4.01648 -1.60027 73 78 98
17.6661 -8.20343 -1.52596 82 81 100
17.6538 -8.26667 -1.5272 87 88 109
17.625 -8.32246 -1.52689 86 85 106
17.3711 4.83031 -1.66035 71 79 100
17.3677 4.76828 -1.65837 70 78 101
17.368 4.70732 -1.65679 70 78 101
17.3796 4.64935 -1.6564 73 79 103
17.3904 4.56092 -1.65521 72 78 102
17.3919 4.50054 -1.65383 70 76 102
17.3894 4.43927 -1.65205 72 78 102
17.4147 4.3546 -1.65245 72 78 101
17.4039 4.29157 -1.64988 70 76 100
17.6448 -0.270324 -1.61984 84 87 112
17.6625 -0.328383 -1.62164 73 79 102
17.6126 -0.385038 -1.61669 72 73 98
17.6299 -0.4431 -1.6185 69 67 94
17.5808 -0.528141 -1.61375 69 69 92
17.6315 -0.587364 -1.61894 74 72 95
17.6145 -0.644437 -1.61737 77 77 98
17.62 -0.731156 -1.61819 81 82 103
17.6304 -0.789295 -1.6194 78 80 100
17.6683 -0.848822 -1.6234 78 77 98
17.8908 -4.07516 -1.60049 72 76 101
17.8625 -4.1603 -1.59957 74 80 104
17.8192 -4.21139 -1.59655 75 80 102
17.8222 -4.27294 -1.5981 72 77 99
17.5847 -8.40761 -1.52676 83 81 101
17.2934 5.33124 -1.66687 67 75 98
17.2981 5.24002 -1.66469 68 74 99
17.3095 5.18161 -1.6641 69 77 100
17.313 5.12101 -1.66271 68 74 98
17.3358 5.03523 -1.66252 70 76 100
17.3465 4.97678 -1.66193 71 77 101
17.3474 4.91571 -1.66035 70 76 98
17.647 -0.934514 -1.62164 78 81 100
17.623 -0.990986 -1.61947 73 74 92
17.6286 -1.04905 -1.62028 81 85 103
17.6577 -1.10863 -1.62349 77 79 103
17.6155 -1.19268 -1.61973 85 83 105
17.6212 -1.30867 -1.62097 79 82 99
17.795 -4.35809 -1.59738 71 80 97
17.7337 -4.40447 -1.59265 71 79 98
17.7283 -4.46405 -1.59343 70 77 96
17.7041 -4.5496 -1.59309 72 79 97
17.1903 5.79675 -1.67121 66 79 98
17.2294 5.71565 -1.67241 69 77 101
17.2177 5.64959 -1.66923 69 77 100
17.2684 5.60303 -1.67262 67 75 97
17.2562 5.53704 -1.66944 69 75 99
17.2847 5.45261 -1.66964 66 74 97
17.2835 5.39021 -1.66766 69 77 99
17.5297 -1.70538 -1.61474 85 84 102
17.4997 -1.84667 -1.613 84 83 101
17.6635 -4.60046 -1.59045 70 77 96
17.6653 -4.66184 -1.592 72 77 99
17.6475 -4.71832 -1.59165 72 77 99
17.5894 -4.79487 -1.58807 73 80 99
17.116 6.21168 -1.67776 68 76 97
17.1515 6.12923 -1.67835 68 79 101
17.1375 6.06147 -1.67478 68 75 103
17.1685 6.00896 -1.67598 70 78 101
17.1747 5.91691 -1.67359 70 76 98
17.2015 5.86296 -1.67439 68 79 97
17.4795 -1.9599 -1.61205 83 85 101
17.4729 -2.04576 -1.61227 82 85 102
17.4731 -2.10352 -1.61289 81 78 97
17.4732 -2.1613 -1.61351 83 82 98
17.6039 -4.85974 -1.59095 75 81 101
17.5721 -4.91237 -1.58926 74 81 99
17.5362 -4.99443 -1.58796 75 82 100
17.5155 -5.04989 -1.58742 76 81 101
17.0547 6.53889 -1.68331 70 82 104
17.0777 6.48352 -1.68351 68 79 101
17.0807 6.38933 -1.68053 70 78 101
17.0883 6.32857 -1.67914 68 76 99
17.1145 6.27439 -1.67974 67 75 98
17.4851 -5.10258 -1.58593 75 80 102
17.4579 -5.1868 -1.58558 76 83 102
17.4309 -5.24029 -1.58447 73 81 100
17.4171 -5.29755 -1.58469 78 86 105
16.9969 6.90171 -1.69106 71 79 100
16.9928 6.80372 -1.68708 68 75 101
17 6.74225 -1.6855 70 78 102
17.0162 6.68429 -1.6849 68 75 104
17.0594 6.60449 -1.68609 66 77 99
17.3447 -2.8086 -1.60898 76 73 94
17.3243 -2.89224 -1.60821 72 73 93
17.2885 -2.94425 -1.60545 70 72 90
17.2859 -3.00167 -1.60607 73 71 92
17.3898 -5.35083 -1.58357 78 83 103
17.3405 -5.42822 -1.58113 69 76 94
17.3299 -5.48637 -1.58173 102 103 121
16.9315 7.16713 -1.69504 68 76 99
16.9326 7.07037 -1.69145 67 74 100
16.9795 7.02417 -1.69404 70 78 99
16.9578 6.95101 -1.68927 70 78 97
17.2714 -3.05708 -1.6055 69 70 90
17.2479 -3.1399 -1.60453 64 66 85
17.2388 -3.19619 -1.60456 74 77 95
17.2334 -3.25316 -1.60498 74 79 98
17.1778 -3.3298 -1.60083 78 80 100
17.2868 -5.53456 -1.5791 106 107 124
17.2424 -5.61296 -1.57723 93 94 117
17.2161 -5.66605 -1.5763 82 84 105
16.849 7.49217 -1.70021 67 78 98
16.8659 7.43367 -1.69941 67 78 98
16.866 7.36827 -1.69683 67 77 102
16.9086 7.28806 -1.69762 68 76 99
16.9027 7.22048 -1.69444 68 76 99
17.1798 -3.3881 -1.60205 75 80 100
17.1582 -3.44188 -1.60088 77 84 101
17.1505 -3.52741 -1.60171 76 81 103
17.1382 -3.58298 -1.60153 76 83 103
17.2217 -5.72932 -1.57862 79 83 102
17.1765 -5.80719 -1.57675 81 88 106
17.1477 -5.85934 -1.57564 82 87 106
17.1508 -5.92201 -1.57776 78 83 102
16.8348 7.58455 -1.7026 67 78 98
17.1199 -3.63729 -1.60076 71 78 97
17.0957 -3.6903 -1.59939 74 82 103
17.0809 -3.77437 -1.59962 77 83 99
17.0504 -3.82587 -1.59766 75 80 102
17.0508 -3.88407 -1.59888 78 84 106
17.1367 -5.97906 -1.57817 82 85 104
17.0923 -6.05688 -1.57649 78 80 102
17.0646 -6.10924 -1.57557 82 89 105
17.0158 -3.96355 -1.59712 76 81 103
16.9905 -4.01596 -1.59575 76 81 103
16.971 -4.06959 -1.59498 76 77 101
16.9505 -4.15215 -1.59481 74 79 99
17.033 -6.16018 -1.57426 84 88 108
16.9841 -6.23598 -1.57221 75 80 99
16.9577 -6.28856 -1.57147 80 86 102
16.9267 -4.20466 -1.59364 74 79 101
16.9143 -4.25987 -1.59367 73 80 99
16.8833 -4.33973 -1.5925 74 79 99
16.8666 -4.39383 -1.59213 73 78 98
16.9313 -6.34102 -1.57074 79 87 103
16.8909 -6.41951 -1.56964 75 82 102
16.8715 -6.47446 -1.56967 82 85 106
16.8459 -4.44687 -1.59136 75 80 100
16.8231 -4.49933 -1.59039 73 78 100
16.7853 -4.57705 -1.58863 72 77 99
16.7679 -4.63077 -1.58826 75 80 99
16.8482 -6.52795 -1.56931 79 84 106
16.8228 -6.58065 -1.56877 78 86 105
16.7445 -4.68286 -1.58729 70 76 98
16.7117 -4.76158 -1.58613 69 77 96
16.6784 -4.81074 -1.58416 73 78 100
16.6583 -4.86352 -1.58359 72 77 97
16.7962 -6.66412 -1.56919 81 83 104
16.7649 -6.71446 -1.56808 79 85 104
16.7316 -6.76395 -1.56677 73 79 101
16.4223 2.08669 -1.64651 73 78 100
16.4335 2.03323 -1.64695 78 83 103
16.3924 1.94639 -1.6414 78 78 105
16.4327 1.89634 -1.64505 76 79 101
16.4453 1.84304 -1.64571 83 85 106
16.4269 1.75919 -1.64273 80 80 103
16.4075 1.70268 -1.63996 79 80 105
16.4037 1.64786 -1.6389 72 75 96
16.4115 1.5942 -1.63913 78 80 102
16.4196 1.5134 -1.63914 81 83 105
16.4172 1.45883 -1.6383 80 82 103
16.4304 1.40562 -1.63917 78 79 100
16.4356 1.32458 -1.63897 72 81 98
16.4484 1.27125 -1.63984 75 82 100
16.6228 -4.94114 -1.58223 73 80 98
16.5928 -4.99091 -1.58067 77 81 101
16.5703 -5.04278 -1.5799 75 80 99
16.7078 -6.84847 -1.56757 78 80 101
16.6797 -6.89987 -1.56684 77 80 99
16.6588 -6.95412 -1.56687 76 78 99
16.3534 3.34788 -1.66192 67 72 91
16.3685 3.2949 -1.66236 73 77 97
16.3827 3.21383 -1.66215 72 72 96
16.3896 3.15928 -1.66173 75 73 97
16.4119 3.10757 -1.66303 70 70 94
16.4321 3.05541 -1.66411 76 76 98
16.4158 2.96896 -1.66069 80 81 102
16.42 2.91404 -1.66006 78 79 99
16.4161 2.8578 -1.65858 76 81 103
16.4165 2.77465 -1.65709 77 79 102
16.4239 2.72042 -1.65688 81 81 102
16.4194 2.66433 -1.6554 79 84 104
16.4325 2.58344 -1.65541 79 83 101
16.4257 2.52713 -1.65371 80 84 106
16.4186 2.4709 -1.65201 80 81 102
16.427 2.41698 -1.65202 75 80 102
16.4154 2.33281 -1.64946 77 81 103
16.4176 2.27811 -1.64883 77 82 102
16.4333 2.22525 -1.6497 77 82 101
16.4306 2.14257 -1.64821 75 78 100
16.465 1.21815 -1.64114 72 77 96
16.4793 1.13765 -1.64201 67 74 93
16.4736 1.08295 -1.64096 68 73 95
16.5233 1.03171 -1.6459 67 70 88
16.5332 0.977862 -1.64656 65 70 93
16.5206 0.895563 -1.64464 69 71 94
16.5023 0.840284 -1.6423 71 72 92
16.5076 0.786259 -1.64253 67 73 92
16.5238 0.705546 -1.64384 67 67 88
16.5287 0.651443 -1.64407 69 72 92
16.5355 0.597387 -1.64451 66 75 92
16.5647 0.516871 -1.64731 72 74 99
16.5809 0.462958 -1.64883 72 74 97
16.5632 0.4081 -1.6467 71 76 100
16.5632 0.353757 -1.64651 69 73 100
16.5616 0.272242 -1.6461 71 78 97
16.5552 0.21784 -1.64526 68 73 95
16.5447 0.163441 -1.64399 69 74 96
16.5461 0.0820929 -1.64401 70 72 94
16.5438 -5.09341 -1.57873 75 80 100
16.5072 -5.17028 -1.57737 74 79 99
16.4842 -5.22179 -1.5766 76 79 98
16.4648 -5.27436 -1.57623 79 82 100
16.6046 -7.02637 -1.56462 81 83 103
16.5759 -7.07736 -1.56389 75 76 96
16.549 -7.12899 -1.56335 69 75 94
16.3122 3.98656 -1.67275 67 73 97
16.308 3.92889 -1.67083 77 83 105
16.3193 3.84668 -1.66998 66 71 91
16.336 3.7939 -1.67042 69 72 91
16.3253 3.73507 -1.66786 66 69 88
16.3126 3.67592 -1.66509 66 68 89
16.3732 3.60455 -1.6698 68 70 91
16.3502 3.54342 -1.66596 70 73 92
16.3406 3.48529 -1.66361 70 75 95
16.3615 3.40549 -1.66405 75 77 96
16.5649 0.0279159 -1.64595 68 73 95
16.5399 -0.0263765 -1.64319 73 80 98
16.5484 -0.107727 -1.64406 69 75 99
16.5388 -0.161882 -1.64301 75 75 102
16.545 -0.216146 -1.64367 74 74 98
16.5272 -0.270108 -1.64176 71 73 96
16.5226 -0.351265 -1.64135 69 75 95
16.5143 -0.405228 -1.64051 72 75 96
16.5395 -0.459984 -1.64332 73 73 97
16.5419 -0.541375 -1.64377 74 75 96
16.5528 -0.595956 -1.64507 72 74 95
16.4236 -5.34951 -1.57447 77 83 103
16.4019 -5.40125 -1.5739 79 84 103
16.3763 -5.45169 -1.57293 79 84 103
16.5218 -7.18052 -1.56281 68 75 94
16.4649 -7.25102 -1.56037 69 76 95
16.2742 4.43327 -1.68084 72 78 100
16.2888 4.37973 -1.68085 71 77 99
16.2744 4.31879 -1.67764 72 80 101
16.2973 4.23898 -1.67786 74 78 102
16.3036 4.18348 -1.67701 71 77 102
16.3 4.12562 -1.67509 69 76 102
16.3297 4.04752 -1.67617 70 77 101
16.5636 -0.650605 -1.64637 75 77 97
16.5671 -0.732218 -1.64704 78 79 101
16.5675 -0.786562 -1.64727 74 75 97
16.5816 -0.841565 -1.64901 75 81 99
16.5843 -0.923313 -1.64967 79 79 100
16.5781 -0.977394 -1.64926 78 79 97
16.5738 -1.03156 -1.64907 83 83 104
16.5792 -1.0863 -1.64994 76 77 97
16.3437 -5.5293 -1.57217 77 79 100
16.3309 -5.58385 -1.57259 80 82 103
16.2916 -5.62954 -1.57023 78 83 102
16.4465 -7.30613 -1.56078 83 90 106
16.4244 -7.35963 -1.56081 94 100 118
16.2322 4.88302 -1.68979 73 81 101
16.2349 4.82578 -1.6883 72 79 101
16.2412 4.76967 -1.68723 71 77 99
16.2642 4.68951 -1.68724 70 78 99
16.2547 4.62918 -1.68446 72 77 99
16.2585 4.57259 -1.68318 72 80 103
16.2754 4.51962 -1.6834 69 80 100
16.5569 -1.16653 -1.64804 83 82 100
16.5658 -1.22155 -1.64934 80 83 102
16.5529 -1.27506 -1.64829 77 75 97
16.5396 -1.35571 -1.64746 84 82 103
16.5281 -1.40921 -1.64662 78 76 97
16.5165 -1.46265 -1.64579 82 81 99
16.4984 -1.54268 -1.64453 88 85 107
16.2615 -5.67821 -1.56886 76 75 97
16.228 -5.75515 -1.5681 80 87 105
16.2032 -5.80546 -1.56733 86 91 110
16.4013 -7.4445 -1.56199 107 115 129
16.3842 -7.50025 -1.56259 108 111 125
16.3632 -7.55434 -1.56281 114 117 133
16.1806 5.27567 -1.69704 67 71 98
16.1846 5.2183 -1.69555 68 74 100
16.1922 5.16213 -1.69448 69 77 99
16.2056 5.07873 -1.6932 69 76 102
16.2109 5.022 -1.69192 69 75 97
16.2235 4.96753 -1.6915 70 75 97
16.4963 -1.59685 -1.64476 83 80 103
16.5019 -1.65177 -1.64585 91 89 110
16.4816 -1.70422 -1.64416 94 92 106
16.4782 -1.78552 -1.64461 88 86 107
16.4674 -1.83881 -1.64399 90 89 107
16.4762 -1.8942 -1.64551 89 86 105
16.4699 -1.97527 -1.64575 84 82 103
16.1839 -5.85764 -1.56716 81 84 103
16.1607 -5.9381 -1.56759 79 84 105
16.141 -5.99012 -1.56742 82 87 107
16.3337 -7.63658 -1.56343 120 126 142
16.3014 -7.6856 -1.5625 118 124 137
16.0823 5.6559 -1.70002 69 75 100
16.0857 5.59791 -1.69831 67 75 100
16.1126 5.51842 -1.69831 67 74 100
16.1344 5.46659 -1.69874 69 77 98
16.1409 5.40982 -1.69746 68 76 99
16.1651 5.32949 -1.69725 68 76 95
16.4566 -2.02823 -1.64492 66 68 86
16.4371 -2.0804 -1.64344 73 71 89
16.4221 -2.16031 -1.64282 81 78 97
16.3786 -2.20924 -1.63877 84 81 98
16.398 -2.26618 -1.64158 79 76 92
16.4074 -2.32193 -1.64331 82 79 96
16.123 -6.04275 -1.56745 77 84 102
16.0822 -6.11677 -1.56609 77 82 101
16.2744 -7.73696 -1.56215 115 120 137
16.2437 -7.78656 -1.56142 112 117 132
16.0008 5.95419 -1.70258 59 65 90
16.0295 5.90478 -1.70365 67 77 102
16.0281 5.84477 -1.7013 70 76 101
16.0434 5.79067 -1.70087 70 78 101
16.0581 5.70689 -1.69938 69 73 100
16.3912 -2.4016 -1.6427 83 80 98
16.3903 -2.45605 -1.64336 82 79 98
16.3696 -2.50764 -1.64188 78 77 93
16.3427 -2.58557 -1.6402 75 76 94
16.3275 -2.63781 -1.63936 73 74 94
16.0712 -6.17197 -1.56691 77 86 103
16.0508 -6.22367 -1.56674 77 85 106
16.0302 -6.27529 -1.56657 71 82 100
15.9449 6.23292 -1.7075 68 76 102
15.9693 6.15201 -1.70686 71 77 101
15.9725 6.09324 -1.70493 67 71 96
15.9792 6.03588 -1.70344 69 75 99
16.316 -2.69059 -1.63896 75 74 92
16.2923 -2.76871 -1.6377 72 73 93
16.2706 -2.81972 -1.63622 73 74 92
16.2508 -2.87095 -1.63496 73 73 93
16.2308 -2.92207 -1.63369 74 77 94
16.0032 -6.35437 -1.56681 74 82 103
15.9933 -6.41013 -1.56783 76 84 103
15.9647 -6.45864 -1.56686 78 84 108
15.8855 6.48165 -1.71135 68 77 100
15.8991 6.4264 -1.7105 69 78 101
15.9076 6.33926 -1.70792 70 78 101
15.932 6.28822 -1.70835 71 79 102
16.2157 -3.00133 -1.63351 73 76 94
16.1973 -3.05259 -1.63246 62 70 88
16.1865 -3.10519 -1.63227 67 71 90
16.1335 -3.17724 -1.62801 64 64 83
16.1321 -3.23148 -1.62889 66 71 90
15.935 -6.53668 -1.5669 85 92 110
15.9061 -6.58493 -1.56593 82 86 106
15.8843 -6.63604 -1.56576 74 79 101
15.8315 6.73376 -1.71628 67 78 101
15.8441 6.67782 -1.71521 68 79 101
15.8381 6.61451 -1.712 68 79 97
15.8643 6.53396 -1.71135 67 77 101
15.6254 2.40795 -1.64779 101 105 124
15.6218 2.35475 -1.64646 86 89 106
15.6221 2.30215 -1.64557 86 80 100
15.6335 2.22489 -1.64558 101 95 97
15.6353 2.17258 -1.64492 101 94 102
15.6507 2.12205 -1.64583 81 80 94
15.6396 2.04199 -1.64338 80 83 104
15.6329 1.98879 -1.64183 80 85 107
15.6399 1.93726 -1.64184 81 83 104
15.6574 1.86082 -1.64275 79 81 102
15.6541 1.80814 -1.64164 82 87 106
15.6585 1.75635 -1.64143 82 80 104
15.6707 1.70535 -1.64211 100 93 99
15.6655 1.62654 -1.64056 98 93 98
15.6792 1.57566 -1.64147 85 82 97
15.6671 1.52238 -1.63947 77 79 101
15.6867 1.44597 -1.64082 101 106 125
15.686 1.3938 -1.64017 99 105 125
15.6871 1.34179 -1.63973 102 107 130
15.7059 1.26517 -1.64109 72 76 97
15.7146 1.21372 -1.64155 75 74 99
15.7132 1.16154 -1.64089 68 73 95
15.7311 1.08467 -1.64225 71 76 96
15.7313 1.03262 -1.64182 70 72 95
15.7293 0.980465 -1.64116 71 71 95
15.7331 0.928659 -1.64118 70 72 95
15.7361 0.850845 -1.64097 68 70 91
15.7058 0.797445 -1.63718 67 72 91
15.711 0.745813 -1.63742 66 69 87
15.723 0.668505 -1.63833 68 70 91
16.1246 -3.28461 -1.62913 71 73 94
16.1098 -3.36367 -1.62916 73 81 102
16.0845 -3.41318 -1.62746 81 87 107
16.0628 -3.46337 -1.6262 78 81 103
15.8538 -6.71368 -1.5658 81 87 106
15.8207 -6.76004 -1.56443 80 86 106
15.7645 6.98183 -1.72013 68 79 99
15.7706 6.92289 -1.71821 68 79 100
15.7857 6.86781 -1.71735 67 78 98
15.8095 6.78591 -1.71628 70 78 101
15.5547 3.24464 -1.65705 71 69 90
15.5578 3.19181 -1.65616 69 71 91
15.5666 3.14011 -1.65595 71 73 94
15.5683 3.06053 -1.65439 73 75 98
15.5688 3.00739 -1.65328 76 79 101
15.6161 2.96269 -1.65754 81 80 101
15.6124 2.90878 -1.65598 76 76 100
15.6188 2.8302 -1.6551 81 82 103
15.6186 2.77705 -1.65399 83 86 104
15.628 2.72555 -1.654 80 81 101
15.6316 2.64666 -1.65289 80 86 102
15.6309 2.59358 -1.65178 83 88 110
15.6338 2.54114 -1.65112 69 75 92
15.6346 2.46206 -1.64979 106 110 130
15.7338 0.61702 -1.63924 64 72 93
15.7245 0.564828 -1.63791 69 75 96
15.7595 0.488054 -1.64151 74 75 99
15.7776 0.43657 -1.64332 74 77 99
15.7698 0.384412 -1.64221 72 76 96
15.7658 0.332393 -1.64156 74 75 100
15.766 0.254516 -1.64135 71 73 94
15.7576 0.202516 -1.64025 73 78 98
15.7451 0.150546 -1.6387 74 78 100
15.7405 0.0727784 -1.63804 70 75 97
15.7434 0.0209725 -1.63828 68 74 96
15.6986 -0.0306899 -1.63315 70 75 97
15.711 -0.108293 -1.63452 70 76 98
15.7431 -0.160357 -1.63811 74 76 100
15.7334 -0.212018 -1.63701 71 78 96
16.0469 -3.51466 -1.62558 77 83 102
16.0213 -3.59126 -1.62454 75 82 101
15.9972 -3.64069 -1.62306 77 85 104
15.9846 -3.69256 -1.62287 75 83 102
15.7966 -6.81009 -1.56406 82 87 106
15.7723 -6.86003 -1.56369 77 81 101
15.7453 7.06599 -1.72185 66 77 99
15.4978 3.79664 -1.66458 69 73 92
15.5046 3.74415 -1.66392 77 78 100
15.5112 3.69167 -1.66325 73 74 97
15.5117 3.61103 -1.66125 67 70 89
15.5179 3.55857 -1.66059 71 72 93
15.5414 3.50984 -1.66194 74 79 98
15.5275 3.42643 -1.65836 72 70 94
15.537 3.37479 -1.65815 67 65 89
15.5424 3.32233 -1.65749 71 75 100
15.7414 -0.263927 -1.63792 69 74 96
15.7309 -0.341391 -1.63682 74 76 97
15.7424 -0.393447 -1.63818 73 78 97
15.7479 -0.445404 -1.63887 74 76 100
15.7484 -0.523167 -1.63912 73 80 98
15.7514 -0.575109 -1.63958 77 81 100
15.7563 -0.627148 -1.64027 75 76 97
15.7698 -0.70557 -1.64208 82 85 104
15.7644 -0.757235 -1.64165 75 78 97
15.9543 -3.76786 -1.6214 75 81 99
15.9355 -3.81825 -1.62057 76 83 101
15.9049 -3.86585 -1.61845 75 80 105
15.8855 -3.94336 -1.61826 75 80 100
15.7243 -6.93011 -1.56193 81 83 106
15.707 -6.98294 -1.56236 80 87 108
15.664 -7.02465 -1.55999 80 83 106
15.4707 4.2248 -1.67371 73 81 100
15.4693 4.1698 -1.67193 71 77 101
15.4908 4.12066 -1.67283 70 78 101
15.4992 4.04108 -1.67149 68 76 97
15.4991 3.98662 -1.66993 70 76 97
15.5065 3.93407 -1.66927 69 77 96
15.5082 3.8532 -1.66726 70 77 98
15.7627 -0.809067 -1.64167 79 77 104
15.761 -0.860891 -1.64169 80 78 99
15.7793 -0.939883 -1.64417 83 82 102
15.787 -0.992361 -1.64531 84 85 105
15.7807 -1.04399 -1.64488 85 86 106
15.7507 -1.12 -1.642 83 84 104
15.7736 -1.17363 -1.64492 78 83 97
15.7806 -1.22622 -1.64606 85 87 102
15.8739 -3.99529 -1.61829 75 82 101
15.8505 -4.04436 -1.61703 75 80 100
15.8328 -4.09474 -1.61641 75 83 100
15.8084 -4.17089 -1.6158 75 77 98
15.6262 -7.09882 -1.55943 73 79 101
15.6083 -7.15136 -1.55986 78 85 104
15.4191 4.65039 -1.68128 70 78 99
15.421 4.5957 -1.67972 70 78 101
15.4266 4.5421 -1.6786 71 77 102
15.4447 4.46461 -1.67816 73 77 102
15.4498 4.41101 -1.67705 75 79 104
15.4528 4.35692 -1.67571 74 78 103
15.4614 4.30438 -1.67505 73 81 101
15.7537 -1.30224 -1.64362 81 84 103
15.7405 -1.35317 -1.64252 84 81 102
15.7291 -1.4042 -1.64165 79 80 100
15.733 -1.48262 -1.64279 84 83 101
15.737 -1.53506 -1.6437 81 80 98
15.7211 -1.58559 -1.64238 93 90 109
15.7109 -1.63663 -1.64173 96 93 110
15.7864 -4.22011 -1.61475 74 80 102
15.7528 -4.26623 -1.61241 74 79 99
15.7353 -4.34396 -1.61266 72 79 98
15.6994 -4.38924 -1.61011 72 79 99
15.5884 -7.20304 -1.56009 73 79 98
15.5408 -7.27268 -1.55853 69 74 95
15.5133 -7.32086 -1.55796 66 73 92
15.3799 4.97182 -1.68774 70 76 98
15.3924 4.91986 -1.6873 69 77 98
15.3876 4.83507 -1.68395 71 77 102
15.4035 4.78424 -1.68395 71 79 102
15.4192 4.73336 -1.68396 70 78 101
15.692 -1.71278 -1.64041 89 86 107
15.6894 -1.76454 -1.64065 87 86 103
15.6905 -1.81673 -1.64134 88 87 103
15.659 -1.89125 -1.63868 88 85 102
15.6676 -1.94434 -1.64027 73 71 85
15.6465 -1.99384 -1.6385 111 108 123
15.6941 -4.44263 -1.61099 74 81 100
15.6624 -4.51638 -1.60974 73 78 100
15.6355 -4.56384 -1.60826 73 78 98
15.5001 -7.37558 -1.55899 71 74 94
15.476 -7.42526 -1.55882 68 74 95
15.3351 5.26574 -1.69332 68 77 98
15.341 5.21141 -1.69198 67 76 96
15.3542 5.15951 -1.69154 68 75 102
15.3753 5.08218 -1.69109 67 74 100
15.373 5.02552 -1.68886 68 75 101
15.6082 -2.06711 -1.63517 103 100 112
15.5612 -2.11294 -1.63048 83 81 97
15.618 -2.22461 -1.63836 84 81 98
15.5984 -2.30011 -1.63727 84 80 100
15.6163 -4.61333 -1.60764 71 76 98
15.5914 -4.68877 -1.60725 73 80 99
15.5603 -4.73473 -1.60534 73 78 98
15.2387 5.57196 -1.69443 69 76 101
15.2606 5.52285 -1.69488 68 77 99
15.2816 5.44525 -1.69421 66 74 100
15.2955 5.39347 -1.69376 67 78 100
15.315 5.34352 -1.69399 67 78 99
15.6234 -2.35591 -1.64087 85 83 97
15.6069 -2.40573 -1.63977 86 82 99
15.5825 -2.48044 -1.63823 76 74 94
15.5481 -2.52728 -1.63512 78 76 95
15.5331 -2.57706 -1.63424 78 75 94
15.5328 -4.78167 -1.60387 74 79 99
15.5129 -4.83073 -1.60325 76 78 101
15.4794 -4.90331 -1.60199 74 79 99
15.4553 -4.95099 -1.60095 77 81 101
15.189 5.81017 -1.69845 64 71 93
15.1762 5.74854 -1.69465 67 73 98
15.2005 5.70034 -1.69532 71 77 100
15.2448 5.6308 -1.69733 67 76 101
15.5294 -2.65482 -1.63517 75 73 95
15.5082 -2.70348 -1.63362 72 72 96
15.4789 -2.75068 -1.63118 72 73 93
15.4652 -2.80046 -1.63053 74 71 92
15.4527 -2.87658 -1.63056 72 75 94
15.431 -4.99857 -1.5999 76 81 100
15.3987 -5.07122 -1.59886 74 82 102
15.3798 -5.12034 -1.59846 76 83 102
15.1005 6.03482 -1.69822 66 70 95
15.1146 5.98276 -1.69756 83 90 113
15.1433 5.9362 -1.69867 100 107 126
15.1867 5.86648 -1.70046 94 102 122
15.4288 -2.92443 -1.62879 70 76 92
15.4165 -2.97434 -1.62836 69 71 91
15.3993 -3.04947 -1.62794 67 68 89
15.3886 -3.09962 -1.62774 71 73 94
15.3679 -3.14781 -1.62642 66 66 90
15.3531 -5.16695 -1.59719 75 82 100
15.3163 -5.23788 -1.59573 75 80 99
15.2912 -5.28482 -1.59468 77 82 101
15.0618 6.30786 -1.70561 68 79 101
15.0846 6.23017 -1.70471 68 75 100
15.0993 6.17809 -1.70404 72 79 102
15.1045 6.12245 -1.70225 72 79 105
15.346 -3.22186 -1.62555 55 62 85
15.29 -3.2626 -1.62019 77 84 102
15.2922 -3.31521 -1.62156 75 82 100
15.2787 -3.36457 -1.62113 76 78 99
15.281 -5.33668 -1.59535 82 83 103
15.2424 -5.379 -1.5928 81 83 104
14.9938 6.542 -1.70875 69 76 104
15.0178 6.46452 -1.70785 69 79 99
15.0332 6.41256 -1.70718 69 78 98
15.0467 6.35985 -1.70628 69 76 102
15.2597 -3.4389 -1.62072 79 84 106
15.24 -3.48683 -1.61962 76 81 101
15.224 -3.53553 -1.61897 75 83 102
15.1983 -3.60822 -1.61788 79 82 104
15.2141 -5.45241 -1.5924 81 83 108
15.1846 -5.49759 -1.59093 78 79 100
15.1662 -5.54656 -1.59074 79 80 100
14.9316 6.72068 -1.71032 67 78 101
14.9637 6.64647 -1.71031 69 78 102
14.9761 6.59311 -1.70919 67 78 101
15.1801 -3.65629 -1.617 76 78 101
15.1616 -3.70427 -1.61613 75 78 101
15.1391 -3.77747 -1.61549 76 81 103
15.1222 -3.82572 -1.61484 75 84 101
15.1426 -5.62155 -1.59099 76 77 99
15.1108 -5.66567 -1.5893 76 76 100
15.0788 -5.70965 -1.58761 76 78 101
15.111 -3.87533 -1.61486 76 83 102
15.0765 -3.91911 -1.6122 75 82 100
15.053 -3.9918 -1.61156 75 82 100
15.0508 -5.78286 -1.58743 77 79 100
15.0371 -5.83343 -1.58788 77 82 104
15.0159 -5.88118 -1.58748 74 80 101
15.0355 -4.03969 -1.61091 76 82 100
15.0178 -4.08749 -1.61026 76 81 100
14.9916 -4.15932 -1.60939 73 81 102
14.964 -4.20434 -1.60762 72 78 100
14.9963 -5.92954 -1.58729 74 82 101
14.9728 -6.00445 -1.58775 73 80 100
14.9516 -4.25342 -1.60765 77 77 101
14.9189 -4.32323 -1.60611 72 77 97
14.9004 -4.37055 -1.60546 73 78 100
14.9603 -6.05553 -1.58842 72 78 98
14.9457 -6.10586 -1.58888 76 87 107
14.6769 2.29429 -1.66281 103 94 107
14.6412 2.21473 -1.65708 108 93 86
14.6725 2.16975 -1.65996 112 98 92
14.7144 1.73093 -1.65766 92 83 89
14.6738 1.65273 -1.6517 107 94 87
14.6995 1.60641 -1.6541 109 94 91
14.7129 1.50961 -1.65436 73 78 96
14.8134 1.44562 -1.6656 99 101 122
14.7239 1.38809 -1.65415 100 103 120
14.7329 1.33989 -1.65464 96 101 116
14.7709 1.17148 -1.65731 73 74 95
14.779 1.09859 -1.65756 70 71 92
14.7931 1.05056 -1.65877 69 70 92
14.7971 1.00181 -1.65878 67 70 89
14.8081 0.879989 -1.65905 68 73 92
14.8268 0.783008 -1.66051 71 74 91
14.8271 0.709549 -1.66004 66 68 89
14.8894 -4.41996 -1.60571 72 79 98
14.8553 -4.46273 -1.60327 74 80 102
14.835 -4.53579 -1.6033 71 73 98
14.9177 -6.17909 -1.58891 82 90 108
14.8935 -6.22563 -1.5883 76 85 102
14.8766 -6.27504 -1.58854 76 81 101
14.7493 2.53013 -1.67615 104 107 124
14.6444 2.46303 -1.6623 97 100 117
14.6684 2.39234 -1.66374 103 104 125
14.8006 -4.57821 -1.60086 71 78 97
14.7852 -4.62618 -1.60066 73 80 98
14.7603 -4.69774 -1.60024 71 78 97
14.8551 -6.35093 -1.58943 77 83 102
14.8304 -6.3972 -1.58881 76 81 103
14.6273 3.44021 -1.6839 68 74 93
14.602 3.38368 -1.67937 70 73 93
14.6031 3.3079 -1.67747 67 71 92
14.6433 3.26587 -1.68106 65 71 93
14.6565 3.14204 -1.6794 75 77 100
14.7255 -4.73968 -1.5978 74 81 98
14.7171 -4.78976 -1.5985 72 79 98
14.6782 -4.85671 -1.59651 77 77 101
14.811 -6.44565 -1.58884 73 81 102
14.7879 -6.49251 -1.58844 73 81 102
14.5497 3.83056 -1.68625 67 72 92
14.5451 3.77814 -1.6841 66 70 90
14.5732 3.70831 -1.6853 66 72 92
14.5682 3.65595 -1.68316 68 70 94
14.5785 3.60732 -1.68293 67 72 93
14.6077 3.5377 -1.68437 66 70 91
14.5963 3.48409 -1.68151 69 70 91
14.6543 -4.90181 -1.59541 77 79 100
14.6359 -4.94864 -1.59499 75 77 100
14.6002 -5.01625 -1.59345 76 78 99
14.7507 -6.56185 -1.58762 75 82 100
14.7291 -6.60926 -1.58743 77 82 102
14.72 -6.66212 -1.58874 79 84 103
14.5086 4.18056 -1.69267 72 78 102
14.527 4.108 -1.69243 72 78 101
14.5119 4.05226 -1.68885 72 79 101
14.5426 4.00881 -1.69101 73 79 101
14.5406 3.9567 -1.6891 72 78 101
14.5483 3.88159 -1.68767 75 80 102
